# .PCD v0.7 - Point Cloud Data file format
VERSION 0.7
FIELDS x y z
SIZE 4 4 4
TYPE F F F
COUNT 1 1 1
WIDTH 1372
HEIGHT 1
VIEWPOINT 0 0 0 0 1 0 0
POINTS 1372
DATA ascii
0.051744767 0.094068572 0.024999976
0.053066671 0.094068572 0.024999976
0.054400004 0.093963809 0.023999989
0.055739053 0.093754284 0.022000015
0.057055242 0.093754284 0.022000015
0.058371432 0.093754284 0.022000015
0.059691433 0.093649529 0.021000028
0.061005719 0.093649529 0.021000028
0.062320005 0.093649529 0.021000028
0.063634291 0.093649529 0.021000028
0.064944766 0.093544759 0.019999981
0.066257149 0.093544759 0.019999981
0.067577146 0.093649529 0.021000028
0.068881914 0.093544759 0.019999981
0.070194289 0.093544759 0.019999981
0.071506672 0.093544759 0.019999981
0.072819054 0.093544759 0.019999981
0.07414858 0.093649529 0.021000028
0.075462863 0.093649529 0.021000028
0.076777145 0.093649529 0.021000028
0.078068577 0.093544759 0.019999981
0.079380959 0.093544759 0.019999981
0.080720007 0.093649529 0.021000028
0.08203429 0.093649529 0.021000028
0.08334858 0.093649529 0.021000028
0.084630482 0.093544759 0.019999981
0.085942864 0.093544759 0.019999981
0.087255239 0.093544759 0.019999981
0.088567629 0.093544759 0.019999981
0.089880005 0.093544759 0.019999981
0.091192387 0.093544759 0.019999981
0.09250477 0.093544759 0.019999981
0.093817145 0.093544759 0.019999981
0.095129535 0.093544759 0.019999981
0.09644191 0.093544759 0.019999981
0.097754292 0.093544759 0.019999981
0.099066675 0.093544759 0.019999981
0.10037905 0.093544759 0.019999981
0.10157715 0.093335241 0.018000007
0.10270858 0.093020961 0.014999986
0.10395049 0.092916198 0.013999999
0.10525143 0.092916198 0.013999999
0.10648763 0.092811435 0.013000011
0.10758667 0.092497148 0.0099999905
0.10881144 0.092392385 0.0090000033
0.10996191 0.092182867 0.0070000291
0.11117715 0.092078097 0.0059999824
0.11238858 0.091973335 0.0049999952
0.11367239 0.091973335 0.0049999952
0.11480001 0.091763817 0.003000021
0.11608001 0.091763817 0.003000021
0.11736001 0.091763817 0.003000021
0.11855619 0.091659047 0.0019999743
0.11983429 0.091659047 0.0019999743
0.12111239 0.091659047 0.0019999743
0.12239048 0.091659047 0.0019999743
0.12376001 0.091763817 0.003000021
0.12504001 0.091763817 0.003000021
0.12660572 0.092078097 0.0059999824
0.12818287 0.092392385 0.0090000033
0.1294743 0.092392385 0.0090000033
0.13500571 0.096792385 0.050999999
0.13637716 0.096792385 0.050999999
0.13774858 0.096792385 0.050999999
0.13933334 0.09700191 0.053000033
0.14081715 0.097106673 0.05400002
0.14241526 0.097316191 0.055999994
0.14390858 0.097420953 0.056999981
0.14552002 0.097630478 0.059000015
0.14702286 0.097735241 0.060000002
0.14876573 0.098049529 0.063000023
0.15016001 0.098049529 0.063000023
0.1517981 0.098259054 0.064999998
0.1531962 0.098259054 0.064999998
0.0011371449 0.10104381 0.078000009
0.0025600009 0.10104381 0.078000009
0.0041390508 0.10083049 0.076000035
0.0057104789 0.10061715 0.074000001
0.0071257167 0.10061715 0.074000001
0.0086133368 0.10051048 0.073000014
0.0102381 0.10019048 0.069999993
0.011645719 0.10019048 0.069999993
0.013186667 0.099977151 0.068000019
0.014979053 0.099337146 0.061999977
0.016371433 0.099337146 0.061999977
0.017946668 0.099017143 0.059000015
0.019510482 0.098697148 0.055999994
0.021062858 0.098377146 0.053000033
0.022548575 0.098163806 0.050999999
0.02413334 0.097737141 0.046999991
0.025497146 0.097737141 0.046999991
0.026960004 0.097523808 0.045000017
0.028367624 0.097417146 0.04400003
0.029725716 0.097417146 0.04400003
0.031171434 0.097203813 0.041999996
0.03256762 0.097097144 0.041000009
0.034000006 0.096883804 0.038999975
0.035386674 0.096777149 0.037999988
0.036805719 0.096563816 0.036000013
0.038182862 0.096457146 0.035000026
0.039620958 0.096137144 0.032000005
0.040956195 0.096137144 0.032000005
0.042320006 0.096030481 0.031000018
0.04370667 0.095817141 0.028999984
0.045036197 0.095817141 0.028999984
0.046388574 0.095710479 0.027999997
0.047758099 0.095497146 0.026000023
0.049081907 0.095497146 0.026000023
0.050405718 0.095497146 0.026000023
0.05172953 0.095497146 0.026000023
0.053066671 0.095390469 0.024999976
0.054388575 0.095390469 0.024999976
0.055720005 0.095283814 0.023999989
0.057040006 0.095283814 0.023999989
0.058371432 0.095070481 0.022000015
0.059691433 0.094963811 0.021000028
0.061005719 0.094963811 0.021000028
0.062320005 0.094963811 0.021000028
0.063634291 0.094963811 0.021000028
0.064948574 0.094963811 0.021000028
0.066262864 0.094963811 0.021000028
0.067577146 0.094963811 0.021000028
0.068891436 0.094963811 0.021000028
0.070205718 0.094963811 0.021000028
0.071520008 0.094963811 0.021000028
0.072834291 0.094963811 0.021000028
0.07414858 0.094963811 0.021000028
0.075462863 0.094963811 0.021000028
0.076777145 0.094963811 0.021000028
0.078091435 0.094963811 0.021000028
0.079380959 0.094857141 0.019999981
0.080693334 0.094857141 0.019999981
0.08203429 0.094963811 0.021000028
0.083318099 0.094857141 0.019999981
0.084630482 0.094857141 0.019999981
0.085942864 0.094857141 0.019999981
0.087255239 0.094857141 0.019999981
0.088567629 0.094857141 0.019999981
0.089880005 0.094857141 0.019999981
0.091192387 0.094857141 0.019999981
0.09250477 0.094857141 0.019999981
0.093817145 0.094857141 0.019999981
0.095129535 0.094857141 0.019999981
0.09644191 0.094857141 0.019999981
0.097754292 0.094857141 0.019999981
0.099066675 0.094857141 0.019999981
0.10037905 0.094857141 0.019999981
0.10157715 0.094643809 0.018000007
0.10270858 0.094323814 0.014999986
0.10388953 0.094110481 0.013000011
0.10506286 0.093897149 0.010999978
0.1063581 0.093897149 0.010999978
0.10752001 0.093683816 0.0090000033
0.1086743 0.093470484 0.0070000291
0.10989143 0.093363807 0.0059999824
0.11117715 0.093363807 0.0059999824
0.11238858 0.093257152 0.0049999952
0.11352001 0.093043819 0.003000021
0.11480001 0.093043819 0.003000021
0.11608001 0.093043819 0.003000021
0.1172781 0.092937142 0.0019999743
0.11855619 0.092937142 0.0019999743
0.11974858 0.092830479 0.00099998713
0.12102477 0.092830479 0.00099998713
0.12239048 0.092937142 0.0019999743
0.12376001 0.093043819 0.003000021
0.12522668 0.093257152 0.0049999952
0.12660572 0.093363807 0.0059999824
0.12818287 0.093683816 0.0090000033
0.1294743 0.093683816 0.0090000033
0.13076572 0.093683816 0.0090000033
0.13637716 0.098163806 0.050999999
0.13774858 0.098163806 0.050999999
0.13933334 0.098377146 0.053000033
0.14070858 0.098377146 0.053000033
0.1421943 0.098483816 0.05400002
0.14424573 0.099123813 0.060000002
0.14563429 0.099123813 0.060000002
0.14725524 0.099337146 0.061999977
0.14900191 0.099657141 0.064999998
0.15064001 0.099870481 0.067000031
0.15204191 0.099870481 0.067000031
0.0011371449 0.10246667 0.078000009
0.0025600009 0.10246667 0.078000009
0.0041390508 0.10224953 0.076000035
0.0055580959 0.10224953 0.076000035
0.0071257167 0.10203239 0.074000001
0.0086133368 0.10192382 0.073000014
0.010167621 0.10170667 0.07099998
0.011645719 0.1015981 0.069999993
0.013186667 0.10138096 0.068000019
0.014914285 0.1008381 0.063000023
0.016497146 0.10051239 0.060000002
0.017946668 0.10040382 0.059000015
0.019510482 0.1000781 0.055999994
0.021005716 0.099860959 0.05400002
0.022438098 0.099752389 0.053000033
0.023973335 0.099426672 0.050000012
0.025497146 0.099100955 0.046999991
0.026960004 0.098883815 0.045000017
0.028320003 0.098883815 0.045000017
0.029725716 0.098775245 0.04400003
0.031083811 0.098775245 0.04400003
0.03256762 0.098449528 0.041000009
0.034000006 0.098232381 0.038999975
0.035386674 0.098123811 0.037999988
0.036733337 0.098123811 0.037999988
0.038148575 0.097906671 0.036000013
0.039556198 0.097689524 0.033999979
0.040956195 0.097472385 0.032000005
0.042291433 0.097472385 0.032000005
0.04370667 0.097146668 0.028999984
0.045036197 0.097146668 0.028999984
0.046388574 0.097038098 0.027999997
0.047758099 0.096820958 0.026000023
0.049081907 0.096820958 0.026000023
0.050405718 0.096820958 0.026000023
0.05172953 0.096820958 0.026000023
0.053066671 0.096712381 0.024999976
0.054388575 0.096712381 0.024999976
0.055720005 0.096603811 0.023999989
0.057040006 0.096603811 0.023999989
0.058371432 0.096386671 0.022000015
0.059687626 0.096386671 0.022000015
0.061005719 0.096278101 0.021000028
0.062320005 0.096278101 0.021000028
0.063634291 0.096278101 0.021000028
0.064948574 0.096278101 0.021000028
0.066262864 0.096278101 0.021000028
0.067577146 0.096278101 0.021000028
0.068891436 0.096278101 0.021000028
0.070205718 0.096278101 0.021000028
0.071520008 0.096278101 0.021000028
0.072834291 0.096278101 0.021000028
0.07414858 0.096278101 0.021000028
0.075462863 0.096278101 0.021000028
0.076756194 0.096169524 0.019999981
0.078068577 0.096169524 0.019999981
0.079380959 0.096169524 0.019999981
0.080720007 0.096278101 0.021000028
0.08203429 0.096278101 0.021000028
0.08334858 0.096278101 0.021000028
0.084630482 0.096169524 0.019999981
0.085942864 0.096169524 0.019999981
0.087255239 0.096169524 0.019999981
0.088567629 0.096169524 0.019999981
0.089880005 0.096169524 0.019999981
0.091192387 0.096169524 0.019999981
0.09250477 0.096169524 0.019999981
0.093817145 0.096169524 0.019999981
0.095129535 0.096169524 0.019999981
0.09644191 0.096169524 0.019999981
0.097754292 0.096169524 0.019999981
0.099066675 0.096169524 0.019999981
0.10037905 0.096169524 0.019999981
0.10157715 0.095952384 0.018000007
0.10270858 0.095626667 0.014999986
0.10388953 0.095409527 0.013000011
0.10506286 0.095192388 0.010999978
0.10629334 0.095083818 0.0099999905
0.10752001 0.094975248 0.0090000033
0.10860572 0.094649531 0.0059999824
0.10989143 0.094649531 0.0059999824
0.11110477 0.094540961 0.0049999952
0.11224001 0.094323821 0.003000021
0.11352001 0.094323821 0.003000021
0.11480001 0.094323821 0.003000021
0.116 0.094215244 0.0019999743
0.1172781 0.094215244 0.0019999743
0.11847239 0.094106674 0.00099998713
0.11974858 0.094106674 0.00099998713
0.12102477 0.094106674 0.00099998713
0.12239048 0.094215244 0.0019999743
0.12366858 0.094215244 0.0019999743
0.12504001 0.094323821 0.003000021
0.12651049 0.094540961 0.0049999952
0.12789144 0.094649531 0.0059999824
0.12917715 0.094649531 0.0059999824
0.13056383 0.094758101 0.0070000291
0.13637716 0.099535242 0.050999999
0.13774858 0.099535242 0.050999999
0.13912 0.099535242 0.050999999
0.14070858 0.099752389 0.053000033
0.14241526 0.1000781 0.055999994
0.14379619 0.1000781 0.055999994
0.14563429 0.10051239 0.060000002
0.14702286 0.10051239 0.060000002
0.14876573 0.1008381 0.063000023
0.15016001 0.1008381 0.063000023
0.15204191 0.10127239 0.067000031
0.0011371449 0.10388953 0.078000009
0.0025600009 0.10388953 0.078000009
0.0039828606 0.10388953 0.078000009
0.0055580959 0.10366858 0.076000035
0.0069771446 0.10366858 0.076000035
0.0085409544 0.10344762 0.074000001
0.010026667 0.10333715 0.073000014
0.011645719 0.10300571 0.069999993
0.013186667 0.10278477 0.068000019
0.014914285 0.10223238 0.063000023
0.016371433 0.1021219 0.061999977
0.017946668 0.10179048 0.059000015
0.019451432 0.10156953 0.056999981
0.020891435 0.10145906 0.055999994
0.022382859 0.1012381 0.05400002
0.023920007 0.10090667 0.050999999
0.025497146 0.10046476 0.046999991
0.026960004 0.10024381 0.045000017
0.028320003 0.10024381 0.045000017
0.029725716 0.10013334 0.04400003
0.031083811 0.10013334 0.04400003
0.032525718 0.099912383 0.041999996
0.034000006 0.099580951 0.038999975
0.035348579 0.099580951 0.038999975
0.036733337 0.099470474 0.037999988
0.038148575 0.099249527 0.036000013
0.039556198 0.099028572 0.033999979
0.040956195 0.098807618 0.032000005
0.042291433 0.098807618 0.032000005
0.043653339 0.098697148 0.031000018
0.045036197 0.098476194 0.028999984
0.046388574 0.098365717 0.027999997
0.047758099 0.098144762 0.026000023
0.049081907 0.098144762 0.026000023
0.050405718 0.098144762 0.026000023
0.05172953 0.098144762 0.026000023
0.053066671 0.098034285 0.024999976
0.054388575 0.098034285 0.024999976
0.05571048 0.098034285 0.024999976
0.057040006 0.097923808 0.023999989
0.058360007 0.097923808 0.023999989
0.059687626 0.097702861 0.022000015
0.061003815 0.097702861 0.022000015
0.062320005 0.097702861 0.022000015
0.063634291 0.097592391 0.021000028
0.064948574 0.097592391 0.021000028
0.066262864 0.097592391 0.021000028
0.067577146 0.097592391 0.021000028
0.068891436 0.097592391 0.021000028
0.070205718 0.097592391 0.021000028
0.071520008 0.097592391 0.021000028
0.072834291 0.097592391 0.021000028
0.07414858 0.097592391 0.021000028
0.075462863 0.097592391 0.021000028
0.076777145 0.097592391 0.021000028
0.078091435 0.097592391 0.021000028
0.079405725 0.097592391 0.021000028
0.080720007 0.097592391 0.021000028
0.08203429 0.097592391 0.021000028
0.08334858 0.097592391 0.021000028
0.084630482 0.097481906 0.019999981
0.085977152 0.097592391 0.021000028
0.087291434 0.097592391 0.021000028
0.088605717 0.097592391 0.021000028
0.089880005 0.097481906 0.019999981
0.091192387 0.097481906 0.019999981
0.09250477 0.097481906 0.019999981
0.093862861 0.097592391 0.021000028
0.095177151 0.097592391 0.021000028
0.09644191 0.097481906 0.019999981
0.097754292 0.097481906 0.019999981
0.099066675 0.097481906 0.019999981
0.10026857 0.097260952 0.018000007
0.10157715 0.097260952 0.018000007
0.10264952 0.096819051 0.013999999
0.10376763 0.096487619 0.010999978
0.105 0.096377142 0.0099999905
0.10622858 0.096266672 0.0090000033
0.10752001 0.096266672 0.0090000033
0.10860572 0.09593524 0.0059999824
0.10989143 0.09593524 0.0059999824
0.11110477 0.095824763 0.0049999952
0.11224001 0.095603809 0.003000021
0.11352001 0.095603809 0.003000021
0.11480001 0.095603809 0.003000021
0.116 0.095493332 0.0019999743
0.1171962 0.095382854 0.00099998713
0.11847239 0.095382854 0.00099998713
0.11974858 0.095382854 0.00099998713
0.12111239 0.095493332 0.0019999743
0.12239048 0.095493332 0.0019999743
0.12376001 0.095603809 0.003000021
0.12504001 0.095603809 0.003000021
0.12651049 0.095824763 0.0049999952
0.12789144 0.09593524 0.0059999824
0.12917715 0.09593524 0.0059999824
0.13046287 0.09593524 0.0059999824
0.13637716 0.10090667 0.050999999
0.13774858 0.10090667 0.050999999
0.13944001 0.1012381 0.05400002
0.14081715 0.1012381 0.05400002
0.14241526 0.10145906 0.055999994
0.14424573 0.10190096 0.060000002
0.14586286 0.1021219 0.061999977
0.14725524 0.1021219 0.061999977
0.14864762 0.1021219 0.061999977
0.15016001 0.10223238 0.063000023
0.0010552406 0.10542476 0.078999996
0.0025600009 0.10531238 0.078000009
0.0041390508 0.10508763 0.076000035
0.0054057166 0.10531238 0.078000009
0.0068285763 0.10531238 0.078000009
0.0085409544 0.10486286 0.074000001
0.010026667 0.10475048 0.073000014
0.011645719 0.10441334 0.069999993
0.013186667 0.10418858 0.068000019
0.014914285 0.10362668 0.063000023
0.016497146 0.10328953 0.060000002
0.017946668 0.10317715 0.059000015
0.019451432 0.10295238 0.056999981
0.020891435 0.10284 0.055999994
0.022382859 0.10261524 0.05400002
0.023813337 0.10250286 0.053000033
0.025445718 0.10194095 0.047999978
0.026860956 0.10182857 0.046999991
0.028320003 0.10160381 0.045000017
0.029680002 0.10160381 0.045000017
0.031083811 0.10149144 0.04400003
0.032525718 0.10126667 0.041999996
0.033920005 0.10115429 0.041000009
0.035348579 0.10092952 0.038999975
0.036733337 0.10081714 0.037999988
0.038148575 0.10059238 0.036000013
0.039556198 0.10036762 0.033999979
0.040895246 0.10036762 0.033999979
0.042291433 0.10014286 0.032000005
0.043653339 0.10003048 0.031000018
0.045036197 0.099805713 0.028999984
0.046388574 0.099693336 0.027999997
0.047758099 0.099468581 0.026000023
0.049081907 0.099468581 0.026000023
0.050405718 0.099468581 0.026000023
0.051744767 0.099356189 0.024999976
0.053066671 0.099356189 0.024999976
0.054388575 0.099356189 0.024999976
0.05571048 0.099356189 0.024999976
0.057040006 0.099243812 0.023999989
0.058360007 0.099243812 0.023999989
0.059680004 0.099243812 0.023999989
0.061003815 0.099019051 0.022000015
0.062320005 0.099019051 0.022000015
0.063634291 0.098906673 0.021000028
0.064948574 0.098906673 0.021000028
0.066262864 0.098906673 0.021000028
0.067577146 0.098906673 0.021000028
0.068891436 0.098906673 0.021000028
0.070205718 0.098906673 0.021000028
0.071520008 0.098906673 0.021000028
0.072834291 0.098906673 0.021000028
0.07414858 0.098906673 0.021000028
0.075462863 0.098906673 0.021000028
0.076777145 0.098906673 0.021000028
0.078091435 0.098906673 0.021000028
0.079405725 0.098906673 0.021000028
0.080720007 0.098906673 0.021000028
0.08203429 0.098906673 0.021000028
0.08334858 0.098906673 0.021000028
0.084630482 0.098794289 0.019999981
0.085942864 0.098794289 0.019999981
0.087291434 0.098906673 0.021000028
0.088605717 0.098906673 0.021000028
0.089880005 0.098794289 0.019999981
0.091234297 0.098906673 0.021000028
0.092548579 0.098906673 0.021000028
0.093862861 0.098906673 0.021000028
0.095177151 0.098906673 0.021000028
0.096491441 0.098906673 0.021000028
0.097754292 0.098794289 0.019999981
0.099066675 0.098794289 0.019999981
0.10026857 0.098569527 0.018000007
0.10157715 0.098569527 0.018000007
0.10247239 0.097782858 0.010999978
0.10370667 0.097670481 0.0099999905
0.105 0.097670481 0.0099999905
0.10622858 0.097558096 0.0090000033
0.10738668 0.097333334 0.0070000291
0.10860572 0.09722095 0.0059999824
0.10982096 0.097108573 0.0049999952
0.11096001 0.096883811 0.003000021
0.11224001 0.096883811 0.003000021
0.11352001 0.096883811 0.003000021
0.11480001 0.096883811 0.003000021
0.116 0.096771426 0.0019999743
0.1171962 0.096659049 0.00099998713
0.11847239 0.096659049 0.00099998713
0.11974858 0.096659049 0.00099998713
0.12102477 0.096659049 0.00099998713
0.12230096 0.096659049 0.00099998713
0.12366858 0.096771426 0.0019999743
0.12504001 0.096883811 0.003000021
0.12651049 0.097108573 0.0049999952
0.1277943 0.097108573 0.0049999952
0.12907811 0.097108573 0.0049999952
0.13500571 0.1022781 0.050999999
0.13637716 0.1022781 0.050999999
0.13774858 0.1022781 0.050999999
0.13933334 0.10250286 0.053000033
0.14070858 0.10250286 0.053000033
0.14241526 0.10284 0.055999994
0.14379619 0.10284 0.055999994
0.14586286 0.10351429 0.061999977
0.14725524 0.10351429 0.061999977
0.14864762 0.10351429 0.061999977
0.0010552406 0.10684952 0.078999996
0.0025600009 0.10673524 0.078000009
0.0041390508 0.10650668 0.076000035
0.0054057166 0.10673524 0.078000009
0.0068285763 0.10673524 0.078000009
0.016497146 0.10467809 0.060000002
0.017885718 0.10467809 0.060000002
0.019451432 0.10433524 0.056999981
0.020891435 0.10422095 0.055999994
0.022272382 0.10422095 0.055999994
0.023920007 0.10364953 0.050999999
0.025445718 0.10330667 0.047999978
0.026860956 0.10319239 0.046999991
0.02822477 0.10319239 0.046999991
0.029680002 0.10296382 0.045000017
0.031083811 0.10284953 0.04400003
0.032441907 0.10284953 0.04400003
0.033920005 0.10250667 0.041000009
0.035348579 0.10227809 0.038999975
0.036733337 0.10216381 0.037999988
0.038080007 0.10216381 0.037999988
0.03952381 0.10182095 0.035000026
0.040895246 0.10170667 0.033999979
0.042291433 0.1014781 0.032000005
0.043653339 0.10136382 0.031000018
0.045036197 0.10113524 0.028999984
0.046365719 0.10113524 0.028999984
0.047716193 0.10102095 0.027999997
0.049081907 0.10079239 0.026000023
0.050405718 0.10079239 0.026000023
0.05172953 0.10079239 0.026000023
0.053066671 0.10067809 0.024999976
0.054388575 0.10067809 0.024999976
0.05571048 0.10067809 0.024999976
0.057032388 0.10067809 0.024999976
0.058360007 0.10056381 0.023999989
0.059680004 0.10056381 0.023999989
0.061000004 0.10056381 0.023999989
0.062320005 0.10033524 0.022000015
0.063634291 0.10022096 0.021000028
0.064948574 0.10022096 0.021000028
0.066262864 0.10022096 0.021000028
0.067577146 0.10022096 0.021000028
0.068891436 0.10022096 0.021000028
0.070205718 0.10022096 0.021000028
0.071520008 0.10022096 0.021000028
0.072834291 0.10022096 0.021000028
0.07414858 0.10022096 0.021000028
0.075462863 0.10022096 0.021000028
0.076777145 0.10022096 0.021000028
0.078091435 0.10022096 0.021000028
0.079405725 0.10022096 0.021000028
0.080720007 0.10022096 0.021000028
0.08203429 0.10022096 0.021000028
0.08334858 0.10022096 0.021000028
0.084662862 0.10022096 0.021000028
0.085977152 0.10022096 0.021000028
0.087291434 0.10022096 0.021000028
0.088605717 0.10022096 0.021000028
0.089920007 0.10022096 0.021000028
0.091234297 0.10022096 0.021000028
0.092548579 0.10022096 0.021000028
0.093862861 0.10022096 0.021000028
0.095177151 0.10022096 0.021000028
0.09644191 0.10010666 0.019999981
0.097754292 0.10010666 0.019999981
0.099066675 0.10010666 0.019999981
0.10026857 0.099878095 0.018000007
0.10140572 0.099535242 0.014999986
0.10247239 0.099078096 0.010999978
0.10370667 0.098963812 0.0099999905
0.105 0.098963812 0.0099999905
0.10622858 0.09884952 0.0090000033
0.10738668 0.098620959 0.0070000291
0.10860572 0.098506667 0.0059999824
0.10989143 0.098506667 0.0059999824
0.11096001 0.098163813 0.003000021
0.11224001 0.098163813 0.003000021
0.11352001 0.098163813 0.003000021
0.11480001 0.098163813 0.003000021
0.116 0.098049529 0.0019999743
0.1171962 0.097935237 0.00099998713
0.11847239 0.097935237 0.00099998713
0.11974858 0.097935237 0.00099998713
0.12102477 0.097935237 0.00099998713
0.12230096 0.097935237 0.00099998713
0.12366858 0.098049529 0.0019999743
0.12504001 0.098163813 0.003000021
0.12632 0.098163813 0.003000021
0.1277943 0.098392382 0.0049999952
0.12907811 0.098392382 0.0049999952
0.13490477 0.10353524 0.050000012
0.13637716 0.10364953 0.050999999
0.13774858 0.10364953 0.050999999
0.13944001 0.10399239 0.05400002
0.14103429 0.10422095 0.055999994
0.14274667 0.10456382 0.059000015
0.14424573 0.10467809 0.060000002
0.14586286 0.10490667 0.061999977
0.14725524 0.10490667 0.061999977
0.016497146 0.10606667 0.060000002
0.017946668 0.10595047 0.059000015
0.019451432 0.10571809 0.056999981
0.020834289 0.10571809 0.056999981
0.022272382 0.10560191 0.055999994
0.023920007 0.10502096 0.050999999
0.025342859 0.10490476 0.050000012
0.026811432 0.10467238 0.047999978
0.02817715 0.10467238 0.047999978
0.029588576 0.1045562 0.046999991
0.031040005 0.10432382 0.045000017
0.032441907 0.10420763 0.04400003
0.033920005 0.10385905 0.041000009
0.035348579 0.10362667 0.038999975
0.036733337 0.10351048 0.037999988
0.038080007 0.10351048 0.037999988
0.03952381 0.10316191 0.035000026
0.040895246 0.10304571 0.033999979
0.04223429 0.10304571 0.033999979
0.043653339 0.10269715 0.031000018
0.045036197 0.10246476 0.028999984
0.046365719 0.10246476 0.028999984
0.047716193 0.10234857 0.027999997
0.049043816 0.10234857 0.027999997
0.050405718 0.1021162 0.026000023
0.05172953 0.1021162 0.026000023
0.053053338 0.1021162 0.026000023
0.054388575 0.102 0.024999976
0.05571048 0.102 0.024999976
0.057032388 0.102 0.024999976
0.058360007 0.10188381 0.023999989
0.059676196 0.102 0.024999976
0.061000004 0.10188381 0.023999989
0.062320005 0.10165143 0.022000015
0.063636199 0.10165143 0.022000015
0.064948574 0.10153525 0.021000028
0.066262864 0.10153525 0.021000028
0.067577146 0.10153525 0.021000028
0.068891436 0.10153525 0.021000028
0.070205718 0.10153525 0.021000028
0.071520008 0.10153525 0.021000028
0.072834291 0.10153525 0.021000028
0.074131437 0.10141905 0.019999981
0.075462863 0.10153525 0.021000028
0.076777145 0.10153525 0.021000028
0.078091435 0.10153525 0.021000028
0.079405725 0.10153525 0.021000028
0.080720007 0.10153525 0.021000028
0.08203429 0.10153525 0.021000028
0.08334858 0.10153525 0.021000028
0.084662862 0.10153525 0.021000028
0.085977152 0.10153525 0.021000028
0.087291434 0.10153525 0.021000028
0.088605717 0.10153525 0.021000028
0.089920007 0.10153525 0.021000028
0.091234297 0.10153525 0.021000028
0.092548579 0.10153525 0.021000028
0.093862861 0.10153525 0.021000028
0.095177151 0.10153525 0.021000028
0.09644191 0.10141905 0.019999981
0.097754292 0.10141905 0.019999981
0.099066675 0.10141905 0.019999981
0.10026857 0.10118667 0.018000007
0.10140572 0.10083809 0.014999986
0.10247239 0.10037334 0.010999978
0.10370667 0.10025714 0.0099999905
0.105 0.10025714 0.0099999905
0.10629334 0.10025714 0.0099999905
0.10752001 0.10014095 0.0090000033
0.1086743 0.099908575 0.0070000291
0.10989143 0.099792376 0.0059999824
0.11096001 0.099443816 0.003000021
0.11224001 0.099443816 0.003000021
0.11352001 0.099443816 0.003000021
0.11480001 0.099443816 0.003000021
0.116 0.099327616 0.0019999743
0.1171962 0.099211432 0.00099998713
0.11847239 0.099211432 0.00099998713
0.11974858 0.099211432 0.00099998713
0.12102477 0.099211432 0.00099998713
0.12230096 0.099211432 0.00099998713
0.12366858 0.099327616 0.0019999743
0.12494667 0.099327616 0.0019999743
0.12632 0.099443816 0.003000021
0.12760001 0.099443816 0.003000021
0.12888001 0.099443816 0.003000021
0.13490477 0.10490476 0.050000012
0.13637716 0.10502096 0.050999999
0.13774858 0.10502096 0.050999999
0.13944001 0.10536953 0.05400002
0.14081715 0.10536953 0.05400002
0.14274667 0.10595047 0.059000015
0.14424573 0.10606667 0.060000002
0.14563429 0.10606667 0.060000002
0.14725524 0.10629904 0.061999977
0.017946668 0.10733715 0.059000015
0.019333337 0.10733715 0.059000015
0.020834289 0.10710096 0.056999981
0.022217147 0.10710096 0.056999981
0.023653336 0.10698286 0.055999994
0.025291432 0.10639238 0.050999999
0.026712388 0.10627429 0.050000012
0.02817715 0.1060381 0.047999978
0.029588576 0.10592 0.046999991
0.031040005 0.10568381 0.045000017
0.032400005 0.10568381 0.045000017
0.033880003 0.10532952 0.041999996
0.035272382 0.10521144 0.041000009
0.036697149 0.10497524 0.038999975
0.038080007 0.10485714 0.037999988
0.03952381 0.10450286 0.035000026
0.040864766 0.10450286 0.035000026
0.04223429 0.10438477 0.033999979
0.043653339 0.10403048 0.031000018
0.045036197 0.10379428 0.028999984
0.046388574 0.10367619 0.027999997
0.047716193 0.10367619 0.027999997
0.049081907 0.10344001 0.026000023
0.050405718 0.10344001 0.026000023
0.05172953 0.10344001 0.026000023
0.053053338 0.10344001 0.026000023
0.054377146 0.10344001 0.026000023
0.05571048 0.1033219 0.024999976
0.057032388 0.1033219 0.024999976
0.058354292 0.1033219 0.024999976
0.059676196 0.1033219 0.024999976
0.060998101 0.1033219 0.024999976
0.062320005 0.10320381 0.023999989
0.063636199 0.10296763 0.022000015
0.064952388 0.10296763 0.022000015
0.066262864 0.10284953 0.021000028
0.067577146 0.10284953 0.021000028
0.068891436 0.10284953 0.021000028
0.070205718 0.10284953 0.021000028
0.071520008 0.10284953 0.021000028
0.072834291 0.10284953 0.021000028
0.07414858 0.10284953 0.021000028
0.075443819 0.10273143 0.019999981
0.076777145 0.10284953 0.021000028
0.078091435 0.10284953 0.021000028
0.079405725 0.10284953 0.021000028
0.080720007 0.10284953 0.021000028
0.08203429 0.10284953 0.021000028
0.08334858 0.10284953 0.021000028
0.084662862 0.10284953 0.021000028
0.085977152 0.10284953 0.021000028
0.087291434 0.10284953 0.021000028
0.088605717 0.10284953 0.021000028
0.089920007 0.10284953 0.021000028
0.091234297 0.10284953 0.021000028
0.092548579 0.10284953 0.021000028
0.093862861 0.10284953 0.021000028
0.095177151 0.10284953 0.021000028
0.09644191 0.10273143 0.019999981
0.097651437 0.10249524 0.018000007
0.098906681 0.10237715 0.01700002
0.10010286 0.10214096 0.014999986
0.10134858 0.10202286 0.013999999
0.10247239 0.10166857 0.010999978
0.10376763 0.10166857 0.010999978
0.105 0.10155047 0.0099999905
0.10629334 0.10155047 0.0099999905
0.10752001 0.10143238 0.0090000033
0.1086743 0.10119619 0.0070000291
0.10989143 0.1010781 0.0059999824
0.11096001 0.10072381 0.003000021
0.11224001 0.10072381 0.003000021
0.11352001 0.10072381 0.003000021
0.11480001 0.10072381 0.003000021
0.116 0.10060572 0.0019999743
0.1172781 0.10060572 0.0019999743
0.11855619 0.10060572 0.0019999743
0.11983429 0.10060572 0.0019999743
0.12111239 0.10060572 0.0019999743
0.12239048 0.10060572 0.0019999743
0.12366858 0.10060572 0.0019999743
0.12504001 0.10072381 0.003000021
0.12632 0.10072381 0.003000021
0.12760001 0.10072381 0.003000021
0.12888001 0.10072381 0.003000021
0.13490477 0.10627429 0.050000012
0.13627429 0.10627429 0.050000012
0.13774858 0.10639238 0.050999999
0.13944001 0.10674667 0.05400002
0.14081715 0.10674667 0.05400002
0.14424573 0.10745524 0.060000002
0.14563429 0.10745524 0.060000002
0.019097146 0.10920382 0.063000023
0.020662863 0.10884381 0.060000002
0.02210667 0.10872381 0.059000015
0.023600005 0.10848381 0.056999981
0.02503429 0.10836381 0.055999994
0.026563812 0.10800382 0.053000033
0.028034292 0.10776381 0.050999999
0.029451434 0.10764381 0.050000012
0.030908573 0.10740381 0.047999978
0.032316193 0.10728382 0.046999991
0.033760004 0.10704381 0.045000017
0.035234291 0.10668381 0.041999996
0.036624767 0.10656381 0.041000009
0.038045719 0.10632381 0.038999975
0.039394289 0.10632381 0.038999975
0.040864766 0.10584382 0.035000026
0.04223429 0.10572381 0.033999979
0.043653339 0.10536382 0.031000018
0.045036197 0.10512381 0.028999984
0.046388574 0.10500381 0.027999997
0.047716193 0.10500381 0.027999997
0.049043816 0.10500381 0.027999997
0.050371435 0.10500381 0.027999997
0.05172953 0.10476381 0.026000023
0.053053338 0.10476381 0.026000023
0.054377146 0.10476381 0.026000023
0.055700958 0.10476381 0.026000023
0.057032388 0.10464381 0.024999976
0.058354292 0.10464381 0.024999976
0.059676196 0.10464381 0.024999976
0.060998101 0.10464381 0.024999976
0.062320005 0.10452381 0.023999989
0.063636199 0.10428381 0.022000015
0.064952388 0.10428381 0.022000015
0.066262864 0.10416382 0.021000028
0.067577146 0.10416382 0.021000028
0.068891436 0.10416382 0.021000028
0.070205718 0.10416382 0.021000028
0.071520008 0.10416382 0.021000028
0.072834291 0.10416382 0.021000028
0.074131437 0.10404381 0.019999981
0.075462863 0.10416382 0.021000028
0.076777145 0.10416382 0.021000028
0.078091435 0.10416382 0.021000028
0.079405725 0.10416382 0.021000028
0.080720007 0.10416382 0.021000028
0.08203429 0.10416382 0.021000028
0.08334858 0.10416382 0.021000028
0.084662862 0.10416382 0.021000028
0.086011432 0.10428381 0.022000015
0.087291434 0.10416382 0.021000028
0.088605717 0.10416382 0.021000028
0.089920007 0.10416382 0.021000028
0.091276199 0.10428381 0.022000015
0.092592388 0.10428381 0.022000015
0.093862861 0.10416382 0.021000028
0.095177151 0.10416382 0.021000028
0.096491441 0.10416382 0.021000028
0.097754292 0.10404381 0.019999981
0.098960005 0.10380381 0.018000007
0.10010286 0.10344382 0.014999986
0.10134858 0.10332382 0.013999999
0.10259049 0.10320382 0.013000011
0.10388953 0.10320382 0.013000011
0.10518858 0.10320382 0.013000011
0.1063581 0.10296381 0.010999978
0.10758667 0.10284381 0.0099999905
0.10881144 0.10272381 0.0090000033
0.10989143 0.10236381 0.0059999824
0.11096001 0.10200381 0.003000021
0.11224001 0.10200381 0.003000021
0.11352001 0.10200381 0.003000021
0.11480001 0.10200381 0.003000021
0.116 0.10188381 0.0019999743
0.1172781 0.10188381 0.0019999743
0.11855619 0.10188381 0.0019999743
0.11983429 0.10188381 0.0019999743
0.12111239 0.10188381 0.0019999743
0.12239048 0.10188381 0.0019999743
0.12366858 0.10188381 0.0019999743
0.12504001 0.10200381 0.003000021
0.12632 0.10200381 0.003000021
0.12760001 0.10200381 0.003000021
0.13333715 0.10740381 0.047999978
0.13470286 0.10740381 0.047999978
0.13627429 0.10764381 0.050000012
0.13764381 0.10764381 0.050000012
0.13901335 0.10764381 0.050000012
0.14081715 0.10812382 0.05400002
0.019097146 0.1105981 0.063000023
0.020548575 0.11047619 0.061999977
0.02210667 0.11011048 0.059000015
0.023600005 0.10986666 0.056999981
0.02503429 0.10974476 0.055999994
0.026514292 0.10950096 0.05400002
0.028034292 0.10913524 0.050999999
0.029451434 0.10901333 0.050000012
0.030820958 0.10901333 0.050000012
0.032274291 0.10876952 0.047999978
0.033680007 0.10864762 0.046999991
0.035234291 0.1080381 0.041999996
0.036624767 0.10791619 0.041000009
0.038045719 0.10767238 0.038999975
0.039491434 0.10730667 0.036000013
0.040864766 0.10718477 0.035000026
0.04223429 0.10706285 0.033999979
0.043626674 0.10681905 0.032000005
0.044986673 0.10669715 0.031000018
0.046365719 0.10645334 0.028999984
0.047695242 0.10645334 0.028999984
0.049024768 0.10645334 0.028999984
0.050371435 0.10633143 0.027999997
0.051699053 0.10633143 0.027999997
0.053026672 0.10633143 0.027999997
0.054377146 0.10608763 0.026000023
0.055700958 0.10608763 0.026000023
0.057024766 0.10608763 0.026000023
0.058348577 0.10608763 0.026000023
0.059672385 0.10608763 0.026000023
0.060996197 0.10608763 0.026000023
0.062320005 0.10596571 0.024999976
0.063640006 0.10584381 0.023999989
0.064960003 0.10584381 0.023999989
0.066268578 0.10560001 0.022000015
0.067577146 0.1054781 0.021000028
0.068891436 0.1054781 0.021000028
0.070205718 0.1054781 0.021000028
0.071520008 0.1054781 0.021000028
0.072834291 0.1054781 0.021000028
0.074131437 0.10535619 0.019999981
0.075462863 0.1054781 0.021000028
0.076777145 0.1054781 0.021000028
0.078091435 0.1054781 0.021000028
0.079405725 0.1054781 0.021000028
0.080720007 0.1054781 0.021000028
0.08203429 0.1054781 0.021000028
0.08334858 0.1054781 0.021000028
0.084662862 0.1054781 0.021000028
0.086011432 0.10560001 0.022000015
0.087291434 0.1054781 0.021000028
0.088605717 0.1054781 0.021000028
0.089920007 0.1054781 0.021000028
0.091276199 0.10560001 0.022000015
0.092592388 0.10560001 0.022000015
0.093862861 0.1054781 0.021000028
0.095177151 0.1054781 0.021000028
0.096491441 0.1054781 0.021000028
0.097805724 0.1054781 0.021000028
0.098960005 0.10511238 0.018000007
0.10010286 0.10474667 0.014999986
0.10134858 0.10462476 0.013999999
0.10264952 0.10462476 0.013999999
0.10395049 0.10462476 0.013999999
0.10525143 0.10462476 0.013999999
0.10648763 0.10450286 0.013000011
0.10778667 0.10450286 0.013000011
0.10894857 0.10425905 0.010999978
0.11024381 0.10425905 0.010999978
0.11110477 0.10352762 0.0049999952
0.11238858 0.10352762 0.0049999952
0.11352001 0.10328382 0.003000021
0.11480001 0.10328382 0.003000021
0.11608001 0.10328382 0.003000021
0.1172781 0.1031619 0.0019999743
0.11855619 0.1031619 0.0019999743
0.11983429 0.1031619 0.0019999743
0.12111239 0.1031619 0.0019999743
0.12239048 0.1031619 0.0019999743
0.12366858 0.1031619 0.0019999743
0.12494667 0.1031619 0.0019999743
0.12622477 0.1031619 0.0019999743
0.12750286 0.1031619 0.0019999743
0.13323811 0.10864762 0.046999991
0.13470286 0.10876952 0.047999978
0.13606858 0.10876952 0.047999978
0.13764381 0.10901333 0.050000012
0.13901335 0.10901333 0.050000012
0.018860955 0.11248763 0.067000031
0.020491432 0.11199238 0.063000023
0.022051431 0.11162096 0.060000002
0.023493338 0.11149715 0.059000015
0.02503429 0.11112572 0.055999994
0.026514292 0.1108781 0.05400002
0.027939051 0.1107543 0.053000033
0.029405717 0.11050667 0.050999999
0.030820958 0.11038286 0.050000012
0.032274291 0.11013523 0.047999978
0.033680007 0.11001143 0.046999991
0.035158098 0.10964001 0.04400003
0.036588576 0.10939238 0.041999996
0.037977148 0.10926858 0.041000009
0.039426669 0.10889714 0.037999988
0.040834289 0.10864953 0.036000013
0.042205721 0.10852572 0.035000026
0.043626674 0.10815429 0.032000005
0.044961907 0.10815429 0.032000005
0.046320006 0.10803048 0.031000018
0.047653336 0.10803048 0.031000018
0.048986673 0.10803048 0.031000018
0.050354291 0.10778286 0.028999984
0.051683813 0.10778286 0.028999984
0.05301334 0.10778286 0.028999984
0.054342862 0.10778286 0.028999984
0.055700958 0.10741144 0.026000023
0.057024766 0.10741144 0.026000023
0.058348577 0.10741144 0.026000023
0.059672385 0.10741144 0.026000023
0.060996197 0.10741144 0.026000023
0.062320005 0.10728762 0.024999976
0.063641913 0.10728762 0.024999976
0.064963818 0.10728762 0.024999976
0.066268578 0.1069162 0.022000015
0.067584768 0.1069162 0.022000015
0.068900958 0.1069162 0.022000015
0.070205718 0.10679238 0.021000028
0.071520008 0.10679238 0.021000028
0.072834291 0.10679238 0.021000028
0.07414858 0.10679238 0.021000028
0.075462863 0.10679238 0.021000028
0.076777145 0.10679238 0.021000028
0.078091435 0.10679238 0.021000028
0.079405725 0.10679238 0.021000028
0.080720007 0.10679238 0.021000028
0.08203429 0.10679238 0.021000028
0.08334858 0.10679238 0.021000028
0.084662862 0.10679238 0.021000028
0.085977152 0.10679238 0.021000028
0.087291434 0.10679238 0.021000028
0.088605717 0.10679238 0.021000028
0.089920007 0.10679238 0.021000028
0.091276199 0.1069162 0.022000015
0.092592388 0.1069162 0.022000015
0.093862861 0.10679238 0.021000028
0.095177151 0.10679238 0.021000028
0.096491441 0.10679238 0.021000028
0.097805724 0.10679238 0.021000028
0.099066675 0.10666857 0.019999981
0.10021334 0.10629715 0.01700002
0.10140572 0.10604952 0.014999986
0.10270858 0.10604952 0.014999986
0.10401143 0.10604952 0.014999986
0.10531429 0.10604952 0.014999986
0.10661715 0.10604952 0.014999986
0.10792001 0.10604952 0.014999986
0.10922286 0.10604952 0.014999986
0.11052572 0.10604952 0.014999986
0.11175619 0.10592572 0.013999999
0.11305715 0.10592572 0.013999999
0.11367239 0.10481143 0.0049999952
0.1149562 0.10481143 0.0049999952
0.11624001 0.10481143 0.0049999952
0.11736001 0.10456382 0.003000021
0.11864001 0.10456382 0.003000021
0.11992001 0.10456382 0.003000021
0.12120001 0.10456382 0.003000021
0.12239048 0.10444 0.0019999743
0.12366858 0.10444 0.0019999743
0.12494667 0.10444 0.0019999743
0.12622477 0.10444 0.0019999743
0.13187429 0.11001143 0.046999991
0.13323811 0.11001143 0.046999991
0.13470286 0.11013523 0.047999978
0.13606858 0.11013523 0.047999978
0.13743429 0.11013523 0.047999978
0.13901335 0.11038286 0.050000012
0.01745905 0.11388953 0.067000031
0.018860955 0.11388953 0.067000031
0.020377148 0.1136381 0.064999998
0.021940958 0.11326095 0.061999977
0.023440003 0.11300953 0.060000002
0.02503429 0.11250667 0.055999994
0.026415244 0.11250667 0.055999994
0.027891431 0.11225524 0.05400002
0.029405717 0.1118781 0.050999999
0.030777145 0.1118781 0.050999999
0.032274291 0.11150095 0.047999978
0.033680007 0.11137524 0.046999991
0.035158098 0.1109981 0.04400003
0.036588576 0.11074667 0.041999996
0.037977148 0.11062095 0.041000009
0.039426669 0.11024381 0.037999988
0.040834289 0.10999238 0.036000013
0.042205721 0.10986667 0.035000026
0.043626674 0.10948953 0.032000005
0.044961907 0.10948953 0.032000005
0.046320006 0.10936382 0.031000018
0.047653336 0.10936382 0.031000018
0.048986673 0.10936382 0.031000018
0.050320007 0.10936382 0.031000018
0.051683813 0.10911238 0.028999984
0.05301334 0.10911238 0.028999984
0.054342862 0.10911238 0.028999984
0.05568191 0.10898667 0.027999997
0.057009529 0.10898667 0.027999997
0.058348577 0.10873524 0.026000023
0.059672385 0.10873524 0.026000023
0.060996197 0.10873524 0.026000023
0.062320005 0.10860953 0.024999976
0.063641913 0.10860953 0.024999976
0.064963818 0.10860953 0.024999976
0.066280007 0.10848381 0.023999989
0.067584768 0.10823239 0.022000015
0.068900958 0.10823239 0.022000015
0.070205718 0.10810667 0.021000028
0.071520008 0.10810667 0.021000028
0.072834291 0.10810667 0.021000028
0.07414858 0.10810667 0.021000028
0.075462863 0.10810667 0.021000028
0.076777145 0.10810667 0.021000028
0.078091435 0.10810667 0.021000028
0.079405725 0.10810667 0.021000028
0.080720007 0.10810667 0.021000028
0.08203429 0.10810667 0.021000028
0.08334858 0.10810667 0.021000028
0.084662862 0.10810667 0.021000028
0.085977152 0.10810667 0.021000028
0.087291434 0.10810667 0.021000028
0.088605717 0.10810667 0.021000028
0.089960009 0.10823239 0.022000015
0.091276199 0.10823239 0.022000015
0.092592388 0.10823239 0.022000015
0.093862861 0.10810667 0.021000028
0.095177151 0.10810667 0.021000028
0.096491441 0.10810667 0.021000028
0.097805724 0.10810667 0.021000028
0.099066675 0.10798095 0.019999981
0.10037905 0.10798095 0.019999981
0.10157715 0.10772953 0.018000007
0.10288572 0.10772953 0.018000007
0.10413334 0.10760382 0.01700002
0.10544001 0.10760382 0.01700002
0.10674667 0.10760382 0.01700002
0.10805334 0.10760382 0.01700002
0.10936001 0.10760382 0.01700002
0.11052572 0.10735238 0.014999986
0.11175619 0.10722667 0.013999999
0.11305715 0.10722667 0.013999999
0.11367239 0.10609524 0.0049999952
0.1149562 0.10609524 0.0049999952
0.11608001 0.10584382 0.003000021
0.11736001 0.10584382 0.003000021
0.11864001 0.10584382 0.003000021
0.11992001 0.10584382 0.003000021
0.12111239 0.10571809 0.0019999743
0.12248001 0.10584382 0.003000021
0.12376001 0.10584382 0.003000021
0.12494667 0.10571809 0.0019999743
0.13187429 0.11137524 0.046999991
0.13323811 0.11137524 0.046999991
0.13470286 0.11150095 0.047999978
0.13606858 0.11150095 0.047999978
0.13743429 0.11150095 0.047999978
0.01745905 0.11529144 0.067000031
0.018801905 0.11541905 0.068000019
0.02026286 0.11529144 0.067000031
0.021885719 0.11478096 0.063000023
0.023333337 0.11465333 0.061999977
0.024982862 0.11401524 0.056999981
0.026415244 0.11388762 0.055999994
0.027891431 0.11363238 0.05400002
0.029314291 0.11350477 0.053000033
0.030777145 0.11324953 0.050999999
0.032190479 0.11312191 0.050000012
0.033680007 0.11273905 0.046999991
0.035120003 0.11248381 0.045000017
0.036516193 0.11235619 0.04400003
0.037942864 0.11210095 0.041999996
0.039394289 0.1117181 0.038999975
0.04077334 0.11159047 0.037999988
0.042205721 0.11120763 0.035000026
0.043573339 0.11108001 0.033999979
0.044961907 0.11082476 0.032000005
0.046297148 0.11082476 0.032000005
0.047653336 0.11069714 0.031000018
0.048986673 0.11069714 0.031000018
0.050320007 0.11069714 0.031000018
0.051653337 0.11069714 0.031000018
0.05301334 0.11044191 0.028999984
0.054342862 0.11044191 0.028999984
0.05568191 0.11031429 0.027999997
0.057009529 0.11031429 0.027999997
0.058348577 0.11005905 0.026000023
0.059672385 0.11005905 0.026000023
0.060996197 0.11005905 0.026000023
0.062320005 0.10993143 0.024999976
0.063641913 0.10993143 0.024999976
0.064963818 0.10993143 0.024999976
0.066268578 0.10954858 0.022000015
0.067584768 0.10954858 0.022000015
0.068900958 0.10954858 0.022000015
0.070205718 0.10942096 0.021000028
0.071520008 0.10942096 0.021000028
0.072849527 0.10954858 0.022000015
0.074165717 0.10954858 0.022000015
0.075481907 0.10954858 0.022000015
0.076798104 0.10954858 0.022000015
0.078114294 0.10954858 0.022000015
0.079405725 0.10942096 0.021000028
0.080720007 0.10942096 0.021000028
0.08203429 0.10942096 0.021000028
0.08334858 0.10942096 0.021000028
0.084662862 0.10942096 0.021000028
0.086011432 0.10954858 0.022000015
0.087291434 0.10942096 0.021000028
0.088605717 0.10942096 0.021000028
0.089960009 0.10954858 0.022000015
0.091276199 0.10954858 0.022000015
0.092592388 0.10954858 0.022000015
0.093908578 0.10954858 0.022000015
0.095224768 0.10954858 0.022000015
0.096491441 0.10942096 0.021000028
0.097805724 0.10942096 0.021000028
0.099120006 0.10942096 0.021000028
0.10037905 0.10929333 0.019999981
0.10169143 0.10929333 0.019999981
0.10300381 0.10929333 0.019999981
0.10419429 0.1090381 0.018000007
0.10550287 0.1090381 0.018000007
0.10681143 0.1090381 0.018000007
0.10812001 0.1090381 0.018000007
0.10936001 0.10891048 0.01700002
0.11066668 0.10891048 0.01700002
0.11182858 0.10865524 0.014999986
0.11313143 0.10865524 0.014999986
0.11443429 0.10865524 0.014999986
0.11589334 0.10891048 0.01700002
0.11720001 0.10891048 0.01700002
0.11850668 0.10891048 0.01700002
0.11981334 0.10891048 0.01700002
0.12154858 0.10954858 0.022000015
0.12286477 0.10954858 0.022000015
0.12418096 0.10954858 0.022000015
0.12376001 0.10712381 0.003000021
0.1300343 0.11210095 0.041999996
0.13138857 0.11210095 0.041999996
0.13274287 0.11210095 0.041999996
0.13429905 0.11235619 0.04400003
0.13565715 0.11235619 0.04400003
0.13743429 0.11286667 0.047999978
0.13912 0.11324953 0.050999999
0.14038287 0.11312191 0.050000012
0.14175239 0.11312191 0.050000012
0.017398097 0.11682287 0.068000019
0.018801905 0.11682287 0.068000019
0.02026286 0.11669334 0.067000031
0.021885719 0.11617525 0.063000023
0.023333337 0.11604571 0.061999977
0.024982862 0.11539809 0.056999981
0.02636572 0.11539809 0.056999981
0.027796198 0.11526857 0.055999994
0.029314291 0.11488001 0.053000033
0.030777145 0.11462095 0.050999999
0.032190479 0.11449143 0.050000012
0.033680007 0.11410286 0.046999991
0.035120003 0.11384381 0.045000017
0.036516193 0.11371429 0.04400003
0.037942864 0.11345524 0.041999996
0.039394289 0.11306667 0.038999975
0.04077334 0.11293714 0.037999988
0.042177148 0.1126781 0.036000013
0.043573339 0.11241905 0.033999979
0.044961907 0.11216 0.032000005
0.046297148 0.11216 0.032000005
0.047632385 0.11216 0.032000005
0.048967622 0.11216 0.032000005
0.050320007 0.11203048 0.031000018
0.051653337 0.11203048 0.031000018
0.05301334 0.11177143 0.028999984
0.054342862 0.11177143 0.028999984
0.05568191 0.11164191 0.027999997
0.057009529 0.11164191 0.027999997
0.058348577 0.11138286 0.026000023
0.059672385 0.11138286 0.026000023
0.060996197 0.11138286 0.026000023
0.062320005 0.11125334 0.024999976
0.063641913 0.11125334 0.024999976
0.064963818 0.11125334 0.024999976
0.066280007 0.11112381 0.023999989
0.067584768 0.11086477 0.022000015
0.068900958 0.11086477 0.022000015
0.070217147 0.11086477 0.022000015
0.071533337 0.11086477 0.022000015
0.072849527 0.11086477 0.022000015
0.07414858 0.11073525 0.021000028
0.075481907 0.11086477 0.022000015
0.076798104 0.11086477 0.022000015
0.078114294 0.11086477 0.022000015
0.079405725 0.11073525 0.021000028
0.080720007 0.11073525 0.021000028
0.08203429 0.11073525 0.021000028
0.08334858 0.11073525 0.021000028
0.084662862 0.11073525 0.021000028
0.086011432 0.11086477 0.022000015
0.087327629 0.11086477 0.022000015
0.088643819 0.11086477 0.022000015
0.089960009 0.11086477 0.022000015
0.091276199 0.11086477 0.022000015
0.092592388 0.11086477 0.022000015
0.093908578 0.11086477 0.022000015
0.095224768 0.11086477 0.022000015
0.096540958 0.11086477 0.022000015
0.097857147 0.11086477 0.022000015
0.099120006 0.11073525 0.021000028
0.1004343 0.11073525 0.021000028
0.10169143 0.11060572 0.019999981
0.10300381 0.11060572 0.019999981
0.1043162 0.11060572 0.019999981
0.10562858 0.11060572 0.019999981
0.10681143 0.11034667 0.018000007
0.10812001 0.11034667 0.018000007
0.10942858 0.11034667 0.018000007
0.11066668 0.11021715 0.01700002
0.11197335 0.11021715 0.01700002
0.11328001 0.11021715 0.01700002
0.11458668 0.11021715 0.01700002
0.11589334 0.11021715 0.01700002
0.11720001 0.11021715 0.01700002
0.11858858 0.11034667 0.018000007
0.11989715 0.11034667 0.018000007
0.12154858 0.11086477 0.022000015
0.12286477 0.11086477 0.022000015
0.12418096 0.11086477 0.022000015
0.12974858 0.11306667 0.038999975
0.13109715 0.11306667 0.038999975
0.13274287 0.11345524 0.041999996
0.13429905 0.11371429 0.04400003
0.13565715 0.11371429 0.04400003
0.13764381 0.11449143 0.050000012
0.13912 0.11462095 0.050999999
0.14049144 0.11462095 0.050999999
0.14186287 0.11462095 0.050999999
0.017398097 0.11822668 0.068000019
0.018801905 0.11822668 0.068000019
0.020205718 0.11822668 0.068000019
0.021775242 0.11783239 0.064999998
0.023280002 0.11756953 0.063000023
0.024828576 0.11717524 0.060000002
0.02636572 0.11678095 0.056999981
0.027796198 0.11664952 0.055999994
0.029268574 0.11638667 0.05400002
0.030777145 0.11599238 0.050999999
0.032190479 0.11586096 0.050000012
0.033680007 0.11546667 0.046999991
0.035120003 0.11520381 0.045000017
0.036516193 0.11507238 0.04400003
0.037942864 0.11480953 0.041999996
0.039394289 0.11441524 0.038999975
0.04077334 0.11428381 0.037999988
0.042177148 0.11402096 0.036000013
0.043546669 0.11388953 0.035000026
0.044912387 0.11375809 0.033999979
0.046297148 0.11349525 0.032000005
0.047632385 0.11349525 0.032000005
0.048967622 0.11349525 0.032000005
0.050302863 0.11349525 0.032000005
0.051653337 0.11336382 0.031000018
0.05298667 0.11336382 0.031000018
0.054320004 0.11336382 0.031000018
0.05568191 0.11296953 0.027999997
0.057009529 0.11296953 0.027999997
0.058348577 0.11270667 0.026000023
0.059672385 0.11270667 0.026000023
0.060996197 0.11270667 0.026000023
0.062320005 0.11270667 0.026000023
0.063641913 0.11257524 0.024999976
0.064963818 0.11257524 0.024999976
0.066280007 0.11244381 0.023999989
0.067600004 0.11244381 0.023999989
0.068900958 0.11218096 0.022000015
0.070217147 0.11218096 0.022000015
0.071533337 0.11218096 0.022000015
0.072849527 0.11218096 0.022000015
0.074165717 0.11218096 0.022000015
0.075481907 0.11218096 0.022000015
0.076798104 0.11218096 0.022000015
0.078114294 0.11218096 0.022000015
0.079430483 0.11218096 0.022000015
0.080746673 0.11218096 0.022000015
0.082062863 0.11218096 0.022000015
0.083379053 0.11218096 0.022000015
0.084695242 0.11218096 0.022000015
0.086080007 0.11244381 0.023999989
