# .PCD v0.7 - Point Cloud Data file format
VERSION 0.7
FIELDS x y z
SIZE 4 4 4
TYPE F F F
COUNT 1 1 1
WIDTH 1320
HEIGHT 1
VIEWPOINT 0 0 0 0 1 0 0
POINTS 1320
DATA ascii
0.0022 0.0014399998 0.051999986
0.0040971488 0.0015885718 0.045999944
0.0054457188 0.0015885718 0.045999944
0.006880004 0.0016133338 0.044999957
0.008394286 0.001662856 0.042999983
0.0098190457 0.001687618 0.041999996
0.011160001 0.001687618 0.041999996
0.012579054 0.0017123818 0.040999949
0.014299054 0.00183619 0.035999954
0.015628576 0.00183619 0.035999954
0.017030481 0.001860952 0.034999967
0.01849905 0.001910476 0.032999992
0.019822858 0.001910476 0.032999992
0.021146666 0.001910476 0.032999992
0.022470482 0.001910476 0.032999992
0.023857147 0.001935238 0.031999946
0.025118098 0.001910476 0.032999992
0.026500959 0.001935238 0.031999946
0.027880006 0.00196 0.030999959
0.029200006 0.00196 0.030999959
0.03062667 0.0020095222 0.028999984
0.031942859 0.0020095222 0.028999984
0.033259049 0.0020095222 0.028999984
0.034622859 0.0020342842 0.027999997
0.036074288 0.0021085702 0.024999976
0.037426673 0.0021333341 0.023999989
0.038817149 0.0021828581 0.021999955
0.040120006 0.0021828581 0.021999955
0.041460957 0.0022076182 0.020999968
0.042798098 0.0022323802 0.019999981
0.044165723 0.0022819042 0.017999947
0.045460958 0.0022819042 0.017999947
0.046817146 0.0023314282 0.015999973
0.048165716 0.0023809504 0.013999999
0.049480006 0.0024057142 0.012999952
0.050765719 0.0024057142 0.012999952
0.052074291 0.0024304762 0.011999965
0.0533581 0.0024304762 0.011999965
0.054680005 0.0024799984 0.0099999905
0.055960007 0.0024799984 0.0099999905
0.057270482 0.0025295243 0.0079999566
0.05854667 0.0025295243 0.0079999566
0.059822861 0.0025295243 0.0079999566
0.061108574 0.0025542844 0.0069999695
0.062382862 0.0025542844 0.0069999695
0.06365715 0.0025542844 0.0069999695
0.064939052 0.0026038084 0.0049999952
0.066209532 0.0026038084 0.0049999952
0.067480005 0.0026038084 0.0049999952
0.068750478 0.0026038084 0.0049999952
0.070020959 0.0026038084 0.0049999952
0.071291432 0.0026038084 0.0049999952
0.072577149 0.0025542844 0.0069999695
0.073832385 0.0026038084 0.0049999952
0.075102866 0.0026038084 0.0049999952
0.076373339 0.0026038084 0.0049999952
0.077643812 0.0026038084 0.0049999952
0.078914292 0.0026038084 0.0049999952
0.080184765 0.0026038084 0.0049999952
0.081434295 0.0026285723 0.0039999485
0.08270286 0.0026285723 0.0039999485
0.083971433 0.0026285723 0.0039999485
0.085240006 0.0026285723 0.0039999485
0.086508572 0.0026285723 0.0039999485
0.087777153 0.0026285723 0.0039999485
0.089045718 0.0026285723 0.0039999485
0.090314291 0.0026285723 0.0039999485
0.091582865 0.0026285723 0.0039999485
0.092889532 0.0026038084 0.0049999952
0.094160005 0.0026038084 0.0049999952
0.095430486 0.0026038084 0.0049999952
0.096700959 0.0026038084 0.0049999952
0.097971439 0.0026038084 0.0049999952
0.099337146 0.0025542844 0.0069999695
0.10061143 0.0025542844 0.0069999695
0.10188572 0.0025542844 0.0069999695
0.10316001 0.0025542844 0.0069999695
0.1044343 0.0025542844 0.0069999695
0.10576572 0.0025295243 0.0079999566
0.10704191 0.0025295243 0.0079999566
0.10844001 0.0024799984 0.0099999905
0.10972001 0.0024799984 0.0099999905
0.11112953 0.0024304762 0.011999965
0.11241334 0.0024304762 0.011999965
0.11376572 0.0024057142 0.012999952
0.11512192 0.0023809504 0.013999999
0.11640953 0.0023809504 0.013999999
0.11792001 0.0023066662 0.01699996
0.11921334 0.0023066662 0.01699996
0.12058477 0.0022819042 0.017999947
0.12204 0.0022323802 0.019999981
0.12333906 0.0022323802 0.019999981
0.12472191 0.0022076182 0.020999968
0.12610857 0.0021828581 0.021999955
0.12758668 0.0021333341 0.023999989
0.12916191 0.002059048 0.02699995
0.13047428 0.002059048 0.02699995
0.13234669 0.001910476 0.032999992
0.13414668 0.001786666 0.037999988
0.13548002 0.001786666 0.037999988
0.13681334 0.001786666 0.037999988
0.13814667 0.001786666 0.037999988
0.13948001 0.001786666 0.037999988
0.00065334141 0.0027542859 0.05399996
0.0022 0.002799999 0.051999986
0.0040971488 0.0029371437 0.045999944
0.0054457188 0.0029371437 0.045999944
0.006880004 0.0029600002 0.044999957
0.008394286 0.0030057132 0.042999983
0.0098190457 0.0030285697 0.041999996
0.011160001 0.0030285697 0.041999996
0.012579054 0.00305143 0.040999949
0.014375243 0.003188571 0.034999967
0.015628576 0.0031657144 0.035999954
0.017030481 0.003188571 0.034999967
0.01849905 0.0032342859 0.032999992
0.019822858 0.0032342859 0.032999992
0.021146666 0.0032342859 0.032999992
0.022470482 0.0032342859 0.032999992
0.02379429 0.0032342859 0.032999992
0.025179055 0.0032571424 0.031999946
0.026500959 0.0032571424 0.031999946
0.027880006 0.0032800008 0.030999959
0.029200006 0.0032800008 0.030999959
0.03062667 0.0033257138 0.028999984
0.031942859 0.0033257138 0.028999984
0.033259049 0.0033257138 0.028999984
0.034622859 0.0033485703 0.027999997
0.036120005 0.0034400001 0.023999989
0.037426673 0.0034400001 0.023999989
0.038817149 0.003485715 0.021999955
0.040120006 0.003485715 0.021999955
0.041499048 0.003531429 0.019999981
0.042798098 0.003531429 0.019999981
0.044165723 0.0035771439 0.017999947
0.045493338 0.0035999995 0.01699996
0.046817146 0.003622856 0.015999973
0.048165716 0.0036685709 0.013999999
0.049480006 0.0036914283 0.012999952
0.050765719 0.0036914283 0.012999952
0.052074291 0.0037142858 0.011999965
0.0533581 0.0037142858 0.011999965
0.054680005 0.0037599988 0.0099999905
0.055977147 0.0037828572 0.0089999437
0.057270482 0.0038057147 0.0079999566
0.05854667 0.0038057147 0.0079999566
0.059822861 0.0038057147 0.0079999566
0.061108574 0.0038285721 0.0069999695
0.062382862 0.0038285721 0.0069999695
0.06365715 0.0038285721 0.0069999695
0.064931437 0.0038285721 0.0069999695
0.066209532 0.0038742851 0.0049999952
0.067480005 0.0038742851 0.0049999952
0.068750478 0.0038742851 0.0049999952
0.070020959 0.0038742851 0.0049999952
0.071291432 0.0038742851 0.0049999952
0.072561912 0.0038742851 0.0049999952
0.073832385 0.0038742851 0.0049999952
0.075102866 0.0038742851 0.0049999952
0.076373339 0.0038742851 0.0049999952
0.077643812 0.0038742851 0.0049999952
0.078914292 0.0038742851 0.0049999952
0.080165721 0.0038971435 0.0039999485
0.081434295 0.0038971435 0.0039999485
0.08270286 0.0038971435 0.0039999485
0.083971433 0.0038971435 0.0039999485
0.085240006 0.0038971435 0.0039999485
0.086508572 0.0038971435 0.0039999485
0.087746672 0.0039199991 0.0029999614
0.089045718 0.0038971435 0.0039999485
0.090314291 0.0038971435 0.0039999485
0.091582865 0.0038971435 0.0039999485
0.092889532 0.0038742851 0.0049999952
0.094160005 0.0038742851 0.0049999952
0.095430486 0.0038742851 0.0049999952
0.096700959 0.0038742851 0.0049999952
0.097971439 0.0038742851 0.0049999952
0.099337146 0.0038285721 0.0069999695
0.10061143 0.0038285721 0.0069999695
0.10188572 0.0038285721 0.0069999695
0.10316001 0.0038285721 0.0069999695
0.1044343 0.0038285721 0.0069999695
0.10576572 0.0038057147 0.0079999566
0.10704191 0.0038057147 0.0079999566
0.10837905 0.0037828572 0.0089999437
0.10972001 0.0037599988 0.0099999905
0.11112953 0.0037142858 0.011999965
0.11241334 0.0037142858 0.011999965
0.11376572 0.0036914283 0.012999952
0.11505143 0.0036914283 0.012999952
0.11655429 0.003622856 0.015999973
0.11792001 0.0035999995 0.01699996
0.11921334 0.0035999995 0.01699996
0.12058477 0.0035771439 0.017999947
0.12204 0.003531429 0.019999981
0.12333906 0.003531429 0.019999981
0.12472191 0.0035085715 0.020999968
0.12602286 0.0035085715 0.020999968
0.12741144 0.003485715 0.021999955
0.12898287 0.0034171417 0.024999976
0.13047428 0.0033714306 0.02699995
0.13216001 0.0032800008 0.030999959
0.13367048 0.0032342859 0.032999992
0.1349943 0.0032342859 0.032999992
0.1363181 0.0032342859 0.032999992
0.13794476 0.0031657144 0.035999954
0.1392743 0.0031657144 0.035999954
0.14123239 0.0030285697 0.041999996
0.14257334 0.0030285697 0.041999996
0.00065334141 0.0041180952 0.05399996
0.0022 0.0041599991 0.051999986
0.0040971488 0.0042857146 0.045999944
0.0054457188 0.0042857146 0.045999944
0.006880004 0.0043066666 0.044999957
0.008394286 0.0043485705 0.042999983
0.0098190457 0.0043695234 0.041999996
0.011160001 0.0043695234 0.041999996
0.012579054 0.0043904763 0.040999949
0.014299054 0.0044952389 0.035999954
0.015702862 0.0045161899 0.034999967
0.017030481 0.0045161899 0.034999967
0.01849905 0.0045580948 0.032999992
0.019822858 0.0045580948 0.032999992
0.021146666 0.0045580948 0.032999992
0.022470482 0.0045580948 0.032999992
0.02379429 0.0045580948 0.032999992
0.025179055 0.0045790486 0.031999946
0.026500959 0.0045790486 0.031999946
0.027822863 0.0045790486 0.031999946
0.029200006 0.0046000006 0.030999959
0.03062667 0.0046419045 0.028999984
0.031942859 0.0046419045 0.028999984
0.033259049 0.0046419045 0.028999984
0.034622859 0.0046628565 0.027999997
0.036120005 0.0047466662 0.023999989
0.037426673 0.0047466662 0.023999989
0.038817149 0.004788572 0.021999955
0.040120006 0.004788572 0.021999955
0.041499048 0.0048304759 0.019999981
0.042870484 0.0048723817 0.017999947
0.044165723 0.0048723817 0.017999947
0.045493338 0.0048933327 0.01699996
0.046817146 0.0049142856 0.015999973
0.048165716 0.0049561895 0.013999999
0.049480006 0.0049771434 0.012999952
0.050790481 0.0049980944 0.011999965
0.052074291 0.0049980944 0.011999965
0.0533581 0.0049980944 0.011999965
0.054680005 0.0050399993 0.0099999905
0.055977147 0.0050609531 0.0089999437
0.057270482 0.0050819041 0.0079999566
0.05854667 0.0050819041 0.0079999566
0.05983429 0.005102857 0.0069999695
0.061108574 0.005102857 0.0069999695
0.062382862 0.005102857 0.0069999695
0.06365715 0.005102857 0.0069999695
0.064939052 0.0051447609 0.0049999952
0.066209532 0.0051447609 0.0049999952
0.067480005 0.0051447609 0.0049999952
0.068750478 0.0051447609 0.0049999952
0.070020959 0.0051447609 0.0049999952
0.071291432 0.0051447609 0.0049999952
0.072561912 0.0051447609 0.0049999952
0.073822863 0.0051657148 0.0039999485
0.075091437 0.0051657148 0.0039999485
0.076373339 0.0051447609 0.0049999952
0.077628575 0.0051657148 0.0039999485
0.078897148 0.0051657148 0.0039999485
0.080165721 0.0051657148 0.0039999485
0.081434295 0.0051657148 0.0039999485
0.08270286 0.0051657148 0.0039999485
0.083971433 0.0051657148 0.0039999485
0.085240006 0.0051657148 0.0039999485
0.086508572 0.0051657148 0.0039999485
0.087746672 0.0051866667 0.0029999614
0.089013338 0.0051866667 0.0029999614
0.090280004 0.0051866667 0.0029999614
0.091582865 0.0051657148 0.0039999485
0.09285143 0.0051657148 0.0039999485
0.094160005 0.0051447609 0.0049999952
0.095430486 0.0051447609 0.0049999952
0.096788578 0.005102857 0.0069999695
0.098062858 0.005102857 0.0069999695
0.099337146 0.005102857 0.0069999695
0.10061143 0.005102857 0.0069999695
0.10188572 0.005102857 0.0069999695
0.10316001 0.005102857 0.0069999695
0.10448953 0.0050819041 0.0079999566
0.10576572 0.0050819041 0.0079999566
0.10704191 0.0050819041 0.0079999566
0.10837905 0.0050609531 0.0089999437
0.10972001 0.0050399993 0.0099999905
0.11100001 0.0050399993 0.0099999905
0.11241334 0.0049980944 0.011999965
0.11376572 0.0049771434 0.012999952
0.11505143 0.0049771434 0.012999952
0.11655429 0.0049142856 0.015999973
0.11784572 0.0049142856 0.015999973
0.11921334 0.0048933327 0.01699996
0.12050667 0.0048933327 0.01699996
0.12188 0.0048723817 0.017999947
0.12333906 0.0048304759 0.019999981
0.12472191 0.004809523 0.020999968
0.12602286 0.004809523 0.020999968
0.12758668 0.0047466662 0.023999989
0.12898287 0.0047257142 0.024999976
0.13047428 0.0046838103 0.02699995
0.13197334 0.0046419045 0.028999984
0.13386096 0.0045161899 0.034999967
0.1349943 0.0045580948 0.032999992
0.13691239 0.0044323802 0.038999975
0.13824764 0.0044323802 0.038999975
0.13958287 0.0044323802 0.038999975
0.14091811 0.0044323802 0.038999975
0.14193334 0.0044952389 0.035999954
0.14326286 0.0044952389 0.035999954
0.00065334141 0.0054819044 0.05399996
0.0022 0.0055200001 0.051999986
0.0040971488 0.0056342864 0.045999944
0.0054457188 0.0056342864 0.045999944
0.006880004 0.0056533339 0.044999957
0.008394286 0.0056914287 0.042999983
0.0098190457 0.0057104761 0.041999996
0.011160001 0.0057104761 0.041999996
0.012579054 0.0057295235 0.040999949
0.014299054 0.0058247624 0.035999954
0.015628576 0.0058247624 0.035999954
0.017030481 0.0058438098 0.034999967
0.018358096 0.0058438098 0.034999967
0.019822858 0.0058819037 0.032999992
0.021146666 0.0058819037 0.032999992
0.022470482 0.0058819037 0.032999992
0.02379429 0.0058819037 0.032999992
0.025179055 0.005900953 0.031999946
0.026500959 0.005900953 0.031999946
0.027822863 0.005900953 0.031999946
0.029200006 0.0059199994 0.030999959
0.03062667 0.0059580952 0.028999984
0.031942859 0.0059580952 0.028999984
0.033259049 0.0059580952 0.028999984
0.034622859 0.0059771426 0.027999997
0.036074288 0.0060342858 0.024999976
0.037514292 0.0060914289 0.021999955
0.038859051 0.0061104763 0.020999968
0.040200002 0.0061295228 0.019999981
0.041499048 0.0061295228 0.019999981
0.042870484 0.0061676195 0.017999947
0.044165723 0.0061676195 0.017999947
0.045493338 0.0061866669 0.01699996
0.046817146 0.0062057143 0.015999973
0.048165716 0.0062438082 0.013999999
0.049480006 0.0062628575 0.012999952
0.050790481 0.0062819049 0.011999965
0.052074291 0.0062819049 0.011999965
0.053400002 0.0063199997 0.0099999905
0.054680005 0.0063199997 0.0099999905
0.055977147 0.006339048 0.0089999437
0.057270482 0.0063580954 0.0079999566
0.05854667 0.0063580954 0.0079999566
0.05983429 0.0063771419 0.0069999695
0.061108574 0.0063771419 0.0069999695
0.062382862 0.0063771419 0.0069999695
0.06365715 0.0063771419 0.0069999695
0.064939052 0.0064152377 0.0049999952
0.066209532 0.0064152377 0.0049999952
0.067480005 0.0064152377 0.0049999952
0.068750478 0.0064152377 0.0049999952
0.070017152 0.006434286 0.0039999485
0.071291432 0.0064152377 0.0049999952
0.072561912 0.0064152377 0.0049999952
0.073822863 0.006434286 0.0039999485
0.075091437 0.006434286 0.0039999485
0.076360002 0.006434286 0.0039999485
0.077628575 0.006434286 0.0039999485
0.078897148 0.006434286 0.0039999485
0.080165721 0.006434286 0.0039999485
0.081434295 0.006434286 0.0039999485
0.08270286 0.006434286 0.0039999485
0.083971433 0.006434286 0.0039999485
0.085213341 0.0064533334 0.0029999614
0.086480007 0.0064533334 0.0029999614
0.087746672 0.0064533334 0.0029999614
0.089013338 0.0064533334 0.0029999614
0.090280004 0.0064533334 0.0029999614
0.09154667 0.0064533334 0.0029999614
0.09285143 0.006434286 0.0039999485
0.094120003 0.006434286 0.0039999485
0.095430486 0.0064152377 0.0049999952
0.096700959 0.0064152377 0.0049999952
0.097971439 0.0064152377 0.0049999952
0.099337146 0.0063771419 0.0069999695
0.10061143 0.0063771419 0.0069999695
0.10188572 0.0063771419 0.0069999695
0.10316001 0.0063771419 0.0069999695
0.10448953 0.0063580954 0.0079999566
0.10576572 0.0063580954 0.0079999566
0.10710096 0.006339048 0.0089999437
0.10837905 0.006339048 0.0089999437
0.10972001 0.0063199997 0.0099999905
0.11100001 0.0063199997 0.0099999905
0.11241334 0.0062819049 0.011999965
0.11376572 0.0062628575 0.012999952
0.11512192 0.0062438082 0.013999999
0.11655429 0.0062057143 0.015999973
0.11792001 0.0061866669 0.01699996
0.11921334 0.0061866669 0.01699996
0.12050667 0.0061866669 0.01699996
0.12188 0.0061676195 0.017999947
0.12333906 0.0061295228 0.019999981
0.12472191 0.0061104763 0.020999968
0.12602286 0.0061104763 0.020999968
0.12758668 0.0060533322 0.023999989
0.12898287 0.0060342858 0.024999976
0.13047428 0.00599619 0.02699995
0.13197334 0.0059580952 0.028999984
0.13367048 0.0058819037 0.032999992
0.1349943 0.0058819037 0.032999992
0.13691239 0.0057676192 0.038999975
0.13824764 0.0057676192 0.038999975
0.13948001 0.0057866666 0.037999988
0.14060381 0.0058247624 0.035999954
0.14193334 0.0058247624 0.035999954
0.14348 0.0057866666 0.037999988
0.00065334141 0.0068457145 0.05399996
0.0022 0.0068799993 0.051999986
0.0040971488 0.0069828574 0.045999944
0.0054457188 0.0069828574 0.045999944
0.006880004 0.0070000002 0.044999957
0.008394286 0.0070342859 0.042999983
0.0098190457 0.0070514278 0.041999996
0.011160001 0.0070514278 0.041999996
0.01273524 0.0071028564 0.038999975
0.014299054 0.0071542859 0.035999954
0.015628576 0.0071542859 0.035999954
0.017030481 0.0071714288 0.034999967
0.018358096 0.0071714288 0.034999967
0.019822858 0.0072057135 0.032999992
0.021146666 0.0072057135 0.032999992
0.022470482 0.0072057135 0.032999992
0.02379429 0.0072057135 0.032999992
0.025179055 0.0072228573 0.031999946
0.026500959 0.0072228573 0.031999946
0.027880006 0.0072400002 0.030999959
0.029200006 0.0072400002 0.030999959
0.03062667 0.0072742859 0.028999984
0.031942859 0.0072742859 0.028999984
0.033308573 0.0072914278 0.027999997
0.03467048 0.0073085716 0.02699995
0.036120005 0.0073600002 0.023999989
0.037514292 0.0073942859 0.021999955
0.038859051 0.0074114287 0.020999968
0.040160004 0.0074114287 0.020999968
0.041499048 0.0074285707 0.019999981
0.042870484 0.0074628582 0.017999947
0.044200003 0.0074800001 0.01699996
0.045493338 0.0074800001 0.01699996
0.046786673 0.0074800001 0.01699996
0.048194289 0.0075485716 0.012999952
0.049480006 0.0075485716 0.012999952
0.050790481 0.0075657144 0.011999965
0.052074291 0.0075657144 0.011999965
0.053400002 0.0076000001 0.0099999905
0.054680005 0.0076000001 0.0099999905
0.055977147 0.007617143 0.0089999437
0.057270482 0.0076342858 0.0079999566
0.05854667 0.0076342858 0.0079999566
0.05983429 0.0076514287 0.0069999695
0.061108574 0.0076514287 0.0069999695
0.062382862 0.0076514287 0.0069999695
0.06365715 0.0076514287 0.0069999695
0.064939052 0.0076857144 0.0049999952
0.066209532 0.0076857144 0.0049999952
0.067480005 0.0076857144 0.0049999952
0.068750478 0.0076857144 0.0049999952
0.070017152 0.0077028573 0.0039999485
0.071285717 0.0077028573 0.0039999485
0.07255429 0.0077028573 0.0039999485
0.073822863 0.0077028573 0.0039999485
0.075091437 0.0077028573 0.0039999485
0.076360002 0.0077028573 0.0039999485
0.077628575 0.0077028573 0.0039999485
0.078897148 0.0077028573 0.0039999485
0.080165721 0.0077028573 0.0039999485
0.081413336 0.0077200001 0.0029999614
0.08270286 0.0077028573 0.0039999485
0.083946675 0.0077200001 0.0029999614
0.085213341 0.0077200001 0.0029999614
0.086480007 0.0077200001 0.0029999614
0.087746672 0.0077200001 0.0029999614
0.089013338 0.0077200001 0.0029999614
0.090280004 0.0077200001 0.0029999614
0.09154667 0.0077200001 0.0029999614
0.09285143 0.0077028573 0.0039999485
0.094120003 0.0077028573 0.0039999485
0.095430486 0.0076857144 0.0049999952
0.096700959 0.0076857144 0.0049999952
0.097971439 0.0076857144 0.0049999952
0.099337146 0.0076514287 0.0069999695
0.10061143 0.0076514287 0.0069999695
0.10188572 0.0076514287 0.0069999695
0.10316001 0.0076514287 0.0069999695
0.10448953 0.0076342858 0.0079999566
0.10576572 0.0076342858 0.0079999566
0.10704191 0.0076342858 0.0079999566
0.10837905 0.007617143 0.0089999437
0.10965715 0.007617143 0.0089999437
0.11093524 0.007617143 0.0089999437
0.11241334 0.0075657144 0.011999965
0.11369715 0.0075657144 0.011999965
0.11498097 0.0075657144 0.011999965
0.11640953 0.0075314278 0.013999999
0.11784572 0.007497143 0.015999973
0.11913715 0.007497143 0.015999973
0.12050667 0.0074800001 0.01699996
0.12188 0.0074628582 0.017999947
0.12317524 0.0074628582 0.017999947
0.1246381 0.0074285707 0.019999981
0.12602286 0.0074114287 0.020999968
0.12758668 0.0073600002 0.023999989
0.12889335 0.0073600002 0.023999989
0.13047428 0.0073085716 0.02699995
0.13188002 0.0072914278 0.027999997
0.13357525 0.0072228573 0.031999946
0.1349943 0.0072057135 0.032999992
0.13691239 0.0071028564 0.038999975
0.13824764 0.0071028564 0.038999975
0.13958287 0.0071028564 0.038999975
0.14060381 0.0071542859 0.035999954
0.14214668 0.0071200002 0.037999988
0.14348 0.0071200002 0.037999988
0.00056000799 0.0081942864 0.054999948
0.0022 0.0082399994 0.051999986
0.0039180964 0.0083009526 0.047999978
0.0054457188 0.0083314292 0.045999944
0.0067942888 0.0083314292 0.045999944
0.0082266703 0.0083466666 0.044999957
0.0097371452 0.0083771423 0.042999983
0.011080001 0.0083771423 0.042999983
0.012579054 0.0084076198 0.040999949
0.014146671 0.0084533328 0.037999988
0.015628576 0.0084838094 0.035999954
0.016958103 0.0084838094 0.035999954
0.018358096 0.0084990477 0.034999967
0.019822858 0.0085295234 0.032999992
0.021146666 0.0085295234 0.032999992
0.022470482 0.0085295234 0.032999992
0.023857147 0.0085447626 0.031999946
0.025179055 0.0085447626 0.031999946
0.026560005 0.00856 0.030999959
0.027880006 0.00856 0.030999959
0.02931048 0.0085904757 0.028999984
0.03062667 0.0085904757 0.028999984
0.031942859 0.0085904757 0.028999984
0.033308573 0.008605714 0.027999997
0.03467048 0.0086209523 0.02699995
0.036120005 0.0086666662 0.023999989
0.037514292 0.0086971428 0.021999955
0.038859051 0.0087123811 0.020999968
0.040200002 0.0087276185 0.019999981
0.041575246 0.0087580951 0.017999947
0.042906672 0.0087733334 0.01699996
0.044200003 0.0087733334 0.01699996
0.045525718 0.0087885717 0.015999973
0.046878099 0.0088190474 0.013999999
0.048194289 0.0088342857 0.012999952
0.049506672 0.008849524 0.011999965
0.050790481 0.008849524 0.011999965
0.052120004 0.0088799996 0.0099999905
0.053400002 0.0088799996 0.0099999905
0.054699052 0.0088952389 0.0089999437
0.055994291 0.0089104762 0.0079999566
0.057270482 0.0089104762 0.0079999566
0.058560006 0.0089257145 0.0069999695
0.05983429 0.0089257145 0.0069999695
0.061108574 0.0089257145 0.0069999695
0.062382862 0.0089257145 0.0069999695
0.06365715 0.0089257145 0.0069999695
0.064939052 0.0089561902 0.0049999952
0.066209532 0.0089561902 0.0049999952
0.067480005 0.0089714285 0.0039999485
0.068748578 0.0089714285 0.0039999485
0.070017152 0.0089714285 0.0039999485
0.071285717 0.0089714285 0.0039999485
0.07255429 0.0089714285 0.0039999485
0.073822863 0.0089714285 0.0039999485
0.075091437 0.0089714285 0.0039999485
0.076360002 0.0089714285 0.0039999485
0.077613339 0.0089866668 0.0029999614
0.078897148 0.0089714285 0.0039999485
0.08014667 0.0089866668 0.0029999614
0.081413336 0.0089866668 0.0029999614
0.082680009 0.0089866668 0.0029999614
0.083946675 0.0089866668 0.0029999614
0.085213341 0.0089866668 0.0029999614
0.086480007 0.0089866668 0.0029999614
0.087746672 0.0089866668 0.0029999614
0.089013338 0.0089866668 0.0029999614
0.090280004 0.0089866668 0.0029999614
0.09154667 0.0089866668 0.0029999614
0.092813343 0.0089866668 0.0029999614
0.094120003 0.0089714285 0.0039999485
0.095388576 0.0089714285 0.0039999485
0.096700959 0.0089561902 0.0049999952
0.097971439 0.0089561902 0.0049999952
0.099337146 0.0089257145 0.0069999695
0.10061143 0.0089257145 0.0069999695
0.10188572 0.0089257145 0.0069999695
0.10316001 0.0089257145 0.0069999695
0.10448953 0.0089104762 0.0079999566
0.10576572 0.0089104762 0.0079999566
0.10704191 0.0089104762 0.0079999566
0.10831811 0.0089104762 0.0079999566
0.10965715 0.0088952389 0.0089999437
0.11093524 0.0088952389 0.0089999437
0.11228001 0.0088799996 0.0099999905
0.11369715 0.008849524 0.011999965
0.11498097 0.008849524 0.011999965
0.11640953 0.0088190474 0.013999999
0.11784572 0.0087885717 0.015999973
0.11913715 0.0087885717 0.015999973
0.12050667 0.0087733334 0.01699996
0.12188 0.0087580951 0.017999947
0.12317524 0.0087580951 0.017999947
0.1246381 0.0087276185 0.019999981
0.12602286 0.0087123811 0.020999968
0.12758668 0.0086666662 0.023999989
0.12889335 0.0086666662 0.023999989
0.13029143 0.0086514289 0.024999976
0.13188002 0.008605714 0.027999997
0.13348001 0.00856 0.030999959
0.13489714 0.0085447626 0.031999946
0.13691239 0.0084380955 0.038999975
0.13824764 0.0084380955 0.038999975
0.13958287 0.0084380955 0.038999975
0.14091811 0.0084380955 0.038999975
0.14225334 0.0084380955 0.038999975
0.14358857 0.0084380955 0.038999975
0.00037333369 0.0095333327 0.056999981
0.0020171478 0.0095733339 0.05399996
0.0039180964 0.0096533336 0.047999978
0.0054457188 0.0096800011 0.045999944
0.0067942888 0.0096800011 0.045999944
0.0082266703 0.0096933329 0.044999957
0.0097371452 0.0097199995 0.042999983
0.011160001 0.0097333333 0.041999996
0.012579054 0.009746667 0.040999949
0.014146671 0.0097866664 0.037999988
0.015480004 0.0097866664 0.037999988
0.016958103 0.0098133339 0.035999954
0.018358096 0.0098266667 0.034999967
0.019822858 0.0098533332 0.032999992
0.021146666 0.0098533332 0.032999992
0.022470482 0.0098533332 0.032999992
0.02379429 0.0098533332 0.032999992
0.025179055 0.0098666679 0.031999946
0.026560005 0.0098799998 0.030999959
0.027880006 0.0098799998 0.030999959
0.02931048 0.0099066664 0.028999984
0.03062667 0.0099066664 0.028999984
0.031994291 0.0099200001 0.027999997
0.033358101 0.0099333338 0.02699995
0.034765717 0.0099600004 0.024999976
0.036120005 0.0099733323 0.023999989
0.037514292 0.0099999998 0.021999955
0.038859051 0.010013334 0.020999968
0.040200002 0.010026666 0.019999981
0.041575246 0.010053333 0.017999947
0.042906672 0.010066667 0.01699996
0.044200003 0.010066667 0.01699996
0.045525718 0.010079999 0.015999973
0.046878099 0.010106666 0.013999999
0.048194289 0.010120001 0.012999952
0.049506672 0.010133333 0.011999965
0.050790481 0.010133333 0.011999965
0.052120004 0.010159999 0.0099999905
0.053400002 0.010159999 0.0099999905
0.054680005 0.010159999 0.0099999905
0.055977147 0.010173334 0.0089999437
0.057270482 0.010186667 0.0079999566
0.05854667 0.010186667 0.0079999566
0.05983429 0.0102 0.0069999695
0.061108574 0.0102 0.0069999695
0.062382862 0.0102 0.0069999695
0.063668579 0.010226666 0.0049999952
0.064939052 0.010226666 0.0049999952
0.066211432 0.01024 0.0039999485
0.067480005 0.01024 0.0039999485
0.068748578 0.01024 0.0039999485
0.070017152 0.01024 0.0039999485
0.071285717 0.01024 0.0039999485
0.07255429 0.01024 0.0039999485
0.073813342 0.010253333 0.0029999614
0.075080007 0.010253333 0.0029999614
0.076360002 0.01024 0.0039999485
0.077613339 0.010253333 0.0029999614
0.078880005 0.010253333 0.0029999614
0.08014667 0.010253333 0.0029999614
0.081413336 0.010253333 0.0029999614
0.082680009 0.010253333 0.0029999614
0.083946675 0.010253333 0.0029999614
0.085213341 0.010253333 0.0029999614
0.086422861 0.01028 0.00099998713
0.087685719 0.01028 0.00099998713
0.088948578 0.01028 0.00099998713
0.090211436 0.01028 0.00099998713
0.09154667 0.010253333 0.0029999614
0.092813343 0.010253333 0.0029999614
0.094080001 0.010253333 0.0029999614
0.095388576 0.01024 0.0039999485
0.096700959 0.010226666 0.0049999952
0.097971439 0.010226666 0.0049999952
0.099337146 0.0102 0.0069999695
0.10061143 0.0102 0.0069999695
0.10188572 0.0102 0.0069999695
0.10316001 0.0102 0.0069999695
0.10448953 0.010186667 0.0079999566
0.10576572 0.010186667 0.0079999566
0.10704191 0.010186667 0.0079999566
0.10831811 0.010186667 0.0079999566
0.10965715 0.010173334 0.0089999437
0.11093524 0.010173334 0.0089999437
0.11228001 0.010159999 0.0099999905
0.11356001 0.010159999 0.0099999905
0.11498097 0.010133333 0.011999965
0.11633715 0.010120001 0.012999952
0.11784572 0.010079999 0.015999973
0.11913715 0.010079999 0.015999973
0.12050667 0.010066667 0.01699996
0.12180001 0.010066667 0.01699996
0.12317524 0.010053333 0.017999947
0.1246381 0.010026666 0.019999981
0.12602286 0.010013334 0.020999968
0.12741144 0.0099999998 0.021999955
0.12889335 0.0099733323 0.023999989
0.13029143 0.0099600004 0.024999976
0.13178667 0.0099333338 0.02699995
0.13328953 0.0099066664 0.028999984
0.13489714 0.0098666679 0.031999946
0.1365162 0.0098266667 0.034999967
0.13794476 0.0098133339 0.035999954
0.13948001 0.0097866664 0.037999988
0.14060381 0.0098133339 0.035999954
0.14225334 0.0097733336 0.038999975
0.14358857 0.0097733336 0.038999975
0.00037333369 0.010902857 0.056999981
0.0020171478 0.010937143 0.05399996
0.0038285777 0.010994285 0.048999965
0.0054457188 0.011028572 0.045999944
0.0067942888 0.011028572 0.045999944
0.0082266703 0.01104 0.044999957
0.0097371452 0.011062857 0.042999983
0.011080001 0.011062857 0.042999983
0.012579054 0.011085715 0.040999949
0.014146671 0.01112 0.037999988
0.015628576 0.011142857 0.035999954
0.016958103 0.011142857 0.035999954
0.018358096 0.011154286 0.034999967
0.019822858 0.011177143 0.032999992
0.021146666 0.011177143 0.032999992
0.022470482 0.011177143 0.032999992
0.023857147 0.011188571 0.031999946
0.025240004 0.011200001 0.030999959
0.026560005 0.011200001 0.030999959
0.02799429 0.011222857 0.028999984
0.02931048 0.011222857 0.028999984
0.03062667 0.011222857 0.028999984
0.031994291 0.011234285 0.027999997
0.033358101 0.011245715 0.02699995
0.034765717 0.011268571 0.024999976
0.036120005 0.01128 0.023999989
0.037514292 0.011302858 0.021999955
0.038859051 0.011314286 0.020999968
0.040200002 0.011325715 0.019999981
0.041575246 0.011348572 0.017999947
0.042906672 0.01136 0.01699996
0.044234291 0.011371428 0.015999973
0.045590483 0.011394286 0.013999999
0.046908576 0.011405714 0.012999952
0.048222862 0.011417143 0.011999965
0.049506672 0.011417143 0.011999965
0.050790481 0.011417143 0.011999965
0.052120004 0.01144 0.0099999905
0.0533581 0.011417143 0.011999965
0.054680005 0.01144 0.0099999905
0.055994291 0.011462858 0.0079999566
0.057270482 0.011462858 0.0079999566
0.05854667 0.011462858 0.0079999566
0.05983429 0.011474286 0.0069999695
0.061127625 0.011497143 0.0049999952
0.062398098 0.011497143 0.0049999952
0.063668579 0.011497143 0.0049999952
0.064939052 0.011497143 0.0049999952
0.066211432 0.011508572 0.0039999485
0.067480005 0.011508572 0.0039999485
0.068748578 0.011508572 0.0039999485
0.070017152 0.011508572 0.0039999485
0.071285717 0.011508572 0.0039999485
0.07255429 0.011508572 0.0039999485
0.073813342 0.01152 0.0029999614
0.075080007 0.01152 0.0029999614
0.076360002 0.011508572 0.0039999485
0.077613339 0.01152 0.0029999614
0.078880005 0.01152 0.0029999614
0.08014667 0.01152 0.0029999614
0.081413336 0.01152 0.0029999614
0.082680009 0.01152 0.0029999614
0.083946675 0.01152 0.0029999614
0.085160002 0.011542857 0.00099998713
0.086422861 0.011542857 0.00099998713
0.087685719 0.011542857 0.00099998713
0.088948578 0.011542857 0.00099998713
0.090211436 0.011542857 0.00099998713
0.09154667 0.01152 0.0029999614
0.092813343 0.01152 0.0029999614
0.094080001 0.01152 0.0029999614
0.095388576 0.011508572 0.0039999485
0.096700959 0.011497143 0.0049999952
0.097971439 0.011497143 0.0049999952
0.099337146 0.011474286 0.0069999695
0.10061143 0.011474286 0.0069999695
0.10188572 0.011474286 0.0069999695
0.10316001 0.011474286 0.0069999695
0.10448953 0.011462858 0.0079999566
0.10576572 0.011462858 0.0079999566
0.10704191 0.011462858 0.0079999566
0.10831811 0.011462858 0.0079999566
0.10965715 0.011451429 0.0089999437
0.11093524 0.011451429 0.0089999437
0.11221334 0.011451429 0.0089999437
0.11356001 0.01144 0.0099999905
0.11498097 0.011417143 0.011999965
0.11633715 0.011405714 0.012999952
0.11769715 0.011394286 0.013999999
0.11913715 0.011371428 0.015999973
0.12050667 0.01136 0.01699996
0.12180001 0.01136 0.01699996
0.12317524 0.011348572 0.017999947
0.12447048 0.011348572 0.017999947
0.12602286 0.011314286 0.020999968
0.12741144 0.011302858 0.021999955
0.12889335 0.01128 0.023999989
0.13029143 0.011268571 0.024999976
0.13178667 0.011245715 0.02699995
0.1331943 0.011234285 0.027999997
0.13460572 0.011222857 0.028999984
0.13681334 0.01112 0.037999988
0.13814667 0.01112 0.037999988
0.13958287 0.011108571 0.038999975
0.14091811 0.011108571 0.038999975
0.14225334 0.011108571 0.038999975
0.14358857 0.011108571 0.038999975
0.00037333369 0.01227238 0.056999981
0.0019257218 0.01229143 0.054999948
0.0038285777 0.012348572 0.048999965
0.0054457188 0.012377143 0.045999944
0.0067942888 0.012377143 0.045999944
0.0082266703 0.012386667 0.044999957
0.0095733367 0.012386667 0.044999957
0.011080001 0.012405714 0.042999983
0.012500953 0.012415238 0.041999996
0.014070481 0.01244381 0.038999975
0.015480004 0.012453333 0.037999988
0.016958103 0.012472382 0.035999954
0.018358096 0.012481906 0.034999967
0.019822858 0.012500952 0.032999992
0.021146666 0.012500952 0.032999992
0.022470482 0.012500952 0.032999992
0.023920003 0.01252 0.030999959
0.025240004 0.01252 0.030999959
0.026678097 0.012539048 0.028999984
0.02799429 0.012539048 0.028999984
0.02931048 0.012539048 0.028999984
0.030680005 0.012548571 0.027999997
0.031994291 0.012548571 0.027999997
0.033358101 0.012558095 0.02699995
0.034813337 0.012586666 0.023999989
0.036120005 0.012586666 0.023999989
0.037514292 0.012605715 0.021999955
0.038859051 0.012615238 0.020999968
0.040200002 0.012624761 0.019999981
0.041575246 0.01264381 0.017999947
0.042906672 0.012653334 0.01699996
0.044234291 0.012662858 0.015999973
0.045590483 0.012681904 0.013999999
0.046878099 0.012681904 0.013999999
0.048222862 0.012700953 0.011999965
0.049506672 0.012700953 0.011999965
0.050840005 0.01272 0.0099999905
0.052120004 0.01272 0.0099999905
0.053400002 0.01272 0.0099999905
0.054699052 0.012729524 0.0089999437
0.055994291 0.012739047 0.0079999566
0.057270482 0.012739047 0.0079999566
0.058560006 0.012748571 0.0069999695
0.05983429 0.012748571 0.0069999695
0.061127625 0.012767619 0.0049999952
0.062398098 0.012767619 0.0049999952
0.063668579 0.012767619 0.0049999952
0.064939052 0.012767619 0.0049999952
0.066211432 0.012777143 0.0039999485
0.067480005 0.012786667 0.0029999614
0.068748578 0.012777143 0.0039999485
0.070017152 0.012777143 0.0039999485
0.071285717 0.012777143 0.0039999485
0.072546676 0.012786667 0.0029999614
0.073813342 0.012786667 0.0029999614
0.075080007 0.012786667 0.0029999614
0.076346673 0.012786667 0.0029999614
0.077613339 0.012786667 0.0029999614
0.078880005 0.012786667 0.0029999614
0.08014667 0.012786667 0.0029999614
0.081371434 0.012805714 0.00099998713
0.082680009 0.012786667 0.0029999614
0.083946675 0.012786667 0.0029999614
0.085160002 0.012805714 0.00099998713
0.086422861 0.012805714 0.00099998713
0.087685719 0.012805714 0.00099998713
0.088948578 0.012805714 0.00099998713
0.090211436 0.012805714 0.00099998713
0.09154667 0.012786667 0.0029999614
0.092813343 0.012786667 0.0029999614
0.094080001 0.012786667 0.0029999614
0.095346674 0.012786667 0.0029999614
0.096657149 0.012777143 0.0039999485
0.097971439 0.012767619 0.0049999952
0.099241912 0.012767619 0.0049999952
0.10061143 0.012748571 0.0069999695
0.10188572 0.012748571 0.0069999695
0.10316001 0.012748571 0.0069999695
0.10448953 0.012739047 0.0079999566
0.10570858 0.012748571 0.0069999695
0.10704191 0.012739047 0.0079999566
0.10831811 0.012739047 0.0079999566
0.10965715 0.012729524 0.0089999437
0.11093524 0.012729524 0.0089999437
0.11228001 0.01272 0.0099999905
0.11356001 0.01272 0.0099999905
0.11498097 0.012700953 0.011999965
0.11633715 0.012691429 0.012999952
0.11769715 0.012681904 0.013999999
0.11913715 0.012662858 0.015999973
0.12042858 0.012662858 0.015999973
0.12180001 0.012653334 0.01699996
0.12309334 0.012653334 0.01699996
0.12447048 0.01264381 0.017999947
0.12602286 0.012615238 0.020999968
0.12758668 0.012586666 0.023999989
0.12889335 0.012586666 0.023999989
0.13047428 0.012558095 0.02699995
0.13178667 0.012558095 0.02699995
0.1331943 0.012548571 0.027999997
0.13460572 0.012539048 0.028999984
0.1363181 0.012500952 0.032999992
0.13814667 0.012453333 0.037999988
0.13958287 0.01244381 0.038999975
0.14091811 0.01244381 0.038999975
0.14225334 0.01244381 0.038999975
0.00037333369 0.013641905 0.056999981
0.0017428622 0.013641905 0.056999981
0.0035599992 0.01368 0.051999986
0.0052704737 0.013710476 0.047999978
0.0067942888 0.013725715 0.045999944
0.0082266703 0.013733333 0.044999957
0.0095733367 0.013733333 0.044999957
0.011080001 0.013748571 0.042999983
0.012500953 0.01375619 0.041999996
0.014070481 0.013779048 0.038999975
0.015480004 0.013786666 0.037999988
0.016958103 0.013801904 0.035999954
0.018358096 0.013809524 0.034999967
0.019822858 0.013824762 0.032999992
0.021146666 0.013824762 0.032999992
0.022470482 0.013824762 0.032999992
0.023857147 0.013832381 0.031999946
0.025240004 0.01384 0.030999959
0.026678097 0.013855238 0.028999984
0.02799429 0.013855238 0.028999984
0.029365715 0.013862858 0.027999997
0.030680005 0.013862858 0.027999997
0.032045718 0.013870476 0.02699995
0.033457145 0.013885714 0.024999976
0.034813337 0.013893333 0.023999989
0.036211435 0.013908572 0.021999955
0.037514292 0.013908572 0.021999955
0.038859051 0.013916191 0.020999968
0.040200002 0.013923809 0.019999981
0.041575246 0.013939047 0.017999947
0.042906672 0.013946667 0.01699996
0.044234291 0.013954286 0.015999973
0.045590483 0.013969524 0.013999999
0.046908576 0.013977143 0.012999952
0.048222862 0.013984762 0.011999965
0.049506672 0.013984762 0.011999965
0.050840005 0.014 0.0099999905
0.052120004 0.014 0.0099999905
0.053400002 0.014 0.0099999905
0.054680005 0.014 0.0099999905
0.055994291 0.014015239 0.0079999566
0.057270482 0.014015239 0.0079999566
0.058560006 0.014022857 0.0069999695
0.05983429 0.014022857 0.0069999695
0.061127625 0.014038095 0.0049999952
0.062398098 0.014038095 0.0049999952
0.063668579 0.014038095 0.0049999952
0.064942859 0.014045714 0.0039999485
0.066211432 0.014045714 0.0039999485
0.067480005 0.014053334 0.0029999614
0.068748578 0.014045714 0.0039999485
0.070017152 0.014045714 0.0039999485
0.071285717 0.014045714 0.0039999485
0.072546676 0.014053334 0.0029999614
0.073813342 0.014053334 0.0029999614
0.075080007 0.014053334 0.0029999614
0.076346673 0.014053334 0.0029999614
0.077613339 0.014053334 0.0029999614
0.078880005 0.014053334 0.0029999614
0.080108576 0.014068572 0.00099998713
0.081371434 0.014068572 0.00099998713
0.082634293 0.014068572 0.00099998713
0.083897151 0.014068572 0.00099998713
0.085160002 0.014068572 0.00099998713
0.086422861 0.014068572 0.00099998713
0.087685719 0.014068572 0.00099998713
0.088948578 0.014068572 0.00099998713
0.090211436 0.014068572 0.00099998713
0.091474295 0.014068572 0.00099998713
0.092813343 0.014053334 0.0029999614
0.094080001 0.014053334 0.0029999614
0.095346674 0.014053334 0.0029999614
0.096657149 0.014045714 0.0039999485
0.097925723 0.014045714 0.0039999485
0.099241912 0.014038095 0.0049999952
0.10051239 0.014038095 0.0049999952
0.10178286 0.014038095 0.0049999952
0.10316001 0.014022857 0.0069999695
0.1044343 0.014022857 0.0069999695
0.10570858 0.014022857 0.0069999695
0.10698286 0.014022857 0.0069999695
0.10825714 0.014022857 0.0069999695
0.10959429 0.014015239 0.0079999566
0.11087048 0.014015239 0.0079999566
0.11221334 0.01400762 0.0089999437
0.11356001 0.014 0.0099999905
0.11498097 0.013984762 0.011999965
0.11633715 0.013977143 0.012999952
0.11769715 0.013969524 0.013999999
0.11898477 0.013969524 0.013999999
0.12042858 0.013954286 0.015999973
0.12180001 0.013946667 0.01699996
0.12309334 0.013946667 0.01699996
0.12447048 0.013939047 0.017999947
0.12602286 0.013916191 0.020999968
0.12758668 0.013893333 0.023999989
0.12898287 0.013885714 0.024999976
0.13047428 0.013870476 0.02699995
0.13178667 0.013870476 0.02699995
0.1331943 0.013862858 0.027999997
0.13460572 0.013855238 0.028999984
0.13621905 0.013832381 0.031999946
0.13794476 0.013801904 0.035999954
0.13948001 0.013786666 0.037999988
0.14091811 0.013779048 0.038999975
0.14225334 0.013779048 0.038999975
0.00037333369 0.015011429 0.056999981
0.0017428622 0.015011429 0.056999981
0.0033809543 0.015028572 0.05399996
0.0052704737 0.015062857 0.047999978
0.0067942888 0.015074287 0.045999944
0.0082266703 0.01508 0.044999957
0.0095733367 0.01508 0.044999957
0.011080001 0.015091429 0.042999983
0.012500953 0.015097143 0.041999996
0.014070481 0.015114285 0.038999975
0.015480004 0.01512 0.037999988
0.017030481 0.015137143 0.034999967
0.018358096 0.015137143 0.034999967
0.019822858 0.015148572 0.032999992
0.021146666 0.015148572 0.032999992
0.022470482 0.015148572 0.032999992
0.023920003 0.01516 0.030999959
0.025240004 0.01516 0.030999959
0.026678097 0.015171429 0.028999984
0.02799429 0.015171429 0.028999984
0.029365715 0.015177143 0.027999997
0.030680005 0.015177143 0.027999997
0.032148574 0.015194286 0.024999976
0.033457145 0.015194286 0.024999976
0.034813337 0.0152 0.023999989
0.036211435 0.015211429 0.021999955
0.037514292 0.015211429 0.021999955
0.038859051 0.015217143 0.020999968
0.040200002 0.015222858 0.019999981
0.041575246 0.015234286 0.017999947
0.042906672 0.015240001 0.01699996
0.044234291 0.015245714 0.015999973
0.045590483 0.015257142 0.013999999
0.046908576 0.015262857 0.012999952
0.048222862 0.015268572 0.011999965
0.049506672 0.015268572 0.011999965
0.050840005 0.01528 0.0099999905
0.052120004 0.01528 0.0099999905
0.053400002 0.01528 0.0099999905
0.054699052 0.015285715 0.0089999437
0.055994291 0.015291429 0.0079999566
0.057285719 0.015297143 0.0069999695
0.058560006 0.015297143 0.0069999695
0.05983429 0.015297143 0.0069999695
0.061127625 0.015308572 0.0049999952
0.062398098 0.015308572 0.0049999952
0.063668579 0.015308572 0.0049999952
0.064939052 0.015308572 0.0049999952
0.066211432 0.015314287 0.0039999485
0.067480005 0.01532 0.0029999614
0.068748578 0.015314287 0.0039999485
0.070017152 0.015314287 0.0039999485
0.071285717 0.015314287 0.0039999485
0.072546676 0.01532 0.0029999614
0.073813342 0.01532 0.0029999614
0.075080007 0.01532 0.0029999614
0.076346673 0.01532 0.0029999614
0.077582866 0.015331428 0.00099998713
0.078845724 0.015331428 0.00099998713
0.080108576 0.015331428 0.00099998713
0.081371434 0.015331428 0.00099998713
0.082634293 0.015331428 0.00099998713
0.083897151 0.015331428 0.00099998713
0.085160002 0.015331428 0.00099998713
0.086422861 0.015331428 0.00099998713
0.087685719 0.015331428 0.00099998713
0.088948578 0.015331428 0.00099998713
0.090211436 0.015331428 0.00099998713
0.091474295 0.015331428 0.00099998713
0.092813343 0.01532 0.0029999614
0.094080001 0.01532 0.0029999614
0.095346674 0.01532 0.0029999614
0.09661334 0.01532 0.0029999614
0.097925723 0.015314287 0.0039999485
0.099194288 0.015314287 0.0039999485
0.10051239 0.015308572 0.0049999952
0.10178286 0.015308572 0.0049999952
0.10305335 0.015308572 0.0049999952
0.10432382 0.015308572 0.0049999952
0.10570858 0.015297143 0.0069999695
0.10698286 0.015297143 0.0069999695
0.10825714 0.015297143 0.0069999695
0.10959429 0.015291429 0.0079999566
0.11093524 0.015285715 0.0089999437
0.11221334 0.015285715 0.0089999437
0.11356001 0.01528 0.0099999905
0.11498097 0.015268572 0.011999965
0.11633715 0.015262857 0.012999952
0.11762287 0.015262857 0.012999952
0.11898477 0.015257142 0.013999999
0.12027238 0.015257142 0.013999999
0.12172001 0.015245714 0.015999973
0.12301144 0.015245714 0.015999973
0.12438668 0.015240001 0.01699996
0.12602286 0.015217143 0.020999968
0.12741144 0.015211429 0.021999955
0.12889335 0.0152 0.023999989
0.13047428 0.015182858 0.02699995
0.13178667 0.015182858 0.02699995
0.1331943 0.015177143 0.027999997
0.13460572 0.015171429 0.028999984
0.13621905 0.015154285 0.031999946
0.13784382 0.015137143 0.034999967
0.1392743 0.015131429 0.035999954
0.14081335 0.01512 0.037999988
0.14246666 0.015102858 0.040999949
0.14380571 0.015102858 0.040999949
0.00028000027 0.016377144 0.057999969
0.0017428622 0.016380953 0.056999981
0.0032914355 0.016388573 0.054999948
0.0054457188 0.016422857 0.045999944
0.0067942888 0.016422857 0.045999944
0.0082266703 0.016426668 0.044999957
0.0095733367 0.016426668 0.044999957
0.011080001 0.016434286 0.042999983
0.012500953 0.016438095 0.041999996
0.014070481 0.016449524 0.038999975
0.015405718 0.016449524 0.038999975
0.016958103 0.016460953 0.035999954
0.018358096 0.016464762 0.034999967
0.019685719 0.016464762 0.034999967
0.021146666 0.016472381 0.032999992
0.022470482 0.016472381 0.032999992
0.023857147 0.016476192 0.031999946
0.025240004 0.016480001 0.030999959
0.026678097 0.016487619 0.028999984
0.02799429 0.016487619 0.028999984
0.029365715 0.016491428 0.027999997
0.030733339 0.016495239 0.02699995
0.032148574 0.016502857 0.024999976
0.033506673 0.016506666 0.023999989
0.034908578 0.016514286 0.021999955
0.036211435 0.016514286 0.021999955
0.037558101 0.016518096 0.020999968
0.038900957 0.016521905 0.019999981
0.040280007 0.016529525 0.017999947
0.041575246 0.016529525 0.017999947
0.042906672 0.016533334 0.01699996
0.044234291 0.016537143 0.015999973
0.045590483 0.016544763 0.013999999
0.046908576 0.016548572 0.012999952
0.048222862 0.016552381 0.011999965
0.049506672 0.016552381 0.011999965
0.050840005 0.016559999 0.0099999905
0.052120004 0.016559999 0.0099999905
0.053420957 0.01656381 0.0089999437
0.054699052 0.01656381 0.0089999437
0.055994291 0.01656762 0.0079999566
0.057285719 0.016571429 0.0069999695
0.058560006 0.016571429 0.0069999695
0.059857149 0.016579047 0.0049999952
0.061127625 0.016579047 0.0049999952
0.06240572 0.016582858 0.0039999485
0.063674293 0.016582858 0.0039999485
0.064942859 0.016582858 0.0039999485
0.066211432 0.016582858 0.0039999485
0.067480005 0.016586667 0.0029999614
0.068746671 0.016586667 0.0029999614
0.070017152 0.016582858 0.0039999485
0.071285717 0.016582858 0.0039999485
0.072546676 0.016586667 0.0029999614
0.073813342 0.016586667 0.0029999614
0.075080007 0.016586667 0.0029999614
0.076346673 0.016586667 0.0029999614
0.077613339 0.016586667 0.0029999614
0.078845724 0.016594285 0.00099998713
0.080108576 0.016594285 0.00099998713
0.081371434 0.016594285 0.00099998713
0.082634293 0.016594285 0.00099998713
0.083897151 0.016594285 0.00099998713
0.085160002 0.016594285 0.00099998713
0.086422861 0.016594285 0.00099998713
0.087685719 0.016594285 0.00099998713
0.088948578 0.016594285 0.00099998713
0.090280004 0.016586667 0.0029999614
0.09154667 0.016586667 0.0029999614
0.092813343 0.016586667 0.0029999614
0.094080001 0.016586667 0.0029999614
0.095388576 0.016582858 0.0039999485
0.096657149 0.016582858 0.0039999485
0.097925723 0.016582858 0.0039999485
0.099241912 0.016579047 0.0049999952
0.10051239 0.016579047 0.0049999952
0.10178286 0.016579047 0.0049999952
0.10305335 0.016579047 0.0049999952
0.1044343 0.016571429 0.0069999695
0.10570858 0.016571429 0.0069999695
0.10698286 0.016571429 0.0069999695
0.10825714 0.016571429 0.0069999695
0.10959429 0.01656762 0.0079999566
0.11093524 0.01656381 0.0089999437
0.11228001 0.016559999 0.0099999905
0.11356001 0.016559999 0.0099999905
0.11498097 0.016552381 0.011999965
0.11633715 0.016548572 0.012999952
0.11762287 0.016548572 0.012999952
0.11898477 0.016544763 0.013999999
0.12042858 0.016537143 0.015999973
0.12172001 0.016537143 0.015999973
0.12309334 0.016533334 0.01699996
0.1246381 0.016521905 0.019999981
0.12602286 0.016518096 0.020999968
0.12741144 0.016514286 0.021999955
0.12889335 0.016506666 0.023999989
0.13029143 0.016502857 0.024999976
0.13160001 0.016502857 0.024999976
0.13309905 0.016495239 0.02699995
0.13450858 0.016491428 0.027999997
0.13612001 0.016480001 0.030999959
0.13754097 0.016476192 0.031999946
0.1392743 0.016460953 0.035999954
0.14060381 0.016460953 0.035999954
0.14193334 0.016460953 0.035999954
0.14380571 0.016441906 0.040999949
0.14514476 0.016441906 0.040999949
0.00028000027 0.017748572 0.057999969
0.0017428622 0.017750476 0.056999981
0.0032914355 0.017754287 0.054999948
0.0054457188 0.017771428 0.045999944
0.0067942888 0.017771428 0.045999944
0.0082266703 0.017773334 0.044999957
0.0097371452 0.017777143 0.042999983
0.011160001 0.017779049 0.041999996
0.012579054 0.017780952 0.040999949
0.014146671 0.017786667 0.037999988
0.015628576 0.017790476 0.035999954
0.017030481 0.017792381 0.034999967
0.018358096 0.017792381 0.034999967
0.019822858 0.01779619 0.032999992
0.021013338 0.017792381 0.034999967
0.022470482 0.01779619 0.032999992
0.023920003 0.0178 0.030999959
0.025240004 0.0178 0.030999959
0.026678097 0.017803811 0.028999984
0.02799429 0.017803811 0.028999984
0.029365715 0.017805714 0.027999997
0.030733339 0.01780762 0.02699995
0.032148574 0.017811429 0.024999976
0.033506673 0.017813334 0.023999989
0.034908578 0.017817143 0.021999955
0.036211435 0.017817143 0.021999955
0.037558101 0.017819047 0.020999968
0.038859051 0.017819047 0.020999968
0.040280007 0.017824762 0.017999947
0.041575246 0.017824762 0.017999947
0.042906672 0.017826667 0.01699996
0.044234291 0.017828573 0.015999973
0.045590483 0.017832382 0.013999999
0.046908576 0.017834285 0.012999952
0.048222862 0.017836191 0.011999965
0.049506672 0.017836191 0.011999965
0.050840005 0.01784 0.0099999905
0.052120004 0.01784 0.0099999905
0.053420957 0.017841905 0.0089999437
0.054699052 0.017841905 0.0089999437
0.055994291 0.017843809 0.0079999566
0.057285719 0.017845714 0.0069999695
