# .PCD v0.7 - Point Cloud Data file format
VERSION 0.7
FIELDS x y z
SIZE 4 4 4
TYPE F F F
COUNT 1 1 1
WIDTH 1356
HEIGHT 1
VIEWPOINT 0 0 0 0 1 0 0
POINTS 1356
DATA ascii
0.082904764 0.063415244 0.015000045
0.084175237 0.063502856 0.01700002
0.085430473 0.063415244 0.015000045
0.086708575 0.063502856 0.01700002
0.08795619 0.063415244 0.015000045
0.089219049 0.063415244 0.015000045
0.090481907 0.063415244 0.015000045
0.091744766 0.063415244 0.015000045
0.093007624 0.063415244 0.015000045
0.094270475 0.063415244 0.015000045
0.095575236 0.063502856 0.01700002
0.096796192 0.063415244 0.015000045
0.098108575 0.063502856 0.01700002
0.099375241 0.063502856 0.01700002
0.10064191 0.063502856 0.01700002
0.10190857 0.063502856 0.01700002
0.10317524 0.063502856 0.01700002
0.10447619 0.063546665 0.018000007
0.10574476 0.063546665 0.018000007
0.10701333 0.063546665 0.018000007
0.1082819 0.063546665 0.018000007
0.10959239 0.063590482 0.019000053
0.11086286 0.063590482 0.019000053
0.11213334 0.063590482 0.019000053
0.11340381 0.063590482 0.019000053
0.11467429 0.063590482 0.019000053
0.11604762 0.063678101 0.021000028
0.11732191 0.063678101 0.021000028
0.11865143 0.06372191 0.022000015
0.12004191 0.063809529 0.024000049
0.12144 0.063897148 0.026000023
0.12272381 0.063897148 0.026000023
0.12400762 0.063897148 0.026000023
0.1253562 0.063940957 0.02700001
0.1266419 0.063940957 0.02700001
0.12799619 0.063984767 0.028000057
0.12928382 0.063984767 0.028000057
0.13078856 0.064116195 0.031000018
0.13215619 0.064160004 0.032000005
0.13368 0.064291432 0.035000026
0.13505904 0.064335242 0.036000013
0.13652191 0.064422861 0.038000047
0.13791049 0.06446667 0.039000034
0.13947049 0.064598098 0.042000055
0.14087048 0.064641908 0.043000042
0.14236191 0.064729527 0.045000017
0.14386095 0.064817145 0.047000051
0.14518476 0.064817145 0.047000051
0.01202286 0.067786664 0.083000004
0.01341524 0.067786664 0.083000004
0.015081905 0.067649528 0.080000043
0.016647615 0.067558095 0.078000009
0.01803048 0.067558095 0.078000009
0.019499049 0.067512386 0.077000022
0.020879999 0.067512386 0.077000022
0.023653332 0.066735238 0.060000002
0.0252419 0.066598102 0.057000041
0.026662853 0.066552386 0.056000054
0.028232381 0.066415243 0.053000033
0.029641904 0.066369526 0.052000046
0.031192381 0.066232383 0.049000025
0.03266095 0.06614095 0.047000051
0.034259047 0.065958098 0.043000042
0.035841901 0.065775245 0.039000034
0.037215237 0.065729529 0.038000047
0.038647618 0.065638095 0.036000013
0.040011428 0.065592378 0.035000026
0.041371424 0.065546669 0.034000039
0.042784762 0.065455236 0.032000005
0.044135239 0.065409526 0.031000018
0.045481902 0.065363809 0.030000031
0.046876188 0.065272383 0.028000057
0.048163805 0.065272383 0.028000057
0.04949905 0.065226667 0.02700001
0.050830476 0.065180957 0.026000023
0.052114286 0.065180957 0.026000023
0.053481903 0.065089524 0.024000049
0.054801904 0.065043807 0.023000002
0.056118093 0.064998098 0.022000015
0.057394285 0.064998098 0.022000015
0.058704764 0.064952381 0.021000028
0.059979048 0.064952381 0.021000028
0.061253332 0.064952381 0.021000028
0.062584758 0.064860955 0.019000053
0.063855238 0.064860955 0.019000053
0.065175235 0.064769529 0.01700002
0.066441901 0.064769529 0.01700002
0.067750476 0.064678095 0.015000045
0.069013335 0.064678095 0.015000045
0.070241906 0.064769529 0.01700002
0.071539044 0.064678095 0.015000045
0.072801903 0.064678095 0.015000045
0.074064761 0.064678095 0.015000045
0.07532762 0.064678095 0.015000045
0.076590478 0.064678095 0.015000045
0.077853337 0.064678095 0.015000045
0.079108573 0.064769529 0.01700002
0.080375239 0.064769529 0.01700002
0.081641905 0.064678095 0.015000045
0.082904764 0.064678095 0.015000045
0.084175237 0.064769529 0.01700002
0.085430473 0.064678095 0.015000045
0.086708575 0.064769529 0.01700002
0.087975241 0.064769529 0.01700002
0.089219049 0.064678095 0.015000045
0.090508573 0.064769529 0.01700002
0.091775239 0.064769529 0.01700002
0.093041904 0.064769529 0.01700002
0.09430857 0.064769529 0.01700002
0.095575236 0.064769529 0.01700002
0.096841909 0.064769529 0.01700002
0.098108575 0.064769529 0.01700002
0.099375241 0.064769529 0.01700002
0.10064191 0.064769529 0.01700002
0.10190857 0.064769529 0.01700002
0.10317524 0.064769529 0.01700002
0.10447619 0.064815238 0.018000007
0.10574476 0.064815238 0.018000007
0.10705143 0.064860955 0.019000053
0.10832191 0.064860955 0.019000053
0.10959239 0.064860955 0.019000053
0.11086286 0.064860955 0.019000053
0.11213334 0.064860955 0.019000053
0.11349905 0.064952381 0.021000028
0.11477333 0.064952381 0.021000028
0.11604762 0.064952381 0.021000028
0.11737524 0.064998098 0.022000015
0.11870667 0.065043807 0.023000002
0.12004191 0.065089524 0.024000049
0.12144 0.065180957 0.026000023
0.12278476 0.065226667 0.02700001
0.12407048 0.065226667 0.02700001
0.12542096 0.065272383 0.028000057
0.1266419 0.065226667 0.02700001
0.12799619 0.065272383 0.028000057
0.12942477 0.065363809 0.030000031
0.13078856 0.065409526 0.031000018
0.13215619 0.065455236 0.032000005
0.13368 0.065592378 0.035000026
0.13521524 0.065729529 0.038000047
0.13660191 0.065775245 0.039000034
0.13791049 0.065775245 0.039000034
0.13955429 0.065958098 0.043000042
0.1410419 0.066049524 0.045000017
0.14244953 0.06609524 0.046000004
0.14404 0.066232383 0.049000025
0.14545906 0.0662781 0.050000012
0.14678857 0.0662781 0.050000012
0.01202286 0.069179043 0.083000004
0.013601907 0.06908381 0.08100003
0.015081905 0.069036193 0.080000043
0.016647615 0.068940952 0.078000009
0.01803048 0.068940952 0.078000009
0.019499049 0.068893328 0.077000022
0.021047615 0.068798095 0.075000048
0.023899045 0.067940958 0.057000041
0.0252419 0.067940958 0.057000041
0.026740953 0.067845717 0.055000007
0.028232381 0.067750484 0.053000033
0.029641904 0.06770286 0.052000046
0.031192381 0.067560002 0.049000025
0.032731429 0.067417145 0.046000004
0.034259047 0.067274287 0.043000042
0.035841901 0.067083813 0.039000034
0.037215237 0.067036197 0.038000047
0.038647618 0.066940948 0.036000013
0.039950475 0.066940948 0.036000013
0.041371424 0.066845715 0.034000039
0.042784762 0.066750482 0.032000005
0.044135239 0.066702858 0.031000018
0.045481902 0.066655241 0.030000031
0.046876188 0.06656 0.028000057
0.048213333 0.066512376 0.02700001
0.04949905 0.066512376 0.02700001
0.050784759 0.066512376 0.02700001
0.052114286 0.066464767 0.026000023
0.053481903 0.066369526 0.024000049
0.054801904 0.066321909 0.023000002
0.056118093 0.066274285 0.022000015
0.057430476 0.066226669 0.021000028
0.058704764 0.066226669 0.021000028
0.059979048 0.066226669 0.021000028
0.061253332 0.066226669 0.021000028
0.062584758 0.066131428 0.019000053
0.063855238 0.066131428 0.019000053
0.065150477 0.066083804 0.018000007
0.066441901 0.066036195 0.01700002
0.067750476 0.065940954 0.015000045
0.06897524 0.066036195 0.01700002
0.070241906 0.066036195 0.01700002
0.071508572 0.066036195 0.01700002
0.072775237 0.066036195 0.01700002
0.074064761 0.065940954 0.015000045
0.07532762 0.065940954 0.015000045
0.076590478 0.065940954 0.015000045
0.077853337 0.065940954 0.015000045
0.079108573 0.066036195 0.01700002
0.080375239 0.066036195 0.01700002
0.081641905 0.066036195 0.01700002
0.082904764 0.065940954 0.015000045
0.084175237 0.066036195 0.01700002
0.085441902 0.066036195 0.01700002
0.086708575 0.066036195 0.01700002
0.087975241 0.066036195 0.01700002
0.089241907 0.066036195 0.01700002
0.090508573 0.066036195 0.01700002
0.091775239 0.066036195 0.01700002
0.093041904 0.066036195 0.01700002
0.09430857 0.066036195 0.01700002
0.095575236 0.066036195 0.01700002
0.096841909 0.066036195 0.01700002
0.098108575 0.066036195 0.01700002
0.099375241 0.066036195 0.01700002
0.10064191 0.066036195 0.01700002
0.10190857 0.066036195 0.01700002
0.10320762 0.066083804 0.018000007
0.10447619 0.066083804 0.018000007
0.10574476 0.066083804 0.018000007
0.10705143 0.066131428 0.019000053
0.10832191 0.066131428 0.019000053
0.10959239 0.066131428 0.019000053
0.11095048 0.066226669 0.021000028
0.11222476 0.066226669 0.021000028
0.11349905 0.066226669 0.021000028
0.11477333 0.066226669 0.021000028
0.11604762 0.066226669 0.021000028
0.11737524 0.066274285 0.022000015
0.11870667 0.066321909 0.023000002
0.12015619 0.066464767 0.026000023
0.12149905 0.066512376 0.02700001
0.12278476 0.066512376 0.02700001
0.12413333 0.06656 0.028000057
0.12542096 0.06656 0.028000057
0.12670857 0.06656 0.028000057
0.12813333 0.066655241 0.030000031
0.12942477 0.066655241 0.030000031
0.13086095 0.066750482 0.032000005
0.13237906 0.066893339 0.035000026
0.13375619 0.066940948 0.036000013
0.13544953 0.067179054 0.041000009
0.13660191 0.067083813 0.039000034
0.13815619 0.067226671 0.042000055
0.13955429 0.067274287 0.043000042
0.1410419 0.067369521 0.045000017
0.14253715 0.067464769 0.047000051
0.14439809 0.067750484 0.053000033
0.14573334 0.067750484 0.053000033
0.14706858 0.067750484 0.053000033
0.01202286 0.07057143 0.083000004
0.013601907 0.070472382 0.08100003
0.015081905 0.070422858 0.080000043
0.016647615 0.07032381 0.078000009
0.01803048 0.07032381 0.078000009
0.019670472 0.070175238 0.075000048
0.021047615 0.070175238 0.075000048
0.023980945 0.069234289 0.056000054
0.025321901 0.069234289 0.056000054
0.026740953 0.069184765 0.055000007
0.028232381 0.069085717 0.053000033
0.029641904 0.069036193 0.052000046
0.031192381 0.068887621 0.049000025
0.03266095 0.068788573 0.047000051
0.034259047 0.068590477 0.043000042
0.035841901 0.068392381 0.039000034
0.037215237 0.068342857 0.038000047
0.038521901 0.068342857 0.038000047
0.039950475 0.068243809 0.036000013
0.041371424 0.068144768 0.034000039
0.042784762 0.06804572 0.032000005
0.044135239 0.067996189 0.031000018
0.045588568 0.067847624 0.028000057
0.046876188 0.067847624 0.028000057
0.048213333 0.067798093 0.02700001
0.04949905 0.067798093 0.02700001
0.050830476 0.067748576 0.026000023
0.052114286 0.067748576 0.026000023
0.053481903 0.067649528 0.024000049
0.054841906 0.06755048 0.022000015
0.056118093 0.06755048 0.022000015
0.057430476 0.067500956 0.021000028
0.058704764 0.067500956 0.021000028
0.059979048 0.067500956 0.021000028
0.061253332 0.067500956 0.021000028
0.062584758 0.067401908 0.019000053
0.063855238 0.067401908 0.019000053
0.065150477 0.067352384 0.018000007
0.06641905 0.067352384 0.018000007
0.067708574 0.06730286 0.01700002
0.06897524 0.06730286 0.01700002
0.070241906 0.06730286 0.01700002
0.071508572 0.06730286 0.01700002
0.072775237 0.06730286 0.01700002
0.074041903 0.06730286 0.01700002
0.075308569 0.06730286 0.01700002
0.076575235 0.06730286 0.01700002
0.077841908 0.06730286 0.01700002
0.079108573 0.06730286 0.01700002
0.080375239 0.06730286 0.01700002
0.081641905 0.06730286 0.01700002
0.082908571 0.06730286 0.01700002
0.084175237 0.06730286 0.01700002
0.085441902 0.06730286 0.01700002
0.08671619 0.067352384 0.018000007
0.087984763 0.067352384 0.018000007
0.089253336 0.067352384 0.018000007
0.090521902 0.067352384 0.018000007
0.091790475 0.067352384 0.018000007
0.093059048 0.067352384 0.018000007
0.094327621 0.067352384 0.018000007
0.095596194 0.067352384 0.018000007
0.09686476 0.067352384 0.018000007
0.098133333 0.067352384 0.018000007
0.099375241 0.06730286 0.01700002
0.10064191 0.06730286 0.01700002
0.10190857 0.06730286 0.01700002
0.10317524 0.06730286 0.01700002
0.10447619 0.067352384 0.018000007
0.10578096 0.067401908 0.019000053
0.10705143 0.067401908 0.019000053
0.10840191 0.067500956 0.021000028
0.10967619 0.067500956 0.021000028
0.11095048 0.067500956 0.021000028
0.11222476 0.067500956 0.021000028
0.11349905 0.067500956 0.021000028
0.11477333 0.067500956 0.021000028
0.11609904 0.06755048 0.022000015
0.11737524 0.06755048 0.022000015
0.1187619 0.067649528 0.024000049
0.12015619 0.067748576 0.026000023
0.12167619 0.067946672 0.030000031
0.12296762 0.067946672 0.030000031
0.12425905 0.067946672 0.030000031
0.12555048 0.067946672 0.030000031
0.12690857 0.067996189 0.031000018
0.1282019 0.067996189 0.031000018
0.12949523 0.067996189 0.031000018
0.13086095 0.06804572 0.032000005
0.13237906 0.068194285 0.035000026
0.13398476 0.068392381 0.039000034
0.13544953 0.068491429 0.041000009
0.1367619 0.068491429 0.041000009
0.13815619 0.068540961 0.042000055
0.13947049 0.068540961 0.042000055
0.14121333 0.068788573 0.047000051
0.14253715 0.068788573 0.047000051
0.14439809 0.069085717 0.053000033
0.14573334 0.069085717 0.053000033
0.14706858 0.069085717 0.053000033
0.01202286 0.071963809 0.083000004
0.013601907 0.071860954 0.08100003
0.015081905 0.07180953 0.080000043
0.016468562 0.07180953 0.080000043
0.01803048 0.071706668 0.078000009
0.019756187 0.071500957 0.074000061
0.021299049 0.071398094 0.072000027
0.022670474 0.071398094 0.072000027
0.025401905 0.070523813 0.055000007
0.026740953 0.070523813 0.055000007
0.02830857 0.070369527 0.052000046
0.029641904 0.070369527 0.052000046
0.031192381 0.07021524 0.049000025
0.03266095 0.070112385 0.047000051
0.034259047 0.069906667 0.043000042
0.035841901 0.069700956 0.039000034
0.037150472 0.069700956 0.039000034
0.038521901 0.069649525 0.038000047
0.039950475 0.06954667 0.036000013
0.041312382 0.069495238 0.035000026
0.042784762 0.069340959 0.032000005
0.044135239 0.06928952 0.031000018
0.045588568 0.069135241 0.028000057
0.046876188 0.069135241 0.028000057
0.048213333 0.06908381 0.02700001
0.04949905 0.06908381 0.02700001
0.050830476 0.069032386 0.026000023
0.052114286 0.069032386 0.026000023
0.053481903 0.068929523 0.024000049
0.054801904 0.068878099 0.023000002
0.056118093 0.068826668 0.022000015
0.057430476 0.068775237 0.021000028
0.058704764 0.068775237 0.021000028
0.059979048 0.068775237 0.021000028
0.061253332 0.068775237 0.021000028
0.062584758 0.068672381 0.019000053
0.063881904 0.06862095 0.018000007
0.065150477 0.06862095 0.018000007
0.06641905 0.06862095 0.018000007
0.067750476 0.068466663 0.015000045
0.06897524 0.068569526 0.01700002
0.070241906 0.068569526 0.01700002
0.071508572 0.068569526 0.01700002
0.072775237 0.068569526 0.01700002
0.074041903 0.068569526 0.01700002
0.075308569 0.068569526 0.01700002
0.076575235 0.068569526 0.01700002
0.077841908 0.068569526 0.01700002
0.079108573 0.068569526 0.01700002
0.080375239 0.068569526 0.01700002
0.081641905 0.068569526 0.01700002
0.082908571 0.068569526 0.01700002
0.084175237 0.068569526 0.01700002
0.085441902 0.068569526 0.01700002
0.08671619 0.06862095 0.018000007
0.087984763 0.06862095 0.018000007
0.089253336 0.06862095 0.018000007
0.090521902 0.06862095 0.018000007
0.091790475 0.06862095 0.018000007
0.093059048 0.06862095 0.018000007
0.094327621 0.06862095 0.018000007
0.095617145 0.068672381 0.019000053
0.096887618 0.068672381 0.019000053
0.098158099 0.068672381 0.019000053
0.099401906 0.06862095 0.018000007
0.10069905 0.068672381 0.019000053
0.10193905 0.06862095 0.018000007
0.10320762 0.06862095 0.018000007
0.10447619 0.06862095 0.018000007
0.10574476 0.06862095 0.018000007
0.10735619 0.06908381 0.02700001
0.10864191 0.06908381 0.02700001
0.1097181 0.068826668 0.022000015
0.11099429 0.068826668 0.022000015
0.11286476 0.069495238 0.035000026
0.11416572 0.069495238 0.035000026
0.11546667 0.069495238 0.035000026
0.11676762 0.069495238 0.035000026
0.11801524 0.069443814 0.034000039
0.11931429 0.069443814 0.034000039
0.12049904 0.069340959 0.032000005
0.12179428 0.069340959 0.032000005
0.12308952 0.069340959 0.032000005
0.12438476 0.069340959 0.032000005
0.12561524 0.06928952 0.031000018
0.12697524 0.069340959 0.032000005
0.12840763 0.069443814 0.034000039
0.12970667 0.069443814 0.034000039
0.13115048 0.06954667 0.036000013
0.13260192 0.069649525 0.038000047
0.13413715 0.069803812 0.041000009
0.13552763 0.069855243 0.042000055
0.1367619 0.069803812 0.041000009
0.1382381 0.069906667 0.043000042
0.14005715 0.07021524 0.049000025
0.14138477 0.07021524 0.049000025
0.14297524 0.070369527 0.052000046
0.14439809 0.070420951 0.053000033
0.14573334 0.070420951 0.053000033
0.14725524 0.070523813 0.055000007
0.14859429 0.070523813 0.055000007
0.01202286 0.073356196 0.083000004
0.013601907 0.073249526 0.08100003
0.015081905 0.073196188 0.080000043
0.016468562 0.073196188 0.080000043
0.01803048 0.073089525 0.078000009
0.019756187 0.072876193 0.074000061
0.021299049 0.072769523 0.072000027
0.022670474 0.072769523 0.072000027
0.02689714 0.071756192 0.053000033
0.028232381 0.071756192 0.053000033
0.029641904 0.07170286 0.052000046
0.031192381 0.071542859 0.049000025
0.032731429 0.07138285 0.046000004
0.034259047 0.071222857 0.043000042
0.035841901 0.071009524 0.039000034
0.037150472 0.071009524 0.039000034
0.038521901 0.0709562 0.038000047
0.039950475 0.070849523 0.036000013
0.041253332 0.070849523 0.036000013
0.042613331 0.070796192 0.035000026
0.044135239 0.070582859 0.031000018
0.045588568 0.070422858 0.028000057
0.046876188 0.070422858 0.028000057
0.048213333 0.070369527 0.02700001
0.04949905 0.070369527 0.02700001
0.050830476 0.070316195 0.026000023
0.052114286 0.070316195 0.026000023
0.053398095 0.070316195 0.026000023
0.054801904 0.070156187 0.023000002
0.056118093 0.070102856 0.022000015
0.057430476 0.070049524 0.021000028
0.058670476 0.070102856 0.022000015
0.059979048 0.070049524 0.021000028
0.061253332 0.070049524 0.021000028
0.062584758 0.069942862 0.019000053
0.063881904 0.069889531 0.018000007
0.065150477 0.069889531 0.018000007
0.066441901 0.069836192 0.01700002
0.067750476 0.069729522 0.015000045
0.06897524 0.069836192 0.01700002
0.070241906 0.069836192 0.01700002
0.071508572 0.069836192 0.01700002
0.072775237 0.069836192 0.01700002
0.074041903 0.069836192 0.01700002
0.075308569 0.069836192 0.01700002
0.07656762 0.069889531 0.018000007
0.077836193 0.069889531 0.018000007
0.079104759 0.069889531 0.018000007
0.080373332 0.069889531 0.018000007
0.081641905 0.069889531 0.018000007
0.082910478 0.069889531 0.018000007
0.084179051 0.069889531 0.018000007
0.085447617 0.069889531 0.018000007
0.08671619 0.069889531 0.018000007
0.087984763 0.069889531 0.018000007
0.089253336 0.069889531 0.018000007
0.090521902 0.069889531 0.018000007
0.091790475 0.069889531 0.018000007
0.093059048 0.069889531 0.018000007
0.094346665 0.069942862 0.019000053
0.095617145 0.069942862 0.019000053
0.096887618 0.069942862 0.019000053
0.098158099 0.069942862 0.019000053
0.099428572 0.069942862 0.019000053
0.10067047 0.069889531 0.018000007
0.10190857 0.069836192 0.01700002
0.10317524 0.069836192 0.01700002
0.10505905 0.070796192 0.035000026
0.10632381 0.07074286 0.034000039
0.10762286 0.07074286 0.034000039
0.10880191 0.070582859 0.031000018
0.11022095 0.07074286 0.034000039
0.11156381 0.070796192 0.035000026
0.11291048 0.070849523 0.036000013
0.11416572 0.070796192 0.035000026
0.11551619 0.070849523 0.036000013
0.11676762 0.070796192 0.035000026
0.11806858 0.070796192 0.035000026
0.11936952 0.070796192 0.035000026
0.12067048 0.070796192 0.035000026
0.12197143 0.070796192 0.035000026
0.12321143 0.07074286 0.034000039
0.12457334 0.070796192 0.035000026
0.12587428 0.070796192 0.035000026
0.12724191 0.070849523 0.036000013
0.1286819 0.0709562 0.038000047
0.13005905 0.071009524 0.039000034
0.13158476 0.071169525 0.042000055
0.13297334 0.071222857 0.043000042
0.13444191 0.071329527 0.045000017
0.1357619 0.071329527 0.045000017
0.13708191 0.071329527 0.045000017
0.13856572 0.071436197 0.047000051
0.14014095 0.07159619 0.050000012
0.14172763 0.071756192 0.053000033
0.14306286 0.071756192 0.053000033
0.14457715 0.071862862 0.055000007
0.14600763 0.071916193 0.056000054
0.14734858 0.071916193 0.056000054
0.14868954 0.071916193 0.056000054
0.01202286 0.074748576 0.083000004
0.013601907 0.074638098 0.08100003
0.015081905 0.07458286 0.080000043
0.016647615 0.074472383 0.078000009
0.018118091 0.074417144 0.077000022
0.019756187 0.074251428 0.074000061
0.021299049 0.074140951 0.072000027
0.022752378 0.074085712 0.07100004
0.024521898 0.073809527 0.066000044
0.025881901 0.073809527 0.066000044
0.028003808 0.073257148 0.056000054
0.029567618 0.073091432 0.053000033
0.030975234 0.073036194 0.052000046
0.032308571 0.073036194 0.052000046
0.034259047 0.072539046 0.043000042
0.035708573 0.072428569 0.041000009
0.037150472 0.072318092 0.039000034
0.038521901 0.072262861 0.038000047
0.039828569 0.072262861 0.038000047
0.041253332 0.072152384 0.036000013
0.042613331 0.072097145 0.035000026
0.044135239 0.071876191 0.031000018
0.045481902 0.071820959 0.030000031
0.046876188 0.071710482 0.028000057
0.048163805 0.071710482 0.028000057
0.04949905 0.071655244 0.02700001
0.050784759 0.071655244 0.02700001
0.052070476 0.071655244 0.02700001
0.053398095 0.071600005 0.026000023
0.054761901 0.071489528 0.024000049
0.056079999 0.071434289 0.023000002
0.057394285 0.071379051 0.022000015
0.058670476 0.071379051 0.022000015
0.059979048 0.071323812 0.021000028
0.061253332 0.071323812 0.021000028
0.062584758 0.071213335 0.019000053
0.063881904 0.071158096 0.018000007
0.065150477 0.071158096 0.018000007
0.06641905 0.071158096 0.018000007
0.067708574 0.071102858 0.01700002
0.06897524 0.071102858 0.01700002
0.070241906 0.071102858 0.01700002
0.071493335 0.071158096 0.018000007
0.072775237 0.071102858 0.01700002
0.074030474 0.071158096 0.018000007
0.075299047 0.071158096 0.018000007
0.07656762 0.071158096 0.018000007
0.077836193 0.071158096 0.018000007
0.079104759 0.071158096 0.018000007
0.080371432 0.071213335 0.019000053
0.081641905 0.071213335 0.019000053
0.082910478 0.071158096 0.018000007
0.084179051 0.071158096 0.018000007
0.085447617 0.071158096 0.018000007
0.08671619 0.071158096 0.018000007
0.087984763 0.071158096 0.018000007
0.089253336 0.071158096 0.018000007
0.090521902 0.071158096 0.018000007
0.091805711 0.071213335 0.019000053
0.093076192 0.071213335 0.019000053
0.094346665 0.071213335 0.019000053
0.095617145 0.071213335 0.019000053
0.096887618 0.071213335 0.019000053
0.098158099 0.071213335 0.019000053
0.099428572 0.071213335 0.019000053
0.10067047 0.071158096 0.018000007
0.10184762 0.07099238 0.015000045
0.1037581 0.072097145 0.035000026
0.10505905 0.072097145 0.035000026
0.10636 0.072097145 0.035000026
0.10766095 0.072097145 0.035000026
0.10896191 0.072097145 0.035000026
0.11022095 0.072041914 0.034000039
0.11156381 0.072097145 0.035000026
0.11291048 0.072152384 0.036000013
0.11421333 0.072152384 0.036000013
0.11551619 0.072152384 0.036000013
0.11681905 0.072152384 0.036000013
0.11812191 0.072152384 0.036000013
0.11936952 0.072097145 0.035000026
0.12067048 0.072097145 0.035000026
0.12197143 0.072097145 0.035000026
0.12327238 0.072097145 0.035000026
0.12457334 0.072097145 0.035000026
0.12593904 0.072152384 0.036000013
0.12737525 0.072262861 0.038000047
0.12875047 0.072318092 0.039000034
0.1302 0.072428569 0.041000009
0.13158476 0.072483815 0.042000055
0.13312191 0.072649524 0.045000017
0.13444191 0.072649524 0.045000017
0.1357619 0.072649524 0.045000017
0.13716191 0.072704762 0.046000004
0.13881142 0.072925717 0.050000012
0.14030857 0.073036194 0.052000046
0.14172763 0.073091432 0.053000033
0.14306286 0.073091432 0.053000033
0.14457715 0.07320191 0.055000007
0.14609906 0.073312387 0.057000041
0.14744191 0.073312387 0.057000041
0.14878477 0.073312387 0.057000041
0.15090477 0.073754288 0.065000057
0.013601907 0.076026663 0.08100003
0.015081905 0.075969532 0.080000043
0.016647615 0.07585524 0.078000009
0.01803048 0.07585524 0.078000009
0.019670472 0.075683817 0.075000048
0.021047615 0.075683817 0.075000048
0.022670474 0.075512379 0.072000027
0.024601899 0.075112388 0.065000057
0.025959998 0.075112388 0.065000057
0.028003808 0.074598096 0.056000054
0.02941905 0.074540958 0.055000007
0.030758094 0.074540958 0.055000007
0.032942854 0.073855236 0.043000042
0.034259047 0.073855236 0.043000042
0.035708573 0.073740952 0.041000009
0.037020952 0.073740952 0.041000009
0.038459044 0.073626667 0.039000034
0.039828569 0.073569529 0.038000047
0.041135237 0.073569529 0.038000047
0.042556189 0.073455244 0.036000013
0.044135239 0.073169529 0.031000018
0.045481902 0.073112383 0.030000031
0.046773329 0.073112383 0.030000031
0.048163805 0.072998099 0.028000057
0.049451426 0.072998099 0.028000057
0.050784759 0.072940953 0.02700001
0.052070476 0.072940953 0.02700001
0.053356193 0.072940953 0.02700001
0.054681905 0.072883815 0.026000023
0.055965714 0.072883815 0.026000023
0.057430476 0.0725981 0.021000028
0.058704764 0.0725981 0.021000028
0.059979048 0.0725981 0.021000028
0.061253332 0.0725981 0.021000028
0.062584758 0.072483815 0.019000053
0.063881904 0.072426662 0.018000007
0.065125711 0.072483815 0.019000053
0.066396192 0.072483815 0.019000053
0.067687616 0.072426662 0.018000007
0.068956189 0.072426662 0.018000007
0.070207618 0.072483815 0.019000053
0.071478099 0.072483815 0.019000053
0.072761908 0.072426662 0.018000007
0.074030474 0.072426662 0.018000007
0.075289525 0.072483815 0.019000053
0.076559998 0.072483815 0.019000053
0.077830479 0.072483815 0.019000053
0.079100952 0.072483815 0.019000053
0.080367617 0.0725981 0.021000028
0.081641905 0.072483815 0.019000053
0.082910478 0.072426662 0.018000007
0.084179051 0.072426662 0.018000007
0.085447617 0.072426662 0.018000007
0.08671619 0.072426662 0.018000007
0.087984763 0.072426662 0.018000007
0.089253336 0.072426662 0.018000007
0.090521902 0.072426662 0.018000007
0.091805711 0.072483815 0.019000053
0.093076192 0.072483815 0.019000053
0.094346665 0.072483815 0.019000053
0.095617145 0.072483815 0.019000053
0.096887618 0.072483815 0.019000053
0.098158099 0.072483815 0.019000053
0.099428572 0.072483815 0.019000053
0.10069905 0.072483815 0.019000053
0.10248762 0.073455244 0.036000013
0.1037581 0.073398098 0.035000026
0.10509333 0.073455244 0.036000013
0.10639619 0.073455244 0.036000013
0.10766095 0.073398098 0.035000026
0.10896191 0.073398098 0.035000026
0.11026286 0.073398098 0.035000026
0.11156381 0.073398098 0.035000026
0.11291048 0.073455244 0.036000013
0.11421333 0.073455244 0.036000013
0.11551619 0.073455244 0.036000013
0.11681905 0.073455244 0.036000013
0.11812191 0.073455244 0.036000013
0.11942476 0.073455244 0.036000013
0.12072762 0.073455244 0.036000013
0.12203048 0.073455244 0.036000013
0.12333333 0.073455244 0.036000013
0.12463619 0.073455244 0.036000013
0.12606858 0.073569529 0.038000047
0.12744191 0.073626667 0.039000034
0.12888762 0.073740952 0.041000009
0.13027048 0.073798098 0.042000055
0.13158476 0.073798098 0.042000055
0.13312191 0.073969528 0.045000017
0.13444191 0.073969528 0.045000017
0.1357619 0.073969528 0.045000017
0.13716191 0.074026667 0.046000004
0.13881142 0.074255243 0.050000012
0.14030857 0.074369527 0.052000046
0.14172763 0.074426666 0.053000033
0.1432381 0.074540958 0.055000007
0.14466667 0.074598096 0.056000054
0.14609906 0.074655242 0.057000041
0.14744191 0.074655242 0.057000041
0.14926095 0.07494095 0.062000036
0.15090477 0.075112388 0.065000057
0.15226287 0.075112388 0.065000057
0.15402475 0.075340956 0.069000006
0.013601907 0.077415243 0.08100003
0.015081905 0.077356189 0.080000043
0.016647615 0.077238098 0.078000009
0.01803048 0.077238098 0.078000009
0.019670472 0.077060953 0.075000048
0.021047615 0.077060953 0.075000048
0.022670474 0.076883808 0.072000027
0.024601899 0.076470479 0.065000057
0.026116189 0.07635238 0.063000023
0.027927618 0.075998098 0.057000041
0.02941905 0.075880006 0.055000007
0.030902859 0.075761907 0.053000033
0.032238092 0.075761907 0.053000033
0.034121905 0.075289525 0.045000017
0.035641901 0.075112388 0.042000055
0.037020952 0.075053334 0.041000009
0.038333334 0.075053334 0.041000009
0.039767619 0.074935243 0.039000034
0.041135237 0.074876189 0.038000047
0.042556189 0.074758098 0.036000013
0.04408 0.074521907 0.032000005
0.04542857 0.074462861 0.031000018
0.046773329 0.074403808 0.030000031
0.048163805 0.074285716 0.028000057
0.049356189 0.074403808 0.030000031
0.050739046 0.074285716 0.028000057
0.052026667 0.074285716 0.028000057
0.053314283 0.074285716 0.028000057
0.054521903 0.074403808 0.030000031
0.055889521 0.074285716 0.028000057
0.057177141 0.074285716 0.028000057
0.058464758 0.074285716 0.028000057
0.059493333 0.074758098 0.036000013
0.06079619 0.074758098 0.036000013
0.062156189 0.074640006 0.034000039
0.063855238 0.073754288 0.019000053
0.065125711 0.073754288 0.019000053
0.066396192 0.073754288 0.019000053
0.067352384 0.074640006 0.034000039
0.068632379 0.074699044 0.035000026
0.069933333 0.074699044 0.035000026
0.071219049 0.074758098 0.036000013
0.072521903 0.074758098 0.036000013
0.073824763 0.074758098 0.036000013
0.075127617 0.074758098 0.036000013
0.076438099 0.074699044 0.035000026
0.077739045 0.074699044 0.035000026
0.079055235 0.074462861 0.031000018
0.080367617 0.073872387 0.021000028
0.081641905 0.073872387 0.021000028
0.082912378 0.073754288 0.019000053
0.084182858 0.073754288 0.019000053
0.085447617 0.073695242 0.018000007
0.08671619 0.073695242 0.018000007
0.087984763 0.073695242 0.018000007
0.089253336 0.073695242 0.018000007
0.090521902 0.073695242 0.018000007
0.091805711 0.073754288 0.019000053
0.093076192 0.073754288 0.019000053
0.094346665 0.073754288 0.019000053
0.095659047 0.073872387 0.021000028
0.096887618 0.073754288 0.019000053
0.098158099 0.073754288 0.019000053
0.099428572 0.073754288 0.019000053
0.10069905 0.073754288 0.019000053
0.10248762 0.074758098 0.036000013
0.10379048 0.074758098 0.036000013
0.10509333 0.074758098 0.036000013
0.10639619 0.074758098 0.036000013
0.10766095 0.074699044 0.035000026
0.1090019 0.074758098 0.036000013
0.11026286 0.074699044 0.035000026
0.11156381 0.074699044 0.035000026
0.11291048 0.074758098 0.036000013
0.11416572 0.074699044 0.035000026
0.11551619 0.074758098 0.036000013
0.11681905 0.074758098 0.036000013
0.11812191 0.074758098 0.036000013
0.11942476 0.074758098 0.036000013
0.12072762 0.074758098 0.036000013
0.12214857 0.074876189 0.038000047
0.12345524 0.074876189 0.038000047
0.12476191 0.074876189 0.038000047
0.12613334 0.074935243 0.039000034
0.12744191 0.074935243 0.039000034
0.12888762 0.075053334 0.041000009
0.13027048 0.075112388 0.042000055
0.13165715 0.075171433 0.043000042
0.13312191 0.075289525 0.045000017
0.13444191 0.075289525 0.045000017
0.1357619 0.075289525 0.045000017
0.1372419 0.075407624 0.047000051
0.13897523 0.075702861 0.052000046
0.14039239 0.075761907 0.053000033
0.14189905 0.075880006 0.055000007
0.1432381 0.075880006 0.055000007
0.1447562 0.075998098 0.057000041
0.14609906 0.075998098 0.057000041
0.14762858 0.076116189 0.059000015
0.14907047 0.076175243 0.060000002
0.15071048 0.07635238 0.063000023
0.15206477 0.07635238 0.063000023
0.013601907 0.078803807 0.08100003
0.015081905 0.078742862 0.080000043
0.016647615 0.078620955 0.078000009
0.018118091 0.078560002 0.077000022
0.019670472 0.078438103 0.075000048
0.021131422 0.078377143 0.074000061
0.022752378 0.07819429 0.07100004
0.024361905 0.078011431 0.068000019
0.025881901 0.077889532 0.066000044
0.02769905 0.077523813 0.060000002
0.029121906 0.077462859 0.059000015
0.030685712 0.07728 0.056000054
0.032238092 0.077097148 0.053000033
0.033847619 0.076853335 0.049000025
0.035575237 0.076487623 0.043000042
0.036956187 0.07642667 0.042000055
0.038333334 0.076365717 0.041000009
0.039645713 0.076365717 0.041000009
0.041076191 0.07624381 0.039000034
0.042556189 0.076060951 0.036000013
0.04408 0.075817145 0.032000005
0.04542857 0.075756192 0.031000018
0.046670474 0.075817145 0.032000005
0.048015237 0.075756192 0.031000018
0.049356189 0.075695239 0.030000031
0.050647616 0.075695239 0.030000031
0.051939048 0.075695239 0.030000031
0.053230476 0.075695239 0.030000031
0.054481901 0.075756192 0.031000018
0.05577524 0.075756192 0.031000018
0.057032384 0.075817145 0.032000005
0.058327623 0.075817145 0.032000005
0.059493333 0.076060951 0.036000013
0.06079619 0.076060951 0.036000013
0.062156189 0.075939052 0.034000039
0.063455239 0.075939052 0.034000039
0.064754285 0.075939052 0.034000039
0.066099048 0.075817145 0.032000005
0.067352384 0.075939052 0.034000039
0.06865143 0.075939052 0.034000039
0.069933333 0.076000005 0.035000026
0.071234286 0.076000005 0.035000026
0.072535239 0.076000005 0.035000026
0.073824763 0.076060951 0.036000013
0.075127617 0.076060951 0.036000013
0.076438099 0.076000005 0.035000026
0.077739045 0.076000005 0.035000026
0.079055235 0.075756192 0.031000018
0.080361903 0.075329527 0.024000049
0.081641905 0.075268567 0.023000002
0.082912378 0.075024769 0.019000053
0.084182858 0.075024769 0.019000053
0.085453331 0.075024769 0.019000053
0.08671619 0.074963808 0.018000007
0.087984763 0.074963808 0.018000007
0.089241907 0.074902862 0.01700002
0.090521902 0.074963808 0.018000007
0.091805711 0.075024769 0.019000053
0.093076192 0.075024769 0.019000053
0.094346665 0.075024769 0.019000053
0.095659047 0.075146668 0.021000028
0.096933335 0.075146668 0.021000028
0.098207623 0.075146668 0.021000028
0.099481903 0.075146668 0.021000028
0.10075619 0.075146668 0.021000028
0.10248762 0.076060951 0.036000013
0.10379048 0.076060951 0.036000013
0.10509333 0.076060951 0.036000013
0.10639619 0.076060951 0.036000013
0.10769905 0.076060951 0.036000013
0.1090019 0.076060951 0.036000013
0.11030476 0.076060951 0.036000013
0.11160762 0.076060951 0.036000013
0.11291048 0.076060951 0.036000013
0.11421333 0.076060951 0.036000013
0.11551619 0.076060951 0.036000013
0.11681905 0.076060951 0.036000013
0.11812191 0.076060951 0.036000013
0.11942476 0.076060951 0.036000013
0.12072762 0.076060951 0.036000013
0.12214857 0.076182857 0.038000047
0.12345524 0.076182857 0.038000047
0.12476191 0.076182857 0.038000047
0.12613334 0.07624381 0.039000034
0.12744191 0.07624381 0.039000034
0.1289562 0.07642667 0.042000055
0.13034096 0.076487623 0.043000042
0.1318019 0.076609522 0.045000017
0.13319619 0.076670475 0.046000004
0.13451809 0.076670475 0.046000004
0.1359181 0.076731429 0.047000051
0.1374819 0.076914288 0.050000012
0.13897523 0.077036195 0.052000046
0.14039239 0.077097148 0.053000033
0.14189905 0.077219047 0.055000007
0.1432381 0.077219047 0.055000007
0.1447562 0.077340961 0.057000041
0.14609906 0.077340961 0.057000041
0.14762858 0.077462859 0.059000015
0.14907047 0.077523813 0.060000002
0.15071048 0.077706665 0.063000023
0.015081905 0.080129527 0.080000043
0.016647615 0.080003813 0.078000009
0.018118091 0.07994096 0.077000022
0.019670472 0.079815239 0.075000048
0.021299049 0.079626665 0.072000027
0.022998095 0.079375237 0.068000019
0.024521898 0.079249531 0.066000044
0.025959998 0.07918667 0.065000057
0.027470477 0.079060957 0.063000023
0.02904762 0.078872383 0.060000002
0.030613333 0.078683808 0.057000041
0.031956188 0.078683808 0.057000041
0.033641905 0.078369528 0.052000046
0.035175238 0.078180954 0.049000025
0.036761906 0.077929527 0.045000017
0.038270473 0.077740952 0.042000055
0.03958476 0.077740952 0.042000055
0.040958095 0.077678099 0.041000009
0.042384762 0.077552386 0.039000034
0.043859046 0.077363811 0.036000013
0.045375235 0.077112377 0.032000005
0.046721905 0.077049524 0.031000018
0.048015237 0.077049524 0.031000018
0.049308572 0.077049524 0.031000018
0.050601903 0.077049524 0.031000018
0.051895238 0.077049524 0.031000018
0.053146668 0.077112377 0.032000005
0.054361902 0.077238098 0.034000039
0.055660948 0.077238098 0.034000039
0.05692381 0.077300951 0.035000026
0.058190476 0.077363811 0.036000013
0.059493333 0.077363811 0.036000013
0.06079619 0.077363811 0.036000013
0.06212762 0.077300951 0.035000026
0.063428573 0.077300951 0.035000026
0.064754285 0.077238098 0.034000039
0.066053331 0.077238098 0.034000039
0.067352384 0.077238098 0.034000039
0.068632379 0.077300951 0.035000026
0.069933333 0.077300951 0.035000026
0.071234286 0.077300951 0.035000026
0.072535239 0.077300951 0.035000026
0.073836192 0.077300951 0.035000026
0.075137146 0.077300951 0.035000026
0.076445714 0.077238098 0.034000039
0.077756189 0.077112377 0.032000005
0.079055235 0.077049524 0.031000018
0.080348574 0.077049524 0.031000018
0.081641905 0.07660953 0.024000049
0.082918093 0.076483816 0.022000015
0.084182858 0.076295242 0.019000053
0.085453331 0.076295242 0.019000053
0.08671619 0.076232381 0.018000007
0.087984763 0.076232381 0.018000007
0.089219049 0.076043814 0.015000045
0.090508573 0.076169528 0.01700002
0.091790475 0.076232381 0.018000007
0.093059048 0.076232381 0.018000007
0.094346665 0.076295242 0.019000053
0.095659047 0.076420955 0.021000028
0.096887618 0.076295242 0.019000053
0.098158099 0.076295242 0.019000053
0.099481903 0.076420955 0.021000028
0.10118476 0.077363811 0.036000013
0.10248762 0.077363811 0.036000013
0.10379048 0.077363811 0.036000013
0.10509333 0.077363811 0.036000013
0.10639619 0.077363811 0.036000013
0.10769905 0.077363811 0.036000013
0.1090019 0.077363811 0.036000013
0.11030476 0.077363811 0.036000013
0.11160762 0.077363811 0.036000013
0.11291048 0.077363811 0.036000013
0.11421333 0.077363811 0.036000013
0.11551619 0.077363811 0.036000013
0.11681905 0.077363811 0.036000013
0.11812191 0.077363811 0.036000013
0.11942476 0.077363811 0.036000013
0.12072762 0.077363811 0.036000013
0.12203048 0.077363811 0.036000013
0.12345524 0.077489525 0.038000047
0.12476191 0.077489525 0.038000047
0.12613334 0.077552386 0.039000034
0.12744191 0.077552386 0.039000034
0.12888762 0.077678099 0.041000009
0.1302 0.077678099 0.041000009
0.1318019 0.077929527 0.045000017
0.13319619 0.07799238 0.046000004
0.13459429 0.07805524 0.047000051
0.1359181 0.07805524 0.047000051
0.1374819 0.078243807 0.050000012
0.13897523 0.078369528 0.052000046
0.14039239 0.078432381 0.053000033
0.14189905 0.078558095 0.055000007
0.14332572 0.078620955 0.056000054
0.1447562 0.078683808 0.057000041
0.14609906 0.078683808 0.057000041
0.14762858 0.07880953 0.059000015
0.14897525 0.07880953 0.059000015
0.15061334 0.078998096 0.062000036
0.015081905 0.081516191 0.080000043
0.016647615 0.08138667 0.078000009
0.018118091 0.08132191 0.077000022
0.019670472 0.081192382 0.075000048
0.021299049 0.080998093 0.072000027
0.022670474 0.080998093 0.072000027
0.024521898 0.08060953 0.066000044
0.025959998 0.08054477 0.065000057
0.027470477 0.080415241 0.063000023
0.02904762 0.080220953 0.060000002
0.030468572 0.080156192 0.059000015
0.032097146 0.079897143 0.055000007
0.03343619 0.079897143 0.055000007
0.03490857 0.079767622 0.053000033
0.036632381 0.079379052 0.047000051
0.038019046 0.079314291 0.046000004
0.039340954 0.079314291 0.046000004
0.040839996 0.079120003 0.043000042
0.04215619 0.079120003 0.043000042
0.043527614 0.079055242 0.042000055
0.044841904 0.079055242 0.042000055
0.046361905 0.078796193 0.038000047
0.047767621 0.078666672 0.036000013
0.049070477 0.078666672 0.036000013
0.050281905 0.078796193 0.038000047
0.051676191 0.078666672 0.036000013
0.052979048 0.078666672 0.036000013
0.054201901 0.078796193 0.038000047
0.055508569 0.078796193 0.038000047
0.056815237 0.078796193 0.038000047
0.058190476 0.078666672 0.036000013
0.059493333 0.078666672 0.036000013
0.060735237 0.078796193 0.038000047
0.06212762 0.078601904 0.035000026
0.063428573 0.078601904 0.035000026
0.064729527 0.078601904 0.035000026
0.066053331 0.078537151 0.034000039
0.067352384 0.078537151 0.034000039
0.068632379 0.078601904 0.035000026
0.069933333 0.078601904 0.035000026
0.071234286 0.078601904 0.035000026
0.072535239 0.078601904 0.035000026
0.073836192 0.078601904 0.035000026
0.075137146 0.078601904 0.035000026
0.07646095 0.078407615 0.032000005
0.077756189 0.078407615 0.032000005
0.079059049 0.078278095 0.030000031
0.080350474 0.078278095 0.030000031
0.081641905 0.077889532 0.024000049
0.082918093 0.077759996 0.022000015
0.084182858 0.077565715 0.019000053
0.085453331 0.077565715 0.019000053
0.08671619 0.077500954 0.018000007
0.08795619 0.077306673 0.015000045
0.089219049 0.077306673 0.015000045
0.090481907 0.077306673 0.015000045
0.091775239 0.077436194 0.01700002
0.093041904 0.077436194 0.01700002
0.09430857 0.077436194 0.01700002
0.095596194 0.077500954 0.018000007
0.09686476 0.077500954 0.018000007
0.098158099 0.077565715 0.019000053
0.099428572 0.077565715 0.019000053
0.10067047 0.077500954 0.018000007
0.10248762 0.078666672 0.036000013
0.10379048 0.078666672 0.036000013
0.10509333 0.078666672 0.036000013
0.10639619 0.078666672 0.036000013
0.10769905 0.078666672 0.036000013
0.1090019 0.078666672 0.036000013
0.11030476 0.078666672 0.036000013
0.11160762 0.078666672 0.036000013
0.11291048 0.078666672 0.036000013
0.11421333 0.078666672 0.036000013
0.11551619 0.078666672 0.036000013
0.11681905 0.078666672 0.036000013
0.11812191 0.078666672 0.036000013
0.11942476 0.078666672 0.036000013
0.12072762 0.078666672 0.036000013
0.12203048 0.078666672 0.036000013
0.12345524 0.078796193 0.038000047
0.12476191 0.078796193 0.038000047
0.12613334 0.078860953 0.039000034
0.12744191 0.078860953 0.039000034
0.12888762 0.078990474 0.041000009
0.13027048 0.079055242 0.042000055
0.13187429 0.079314291 0.046000004
0.13327047 0.079379052 0.047000051
0.13459429 0.079379052 0.047000051
0.1359181 0.079379052 0.047000051
0.1374819 0.079573333 0.050000012
0.13881142 0.079573333 0.050000012
0.14039239 0.079767622 0.053000033
0.14189905 0.079897143 0.055000007
0.14332572 0.079961911 0.056000054
0.1447562 0.080026671 0.057000041
0.14609906 0.080026671 0.057000041
0.14762858 0.080156192 0.059000015
0.14897525 0.080156192 0.059000015
0.15041906 0.080220953 0.060000002
0.15176761 0.080220953 0.060000002
0.016647615 0.082769528 0.078000009
0.018118091 0.08270286 0.077000022
0.019499049 0.08270286 0.077000022
0.020879999 0.08270286 0.077000022
0.022260953 0.08270286 0.077000022
0.024521898 0.081969529 0.066000044
0.025959998 0.081902862 0.065000057
0.02769905 0.081569523 0.060000002
0.029121906 0.081502855 0.059000015
0.030613333 0.081369527 0.057000041
0.032097146 0.081236191 0.055000007
0.03343619 0.081236191 0.055000007
0.03490857 0.081102863 0.053000033
0.036308572 0.081036195 0.052000046
0.037956189 0.080702864 0.047000051
0.039340954 0.080636188 0.046000004
0.040662859 0.080636188 0.046000004
0.042041905 0.080569521 0.045000017
0.043472379 0.080436192 0.043000042
0.044841904 0.080369532 0.042000055
0.046207618 0.080302857 0.041000009
0.047668573 0.080102861 0.038000047
0.048927616 0.080169529 0.039000034
0.050281905 0.080102861 0.038000047
0.051588573 0.080102861 0.038000047
0.052895237 0.080102861 0.038000047
0.054201901 0.080102861 0.038000047
0.055508569 0.080102861 0.038000047
0.056887619 0.079969525 0.036000013
0.058190476 0.079969525 0.036000013
0.059493333 0.079969525 0.036000013
0.06079619 0.079969525 0.036000013
0.06212762 0.079902858 0.035000026
0.063428573 0.079902858 0.035000026
0.064729527 0.079902858 0.035000026
0.066030473 0.079902858 0.035000026
0.067331426 0.079902858 0.035000026
0.068632379 0.079902858 0.035000026
0.069933333 0.079902858 0.035000026
0.071234286 0.079902858 0.035000026
0.072535239 0.079902858 0.035000026
0.073847622 0.07983619 0.034000039
0.075146668 0.07983619 0.034000039
0.07646095 0.079702854 0.032000005
0.077761903 0.079636194 0.031000018
0.079059049 0.079569526 0.030000031
0.080350474 0.079569526 0.030000031
0.081641905 0.079302862 0.026000023
0.082921907 0.079169527 0.024000049
0.084182858 0.078836188 0.019000053
0.085447617 0.07876952 0.018000007
0.086708575 0.07870286 0.01700002
0.08795619 0.078569531 0.015000045
0.089207619 0.078502864 0.014000058
0.090468571 0.078502864 0.014000058
0.091744766 0.078569531 0.015000045
0.093007624 0.078569531 0.015000045
0.094270475 0.078569531 0.015000045
0.095533334 0.078569531 0.015000045
0.096841909 0.07870286 0.01700002
0.098133333 0.07876952 0.018000007
0.099401906 0.07876952 0.018000007
0.10055619 0.078502864 0.014000058
0.10181715 0.078502864 0.014000058
0.10379048 0.079969525 0.036000013
0.10509333 0.079969525 0.036000013
0.10639619 0.079969525 0.036000013
0.10769905 0.079969525 0.036000013
0.1090019 0.079969525 0.036000013
0.11030476 0.079969525 0.036000013
0.11160762 0.079969525 0.036000013
0.11291048 0.079969525 0.036000013
0.11421333 0.079969525 0.036000013
0.11551619 0.079969525 0.036000013
0.11681905 0.079969525 0.036000013
0.11812191 0.079969525 0.036000013
0.11942476 0.079969525 0.036000013
0.12072762 0.079969525 0.036000013
0.12214857 0.080102861 0.038000047
0.12345524 0.080102861 0.038000047
0.12476191 0.080102861 0.038000047
0.12613334 0.080169529 0.039000034
0.12744191 0.080169529 0.039000034
0.12888762 0.080302857 0.041000009
0.1304819 0.080569521 0.045000017
0.13187429 0.080636188 0.046000004
0.13327047 0.080702864 0.047000051
0.13459429 0.080702864 0.047000051
0.1359181 0.080702864 0.047000051
0.1374819 0.08090286 0.050000012
0.13872953 0.080836192 0.049000025
0.14039239 0.081102863 0.053000033
0.14189905 0.081236191 0.055000007
0.14332572 0.081302859 0.056000054
0.1447562 0.081369527 0.057000041
0.14609906 0.081369527 0.057000041
0.14744191 0.081369527 0.057000041
0.14897525 0.081502855 0.059000015
0.15041906 0.081569523 0.060000002
0.15176761 0.081569523 0.060000002
0.1543619 0.081502855 0.059000015
0.15570858 0.081502855 0.059000015
0.019499049 0.08408381 0.077000022
0.020879999 0.08408381 0.077000022
0.022260953 0.08408381 0.077000022
0.024521898 0.083329529 0.066000044
0.025959998 0.083260953 0.065000057
0.02769905 0.082918093 0.060000002
0.02904762 0.082918093 0.060000002
0.030613333 0.082712382 0.057000041
0.032097146 0.082575239 0.055000007
0.03343619 0.082575239 0.055000007
0.03490857 0.082438096 0.053000033
0.036243808 0.082438096 0.053000033
0.037830476 0.082163811 0.049000025
0.039279997 0.082026675 0.047000051
0.040603805 0.082026675 0.047000051
0.041984763 0.0819581 0.046000004
0.043361906 0.081889525 0.045000017
0.044788569 0.081752382 0.043000042
0.04615619 0.081683815 0.042000055
0.047619045 0.081478104 0.039000034
0.048927616 0.081478104 0.039000034
0.050281905 0.081409529 0.038000047
0.051588573 0.081409529 0.038000047
0.052895237 0.081409529 0.038000047
0.054201901 0.081409529 0.038000047
0.055508569 0.081409529 0.038000047
0.056815237 0.081409529 0.038000047
0.058190476 0.081272379 0.036000013
0.059493333 0.081272379 0.036000013
0.06079619 0.081272379 0.036000013
0.06212762 0.081203811 0.035000026
0.063428573 0.081203811 0.035000026
0.064729527 0.081203811 0.035000026
0.066030473 0.081203811 0.035000026
0.067331426 0.081203811 0.035000026
0.068632379 0.081203811 0.035000026
0.069933333 0.081203811 0.035000026
0.071234286 0.081203811 0.035000026
0.072535239 0.081203811 0.035000026
0.073847622 0.081135243 0.034000039
0.075146668 0.081135243 0.034000039
0.07646095 0.080998093 0.032000005
0.077761903 0.080929525 0.031000018
0.079059049 0.080860958 0.030000031
0.080350474 0.080860958 0.030000031
0.081641905 0.080449522 0.024000049
0.082916193 0.080243811 0.021000028
0.084182858 0.080106668 0.019000053
0.085441902 0.079969525 0.01700002
0.086708575 0.079969525 0.01700002
0.087946668 0.079763815 0.014000058
0.089207619 0.079763815 0.014000058
0.090468571 0.079763815 0.014000058
0.091729522 0.079763815 0.014000058
0.093007624 0.07983239 0.015000045
0.094270475 0.07983239 0.015000045
0.095533334 0.07983239 0.015000045
0.096841909 0.079969525 0.01700002
0.098108575 0.079969525 0.01700002
0.099481903 0.080243811 0.021000028
0.10069905 0.080106668 0.019000053
0.10196953 0.080106668 0.019000053
0.1037581 0.081203811 0.035000026
0.10509333 0.081272379 0.036000013
0.10639619 0.081272379 0.036000013
0.10769905 0.081272379 0.036000013
0.1090019 0.081272379 0.036000013
0.11030476 0.081272379 0.036000013
0.11160762 0.081272379 0.036000013
0.11291048 0.081272379 0.036000013
0.11421333 0.081272379 0.036000013
0.11551619 0.081272379 0.036000013
0.11681905 0.081272379 0.036000013
0.11812191 0.081272379 0.036000013
0.11942476 0.081272379 0.036000013
0.12072762 0.081272379 0.036000013
0.12203048 0.081272379 0.036000013
0.12333333 0.081272379 0.036000013
0.12476191 0.081409529 0.038000047
0.12606858 0.081409529 0.038000047
0.12744191 0.081478104 0.039000034
0.12888762 0.081615239 0.041000009
0.1302 0.081615239 0.041000009
0.1318019 0.081889525 0.045000017
0.13319619 0.0819581 0.046000004
0.13451809 0.0819581 0.046000004
0.1359181 0.082026675 0.047000051
0.13740191 0.082163811 0.049000025
0.13872953 0.082163811 0.049000025
0.14039239 0.082438096 0.053000033
0.14189905 0.082575239 0.055000007
0.14332572 0.082643814 0.056000054
0.1447562 0.082712382 0.057000041
0.14609906 0.082712382 0.057000041
0.14762858 0.082849525 0.059000015
0.14907047 0.082918093 0.060000002
