# .PCD v0.7 - Point Cloud Data file format
VERSION 0.7
FIELDS x y z
SIZE 4 4 4
TYPE F F F
COUNT 1 1 1
WIDTH 1342
HEIGHT 1
VIEWPOINT 0 0 0 0 1 0 0
POINTS 1342
DATA ascii
0.13261333 0.02928762 0.023999989
0.1340362 0.02929524 0.025000036
0.13556573 0.029310476 0.02700001
0.13720763 0.029333334 0.030000031
0.1390743 0.029371429 0.035000026
0.1406343 0.029386668 0.037
0.14198095 0.029386668 0.037
0.14344001 0.029394286 0.037999988
0.14501715 0.029409524 0.040000021
0.14636953 0.029409524 0.040000021
0.14783999 0.029417142 0.041000009
0.1491943 0.029417142 0.041000009
0.15054858 0.029417142 0.041000009
0.00035047531 0.030904762 0.055000007
0.001731433 0.030904762 0.055000007
0.0033638068 0.030876191 0.052000046
0.0049028583 0.030857144 0.050000012
0.0062742867 0.030857144 0.050000012
0.007880006 0.030828571 0.046999991
0.0093219057 0.030819047 0.046000004
0.01090857 0.030790478 0.043000042
0.012628578 0.030742858 0.037999988
0.013977144 0.030742858 0.037999988
0.015325718 0.030742858 0.037999988
0.016740955 0.030733334 0.037
0.018217146 0.030714286 0.035000026
0.019622859 0.030704763 0.034000039
0.021024767 0.030695239 0.032999992
0.022540957 0.030666668 0.030000031
0.023988575 0.030647619 0.027999997
0.025318097 0.030647619 0.027999997
0.026700955 0.030638095 0.02700001
0.028131429 0.030619048 0.025000036
0.029504765 0.030609524 0.023999989
0.03087429 0.0306 0.023000002
0.032285716 0.030580953 0.021000028
0.033645719 0.030571429 0.020000041
0.034960002 0.030571429 0.020000041
0.03631429 0.030561905 0.018999994
0.037702858 0.030542858 0.01700002
0.039011434 0.030542858 0.01700002
0.040354289 0.030533334 0.016000032
0.041725717 0.030514285 0.013999999
0.043059051 0.030504763 0.013000011
0.044360004 0.030504763 0.013000011
0.045687623 0.030495239 0.012000024
0.046986669 0.030495239 0.012000024
0.048331432 0.03047619 0.0099999905
0.049626671 0.03047619 0.0099999905
0.050940957 0.030466666 0.0090000033
0.052234288 0.030466666 0.0090000033
0.05354286 0.030457143 0.0080000162
0.054860957 0.030438095 0.006000042
0.056148574 0.030438095 0.006000042
0.05744572 0.030428572 0.0049999952
0.058731433 0.030428572 0.0049999952
0.060022861 0.030419048 0.0040000081
0.06130667 0.030419048 0.0040000081
0.06259048 0.030419048 0.0040000081
0.063874289 0.030419048 0.0040000081
0.065158099 0.030419048 0.0040000081
0.066441908 0.030419048 0.0040000081
0.067725718 0.030419048 0.0040000081
0.068994291 0.030400001 0.0020000339
0.070274293 0.030400001 0.0020000339
0.071554288 0.030400001 0.0020000339
0.072834291 0.030400001 0.0020000339
0.074099049 0.030390477 0.00099998713
0.075394288 0.030400001 0.0020000339
0.076655239 0.030390477 0.00099998713
0.077912383 0.030380953 0
0.079211429 0.030390477 0.00099998713
0.080464765 0.030380953 0
0.08174096 0.030380953 0
0.083017148 0.030380953 0
0.084293336 0.030380953 0
0.085601911 0.030390477 0.00099998713
0.086880006 0.030390477 0.00099998713
0.088158101 0.030390477 0.00099998713
0.089474291 0.030400001 0.0020000339
0.090754293 0.030400001 0.0020000339
0.092034295 0.030400001 0.0020000339
0.093401909 0.030419048 0.0040000081
0.094685718 0.030419048 0.0040000081
0.095969528 0.030419048 0.0040000081
0.097253338 0.030419048 0.0040000081
0.098537147 0.030419048 0.0040000081
0.099874288 0.030428572 0.0049999952
0.10116 0.030428572 0.0049999952
0.10244572 0.030428572 0.0049999952
0.10373144 0.030428572 0.0049999952
0.1050781 0.030438095 0.006000042
0.10649143 0.030457143 0.0080000162
0.10778286 0.030457143 0.0080000162
0.10907429 0.030457143 0.0080000162
0.11043429 0.030466666 0.0090000033
0.11179809 0.03047619 0.0099999905
0.11309333 0.03047619 0.0099999905
0.11453715 0.030495239 0.012000024
0.1158362 0.030495239 0.012000024
0.11721334 0.030504763 0.013000011
0.11851429 0.030504763 0.013000011
0.11989714 0.030514285 0.013999999
0.1212 0.030514285 0.013999999
0.12267429 0.030533334 0.016000032
0.12406857 0.030542858 0.01700002
0.1255562 0.030561905 0.018999994
0.12696001 0.030571429 0.020000041
0.12827429 0.030571429 0.020000041
0.12968382 0.030580953 0.021000028
0.13119429 0.0306 0.023000002
0.1325143 0.0306 0.023000002
0.1340362 0.030619048 0.025000036
0.13556573 0.030638095 0.02700001
0.13689333 0.030638095 0.02700001
0.1390743 0.030714286 0.035000026
0.1406343 0.030733334 0.037
0.14198095 0.030733334 0.037
0.14344001 0.030742858 0.037999988
0.14501715 0.030761905 0.040000021
0.14636953 0.030761905 0.040000021
0.14783999 0.030771429 0.041000009
0.1491943 0.030771429 0.041000009
0.15054858 0.030771429 0.041000009
0.00035047531 0.032285716 0.055000007
0.001731433 0.032285716 0.055000007
0.0033638068 0.032251429 0.052000046
0.0049028583 0.032228574 0.050000012
0.0062742867 0.032228574 0.050000012
0.0077238083 0.032217145 0.049000025
0.0092457198 0.032194287 0.046999991
0.01090857 0.032148574 0.043000042
0.012483809 0.032114286 0.040000021
0.013836194 0.032114286 0.040000021
0.015325718 0.032091428 0.037999988
0.016740955 0.032080002 0.037
0.018217146 0.032057144 0.035000026
0.019622859 0.032045715 0.034000039
0.021024767 0.032034285 0.032999992
0.022540957 0.032000002 0.030000031
0.023988575 0.031977143 0.027999997
0.025318097 0.031977143 0.027999997
0.026700955 0.031965714 0.02700001
0.028131429 0.031942859 0.025000036
0.029455241 0.031942859 0.025000036
0.03087429 0.031920001 0.023000002
0.032285716 0.031897143 0.021000028
0.033645719 0.031885713 0.020000041
0.034960002 0.031885713 0.020000041
0.03631429 0.031874284 0.018999994
0.037702858 0.031851429 0.01700002
0.039011434 0.031851429 0.01700002
0.040354289 0.03184 0.016000032
0.041725717 0.031817142 0.013999999
0.043059051 0.031805716 0.013000011
0.044360004 0.031805716 0.013000011
0.045687623 0.031794287 0.012000024
0.046986669 0.031794287 0.012000024
0.048285719 0.031794287 0.012000024
0.049626671 0.031771429 0.0099999905
0.050940957 0.03176 0.0090000033
0.052234288 0.03176 0.0090000033
0.05354286 0.031748571 0.0080000162
0.054834288 0.031748571 0.0080000162
0.056148574 0.031725716 0.006000042
0.05744572 0.031714287 0.0049999952
0.058731433 0.031714287 0.0049999952
0.060022861 0.031702857 0.0040000081
0.06130667 0.031702857 0.0040000081
0.06259048 0.031702857 0.0040000081
0.063874289 0.031702857 0.0040000081
0.065158099 0.031702857 0.0040000081
0.066441908 0.031702857 0.0040000081
0.067725718 0.031702857 0.0040000081
0.069009528 0.031702857 0.0040000081
0.070274293 0.031680003 0.0020000339
0.071554288 0.031680003 0.0020000339
0.072834291 0.031680003 0.0020000339
0.074099049 0.031668574 0.00099998713
0.075377144 0.031668574 0.00099998713
0.076655239 0.031668574 0.00099998713
0.077933334 0.031668574 0.00099998713
0.079211429 0.031668574 0.00099998713
0.080464765 0.031657144 0
0.08174096 0.031657144 0
0.083045721 0.031668574 0.00099998713
0.084293336 0.031657144 0
0.085569531 0.031657144 0
0.086880006 0.031668574 0.00099998713
0.088158101 0.031668574 0.00099998713
0.089436196 0.031668574 0.00099998713
0.090754293 0.031680003 0.0020000339
0.092034295 0.031680003 0.0020000339
0.093401909 0.031702857 0.0040000081
0.094685718 0.031702857 0.0040000081
0.095969528 0.031702857 0.0040000081
0.097253338 0.031702857 0.0040000081
0.098537147 0.031702857 0.0040000081
0.099874288 0.031714287 0.0049999952
0.10116 0.031714287 0.0049999952
0.10244572 0.031714287 0.0049999952
0.10373144 0.031714287 0.0049999952
0.1050781 0.031725716 0.006000042
0.10636573 0.031725716 0.006000042
0.10778286 0.031748571 0.0080000162
0.10907429 0.031748571 0.0080000162
0.11043429 0.03176 0.0090000033
0.11179809 0.031771429 0.0099999905
0.11309333 0.031771429 0.0099999905
0.11453715 0.031794287 0.012000024
0.1158362 0.031794287 0.012000024
0.11721334 0.031805716 0.013000011
0.11851429 0.031805716 0.013000011
0.11989714 0.031817142 0.013999999
0.1212 0.031817142 0.013999999
0.12267429 0.03184 0.016000032
0.12406857 0.031851429 0.01700002
0.1255562 0.031874284 0.018999994
0.12686858 0.031874284 0.018999994
0.12827429 0.031885713 0.020000041
0.12968382 0.031897143 0.021000028
0.13100001 0.031897143 0.021000028
0.13261333 0.03193143 0.023999989
0.1340362 0.031942859 0.025000036
0.13556573 0.031965714 0.02700001
0.13689333 0.031965714 0.02700001
0.13896763 0.032045715 0.034000039
0.1406343 0.032080002 0.037
0.14198095 0.032080002 0.037
0.14366478 0.032114286 0.040000021
0.14501715 0.032114286 0.040000021
0.14636953 0.032114286 0.040000021
0.14807621 0.032148574 0.043000042
0.1494343 0.032148574 0.043000042
0.15079239 0.032148574 0.043000042
0.00035047531 0.033666667 0.055000007
0.0019028559 0.033640001 0.053000033
0.0033638068 0.033626668 0.052000046
0.0049028583 0.033599999 0.050000012
0.0062742867 0.033599999 0.050000012
0.0077238083 0.033586666 0.049000025
0.009093333 0.033586666 0.049000025
0.010685716 0.033546668 0.046000004
0.01241143 0.03348 0.041000009
0.013836194 0.033466667 0.040000021
0.015325718 0.033440001 0.037999988
0.016674288 0.033440001 0.037999988
0.018087622 0.033426668 0.037
0.019622859 0.033386666 0.034000039
0.021024767 0.033373334 0.032999992
0.022363812 0.033373334 0.032999992
0.023874287 0.033333335 0.030000031
0.025318097 0.033306666 0.027999997
0.026700955 0.033293333 0.02700001
0.028028574 0.033293333 0.02700001
0.029455241 0.033266667 0.025000036
0.030826669 0.033253334 0.023999989
0.032285716 0.033213332 0.021000028
0.03360191 0.033213332 0.021000028
0.034960002 0.033199999 0.020000041
0.03631429 0.033186667 0.018999994
0.037702858 0.033160001 0.01700002
0.039011434 0.033160001 0.01700002
0.040354289 0.033146668 0.016000032
0.041725717 0.033119999 0.013999999
0.043059051 0.033106666 0.013000011
0.044360004 0.033106666 0.013000011
0.045660958 0.033106666 0.013000011
0.046986669 0.033093333 0.012000024
0.048285719 0.033093333 0.012000024
0.049647622 0.033053335 0.0090000033
0.050940957 0.033053335 0.0090000033
0.052234288 0.033053335 0.0090000033
0.05354286 0.033040002 0.0080000162
0.054834288 0.033040002 0.0080000162
0.056148574 0.033013336 0.006000042
0.05744572 0.033 0.0049999952
0.058731433 0.033 0.0049999952
0.060022861 0.032986667 0.0040000081
0.061302859 0.033 0.0049999952
0.06259048 0.032986667 0.0040000081
0.063874289 0.032986667 0.0040000081
0.065158099 0.032986667 0.0040000081
0.066441908 0.032986667 0.0040000081
0.067725718 0.032986667 0.0040000081
0.068994291 0.032960001 0.0020000339
0.070274293 0.032960001 0.0020000339
0.071554288 0.032960001 0.0020000339
0.072820954 0.032946669 0.00099998713
0.074099049 0.032946669 0.00099998713
0.075377144 0.032946669 0.00099998713
0.076655239 0.032946669 0.00099998713
0.077933334 0.032946669 0.00099998713
0.079211429 0.032946669 0.00099998713
0.080489524 0.032946669 0.00099998713
0.081767619 0.032946669 0.00099998713
0.083045721 0.032946669 0.00099998713
0.084293336 0.032933332 0
0.085601911 0.032946669 0.00099998713
0.086845718 0.032933332 0
0.088158101 0.032946669 0.00099998713
0.089436196 0.032946669 0.00099998713
0.090754293 0.032960001 0.0020000339
0.092034295 0.032960001 0.0020000339
0.09331429 0.032960001 0.0020000339
0.094685718 0.032986667 0.0040000081
0.095969528 0.032986667 0.0040000081
0.097253338 0.032986667 0.0040000081
0.098537147 0.032986667 0.0040000081
0.099820957 0.032986667 0.0040000081
0.10110477 0.032986667 0.0040000081
0.10238858 0.032986667 0.0040000081
0.10367239 0.032986667 0.0040000081
0.10495619 0.032986667 0.0040000081
0.10636573 0.033013336 0.006000042
0.10765333 0.033013336 0.006000042
0.10907429 0.033040002 0.0080000162
0.11043429 0.033053335 0.0090000033
0.11172763 0.033053335 0.0090000033
0.11309333 0.033066668 0.0099999905
0.11438857 0.033066668 0.0099999905
0.1158362 0.033093333 0.012000024
0.11713524 0.033093333 0.012000024
0.11851429 0.033106666 0.013000011
0.11981525 0.033106666 0.013000011
0.1212 0.033119999 0.013999999
0.12267429 0.033146668 0.016000032
0.12406857 0.033160001 0.01700002
0.12537715 0.033160001 0.01700002
0.12696001 0.033199999 0.020000041
0.12827429 0.033199999 0.020000041
0.12968382 0.033213332 0.021000028
0.13119429 0.033240002 0.023000002
0.13261333 0.033253334 0.023999989
0.1340362 0.033266667 0.025000036
0.13536 0.033266667 0.025000036
0.13689333 0.033293333 0.02700001
0.13896763 0.033386666 0.034000039
0.1406343 0.033426668 0.037
0.14209142 0.033440001 0.037999988
0.14366478 0.033466667 0.040000021
0.14513144 0.03348 0.041000009
0.14648572 0.03348 0.041000009
0.14807621 0.033506669 0.043000042
0.1494343 0.033506669 0.043000042
0.15079239 0.033506669 0.043000042
0.00026286393 0.035062857 0.055999994
0.001731433 0.035047621 0.055000007
0.0032799989 0.035017144 0.053000033
0.0047390461 0.035001904 0.052000046
0.0062742867 0.034971431 0.050000012
0.0077238083 0.034956191 0.049000025
0.009093333 0.034956191 0.049000025
0.01061143 0.034925714 0.046999991
0.012049526 0.034910478 0.046000004
0.013765715 0.034834288 0.041000009
0.015188575 0.034819048 0.040000021
0.016674288 0.034788571 0.037999988
0.018087622 0.034773335 0.037
0.019560002 0.034742858 0.035000026
0.02096381 0.034727618 0.034000039
0.022481907 0.034681905 0.031000018
0.023874287 0.034666669 0.030000031
0.025318097 0.034636192 0.027999997
0.026700955 0.034620952 0.02700001
0.028028574 0.034620952 0.02700001
0.029455241 0.034590475 0.025000036
0.030826669 0.034575239 0.023999989
0.032285716 0.034529526 0.021000028
0.03360191 0.034529526 0.021000028
0.034960002 0.034514286 0.020000041
0.03631429 0.034499049 0.018999994
0.037702858 0.034468573 0.01700002
0.039011434 0.034468573 0.01700002
0.040354289 0.034453332 0.016000032
0.041725717 0.03442286 0.013999999
0.043028574 0.03442286 0.013999999
0.044360004 0.034407619 0.013000011
0.045660958 0.034407619 0.013000011
0.046986669 0.034392383 0.012000024
0.048285719 0.034392383 0.012000024
0.049626671 0.034361906 0.0099999905
0.050940957 0.034346666 0.0090000033
0.052234288 0.034346666 0.0090000033
0.05354286 0.03433143 0.0080000162
0.054834288 0.03433143 0.0080000162
0.056148574 0.034300953 0.006000042
0.05744572 0.034285717 0.0049999952
0.058731433 0.034285717 0.0049999952
0.060022861 0.034270477 0.0040000081
0.06130667 0.034270477 0.0040000081
0.06259048 0.034270477 0.0040000081
0.063874289 0.034270477 0.0040000081
0.065158099 0.034270477 0.0040000081
0.066441908 0.034270477 0.0040000081
0.067725718 0.034270477 0.0040000081
0.068994291 0.03424 0.0020000339
0.070274293 0.03424 0.0020000339
0.071554288 0.03424 0.0020000339
0.072834291 0.03424 0.0020000339
0.074099049 0.034224764 0.00099998713
0.075394288 0.03424 0.0020000339
0.076655239 0.034224764 0.00099998713
0.077933334 0.034224764 0.00099998713
0.079211429 0.034224764 0.00099998713
0.080489524 0.034224764 0.00099998713
0.081767619 0.034224764 0.00099998713
0.083074287 0.03424 0.0020000339
0.084323809 0.034224764 0.00099998713
0.085601911 0.034224764 0.00099998713
0.086880006 0.034224764 0.00099998713
0.088158101 0.034224764 0.00099998713
0.089436196 0.034224764 0.00099998713
0.090754293 0.03424 0.0020000339
0.092034295 0.03424 0.0020000339
0.093401909 0.034270477 0.0040000081
0.094685718 0.034270477 0.0040000081
0.095969528 0.034270477 0.0040000081
0.097253338 0.034270477 0.0040000081
0.098537147 0.034270477 0.0040000081
0.099820957 0.034270477 0.0040000081
0.10110477 0.034270477 0.0040000081
0.10238858 0.034270477 0.0040000081
0.10367239 0.034270477 0.0040000081
0.10501715 0.034285717 0.0049999952
0.10636573 0.034300953 0.006000042
0.10765333 0.034300953 0.006000042
0.10907429 0.03433143 0.0080000162
0.11043429 0.034346666 0.0090000033
0.11172763 0.034346666 0.0090000033
0.11309333 0.034361906 0.0099999905
0.11438857 0.034361906 0.0099999905
0.1158362 0.034392383 0.012000024
0.11721334 0.034407619 0.013000011
0.11851429 0.034407619 0.013000011
0.11981525 0.034407619 0.013000011
0.1212 0.03442286 0.013999999
0.12267429 0.034453332 0.016000032
0.12406857 0.034468573 0.01700002
0.1255562 0.034499049 0.018999994
0.12686858 0.034499049 0.018999994
0.12827429 0.034514286 0.020000041
0.12968382 0.034529526 0.021000028
0.13119429 0.034560002 0.023000002
0.13261333 0.034575239 0.023999989
0.13393524 0.034575239 0.023999989
0.13536 0.034590475 0.025000036
0.13668382 0.034590475 0.025000036
0.1390743 0.034742858 0.035000026
0.14041716 0.034742858 0.035000026
0.14209142 0.034788571 0.037999988
0.14366478 0.034819048 0.040000021
0.14501715 0.034819048 0.040000021
0.14648572 0.034834288 0.041000009
0.14807621 0.034864761 0.043000042
0.1494343 0.034864761 0.043000042
0.15079239 0.034864761 0.043000042
0.00026286393 0.036445715 0.055999994
0.001731433 0.036428571 0.055000007
0.0033638068 0.036377143 0.052000046
0.0047390461 0.036377143 0.052000046
0.0062742867 0.036342859 0.050000012
0.0077238083 0.036325715 0.049000025
0.009093333 0.036325715 0.049000025
0.01061143 0.036291428 0.046999991
0.012049526 0.036274284 0.046000004
0.013765715 0.036188573 0.041000009
0.015188575 0.036171429 0.040000021
0.016674288 0.036137141 0.037999988
0.018087622 0.036120001 0.037
0.019560002 0.036085714 0.035000026
0.02096381 0.036068574 0.034000039
0.022363812 0.03605143 0.032999992
0.023874287 0.035999998 0.030000031
0.02520762 0.035999998 0.030000031
0.026647624 0.035965715 0.027999997
0.028028574 0.035948571 0.02700001
0.029455241 0.035914287 0.025000036
0.030779049 0.035914287 0.025000036
0.032285716 0.035845716 0.021000028
0.03360191 0.035845716 0.021000028
0.034960002 0.035828572 0.020000041
0.03631429 0.035811428 0.018999994
0.037626669 0.035811428 0.018999994
0.039011434 0.035777144 0.01700002
0.040320002 0.035777144 0.01700002
0.041725717 0.035725713 0.013999999
0.043028574 0.035725713 0.013999999
0.044360004 0.035708573 0.013000011
0.045660958 0.035708573 0.013000011
0.046961907 0.035708573 0.013000011
0.048285719 0.035691429 0.012000024
0.049626671 0.035657141 0.0099999905
0.050940957 0.035640001 0.0090000033
0.052234288 0.035640001 0.0090000033
0.05354286 0.035622858 0.0080000162
0.054834288 0.035622858 0.0080000162
0.056125715 0.035622858 0.0080000162
0.057436194 0.035588574 0.006000042
0.058731433 0.03557143 0.0049999952
0.060022861 0.035554286 0.0040000081
0.06130667 0.035554286 0.0040000081
0.06259048 0.035554286 0.0040000081
0.063874289 0.035554286 0.0040000081
0.065158099 0.035554286 0.0040000081
0.066441908 0.035554286 0.0040000081
0.067714289 0.035520002 0.0020000339
0.068994291 0.035520002 0.0020000339
0.070274293 0.035520002 0.0020000339
0.071554288 0.035520002 0.0020000339
0.072834291 0.035520002 0.0020000339
0.074099049 0.035502858 0.00099998713
0.075377144 0.035502858 0.00099998713
0.076655239 0.035502858 0.00099998713
0.077954292 0.035520002 0.0020000339
0.079211429 0.035502858 0.00099998713
0.080489524 0.035502858 0.00099998713
0.081767619 0.035502858 0.00099998713
0.083045721 0.035502858 0.00099998713
0.084323809 0.035502858 0.00099998713
0.085601911 0.035502858 0.00099998713
0.086880006 0.035502858 0.00099998713
0.088158101 0.035502858 0.00099998713
0.089436196 0.035502858 0.00099998713
0.090754293 0.035520002 0.0020000339
0.092034295 0.035520002 0.0020000339
0.09331429 0.035520002 0.0020000339
0.094594292 0.035520002 0.0020000339
0.095874295 0.035520002 0.0020000339
0.097154289 0.035520002 0.0020000339
0.098537147 0.035554286 0.0040000081
0.099820957 0.035554286 0.0040000081
0.10110477 0.035554286 0.0040000081
0.10238858 0.035554286 0.0040000081
0.10367239 0.035554286 0.0040000081
0.10501715 0.03557143 0.0049999952
0.10636573 0.035588574 0.006000042
0.10765333 0.035588574 0.006000042
0.10907429 0.035622858 0.0080000162
0.11043429 0.035640001 0.0090000033
0.11179809 0.035657141 0.0099999905
0.1132381 0.035691429 0.012000024
0.11453715 0.035691429 0.012000024
0.1158362 0.035691429 0.012000024
0.11721334 0.035708573 0.013000011
0.11851429 0.035708573 0.013000011
0.11989714 0.035725713 0.013999999
0.1212 0.035725713 0.013999999
0.12267429 0.03576 0.016000032
0.12406857 0.035777144 0.01700002
0.1255562 0.035811428 0.018999994
0.12686858 0.035811428 0.018999994
0.12827429 0.035828572 0.020000041
0.12968382 0.035845716 0.021000028
0.13119429 0.035879999 0.023000002
0.13261333 0.035897143 0.023999989
0.1340362 0.035914287 0.025000036
0.13536 0.035914287 0.025000036
0.13668382 0.035914287 0.025000036
0.13864762 0.036017142 0.031000018
0.14041716 0.036085714 0.035000026
0.14231238 0.036171429 0.040000021
0.14366478 0.036171429 0.040000021
0.14536001 0.03622286 0.043000042
0.14671811 0.03622286 0.043000042
0.14807621 0.03622286 0.043000042
0.1494343 0.03622286 0.043000042
0.15079239 0.03622286 0.043000042
0.00026286393 0.037828572 0.055999994
0.001731433 0.037809525 0.055000007
0.0032799989 0.03777143 0.053000033
0.0047390461 0.037752382 0.052000046
0.0062742867 0.037714288 0.050000012
0.0077238083 0.03769524 0.049000025
0.009093333 0.03769524 0.049000025
0.01061143 0.037657142 0.046999991
0.012194287 0.037599999 0.04400003
0.013624761 0.037580952 0.043000042
0.015188575 0.03752381 0.040000021
0.016674288 0.037485715 0.037999988
0.018087622 0.037466668 0.037
0.019560002 0.037428573 0.035000026
0.02096381 0.037409525 0.034000039
0.022304762 0.037409525 0.034000039
0.023817144 0.037352383 0.031000018
0.02520762 0.037333332 0.030000031
0.026647624 0.037295237 0.027999997
0.028028574 0.03727619 0.02700001
0.029356193 0.03727619 0.02700001
0.030779049 0.037238099 0.025000036
0.032285716 0.037161905 0.021000028
0.03360191 0.037161905 0.021000028
0.034960002 0.037142858 0.020000041
0.036274284 0.037142858 0.020000041
0.037626669 0.03712381 0.018999994
0.039011434 0.037085716 0.01700002
0.040320002 0.037085716 0.01700002
0.041660957 0.037066668 0.016000032
0.043028574 0.037028573 0.013999999
0.044331431 0.037028573 0.013999999
0.045660958 0.037009522 0.013000011
0.046961907 0.037009522 0.013000011
0.048262861 0.037009522 0.013000011
0.049626671 0.03695238 0.0099999905
0.050940957 0.036933333 0.0090000033
0.052234288 0.036933333 0.0090000033
0.05354286 0.036914285 0.0080000162
0.054834288 0.036914285 0.0080000162
0.056125715 0.036914285 0.0080000162
0.057436194 0.036876194 0.006000042
0.058731433 0.036857143 0.0049999952
0.060017146 0.036857143 0.0049999952
0.06130667 0.036838096 0.0040000081
0.06259048 0.036838096 0.0040000081
0.063874289 0.036838096 0.0040000081
0.065158099 0.036838096 0.0040000081
0.066434287 0.036800001 0.0020000339
0.067714289 0.036800001 0.0020000339
0.068994291 0.036800001 0.0020000339
0.070274293 0.036800001 0.0020000339
0.071554288 0.036800001 0.0020000339
0.072820954 0.036780953 0.00099998713
0.074099049 0.036780953 0.00099998713
0.075377144 0.036780953 0.00099998713
0.076655239 0.036780953 0.00099998713
0.077954292 0.036800001 0.0020000339
0.079234287 0.036800001 0.0020000339
0.080489524 0.036780953 0.00099998713
0.081767619 0.036780953 0.00099998713
0.083045721 0.036780953 0.00099998713
0.084323809 0.036780953 0.00099998713
0.085601911 0.036780953 0.00099998713
0.086880006 0.036780953 0.00099998713
0.088158101 0.036780953 0.00099998713
0.089474291 0.036800001 0.0020000339
0.090754293 0.036800001 0.0020000339
0.092034295 0.036800001 0.0020000339
0.09331429 0.036800001 0.0020000339
0.094594292 0.036800001 0.0020000339
0.095874295 0.036800001 0.0020000339
0.097154289 0.036800001 0.0020000339
0.098537147 0.036838096 0.0040000081
0.099820957 0.036838096 0.0040000081
0.10110477 0.036838096 0.0040000081
0.10238858 0.036838096 0.0040000081
0.10367239 0.036838096 0.0040000081
0.10501715 0.036857143 0.0049999952
0.10636573 0.036876194 0.006000042
0.10765333 0.036876194 0.006000042
0.10907429 0.036914285 0.0080000162
0.11043429 0.036933333 0.0090000033
0.11172763 0.036933333 0.0090000033
0.11309333 0.03695238 0.0099999905
0.11453715 0.036990479 0.012000024
0.1158362 0.036990479 0.012000024
0.11721334 0.037009522 0.013000011
0.11851429 0.037009522 0.013000011
0.11989714 0.037028573 0.013999999
0.1212 0.037028573 0.013999999
0.12267429 0.037066668 0.016000032
0.12406857 0.037085716 0.01700002
0.1255562 0.03712381 0.018999994
0.12686858 0.03712381 0.018999994
0.12827429 0.037142858 0.020000041
0.12958857 0.037142858 0.020000041
0.13119429 0.0372 0.023000002
0.13261333 0.037219048 0.023999989
0.1340362 0.037238099 0.025000036
0.13536 0.037238099 0.025000036
0.13689333 0.03727619 0.02700001
0.13864762 0.037352383 0.031000018
0.14030859 0.037409525 0.034000039
0.14209142 0.037485715 0.037999988
0.14344001 0.037485715 0.037999988
0.14513144 0.037542857 0.041000009
0.14671811 0.037580952 0.043000042
0.14807621 0.037580952 0.043000042
0.1494343 0.037580952 0.043000042
0.15079239 0.037580952 0.043000042
0.00026286393 0.03921143 0.055999994
0.001645714 0.03921143 0.055999994
0.0032799989 0.039148573 0.053000033
0.0047390461 0.039127622 0.052000046
0.0062742867 0.039085716 0.050000012
0.0077238083 0.039064765 0.049000025
0.009093333 0.039064765 0.049000025
0.01061143 0.039022855 0.046999991
0.012049526 0.039001904 0.046000004
0.013624761 0.038939048 0.043000042
0.015188575 0.038876191 0.040000021
0.016674288 0.038834285 0.037999988
0.018022861 0.038834285 0.037999988
0.019434288 0.038813334 0.037
0.020902857 0.038771428 0.035000026
0.022304762 0.038750477 0.034000039
0.023817144 0.03868762 0.031000018
0.02520762 0.038666669 0.030000031
0.026647624 0.038624763 0.027999997
0.028028574 0.038603812 0.02700001
0.029356193 0.038603812 0.02700001
0.030779049 0.038561907 0.025000036
0.032285716 0.038478095 0.021000028
0.03360191 0.038478095 0.021000028
0.0349181 0.038478095 0.021000028
0.036274284 0.038457144 0.020000041
0.037588574 0.038457144 0.020000041
0.038939051 0.038436189 0.018999994
0.040320002 0.038394287 0.01700002
0.041660957 0.038373336 0.016000032
0.043028574 0.038331427 0.013999999
0.044331431 0.038331427 0.013999999
0.045660958 0.038310476 0.013000011
0.046961907 0.038310476 0.013000011
0.048262861 0.038310476 0.013000011
0.049626671 0.038247619 0.0099999905
0.050940957 0.038226668 0.0090000033
0.052234288 0.038226668 0.0090000033
0.05354286 0.038205713 0.0080000162
0.054834288 0.038205713 0.0080000162
0.056125715 0.038205713 0.0080000162
0.057436194 0.038163811 0.006000042
0.058731433 0.038142856 0.0049999952
0.060017146 0.038142856 0.0049999952
0.06130667 0.038121905 0.0040000081
0.06259048 0.038121905 0.0040000081
0.063874289 0.038079999 0.0020000339
0.065154292 0.038079999 0.0020000339
0.066434287 0.038079999 0.0020000339
0.067714289 0.038079999 0.0020000339
0.068994291 0.038079999 0.0020000339
0.070274293 0.038079999 0.0020000339
0.071554288 0.038079999 0.0020000339
0.072834291 0.038079999 0.0020000339
0.074099049 0.038059048 0.00099998713
0.075377144 0.038059048 0.00099998713
0.07667429 0.038079999 0.0020000339
0.077954292 0.038079999 0.0020000339
0.079234287 0.038079999 0.0020000339
0.080514289 0.038079999 0.0020000339
0.081794292 0.038079999 0.0020000339
0.083045721 0.038059048 0.00099998713
0.084323809 0.038059048 0.00099998713
0.085601911 0.038059048 0.00099998713
0.086845718 0.038038097 0
0.088158101 0.038059048 0.00099998713
0.089474291 0.038079999 0.0020000339
0.090754293 0.038079999 0.0020000339
0.092034295 0.038079999 0.0020000339
0.09331429 0.038079999 0.0020000339
0.094594292 0.038079999 0.0020000339
0.095874295 0.038079999 0.0020000339
0.097154289 0.038079999 0.0020000339
0.098537147 0.038121905 0.0040000081
0.099820957 0.038121905 0.0040000081
0.10110477 0.038121905 0.0040000081
0.10238858 0.038121905 0.0040000081
0.10367239 0.038121905 0.0040000081
0.10501715 0.038142856 0.0049999952
0.10636573 0.038163811 0.006000042
0.10765333 0.038163811 0.006000042
0.10907429 0.038205713 0.0080000162
0.11036572 0.038205713 0.0080000162
0.11172763 0.038226668 0.0090000033
0.11309333 0.038247619 0.0099999905
0.11438857 0.038247619 0.0099999905
0.1158362 0.038289525 0.012000024
0.11721334 0.038310476 0.013000011
0.11851429 0.038310476 0.013000011
0.11989714 0.038331427 0.013999999
0.1212 0.038331427 0.013999999
0.12267429 0.038373336 0.016000032
0.12406857 0.038394287 0.01700002
0.1255562 0.038436189 0.018999994
0.12696001 0.038457144 0.020000041
0.12827429 0.038457144 0.020000041
0.12968382 0.038478095 0.021000028
0.13119429 0.038520001 0.023000002
0.13261333 0.038540952 0.023999989
0.13423809 0.038603812 0.02700001
0.13566858 0.038624763 0.027999997
0.13720763 0.038666669 0.030000031
0.13864762 0.03868762 0.031000018
0.14030859 0.038750477 0.034000039
0.14176001 0.038771428 0.035000026
0.14332762 0.038813334 0.037
0.14501715 0.038876191 0.040000021
0.14671811 0.038939048 0.043000042
0.14807621 0.038939048 0.043000042
0.1494343 0.038939048 0.043000042
0.15079239 0.038939048 0.043000042
8.7618828e-05 0.04064 0.058000028
0.001645714 0.040594287 0.055999994
0.0031123832 0.040571429 0.055000007
0.0047390461 0.040502857 0.052000046
0.0062742867 0.040457144 0.050000012
0.0077238083 0.040434286 0.049000025
0.009093333 0.040434286 0.049000025
0.01061143 0.040388569 0.046999991
0.012049526 0.040365715 0.046000004
0.013624761 0.040297143 0.043000042
0.015120003 0.04025143 0.041000009
0.016540952 0.040228572 0.040000021
0.018022861 0.040182859 0.037999988
0.019434288 0.04016 0.037
0.020902857 0.040114287 0.035000026
0.022363812 0.040068571 0.032999992
0.023817144 0.040022857 0.031000018
0.025152385 0.040022857 0.031000018
0.026647624 0.039954286 0.027999997
0.027977146 0.039954286 0.027999997
0.029356193 0.039931431 0.02700001
0.030683812 0.039931431 0.02700001
0.03219429 0.039839998 0.023000002
0.03360191 0.039794289 0.021000028
0.0349181 0.039794289 0.021000028
0.036274284 0.03977143 0.020000041
0.037588574 0.03977143 0.020000041
0.038939051 0.039748572 0.018999994
0.040320002 0.039702859 0.01700002
0.041660957 0.03968 0.016000032
0.043028574 0.039634287 0.013999999
0.044331431 0.039634287 0.013999999
0.045660958 0.039611429 0.013000011
0.046986669 0.039588571 0.012000024
0.048285719 0.039588571 0.012000024
0.049626671 0.039542858 0.0099999905
0.050940957 0.039520003 0.0090000033
0.052234288 0.039520003 0.0090000033
0.05354286 0.039497145 0.0080000162
0.054834288 0.039497145 0.0080000162
0.056125715 0.039497145 0.0080000162
0.057436194 0.039451428 0.006000042
0.058731433 0.039428573 0.0049999952
0.060017146 0.039428573 0.0049999952
0.061302859 0.039428573 0.0049999952
0.06259048 0.039405715 0.0040000081
0.063874289 0.039360002 0.0020000339
0.065154292 0.039360002 0.0020000339
0.066434287 0.039360002 0.0020000339
0.067714289 0.039360002 0.0020000339
0.068994291 0.039360002 0.0020000339
0.070274293 0.039360002 0.0020000339
0.071554288 0.039360002 0.0020000339
0.072834291 0.039360002 0.0020000339
0.074114293 0.039360002 0.0020000339
0.075377144 0.039337143 0.00099998713
0.07667429 0.039360002 0.0020000339
0.077954292 0.039360002 0.0020000339
0.079234287 0.039360002 0.0020000339
0.080514289 0.039360002 0.0020000339
0.081767619 0.039337143 0.00099998713
0.083045721 0.039337143 0.00099998713
0.084323809 0.039337143 0.00099998713
0.085601911 0.039337143 0.00099998713
0.086880006 0.039337143 0.00099998713
0.088158101 0.039337143 0.00099998713
0.089474291 0.039360002 0.0020000339
0.090754293 0.039360002 0.0020000339
0.092034295 0.039360002 0.0020000339
0.09331429 0.039360002 0.0020000339
0.094594292 0.039360002 0.0020000339
0.095874295 0.039360002 0.0020000339
0.097154289 0.039360002 0.0020000339
0.098537147 0.039405715 0.0040000081
0.099820957 0.039405715 0.0040000081
0.10110477 0.039405715 0.0040000081
0.10238858 0.039405715 0.0040000081
0.10367239 0.039405715 0.0040000081
0.1050781 0.039451428 0.006000042
0.10636573 0.039451428 0.006000042
0.10765333 0.039451428 0.006000042
0.10907429 0.039497145 0.0080000162
0.11036572 0.039497145 0.0080000162
0.11172763 0.039520003 0.0090000033
0.11309333 0.039542858 0.0099999905
0.11438857 0.039542858 0.0099999905
0.1158362 0.039588571 0.012000024
0.11721334 0.039611429 0.013000011
0.11851429 0.039611429 0.013000011
0.11981525 0.039611429 0.013000011
0.1212 0.039634287 0.013999999
0.12267429 0.03968 0.016000032
0.12406857 0.039702859 0.01700002
0.12537715 0.039702859 0.01700002
0.12686858 0.039748572 0.018999994
0.12827429 0.03977143 0.020000041
0.12968382 0.039794289 0.021000028
0.13119429 0.039839998 0.023000002
0.13261333 0.039862856 0.023999989
0.13423809 0.039931431 0.02700001
0.13566858 0.039954286 0.027999997
0.13720763 0.039999999 0.030000031
0.13864762 0.040022857 0.031000018
0.1402 0.040068571 0.032999992
0.14164954 0.040091433 0.034000039
0.14332762 0.04016 0.037
0.14478856 0.040182859 0.037999988
0.14648572 0.04025143 0.041000009
0.14783999 0.04025143 0.041000009
0.1491943 0.04025143 0.041000009
0.15054858 0.04025143 0.041000009
0 0.042051427 0.059000015
0.0014742874 0.042026669 0.058000028
0.0031123832 0.041952379 0.055000007
0.0047390461 0.041878097 0.052000046
0.0062742867 0.041828573 0.050000012
0.0077238083 0.041803807 0.049000025
0.0092457198 0.041754287 0.046999991
0.01061143 0.041754287 0.046999991
0.012049526 0.041729525 0.046000004
0.013624761 0.041655242 0.043000042
0.015120003 0.041605715 0.041000009
0.016540952 0.041580953 0.040000021
0.018022861 0.041531429 0.037999988
0.019371431 0.041531429 0.037999988
0.020780955 0.041506667 0.037
0.022245716 0.041457146 0.035000026
0.02370286 0.041407619 0.032999992
0.025152385 0.041358098 0.031000018
0.026540954 0.041333333 0.030000031
0.027977146 0.041283809 0.027999997
0.029306669 0.041283809 0.027999997
0.030683812 0.04125905 0.02700001
0.032102861 0.041209526 0.025000036
0.033514291 0.041160002 0.023000002
0.0349181 0.041110478 0.021000028
0.036234289 0.041110478 0.021000028
0.037588574 0.041085716 0.020000041
0.03890286 0.041085716 0.020000041
0.040251434 0.041060954 0.018999994
0.041660957 0.040986665 0.016000032
0.043028574 0.040937141 0.013999999
0.044331431 0.040937141 0.013999999
0.045660958 0.040912382 0.013000011
0.046986669 0.04088762 0.012000024
0.048285719 0.04088762 0.012000024
0.049626671 0.040838096 0.0099999905
0.05092191 0.040838096 0.0099999905
0.052234288 0.040813334 0.0090000033
0.053527623 0.040813334 0.0090000033
0.054834288 0.040788572 0.0080000162
0.056125715 0.040788572 0.0080000162
0.057436194 0.040739052 0.006000042
0.058723815 0.040739052 0.006000042
0.060017146 0.040714286 0.0049999952
0.061302859 0.040714286 0.0049999952
0.06259048 0.040689524 0.0040000081
0.063874289 0.040640004 0.0020000339
0.065154292 0.040640004 0.0020000339
0.066434287 0.040640004 0.0020000339
0.067714289 0.040640004 0.0020000339
0.068994291 0.040640004 0.0020000339
0.070274293 0.040640004 0.0020000339
0.071554288 0.040640004 0.0020000339
0.072834291 0.040640004 0.0020000339
0.074114293 0.040640004 0.0020000339
0.075377144 0.040615238 0.00099998713
0.07667429 0.040640004 0.0020000339
0.077954292 0.040640004 0.0020000339
0.079234287 0.040640004 0.0020000339
0.080489524 0.040615238 0.00099998713
0.081767619 0.040615238 0.00099998713
0.083045721 0.040615238 0.00099998713
0.084323809 0.040615238 0.00099998713
0.085601911 0.040615238 0.00099998713
0.086880006 0.040615238 0.00099998713
0.088158101 0.040615238 0.00099998713
0.089474291 0.040640004 0.0020000339
0.090754293 0.040640004 0.0020000339
0.092034295 0.040640004 0.0020000339
0.09331429 0.040640004 0.0020000339
0.094594292 0.040640004 0.0020000339
0.095874295 0.040640004 0.0020000339
0.097154289 0.040640004 0.0020000339
0.098537147 0.040689524 0.0040000081
0.099820957 0.040689524 0.0040000081
0.10110477 0.040689524 0.0040000081
0.10238858 0.040689524 0.0040000081
0.10373144 0.040714286 0.0049999952
0.1050781 0.040739052 0.006000042
0.10636573 0.040739052 0.006000042
0.10765333 0.040739052 0.006000042
0.10907429 0.040788572 0.0080000162
0.11036572 0.040788572 0.0080000162
0.11172763 0.040813334 0.0090000033
0.11309333 0.040838096 0.0099999905
0.11438857 0.040838096 0.0099999905
0.11568381 0.040838096 0.0099999905
0.11713524 0.04088762 0.012000024
0.11851429 0.040912382 0.013000011
0.11981525 0.040912382 0.013000011
0.1212 0.040937141 0.013999999
0.12267429 0.040986665 0.016000032
0.12406857 0.04101143 0.01700002
0.12537715 0.04101143 0.01700002
0.12686858 0.041060954 0.018999994
0.12827429 0.041085716 0.020000041
0.12958857 0.041085716 0.020000041
0.13100001 0.041110478 0.021000028
0.13261333 0.041184761 0.023999989
0.13433905 0.041283809 0.027999997
0.13566858 0.041283809 0.027999997
0.13720763 0.041333333 0.030000031
0.13864762 0.041358098 0.031000018
0.1402 0.041407619 0.032999992
0.14164954 0.041432381 0.034000039
0.14310285 0.041457146 0.035000026
0.14478856 0.041531429 0.037999988
0.14636953 0.041580953 0.040000021
0.14772192 0.041580953 0.040000021
0.14991429 0.041754287 0.046999991
0.15128 0.041754287 0.046999991
0.0013885759 0.043439999 0.059000015
0.0030285753 0.043360002 0.055999994
0.0044933371 0.043333337 0.055000007
0.0060342886 0.043280002 0.053000033
0.0076457188 0.043200001 0.050000012
0.009093333 0.043173335 0.049000025
0.01061143 0.043120001 0.046999991
0.012049526 0.043093331 0.046000004
0.013554286 0.04304 0.04400003
0.014982857 0.043013334 0.043000042
0.016340952 0.043013334 0.043000042
0.017828573 0.042960003 0.041000009
0.019245718 0.042933334 0.040000021
0.020720005 0.042879999 0.037999988
0.022068575 0.042879999 0.037999988
0.02370286 0.042746667 0.032999992
0.025041908 0.042746667 0.032999992
0.026487622 0.042693332 0.031000018
0.027874287 0.042666666 0.030000031
0.029356193 0.042586669 0.02700001
0.030683812 0.042586669 0.02700001
0.032102861 0.042533334 0.025000036
0.033514291 0.042479999 0.023000002
0.0349181 0.042426668 0.021000028
0.036234289 0.042426668 0.021000028
0.037588574 0.042400002 0.020000041
0.03890286 0.042400002 0.020000041
0.040251434 0.042373333 0.018999994
0.041660957 0.042293336 0.016000032
0.043028574 0.042240001 0.013999999
0.044331431 0.042240001 0.013999999
0.045660958 0.042213336 0.013000011
0.046986669 0.04218667 0.012000024
0.048285719 0.04218667 0.012000024
0.049626671 0.042133335 0.0099999905
0.05092191 0.042133335 0.0099999905
0.052234288 0.042106666 0.0090000033
0.053527623 0.042106666 0.0090000033
0.054834288 0.04208 0.0080000162
0.056125715 0.04208 0.0080000162
0.057417147 0.04208 0.0080000162
0.058723815 0.042026669 0.006000042
0.060017146 0.041999999 0.0049999952
0.061302859 0.041999999 0.0049999952
0.06259048 0.041973338 0.0040000081
0.063874289 0.041920003 0.0020000339
0.065154292 0.041920003 0.0020000339
0.066434287 0.041920003 0.0020000339
0.067714289 0.041920003 0.0020000339
0.068994291 0.041920003 0.0020000339
0.070274293 0.041920003 0.0020000339
0.071554288 0.041920003 0.0020000339
0.072834291 0.041920003 0.0020000339
0.074114293 0.041920003 0.0020000339
0.075394288 0.041920003 0.0020000339
0.07667429 0.041920003 0.0020000339
0.077954292 0.041920003 0.0020000339
0.079234287 0.041920003 0.0020000339
0.080489524 0.041893333 0.00099998713
0.081767619 0.041893333 0.00099998713
0.083045721 0.041893333 0.00099998713
0.084323809 0.041893333 0.00099998713
0.085601911 0.041893333 0.00099998713
0.086880006 0.041893333 0.00099998713
0.088158101 0.041893333 0.00099998713
0.089436196 0.041893333 0.00099998713
0.090754293 0.041920003 0.0020000339
0.092034295 0.041920003 0.0020000339
0.09331429 0.041920003 0.0020000339
0.094594292 0.041920003 0.0020000339
0.095874295 0.041920003 0.0020000339
0.097154289 0.041920003 0.0020000339
0.098537147 0.041973338 0.0040000081
0.099820957 0.041973338 0.0040000081
0.10110477 0.041973338 0.0040000081
0.10238858 0.041973338 0.0040000081
0.10373144 0.041999999 0.0049999952
0.1050781 0.042026669 0.006000042
0.10636573 0.042026669 0.006000042
0.10778286 0.04208 0.0080000162
0.10907429 0.04208 0.0080000162
0.11036572 0.04208 0.0080000162
0.11172763 0.042106666 0.0090000033
0.11302096 0.042106666 0.0090000033
0.11438857 0.042133335 0.0099999905
0.11568381 0.042133335 0.0099999905
0.11713524 0.04218667 0.012000024
0.11851429 0.042213336 0.013000011
0.11981525 0.042213336 0.013000011
0.1212 0.042240001 0.013999999
0.12276001 0.042319998 0.01700002
0.12406857 0.042319998 0.01700002
0.12537715 0.042319998 0.01700002
0.12686858 0.042373333 0.018999994
0.12827429 0.042400002 0.020000041
0.12958857 0.042400002 0.020000041
0.13100001 0.042426668 0.021000028
0.13261333 0.042506665 0.023999989
0.13423809 0.042586669 0.02700001
0.13566858 0.042613335 0.027999997
0.13720763 0.042666666 0.030000031
0.13864762 0.042693332 0.031000018
0.13998286 0.042693332 0.031000018
0.14153905 0.042746667 0.032999992
0.14299048 0.042773336 0.034000039
0.14478856 0.042879999 0.037999988
0.14636953 0.042933334 0.040000021
0.14772192 0.042933334 0.040000021
0.14991429 0.043120001 0.046999991
0.15128 0.043120001 0.046999991
0.15264571 0.043120001 0.046999991
0.15401143 0.043120001 0.046999991
0.0013885759 0.044828571 0.059000015
0.0030285753 0.04474286 0.055999994
0.0044933371 0.044714287 0.055000007
0.0060342886 0.044657145 0.053000033
0.0074895211 0.044628575 0.052000046
0.009093333 0.044542857 0.049000025
0.01061143 0.044485714 0.046999991
0.012049526 0.044457145 0.046000004
0.013554286 0.044400003 0.04400003
0.014982857 0.04437143 0.043000042
0.016340952 0.04437143 0.043000042
0.017699048 0.04437143 0.043000042
0.019182857 0.044314288 0.041000009
0.020720005 0.044228569 0.037999988
0.022127625 0.044200003 0.037
0.023645718 0.044114284 0.034000039
0.025041908 0.044085715 0.032999992
0.026540954 0.044 0.030000031
0.027874287 0.044 0.030000031
0.029306669 0.043942858 0.027999997
0.030636191 0.043942858 0.027999997
0.032011431 0.043914288 0.02700001
0.033470482 0.043828569 0.023999989
0.034834288 0.0438 0.023000002
0.036154289 0.0438 0.023000002
0.037550479 0.043742858 0.021000028
0.038866669 0.043742858 0.021000028
0.040217146 0.043714285 0.020000041
0.041628573 0.043628573 0.01700002
0.043028574 0.043542858 0.013999999
0.044331431 0.043542858 0.013999999
0.045660958 0.043514289 0.013000011
0.046961907 0.043514289 0.013000011
0.048285719 0.043485716 0.012000024
0.049626671 0.04342857 0.0099999905
0.05092191 0.04342857 0.0099999905
0.052234288 0.043400001 0.0090000033
0.053527623 0.043400001 0.0090000033
0.054834288 0.043371428 0.0080000162
0.056125715 0.043371428 0.0080000162
0.057417147 0.043371428 0.0080000162
0.058723815 0.043314286 0.006000042
0.060017146 0.043285713 0.0049999952
0.061302859 0.043285713 0.0049999952
0.06259048 0.043257143 0.0040000081
0.063874289 0.043200001 0.0020000339
0.065154292 0.043200001 0.0020000339
0.066434287 0.043200001 0.0020000339
0.067714289 0.043200001 0.0020000339
0.068994291 0.043200001 0.0020000339
0.070274293 0.043200001 0.0020000339
0.071554288 0.043200001 0.0020000339
0.072834291 0.043200001 0.0020000339
0.074114293 0.043200001 0.0020000339
0.075394288 0.043200001 0.0020000339
0.07667429 0.043200001 0.0020000339
0.077954292 0.043200001 0.0020000339
0.079234287 0.043200001 0.0020000339
0.080514289 0.043200001 0.0020000339
0.081767619 0.043171428 0.00099998713
0.083045721 0.043171428 0.00099998713
0.084323809 0.043171428 0.00099998713
0.085601911 0.043171428 0.00099998713
0.086880006 0.043171428 0.00099998713
0.088158101 0.043171428 0.00099998713
0.089474291 0.043200001 0.0020000339
0.090754293 0.043200001 0.0020000339
0.092034295 0.043200001 0.0020000339
0.09331429 0.043200001 0.0020000339
0.094594292 0.043200001 0.0020000339
0.095874295 0.043200001 0.0020000339
0.097154289 0.043200001 0.0020000339
0.098537147 0.043257143 0.0040000081
0.099820957 0.043257143 0.0040000081
0.10110477 0.043257143 0.0040000081
0.10244572 0.043285713 0.0049999952
0.10373144 0.043285713 0.0049999952
0.10520001 0.043371428 0.0080000162
0.10649143 0.043371428 0.0080000162
0.10778286 0.043371428 0.0080000162
0.10907429 0.043371428 0.0080000162
0.11036572 0.043371428 0.0080000162
0.11172763 0.043400001 0.0090000033
0.11309333 0.04342857 0.0099999905
0.11438857 0.04342857 0.0099999905
0.11568381 0.04342857 0.0099999905
0.11713524 0.043485716 0.012000024
0.11851429 0.043514289 0.013000011
0.11981525 0.043514289 0.013000011
0.1212 0.043542858 0.013999999
0.12276001 0.043628573 0.01700002
0.12406857 0.043628573 0.01700002
0.1255562 0.043685712 0.018999994
0.12686858 0.043685712 0.018999994
0.12827429 0.043714285 0.020000041
0.12958857 0.043714285 0.020000041
0.13100001 0.043742858 0.021000028
0.13261333 0.043828569 0.023999989
0.13423809 0.043914288 0.02700001
0.13566858 0.043942858 0.027999997
0.13720763 0.044 0.030000031
0.13864762 0.044028573 0.031000018
0.13998286 0.044028573 0.031000018
0.14153905 0.044085715 0.032999992
0.14299048 0.044114284 0.034000039
0.1446743 0.044200003 0.037
0.14636953 0.044285715 0.040000021
0.14772192 0.044285715 0.040000021
0.14991429 0.044485714 0.046999991
0.15152381 0.044542857 0.049000025
0.15289333 0.044542857 0.049000025
0.15426287 0.044542857 0.049000025
0.0013885759 0.046217144 0.059000015
0.0030285753 0.046125714 0.055999994
0.0044114329 0.046125714 0.055999994
0.0058742873 0.046095237 0.055000007
0.0074114315 0.046034288 0.053000033
0.0090171434 0.045942858 0.050000012
0.010462858 0.045912381 0.049000025
0.012049526 0.045820951 0.046000004
0.013554286 0.045760002 0.04400003
0.014914285 0.045760002 0.04400003
0.016340952 0.045729525 0.043000042
0.017699048 0.045729525 0.043000042
0.019057143 0.045729525 0.043000042
0.020598099 0.045638096 0.040000021
0.022068575 0.045577142 0.037999988
0.023645718 0.04545524 0.034000039
0.025041908 0.045424759 0.032999992
0.026487622 0.04536381 0.031000018
0.02782286 0.04536381 0.031000018
0.029207621 0.045333333 0.030000031
0.030636191 0.04527238 0.027999997
0.032011431 0.045241907 0.02700001
0.033426668 0.045180954 0.025000036
0.034792386 0.045150474 0.023999989
0.036154289 0.045120001 0.023000002
0.037550479 0.045059048 0.021000028
0.038866669 0.045059048 0.021000028
0.040217146 0.045028575 0.020000041
0.041563813 0.044998094 0.018999994
0.043028574 0.044845715 0.013999999
0.044331431 0.044845715 0.013999999
0.045660958 0.044815239 0.013000011
0.046961907 0.044815239 0.013000011
0.048285719 0.044784762 0.012000024
0.049626671 0.044723809 0.0099999905
0.05092191 0.044723809 0.0099999905
0.052234288 0.044693336 0.0090000033
0.053527623 0.044693336 0.0090000033
0.054834288 0.044662856 0.0080000162
0.056125715 0.044662856 0.0080000162
0.057417147 0.044662856 0.0080000162
0.058723815 0.044601906 0.006000042
0.060011432 0.044601906 0.006000042
0.061302859 0.044571429 0.0049999952
0.062588573 0.044571429 0.0049999952
0.063874289 0.044540953 0.0040000081
0.065158099 0.044540953 0.0040000081
0.066434287 0.044480003 0.0020000339
0.067714289 0.044480003 0.0020000339
0.068994291 0.044480003 0.0020000339
0.070274293 0.044480003 0.0020000339
0.071554288 0.044480003 0.0020000339
0.072834291 0.044480003 0.0020000339
0.074114293 0.044480003 0.0020000339
0.075394288 0.044480003 0.0020000339
0.07667429 0.044480003 0.0020000339
0.077954292 0.044480003 0.0020000339
0.079234287 0.044480003 0.0020000339
0.080514289 0.044480003 0.0020000339
0.081767619 0.044449523 0.00099998713
0.083045721 0.044449523 0.00099998713
0.084323809 0.044449523 0.00099998713
0.085601911 0.044449523 0.00099998713
0.086914286 0.044480003 0.0020000339
0.088158101 0.044449523 0.00099998713
0.089436196 0.044449523 0.00099998713
0.090754293 0.044480003 0.0020000339
0.092034295 0.044480003 0.0020000339
0.09331429 0.044480003 0.0020000339
0.094594292 0.044480003 0.0020000339
0.095874295 0.044480003 0.0020000339
0.097154289 0.044480003 0.0020000339
0.098434292 0.044480003 0.0020000339
0.099820957 0.044540953 0.0040000081
0.10110477 0.044540953 0.0040000081
0.10244572 0.044571429 0.0049999952
0.10373144 0.044571429 0.0049999952
0.10520001 0.044662856 0.0080000162
0.10649143 0.044662856 0.0080000162
0.10778286 0.044662856 0.0080000162
0.10907429 0.044662856 0.0080000162
0.11043429 0.044693336 0.0090000033
0.11172763 0.044693336 0.0090000033
0.11309333 0.044723809 0.0099999905
0.11438857 0.044723809 0.0099999905
0.11568381 0.044723809 0.0099999905
0.11713524 0.044784762 0.012000024
0.1184343 0.044784762 0.012000024
0.11981525 0.044815239 0.013000011
0.1212 0.044845715 0.013999999
0.12276001 0.044937141 0.01700002
0.12406857 0.044937141 0.01700002
0.12537715 0.044937141 0.01700002
0.12686858 0.044998094 0.018999994
0.12827429 0.045028575 0.020000041
0.12958857 0.045028575 0.020000041
0.13100001 0.045059048 0.021000028
0.13261333 0.045150474 0.023999989
0.13423809 0.045241907 0.02700001
0.13566858 0.04527238 0.027999997
0.13720763 0.045333333 0.030000031
0.13864762 0.04536381 0.031000018
0.1402 0.045424759 0.032999992
0.14153905 0.045424759 0.032999992
0.14299048 0.04545524 0.034000039
0.1446743 0.045546666 0.037
