# .PCD v0.7 - Point Cloud Data file format
VERSION 0.7
FIELDS x y z
SIZE 4 4 4
TYPE F F F
COUNT 1 1 1
WIDTH 1399
HEIGHT 1
VIEWPOINT 0 0 0 0 1 0 0
POINTS 1399
DATA ascii
0.12898286 0.12211811 0.032000005
0.13052762 0.12239239 0.033999979
0.13272001 0.12348953 0.041999996
0.13461715 0.12417524 0.046999991
0.13598095 0.12417524 0.046999991
0.1376819 0.12458667 0.050000012
0.13916571 0.12472382 0.050999999
0.14053714 0.12472382 0.050999999
0.14190857 0.12472382 0.050999999
0.14364001 0.12513524 0.05400002
0.010251429 0.1323524 0.096000016
0.011826668 0.13207428 0.093999982
0.013394285 0.1317962 0.092000008
0.014899049 0.13165715 0.091000021
0.016453333 0.13137905 0.088999987
0.019131429 0.12804191 0.064999998
0.020529523 0.12804191 0.064999998
0.021927621 0.12804191 0.064999998
0.023417141 0.12776382 0.063000023
0.024855241 0.12762477 0.061999977
0.026247619 0.12762477 0.061999977
0.027719999 0.12734666 0.060000002
0.029222857 0.12692952 0.056999981
0.030714285 0.12651239 0.05400002
0.032228574 0.12595619 0.050000012
0.03369524 0.12553905 0.046999991
0.035119999 0.12526095 0.045000017
0.036508571 0.12512191 0.04400003
0.037919998 0.12484382 0.041999996
0.039274286 0.12484382 0.041999996
0.040720001 0.12428762 0.037999988
0.042108573 0.12400953 0.036000013
0.043451428 0.12400953 0.036000013
0.044811428 0.12387049 0.035000026
0.046152383 0.12387049 0.035000026
0.047506668 0.12373143 0.033999979
0.04886857 0.12345334 0.032000005
0.050203811 0.12345334 0.032000005
0.051539049 0.12345334 0.032000005
0.05288 0.12331429 0.031000018
0.054213334 0.12331429 0.031000018
0.055546667 0.12331429 0.031000018
0.056880001 0.1230362 0.028999984
0.058209524 0.1230362 0.028999984
0.05953905 0.1230362 0.028999984
0.060868572 0.1230362 0.028999984
0.06217524 0.12261906 0.026000023
0.063499048 0.12261906 0.026000023
0.06482286 0.12261906 0.026000023
0.066146672 0.12261906 0.026000023
0.06745524 0.12248 0.024999976
0.068777144 0.12248 0.024999976
0.070099048 0.12248 0.024999976
0.071420953 0.12248 0.024999976
0.072742857 0.12248 0.024999976
0.074064761 0.12248 0.024999976
0.075386666 0.12248 0.024999976
0.07670857 0.12248 0.024999976
0.078000002 0.12234095 0.023999989
0.079319999 0.12234095 0.023999989
0.080674291 0.12248 0.024999976
0.081996188 0.12248 0.024999976
0.083318099 0.12248 0.024999976
0.084640004 0.12248 0.024999976
0.085961908 0.12248 0.024999976
0.087283812 0.12248 0.024999976
0.088605717 0.12248 0.024999976
0.089880005 0.12234095 0.023999989
0.091200002 0.12234095 0.023999989
0.092519999 0.12234095 0.023999989
0.093840003 0.12234095 0.023999989
0.09516 0.12234095 0.023999989
0.096479997 0.12234095 0.023999989
0.097800002 0.12234095 0.023999989
0.099120006 0.12234095 0.023999989
0.10031429 0.12206287 0.022000015
0.10163048 0.12206287 0.022000015
0.10294667 0.12206287 0.022000015
0.10426286 0.12206287 0.022000015
0.10557905 0.12206287 0.022000015
0.10682286 0.12192382 0.021000028
0.10821143 0.12206287 0.022000015
0.10945143 0.12192382 0.021000028
0.11084381 0.12206287 0.022000015
0.11216 0.12206287 0.022000015
0.11347619 0.12206287 0.022000015
0.11496 0.12234095 0.023999989
0.11628 0.12234095 0.023999989
0.1176 0.12234095 0.023999989
0.11900952 0.12248 0.024999976
0.12033144 0.12248 0.024999976
0.12174667 0.12261906 0.026000023
0.12326096 0.12289715 0.027999997
0.12458858 0.12289715 0.027999997
0.12601525 0.1230362 0.028999984
0.12754667 0.12331429 0.031000018
0.12898286 0.12345334 0.032000005
0.13063239 0.12387049 0.035000026
0.13261333 0.12470477 0.041000009
0.13440001 0.12526095 0.045000017
0.13576001 0.12526095 0.045000017
0.13712001 0.12526095 0.045000017
0.13916571 0.12609524 0.050999999
0.14053714 0.12609524 0.050999999
0.14190857 0.12609524 0.050999999
0.010251429 0.13380954 0.096000016
0.011826668 0.13352762 0.093999982
0.013451427 0.13310477 0.091000021
0.014899049 0.13310477 0.091000021
0.016453333 0.13282286 0.088999987
0.017897144 0.13282286 0.088999987
0.020529523 0.12944001 0.064999998
0.021927621 0.12944001 0.064999998
0.023325715 0.12944001 0.064999998
0.024811428 0.12915809 0.063000023
0.026247619 0.12901714 0.061999977
0.027719999 0.12873524 0.060000002
0.029222857 0.12831238 0.056999981
0.030641904 0.12817143 0.055999994
0.032194287 0.12746668 0.050999999
0.033662856 0.12704381 0.047999978
0.03505905 0.12690286 0.046999991
0.036508571 0.12648001 0.04400003
0.037919998 0.1261981 0.041999996
0.039299048 0.12605715 0.041000009
0.040697142 0.12577525 0.038999975
0.042045716 0.12577525 0.038999975
0.043413334 0.12563428 0.037999988
0.044794288 0.12535238 0.036000013
0.046152383 0.12521143 0.035000026
0.047493335 0.12521143 0.035000026
0.048845716 0.12507047 0.033999979
0.050203811 0.12478858 0.032000005
0.051539049 0.12478858 0.032000005
0.052874286 0.12478858 0.032000005
0.054209523 0.12478858 0.032000005
0.055544764 0.12478858 0.032000005
0.056880001 0.12464762 0.031000018
0.058213335 0.12464762 0.031000018
0.059546668 0.12464762 0.031000018
0.060880002 0.12464762 0.031000018
0.062190477 0.12422477 0.027999997
0.063518099 0.12422477 0.027999997
0.06482286 0.12394287 0.026000023
0.066146672 0.12394287 0.026000023
0.067470476 0.12394287 0.026000023
0.068794288 0.12394287 0.026000023
0.070099048 0.12380191 0.024999976
0.071420953 0.12380191 0.024999976
0.072742857 0.12380191 0.024999976
0.074064761 0.12380191 0.024999976
0.075386666 0.12380191 0.024999976
0.07670857 0.12380191 0.024999976
0.078030474 0.12380191 0.024999976
0.079352379 0.12380191 0.024999976
0.080674291 0.12380191 0.024999976
0.081996188 0.12380191 0.024999976
0.083318099 0.12380191 0.024999976
0.084640004 0.12380191 0.024999976
0.085961908 0.12380191 0.024999976
0.087240003 0.12366096 0.023999989
0.088605717 0.12380191 0.024999976
0.089880005 0.12366096 0.023999989
0.091200002 0.12366096 0.023999989
0.092519999 0.12366096 0.023999989
0.093840003 0.12366096 0.023999989
0.09516 0.12366096 0.023999989
0.096479997 0.12366096 0.023999989
0.097800002 0.12366096 0.023999989
0.099120006 0.12366096 0.023999989
0.10044 0.12366096 0.023999989
0.10163048 0.12337906 0.022000015
0.10294667 0.12337906 0.022000015
0.10426286 0.12337906 0.022000015
0.10557905 0.12337906 0.022000015
0.10689524 0.12337906 0.022000015
0.10821143 0.12337906 0.022000015
0.10952762 0.12337906 0.022000015
0.11084381 0.12337906 0.022000015
0.11216 0.12337906 0.022000015
0.11347619 0.12337906 0.022000015
0.11496 0.12366096 0.023999989
0.11628 0.12366096 0.023999989
0.11768762 0.12380191 0.024999976
0.11900952 0.12380191 0.024999976
0.12033144 0.12380191 0.024999976
0.12174667 0.12394287 0.026000023
0.12326096 0.12422477 0.027999997
0.12468572 0.12436572 0.028999984
0.12621334 0.12464762 0.031000018
0.12764762 0.12478858 0.032000005
0.12918858 0.12507047 0.033999979
0.13073714 0.12535238 0.036000013
0.13239999 0.12577525 0.038999975
0.13374858 0.12577525 0.038999975
0.13509715 0.12577525 0.038999975
0.13644572 0.12577525 0.038999975
0.13916571 0.12746668 0.050999999
0.14053714 0.12746668 0.050999999
0.010251429 0.13526668 0.096000016
0.011826668 0.13498096 0.093999982
0.013394285 0.13469525 0.092000008
0.014899049 0.13455239 0.091000021
0.016559999 0.13398096 0.087000012
0.017999999 0.13398096 0.087000012
0.019439999 0.13398096 0.087000012
0.02183238 0.13112381 0.067000031
0.023325715 0.1308381 0.064999998
0.024811428 0.1305524 0.063000023
0.026205711 0.1305524 0.063000023
0.027719999 0.13012381 0.060000002
0.029146666 0.12998095 0.059000015
0.030605715 0.12969524 0.056999981
0.032194287 0.12883811 0.050999999
0.033662856 0.12840952 0.047999978
0.03505905 0.12826666 0.046999991
0.036479998 0.12798096 0.045000017
0.037866667 0.1278381 0.04400003
0.039274286 0.12755238 0.041999996
0.040697142 0.1271238 0.038999975
0.041982859 0.12755238 0.041999996
0.043413334 0.12698096 0.037999988
0.044794288 0.12669525 0.036000013
0.046137143 0.12669525 0.036000013
0.047493335 0.12655239 0.035000026
0.048834287 0.12655239 0.035000026
0.050184764 0.12640953 0.033999979
0.051523812 0.12640953 0.033999979
0.05286286 0.12640953 0.033999979
0.054201905 0.12640953 0.033999979
0.055540953 0.12640953 0.033999979
0.056880001 0.12612382 0.032000005
0.058215238 0.12612382 0.032000005
0.059550479 0.12612382 0.032000005
0.060885716 0.12612382 0.032000005
0.062213335 0.12598096 0.031000018
0.063527621 0.12569524 0.028999984
0.064845718 0.12555239 0.027999997
0.066173337 0.12555239 0.027999997
0.067470476 0.12526667 0.026000023
0.068794288 0.12526667 0.026000023
0.070118099 0.12526667 0.026000023
0.071441904 0.12526667 0.026000023
0.072742857 0.12512381 0.024999976
0.074064761 0.12512381 0.024999976
0.075386666 0.12512381 0.024999976
0.07670857 0.12512381 0.024999976
0.078030474 0.12512381 0.024999976
0.079352379 0.12512381 0.024999976
0.080674291 0.12512381 0.024999976
0.081996188 0.12512381 0.024999976
0.083318099 0.12512381 0.024999976
0.084600002 0.12498096 0.023999989
0.085919999 0.12498096 0.023999989
0.087240003 0.12498096 0.023999989
0.08856 0.12498096 0.023999989
0.089880005 0.12498096 0.023999989
0.091200002 0.12498096 0.023999989
0.092519999 0.12498096 0.023999989
0.093840003 0.12498096 0.023999989
0.09516 0.12498096 0.023999989
0.096479997 0.12498096 0.023999989
0.097800002 0.12498096 0.023999989
0.0989981 0.12469525 0.022000015
0.10031429 0.12469525 0.022000015
0.10176 0.12498096 0.023999989
0.10294667 0.12469525 0.022000015
0.10426286 0.12469525 0.022000015
0.10557905 0.12469525 0.022000015
0.10689524 0.12469525 0.022000015
0.10821143 0.12469525 0.022000015
0.10952762 0.12469525 0.022000015
0.11084381 0.12469525 0.022000015
0.11216 0.12469525 0.022000015
0.11347619 0.12469525 0.022000015
0.1150438 0.12512381 0.024999976
0.11636572 0.12512381 0.024999976
0.11768762 0.12512381 0.024999976
0.11900952 0.12512381 0.024999976
0.12042286 0.12526667 0.026000023
0.12193333 0.12555239 0.027999997
0.12335619 0.12569524 0.028999984
0.12468572 0.12569524 0.028999984
0.12621334 0.12598096 0.031000018
0.12764762 0.12612382 0.032000005
0.12918858 0.12640953 0.033999979
0.13073714 0.12669525 0.036000013
0.13229334 0.12698096 0.037999988
0.13364001 0.12698096 0.037999988
0.13498667 0.12698096 0.037999988
0.13644572 0.1271238 0.038999975
0.010129523 0.13701333 0.09799999
0.011708569 0.13672382 0.096000016
0.013394285 0.13614477 0.092000008
0.014899049 0.13600001 0.091000021
0.016453333 0.13571048 0.088999987
0.017897144 0.13571048 0.088999987
0.019340955 0.13571048 0.088999987
0.02183238 0.13252573 0.067000031
0.023325715 0.1322362 0.064999998
0.024723809 0.1322362 0.064999998
0.026205711 0.13194667 0.063000023
0.027640002 0.1318019 0.061999977
0.029108571 0.13151239 0.060000002
0.030497143 0.13151239 0.060000002
0.032125711 0.13049906 0.053000033
0.033662856 0.12977524 0.047999978
0.035028573 0.12977524 0.047999978
0.036422856 0.12963048 0.046999991
0.037866667 0.1291962 0.04400003
0.039224759 0.1291962 0.04400003
0.040628571 0.12890667 0.041999996
0.041982859 0.12890667 0.041999996
0.043394286 0.12847237 0.038999975
0.04476 0.12832762 0.037999988
0.046137143 0.12803809 0.036000013
0.047480002 0.12803809 0.036000013
0.048834287 0.12789334 0.035000026
0.050184764 0.12774858 0.033999979
0.051523812 0.12774858 0.033999979
0.05286286 0.12774858 0.033999979
0.054201905 0.12774858 0.033999979
0.055540953 0.12774858 0.033999979
0.056880001 0.12745905 0.032000005
0.058215238 0.12745905 0.032000005
0.059550479 0.12745905 0.032000005
0.060885716 0.12745905 0.032000005
0.062220953 0.12745905 0.032000005
0.063546665 0.1273143 0.031000018
0.06485714 0.12702475 0.028999984
0.066173337 0.12688001 0.027999997
0.067500956 0.12688001 0.027999997
0.068828575 0.12688001 0.027999997
0.070118099 0.12659048 0.026000023
0.071441904 0.12659048 0.026000023
0.072765715 0.12659048 0.026000023
0.074089527 0.12659048 0.026000023
0.075386666 0.12644571 0.024999976
0.07670857 0.12644571 0.024999976
0.078030474 0.12644571 0.024999976
0.079352379 0.12644571 0.024999976
0.080674291 0.12644571 0.024999976
0.081996188 0.12644571 0.024999976
0.083318099 0.12644571 0.024999976
0.084600002 0.12630096 0.023999989
0.085919999 0.12630096 0.023999989
0.087240003 0.12630096 0.023999989
0.08856 0.12630096 0.023999989
0.089880005 0.12630096 0.023999989
0.091200002 0.12630096 0.023999989
0.092519999 0.12630096 0.023999989
0.093840003 0.12630096 0.023999989
0.09516 0.12630096 0.023999989
0.096479997 0.12630096 0.023999989
0.09768191 0.12601143 0.022000015
0.0989981 0.12601143 0.022000015
0.10044 0.12630096 0.023999989
0.10176 0.12630096 0.023999989
0.10294667 0.12601143 0.022000015
0.10426286 0.12601143 0.022000015
0.10572 0.12630096 0.023999989
0.10689524 0.12601143 0.022000015
0.10836 0.12630096 0.023999989
0.10968 0.12630096 0.023999989
0.111 0.12630096 0.023999989
0.11216 0.12601143 0.022000015
0.11364 0.12630096 0.023999989
0.11496 0.12630096 0.023999989
0.11636572 0.12644571 0.024999976
0.11768762 0.12644571 0.024999976
0.11909905 0.12659048 0.026000023
0.12060572 0.12688001 0.027999997
0.12202667 0.12702475 0.028999984
0.12335619 0.12702475 0.028999984
0.12488 0.1273143 0.031000018
0.12631239 0.12745905 0.032000005
0.12784952 0.12774858 0.033999979
0.12929143 0.12789334 0.035000026
0.13073714 0.12803809 0.036000013
0.13208 0.12803809 0.036000013
0.13364001 0.12832762 0.037999988
0.13498667 0.12832762 0.037999988
0.010129523 0.13847429 0.09799999
0.011708569 0.13818096 0.096000016
0.013280004 0.13788761 0.093999982
0.014899049 0.13744763 0.091000021
0.016453333 0.13715428 0.088999987
0.017897144 0.13715428 0.088999987
0.019340955 0.13715428 0.088999987
0.02183238 0.13392763 0.067000031
0.023234285 0.13392763 0.067000031
0.024723809 0.13363428 0.064999998
0.026205711 0.13334095 0.063000023
0.027640002 0.13319428 0.061999977
0.029032383 0.13319428 0.061999977
0.030497143 0.13290095 0.060000002
0.032125711 0.13187429 0.053000033
0.033598095 0.13143429 0.050000012
0.035028573 0.13114095 0.047999978
0.036422856 0.13099429 0.046999991
0.037840001 0.13070096 0.045000017
0.0392 0.13070096 0.045000017
0.040582858 0.13055429 0.04400003
0.041940954 0.13055429 0.04400003
0.043356191 0.13011429 0.041000009
0.04474286 0.12982094 0.038999975
0.046106666 0.12967429 0.037999988
0.047480002 0.12938096 0.036000013
0.048834287 0.1292343 0.035000026
0.050175238 0.1292343 0.035000026
0.05151619 0.1292343 0.035000026
0.052857142 0.1292343 0.035000026
0.054198097 0.1292343 0.035000026
0.055540953 0.12908763 0.033999979
0.056880001 0.12908763 0.033999979
0.058219049 0.12908763 0.033999979
0.059550479 0.12879428 0.032000005
0.060885716 0.12879428 0.032000005
0.062220953 0.12879428 0.032000005
0.063546665 0.12864763 0.031000018
0.064879999 0.12864763 0.031000018
0.066173337 0.12820762 0.027999997
0.067500956 0.12820762 0.027999997
0.068845719 0.1283543 0.028999984
0.070156194 0.12820762 0.027999997
0.071441904 0.12791429 0.026000023
0.072765715 0.12791429 0.026000023
0.074089527 0.12791429 0.026000023
0.075413331 0.12791429 0.026000023
0.076737143 0.12791429 0.026000023
0.078060955 0.12791429 0.026000023
0.079352379 0.12776762 0.024999976
0.080674291 0.12776762 0.024999976
0.081996188 0.12776762 0.024999976
0.083318099 0.12776762 0.024999976
0.084600002 0.12762095 0.023999989
0.085919999 0.12762095 0.023999989
0.087240003 0.12762095 0.023999989
0.08856 0.12762095 0.023999989
0.089880005 0.12762095 0.023999989
0.091200002 0.12762095 0.023999989
0.092519999 0.12762095 0.023999989
0.093840003 0.12762095 0.023999989
0.09516 0.12762095 0.023999989
0.096479997 0.12762095 0.023999989
0.09768191 0.12732762 0.022000015
0.099120006 0.12762095 0.023999989
0.10044 0.12762095 0.023999989
0.10176 0.12762095 0.023999989
0.10308 0.12762095 0.023999989
0.1044 0.12762095 0.023999989
0.10572 0.12762095 0.023999989
0.10704 0.12762095 0.023999989
0.10836 0.12762095 0.023999989
0.10968 0.12762095 0.023999989
0.111 0.12762095 0.023999989
0.11232001 0.12762095 0.023999989
0.11364 0.12762095 0.023999989
0.1150438 0.12776762 0.024999976
0.11645143 0.12791429 0.026000023
0.11777525 0.12791429 0.026000023
0.11909905 0.12791429 0.026000023
0.12060572 0.12820762 0.027999997
0.12202667 0.1283543 0.028999984
0.12335619 0.1283543 0.028999984
0.12488 0.12864763 0.031000018
0.12631239 0.12879428 0.032000005
0.12764762 0.12879428 0.032000005
0.12918858 0.12908763 0.033999979
0.13052762 0.12908763 0.033999979
0.13208 0.12938096 0.036000013
0.0038742833 0.14082667 0.10400003
0.0053466633 0.14082667 0.10400003
0.0068838075 0.14067809 0.10299999
0.0084799975 0.14038095 0.10100001
0.010068573 0.1400838 0.098999977
0.011590477 0.13993524 0.09799999
0.013165716 0.1396381 0.096000016
0.014733333 0.13934095 0.093999982
0.016346667 0.13889524 0.091000021
0.017897144 0.1385981 0.088999987
0.019340955 0.1385981 0.088999987
0.020784762 0.1385981 0.088999987
0.023325715 0.13503239 0.064999998
0.024723809 0.13503239 0.064999998
0.026205711 0.13473524 0.063000023
0.0276 0.13473524 0.063000023
0.029032383 0.13458666 0.061999977
0.030424763 0.13458666 0.061999977
0.032091428 0.1333981 0.05400002
0.033565715 0.13295239 0.050999999
0.035028573 0.13250667 0.047999978
0.036394287 0.13250667 0.047999978
0.037760001 0.13250667 0.047999978
0.0392 0.13206096 0.045000017
0.04056 0.13206096 0.045000017
0.041940954 0.1319124 0.04400003
0.043356191 0.13146667 0.041000009
0.04474286 0.13116953 0.038999975
0.046106666 0.13102095 0.037999988
0.047480002 0.13072382 0.036000013
0.048834287 0.13057524 0.035000026
0.050175238 0.13057524 0.035000026
0.051508572 0.13072382 0.036000013
0.052857142 0.13057524 0.035000026
0.054198097 0.13057524 0.035000026
0.055539049 0.13057524 0.035000026
0.056880001 0.13057524 0.035000026
0.058220953 0.13057524 0.035000026
0.059558097 0.13042666 0.033999979
0.060897142 0.13042666 0.033999979
0.062220953 0.13012953 0.032000005
0.063556194 0.13012953 0.032000005
0.064879999 0.12998095 0.031000018
0.066186666 0.12968381 0.028999984
0.067516193 0.12968381 0.028999984
0.068845719 0.12968381 0.028999984
0.070156194 0.12953524 0.027999997
0.071483813 0.12953524 0.027999997
0.072765715 0.1292381 0.026000023
0.074089527 0.1292381 0.026000023
0.075413331 0.1292381 0.026000023
0.076737143 0.1292381 0.026000023
0.078060955 0.1292381 0.026000023
0.079384759 0.1292381 0.026000023
0.080708578 0.1292381 0.026000023
0.081996188 0.12908952 0.024999976
0.083318099 0.12908952 0.024999976
0.084640004 0.12908952 0.024999976
0.085919999 0.12894095 0.023999989
0.087240003 0.12894095 0.023999989
0.08856 0.12894095 0.023999989
0.089880005 0.12894095 0.023999989
0.091200002 0.12894095 0.023999989
0.092519999 0.12894095 0.023999989
0.093893334 0.12908952 0.024999976
0.09516 0.12894095 0.023999989
0.096479997 0.12894095 0.023999989
0.097800002 0.12894095 0.023999989
0.099120006 0.12894095 0.023999989
0.10050286 0.12908952 0.024999976
0.10182476 0.12908952 0.024999976
0.10308 0.12894095 0.023999989
0.1044 0.12894095 0.023999989
0.10579048 0.12908952 0.024999976
0.10711238 0.12908952 0.024999976
0.10843429 0.12908952 0.024999976
0.10975619 0.12908952 0.024999976
0.1110781 0.12908952 0.024999976
0.1124 0.12908952 0.024999976
0.11372191 0.12908952 0.024999976
0.1150438 0.12908952 0.024999976
0.11645143 0.1292381 0.026000023
0.11795048 0.12953524 0.027999997
0.11936761 0.12968381 0.028999984
0.12069714 0.12968381 0.028999984
0.12221333 0.12998095 0.031000018
0.12364191 0.13012953 0.032000005
0.12517142 0.13042666 0.033999979
0.12651047 0.13042666 0.033999979
0.12784952 0.13042666 0.033999979
0.12918858 0.13042666 0.033999979
0.13052762 0.13042666 0.033999979
0.13208 0.13072382 0.036000013
0.0038742833 0.14229906 0.10400003
0.0054133348 0.14214857 0.10299999
0.0068838075 0.14214857 0.10299999
0.0084799975 0.14184763 0.10100001
0.010068573 0.14154667 0.098999977
0.011590477 0.14139619 0.09799999
0.013165716 0.14109525 0.096000016
0.014733333 0.14079429 0.093999982
0.016346667 0.14034286 0.091000021
0.017794285 0.14034286 0.091000021
0.019340955 0.1400419 0.088999987
0.020784762 0.1400419 0.088999987
0.023417141 0.13612953 0.063000023
0.024811428 0.13612953 0.063000023
0.026205711 0.13612953 0.063000023
0.0276 0.13612953 0.063000023
0.029032383 0.13597904 0.061999977
0.030424763 0.13597904 0.061999977
0.031988572 0.13522667 0.056999981
0.033500951 0.13462478 0.053000033
0.03496762 0.13417333 0.050000012
0.036394287 0.13387239 0.047999978
0.03778667 0.1337219 0.046999991
0.039150476 0.1337219 0.046999991
0.04056 0.13342096 0.045000017
0.041940954 0.13327049 0.04400003
0.043337144 0.13296953 0.041999996
0.044708572 0.13281906 0.041000009
0.046106666 0.13236763 0.037999988
0.047480002 0.13206667 0.036000013
0.048822857 0.13206667 0.036000013
0.050165717 0.13206667 0.036000013
0.05151619 0.1319162 0.035000026
0.052857142 0.1319162 0.035000026
0.054198097 0.1319162 0.035000026
0.055539049 0.1319162 0.035000026
0.056880001 0.1319162 0.035000026
0.058219049 0.13176572 0.033999979
0.059558097 0.13176572 0.033999979
0.060897142 0.13176572 0.033999979
0.06223619 0.13176572 0.033999979
0.063556194 0.13146476 0.032000005
0.064879999 0.13131429 0.031000018
0.066213332 0.13131429 0.031000018
0.067516193 0.13101333 0.028999984
0.068879999 0.13131429 0.031000018
0.070156194 0.13086286 0.027999997
0.071483813 0.13086286 0.027999997
0.072811432 0.13086286 0.027999997
0.074089527 0.1305619 0.026000023
0.075413331 0.1305619 0.026000023
0.076737143 0.1305619 0.026000023
0.078060955 0.1305619 0.026000023
0.079384759 0.1305619 0.026000023
0.080708578 0.1305619 0.026000023
0.081996188 0.13041143 0.024999976
0.083318099 0.13041143 0.024999976
0.084640004 0.13041143 0.024999976
0.085961908 0.13041143 0.024999976
0.087283812 0.13041143 0.024999976
0.08856 0.13026096 0.023999989
0.089880005 0.13026096 0.023999989
0.091200002 0.13026096 0.023999989
0.092519999 0.13026096 0.023999989
0.093893334 0.13041143 0.024999976
0.095215239 0.13041143 0.024999976
0.096479997 0.13026096 0.023999989
0.09768191 0.12996002 0.022000015
0.099180952 0.13041143 0.024999976
0.10050286 0.13041143 0.024999976
0.10182476 0.13041143 0.024999976
0.10308 0.13026096 0.023999989
0.10446857 0.13041143 0.024999976
0.10579048 0.13041143 0.024999976
0.10711238 0.13041143 0.024999976
0.10843429 0.13041143 0.024999976
0.10975619 0.13041143 0.024999976
0.1110781 0.13041143 0.024999976
0.1124 0.13041143 0.024999976
0.11372191 0.13041143 0.024999976
0.11512762 0.1305619 0.026000023
0.11662287 0.13086286 0.027999997
0.11795048 0.13086286 0.027999997
0.11936761 0.13101333 0.028999984
0.12088001 0.13131429 0.031000018
0.12230667 0.13146476 0.032000005
0.12383239 0.13176572 0.033999979
0.12517142 0.13176572 0.033999979
0.12651047 0.13176572 0.033999979
0.12784952 0.13176572 0.033999979
0.12918858 0.13176572 0.033999979
0.0053466633 0.14377144 0.10400003
0.0068838075 0.14361905 0.10299999
0.0083542876 0.14361905 0.10299999
0.0099466667 0.14331429 0.10100001
0.011590477 0.14285715 0.09799999
0.013165716 0.14255239 0.096000016
0.014622856 0.14255239 0.096000016
0.016293332 0.14194286 0.092000008
0.017742857 0.14194286 0.092000008
0.019241903 0.14179048 0.091000021
0.020689521 0.14179048 0.091000021
0.022137143 0.14179048 0.091000021
0.024811428 0.13752382 0.063000023
0.026205711 0.13752382 0.063000023
0.0276 0.13752382 0.063000023
0.029032383 0.13737142 0.061999977
0.030497143 0.13706668 0.060000002
0.031988572 0.13660952 0.056999981
0.033468574 0.13615239 0.05400002
0.034937143 0.13569525 0.050999999
0.036394287 0.1352381 0.047999978
0.037760001 0.1352381 0.047999978
0.039150476 0.13508572 0.046999991
0.040514287 0.13508572 0.046999991
0.041919999 0.13478096 0.045000017
0.043337144 0.13432381 0.041999996
0.044708572 0.13417144 0.041000009
0.04609143 0.13386667 0.038999975
0.047453333 0.13371429 0.037999988
0.048822857 0.13340953 0.036000013
0.050165717 0.13340953 0.036000013
0.051508572 0.13340953 0.036000013
0.052851431 0.13340953 0.036000013
0.054198097 0.13325715 0.035000026
0.055539049 0.13325715 0.035000026
0.056880001 0.13325715 0.035000026
0.058220953 0.13325715 0.035000026
0.059561905 0.13325715 0.035000026
0.06090286 0.13325715 0.035000026
0.06223619 0.13310477 0.033999979
0.063556194 0.1328 0.032000005
0.064891428 0.1328 0.032000005
0.066226669 0.1328 0.032000005
0.067546666 0.13264762 0.031000018
0.068879999 0.13264762 0.031000018
0.070213333 0.13264762 0.031000018
0.071483813 0.13219048 0.027999997
0.072811432 0.13219048 0.027999997
0.074139051 0.13219048 0.027999997
0.07546667 0.13219048 0.027999997
0.076737143 0.13188572 0.026000023
0.078060955 0.13188572 0.026000023
0.079384759 0.13188572 0.026000023
0.080708578 0.13188572 0.026000023
0.081996188 0.13173333 0.024999976
0.083318099 0.13173333 0.024999976
0.084640004 0.13173333 0.024999976
0.085961908 0.13173333 0.024999976
0.087283812 0.13173333 0.024999976
0.088605717 0.13173333 0.024999976
0.089880005 0.13158096 0.023999989
0.091249526 0.13173333 0.024999976
0.09257143 0.13173333 0.024999976
0.093893334 0.13173333 0.024999976
0.095215239 0.13173333 0.024999976
0.096537143 0.13173333 0.024999976
0.097800002 0.13158096 0.023999989
0.099180952 0.13173333 0.024999976
0.10056572 0.13188572 0.026000023
0.10182476 0.13173333 0.024999976
0.10314667 0.13173333 0.024999976
0.10446857 0.13173333 0.024999976
0.10586096 0.13188572 0.026000023
0.10718477 0.13188572 0.026000023
0.10850857 0.13188572 0.026000023
0.10983239 0.13188572 0.026000023
0.1111562 0.13188572 0.026000023
0.11248 0.13188572 0.026000023
0.11380382 0.13188572 0.026000023
0.11512762 0.13188572 0.026000023
0.11670858 0.13234286 0.028999984
0.11821334 0.13264762 0.031000018
0.11963619 0.1328 0.032000005
0.12115428 0.13310477 0.033999979
0.12258667 0.13325715 0.035000026
0.12392762 0.13325715 0.035000026
0.12556 0.13371429 0.037999988
0.12690666 0.13371429 0.037999988
0.12784952 0.13310477 0.033999979
0.00099238008 0.14832953 0.12400001
0.0053466633 0.14524382 0.10400003
0.0068838075 0.14508952 0.10299999
0.0083542876 0.14508952 0.10299999
0.009824764 0.14508952 0.10299999
0.011531428 0.14447238 0.098999977
0.013051428 0.1443181 0.09799999
0.014622856 0.14400953 0.096000016
0.016186666 0.14370096 0.093999982
0.017742857 0.14339238 0.092000008
0.019241903 0.1432381 0.091000021
0.020689521 0.1432381 0.091000021
0.022228569 0.14292952 0.088999987
0.023672383 0.14292952 0.088999987
0.02511619 0.14292952 0.088999987
0.0276 0.1389181 0.063000023
0.029108571 0.13845524 0.060000002
0.030497143 0.13845524 0.060000002
0.031988572 0.13799238 0.056999981
0.033468574 0.13752954 0.05400002
0.034937143 0.13706668 0.050999999
0.036337145 0.13691239 0.050000012
0.037706666 0.13691239 0.050000012
0.039125714 0.1366038 0.047999978
0.040514287 0.13644953 0.046999991
0.041919999 0.13614096 0.045000017
0.043299049 0.13598667 0.04400003
0.044691429 0.1356781 0.041999996
0.046060953 0.13552381 0.041000009
0.04744 0.13521524 0.038999975
0.048799999 0.13506095 0.037999988
0.050146669 0.13506095 0.037999988
0.051508572 0.13475239 0.036000013
0.052851431 0.13475239 0.036000013
0.054194286 0.13475239 0.036000013
0.055537142 0.13475239 0.036000013
0.056880001 0.13459811 0.035000026
0.058220953 0.13459811 0.035000026
0.059561905 0.13459811 0.035000026
0.06090286 0.13459811 0.035000026
0.062243812 0.13459811 0.035000026
0.063575238 0.1344438 0.033999979
0.064891428 0.13413525 0.032000005
0.066226669 0.13413525 0.032000005
0.06756191 0.13413525 0.032000005
0.068879999 0.13398096 0.031000018
0.070213333 0.13398096 0.031000018
0.071504764 0.13367239 0.028999984
0.072811432 0.1335181 0.027999997
0.074139051 0.1335181 0.027999997
0.07546667 0.1335181 0.027999997
0.076737143 0.13320954 0.026000023
0.078060955 0.13320954 0.026000023
0.079384759 0.13320954 0.026000023
0.080708578 0.13320954 0.026000023
0.082032382 0.13320954 0.026000023
0.083318099 0.13305524 0.024999976
0.084640004 0.13305524 0.024999976
0.085961908 0.13305524 0.024999976
0.087283812 0.13305524 0.024999976
0.088605717 0.13305524 0.024999976
0.089927621 0.13305524 0.024999976
0.091249526 0.13305524 0.024999976
0.09257143 0.13305524 0.024999976
0.093893334 0.13305524 0.024999976
0.095215239 0.13305524 0.024999976
0.096537143 0.13305524 0.024999976
0.097859047 0.13305524 0.024999976
0.099241912 0.13320954 0.026000023
0.10069143 0.1335181 0.027999997
0.10188952 0.13320954 0.026000023
0.10334667 0.1335181 0.027999997
0.10467429 0.1335181 0.027999997
0.10600191 0.1335181 0.027999997
0.10732953 0.1335181 0.027999997
0.10865714 0.1335181 0.027999997
0.10983239 0.13320954 0.026000023
0.11131239 0.1335181 0.027999997
0.11264001 0.1335181 0.027999997
0.11396762 0.1335181 0.027999997
0.11529525 0.1335181 0.027999997
0.11688 0.13398096 0.031000018
0.11830096 0.13413525 0.032000005
0.11981525 0.1344438 0.033999979
0.12124573 0.13459811 0.035000026
0.12258667 0.13459811 0.035000026
0.12392762 0.13459811 0.035000026
0.12556 0.13506095 0.037999988
0.12690666 0.13506095 0.037999988
0.12825334 0.13506095 0.037999988
0.0011333339 0.14952762 0.12199998
0.0050800033 0.14734095 0.10799998
0.0064304732 0.14765334 0.11000001
0.0082914233 0.14671621 0.10400003
0.0097638071 0.14671621 0.10400003
0.011413332 0.14624763 0.10100001
0.012880001 0.14624763 0.10100001
0.014457144 0.14593524 0.098999977
0.015973333 0.14577904 0.09799999
0.017640002 0.14515428 0.093999982
0.019093331 0.14515428 0.093999982
0.020546667 0.14515428 0.093999982
0.022137143 0.14468572 0.091000021
0.023672383 0.14437334 0.088999987
0.02511619 0.14437334 0.088999987
0.026560001 0.14437334 0.088999987
0.028003812 0.14437334 0.088999987
0.030605715 0.13937524 0.056999981
0.031988572 0.13937524 0.056999981
0.03340381 0.13921905 0.055999994
0.03487619 0.13875049 0.053000033
0.036308572 0.13843809 0.050999999
0.037706666 0.13828191 0.050000012
0.039076194 0.13828191 0.050000012
0.040491432 0.13796952 0.047999978
0.041878097 0.13781333 0.046999991
0.043299049 0.13734476 0.04400003
0.044691429 0.13703239 0.041999996
0.046060953 0.1368762 0.041000009
0.047413334 0.1368762 0.041000009
0.048788574 0.13656381 0.038999975
0.050146669 0.13640763 0.037999988
0.051493336 0.13640763 0.037999988
0.052851431 0.13609524 0.036000013
0.054194286 0.13609524 0.036000013
0.055537142 0.13609524 0.036000013
0.056880001 0.13593906 0.035000026
0.058220953 0.13593906 0.035000026
0.059561905 0.13593906 0.035000026
0.06090286 0.13593906 0.035000026
0.062243812 0.13593906 0.035000026
0.06358476 0.13593906 0.035000026
0.064891428 0.13547048 0.032000005
0.066226669 0.13547048 0.032000005
0.06756191 0.13547048 0.032000005
0.068897143 0.13547048 0.032000005
0.070213333 0.1353143 0.031000018
0.071504764 0.1350019 0.028999984
0.072834283 0.1350019 0.028999984
0.074139051 0.13484572 0.027999997
0.07546667 0.13484572 0.027999997
0.076737143 0.13453335 0.026000023
0.078060955 0.13453335 0.026000023
0.079384759 0.13453335 0.026000023
0.080708578 0.13453335 0.026000023
0.082032382 0.13453335 0.026000023
0.083356194 0.13453335 0.026000023
0.084680006 0.13453335 0.026000023
0.08600381 0.13453335 0.026000023
0.087327622 0.13453335 0.026000023
0.088605717 0.13437714 0.024999976
0.089927621 0.13437714 0.024999976
0.091249526 0.13437714 0.024999976
0.09257143 0.13437714 0.024999976
0.093946666 0.13453335 0.026000023
0.095270477 0.13453335 0.026000023
0.096594289 0.13453335 0.026000023
0.097918101 0.13453335 0.026000023
0.099424765 0.1350019 0.028999984
0.10075429 0.1350019 0.028999984
0.10208381 0.1350019 0.028999984
0.10341334 0.1350019 0.028999984
0.10474285 0.1350019 0.028999984
0.10621333 0.1353143 0.031000018
0.10740191 0.1350019 0.028999984
0.10865714 0.13484572 0.027999997
0.10998476 0.13484572 0.027999997
0.11139047 0.1350019 0.028999984
0.11272 0.1350019 0.028999984
0.11396762 0.13484572 0.027999997
0.11537905 0.1350019 0.028999984
0.11696572 0.13547048 0.032000005
0.1184762 0.13578285 0.033999979
0.11981525 0.13578285 0.033999979
0.12124573 0.13593906 0.035000026
0.12268001 0.13609524 0.036000013
0.12402287 0.13609524 0.036000013
0.12565714 0.13656381 0.038999975
0.12700571 0.13656381 0.038999975
0.12946476 0.13828191 0.050000012
0.1308343 0.13828191 0.050000012
0.13220382 0.13828191 0.050000012
0.13357334 0.13828191 0.050000012
0.0011333339 0.15103428 0.12199998
0.004946664 0.14913715 0.11000001
0.0064304732 0.14913715 0.11000001
0.0081657134 0.14850476 0.10600001
0.0097638071 0.14818858 0.10400003
0.011413332 0.14771429 0.10100001
0.012994286 0.1473981 0.098999977
0.014512382 0.14724 0.09799999
0.016079996 0.14692381 0.096000016
0.017640002 0.14660762 0.093999982
0.019093331 0.14660762 0.093999982
0.020641904 0.14629143 0.092000008
0.022137143 0.14613335 0.091000021
0.023672383 0.14581715 0.088999987
0.02511619 0.14581715 0.088999987
0.026639998 0.14550096 0.087000012
0.02808 0.14550096 0.087000012
0.029520001 0.14550096 0.087000012
0.031988572 0.1407581 0.056999981
0.033306666 0.14107428 0.059000015
0.034784764 0.14060001 0.055999994
0.036222856 0.14028381 0.05400002
0.037626669 0.14012572 0.053000033
0.039001904 0.14012572 0.053000033
0.040445715 0.13965143 0.050000012
0.041878097 0.13917714 0.046999991
0.043241903 0.13917714 0.046999991
0.044657141 0.13870287 0.04400003
0.046045713 0.13838667 0.041999996
0.047400001 0.13838667 0.041999996
0.048765715 0.13822858 0.041000009
0.050118096 0.13822858 0.041000009
0.051470477 0.13822858 0.041000009
0.052840002 0.13775429 0.037999988
0.054194286 0.1374381 0.036000013
0.055537142 0.1374381 0.036000013
0.056880001 0.1374381 0.036000013
0.05822286 0.1374381 0.036000013
0.059565715 0.1374381 0.036000013
0.060908571 0.1374381 0.036000013
0.062243812 0.13728 0.035000026
0.06358476 0.13728 0.035000026
0.064914286 0.1371219 0.033999979
0.066253334 0.1371219 0.033999979
0.067592382 0.1371219 0.033999979
0.068897143 0.13680571 0.032000005
0.070232384 0.13680571 0.032000005
0.071546666 0.13664763 0.031000018
0.07288 0.13664763 0.031000018
0.074163809 0.13633144 0.028999984
0.07546667 0.13617334 0.027999997
0.076794289 0.13617334 0.027999997
0.078060955 0.13585715 0.026000023
0.079384759 0.13585715 0.026000023
0.080708578 0.13585715 0.026000023
0.082032382 0.13585715 0.026000023
0.083356194 0.13585715 0.026000023
0.084680006 0.13585715 0.026000023
0.08600381 0.13585715 0.026000023
0.087327622 0.13585715 0.026000023
0.088651434 0.13585715 0.026000023
0.089975238 0.13585715 0.026000023
0.09129905 0.13585715 0.026000023
0.092622861 0.13585715 0.026000023
0.093946666 0.13585715 0.026000023
0.095380954 0.13617334 0.027999997
0.096708573 0.13617334 0.027999997
0.098095238 0.13633144 0.028999984
0.099424765 0.13633144 0.028999984
0.10075429 0.13633144 0.028999984
0.10208381 0.13633144 0.028999984
0.10341334 0.13633144 0.028999984
0.10488001 0.13664763 0.031000018
0.10621333 0.13664763 0.031000018
0.10740191 0.13633144 0.028999984
0.10873143 0.13633144 0.028999984
0.11006095 0.13633144 0.028999984
0.11154667 0.13664763 0.031000018
0.11288001 0.13664763 0.031000018
0.11421333 0.13664763 0.031000018
0.11554667 0.13664763 0.031000018
0.11696572 0.13680571 0.032000005
0.1184762 0.1371219 0.033999979
0.11990477 0.13728 0.035000026
0.12133715 0.1374381 0.036000013
0.12268001 0.1374381 0.036000013
0.12421334 0.13775429 0.037999988
0.12565714 0.13791238 0.038999975
0.12730286 0.13838667 0.041999996
0.12926285 0.13933524 0.047999978
0.1308343 0.13965143 0.050000012
0.13220382 0.13965143 0.050000012
0.13357334 0.13965143 0.050000012
0.001274284 0.15222095 0.12
0.0027771406 0.15222095 0.12
0.0050800033 0.15030095 0.10799998
0.0065599978 0.15030095 0.10799998
0.0080399998 0.15030095 0.10799998
0.0096419044 0.14998096 0.10600001
0.011295237 0.14950095 0.10299999
0.012880001 0.14918095 0.10100001
0.014457144 0.14886096 0.098999977
0.016079996 0.14838095 0.096000016
0.017640002 0.14806096 0.093999982
0.019093331 0.14806096 0.093999982
0.020641904 0.14774096 0.092000008
0.022137143 0.14758097 0.091000021
0.023672383 0.14726095 0.088999987
0.02511619 0.14726095 0.088999987
0.026560001 0.14726095 0.088999987
0.02808 0.14694096 0.087000012
0.029520001 0.14694096 0.087000012
0.033306666 0.14246096 0.059000015
0.034754287 0.14214095 0.056999981
0.036222856 0.14166096 0.05400002
0.037599999 0.14166096 0.05400002
0.038977146 0.14166096 0.05400002
0.040377144 0.14150096 0.053000033
0.041794285 0.14118096 0.050999999
0.04322286 0.14070095 0.047999978
0.044588573 0.14070095 0.047999978
0.04601524 0.14006096 0.04400003
0.047373332 0.14006096 0.04400003
0.048754286 0.13974096 0.041999996
0.050108574 0.13974096 0.041999996
0.051462859 0.13974096 0.041999996
0.052822858 0.13958097 0.041000009
0.054182857 0.13926095 0.038999975
0.055533335 0.13910095 0.037999988
0.056880001 0.13910095 0.037999988
0.058226667 0.13910095 0.037999988
0.059565715 0.13878097 0.036000013
0.060908571 0.13878097 0.036000013
0.06225143 0.13878097 0.036000013
0.06358476 0.13862096 0.035000026
0.064925715 0.13862096 0.035000026
0.066253334 0.13846095 0.033999979
0.067592382 0.13846095 0.033999979
0.068897143 0.13814096 0.032000005
0.070232384 0.13814096 0.032000005
0.071546666 0.13798095 0.031000018
0.07288 0.13798095 0.031000018
0.074163809 0.13766095 0.028999984
0.07546667 0.13750096 0.027999997
0.076794289 0.13750096 0.027999997
0.078121908 0.13750096 0.027999997
0.079449527 0.13750096 0.027999997
0.080777146 0.13750096 0.027999997
0.082104765 0.13750096 0.027999997
0.083432384 0.13750096 0.027999997
0.084760003 0.13750096 0.027999997
0.086087622 0.13750096 0.027999997
0.087415241 0.13750096 0.027999997
0.08874286 0.13750096 0.027999997
0.089975238 0.13718095 0.026000023
0.091398098 0.13750096 0.027999997
0.092725717 0.13750096 0.027999997
0.094053335 0.13750096 0.027999997
0.095436193 0.13766095 0.028999984
0.096765712 0.13766095 0.028999984
0.098095238 0.13766095 0.028999984
0.099424765 0.13766095 0.028999984
0.10088 0.13798095 0.031000018
0.10208381 0.13766095 0.028999984
0.10354667 0.13798095 0.031000018
0.10488001 0.13798095 0.031000018
0.10621333 0.13798095 0.031000018
0.10754667 0.13798095 0.031000018
0.10888 0.13798095 0.031000018
0.11021334 0.13798095 0.031000018
0.11154667 0.13798095 0.031000018
0.11288001 0.13798095 0.031000018
0.11421333 0.13798095 0.031000018
0.11563048 0.13814096 0.032000005
0.11696572 0.13814096 0.032000005
0.1184762 0.13846095 0.033999979
0.11990477 0.13862096 0.035000026
0.12133715 0.13878097 0.036000013
0.12268001 0.13878097 0.036000013
0.12421334 0.13910095 0.037999988
0.12585144 0.13958097 0.041000009
0.12730286 0.13974096 0.041999996
0.12885906 0.14006096 0.04400003
0.13062857 0.14070095 0.047999978
0.13188952 0.14054096 0.046999991
0.13325334 0.14054096 0.046999991
0.001274284 0.15372381 0.12
0.0027771406 0.15372381 0.12
0.004346665 0.15356191 0.11900002
0.0064304732 0.15210477 0.11000001
0.0079142861 0.15210477 0.11000001
0.0093980953 0.15210477 0.11000001
0.011236191 0.15113333 0.10400003
0.012880001 0.15064763 0.10100001
0.014457144 0.15032381 0.098999977
0.016079996 0.1498381 0.096000016
0.017537143 0.1498381 0.096000016
0.019093331 0.14951429 0.093999982
0.020546667 0.14951429 0.093999982
0.022137143 0.14902858 0.091000021
0.023584761 0.14902858 0.091000021
0.02511619 0.14870477 0.088999987
0.026560001 0.14870477 0.088999987
0.02808 0.14838095 0.087000012
0.029520001 0.14838095 0.087000012
0.030959999 0.14838095 0.087000012
0.033306666 0.14384763 0.059000015
0.034693331 0.14384763 0.059000015
0.036079999 0.14384763 0.059000015
0.037546664 0.14336191 0.055999994
0.038927622 0.14336191 0.055999994
0.040308572 0.14336191 0.055999994
0.041731428 0.14303811 0.05400002
0.043127619 0.14287621 0.053000033
0.044588573 0.14206667 0.047999978
0.046 0.14158095 0.045000017
0.047373332 0.14141905 0.04400003
0.048731428 0.14141905 0.04400003
0.050089523 0.14141905 0.04400003
0.051447619 0.14141905 0.04400003
0.052817143 0.14109524 0.041999996
0.054175239 0.14093333 0.041000009
0.055531431 0.14060952 0.038999975
0.056880001 0.14044762 0.037999988
0.058226667 0.14044762 0.037999988
0.059573334 0.14044762 0.037999988
0.06092 0.14044762 0.037999988
0.06225143 0.14012381 0.036000013
0.063594289 0.14012381 0.036000013
0.064937145 0.14012381 0.036000013
0.06628 0.14012381 0.036000013
0.067607619 0.13996191 0.035000026
0.068897143 0.13947619 0.032000005
0.070232384 0.13947619 0.032000005
0.071567625 0.13947619 0.032000005
0.072902858 0.13947619 0.032000005
0.074213333 0.13931429 0.031000018
0.075546667 0.13931429 0.031000018
0.076880001 0.13931429 0.031000018
0.078152381 0.13899048 0.028999984
0.079449527 0.13882858 0.027999997
0.080777146 0.13882858 0.027999997
0.082104765 0.13882858 0.027999997
0.083470479 0.13899048 0.028999984
0.084800005 0.13899048 0.028999984
0.086087622 0.13882858 0.027999997
0.087415241 0.13882858 0.027999997
0.08874286 0.13882858 0.027999997
0.090070479 0.13882858 0.027999997
0.091447622 0.13899048 0.028999984
0.092777148 0.13899048 0.028999984
0.094106667 0.13899048 0.028999984
0.095436193 0.13899048 0.028999984
0.096765712 0.13899048 0.028999984
0.09821333 0.13931429 0.031000018
0.099546671 0.13931429 0.031000018
0.10088 0.13931429 0.031000018
0.10221334 0.13931429 0.031000018
0.10354667 0.13931429 0.031000018
0.10488001 0.13931429 0.031000018
0.10628381 0.13947619 0.032000005
0.10754667 0.13931429 0.031000018
0.10888 0.13931429 0.031000018
0.11021334 0.13931429 0.031000018
0.11162476 0.13947619 0.032000005
0.11296 0.13947619 0.032000005
0.11429524 0.13947619 0.032000005
0.11563048 0.13947619 0.032000005
0.11696572 0.13947619 0.032000005
0.1184762 0.1398 0.033999979
0.11990477 0.13996191 0.035000026
0.12133715 0.14012381 0.036000013
0.12286668 0.14044762 0.037999988
0.12421334 0.14044762 0.037999988
0.12585144 0.14093333 0.041000009
0.12730286 0.14109524 0.041999996
0.12885906 0.14141905 0.04400003
0.13032001 0.14158095 0.045000017
0.13188952 0.14190476 0.046999991
0.13325334 0.14190476 0.046999991
0.001274284 0.15522666 0.12
0.0029828548 0.15473524 0.11699998
0.004346665 0.15506287 0.11900002
0.005847618 0.15506287 0.11900002
0.0077257119 0.15408 0.11300004
0.0093371421 0.15375239 0.111
0.011 0.15326095 0.10799998
0.012708567 0.15260571 0.10400003
0.014346663 0.15211429 0.10100001
0.015920002 0.15178667 0.098999977
0.017537143 0.15129523 0.096000016
0.018994283 0.15129523 0.096000016
0.020546667 0.15096763 0.093999982
0.02209143 0.15064001 0.092000008
0.023584761 0.15047619 0.091000021
0.02511619 0.15014857 0.088999987
0.026560001 0.15014857 0.088999987
0.02808 0.14982097 0.087000012
0.029520001 0.14982097 0.087000012
0.030959999 0.14982097 0.087000012
0.033306666 0.1452343 0.059000015
0.034693331 0.1452343 0.059000015
0.036079999 0.1452343 0.059000015
0.037466668 0.1452343 0.059000015
0.038853332 0.1452343 0.059000015
0.040308572 0.14474286 0.055999994
0.041689523 0.14474286 0.055999994
0.043108571 0.14441524 0.05400002
0.044537142 0.14392382 0.050999999
0.045954287 0.14343238 0.047999978
0.047360003 0.14294095 0.045000017
0.048697144 0.14326857 0.046999991
0.050080001 0.14294095 0.045000017
0.051440001 0.14294095 0.045000017
0.052805714 0.14277714 0.04400003
0.054171428 0.14244953 0.041999996
0.05552762 0.14228572 0.041000009
0.056880001 0.14228572 0.041000009
0.058228571 0.1419581 0.038999975
0.059573334 0.14179429 0.037999988
0.06092 0.14179429 0.037999988
0.062266666 0.14179429 0.037999988
0.063594289 0.14146668 0.036000013
0.064937145 0.14146668 0.036000013
0.06628 0.14146668 0.036000013
0.067607619 0.14130287 0.035000026
0.068931431 0.14113905 0.033999979
0.070232384 0.14081143 0.032000005
0.071567625 0.14081143 0.032000005
0.072902858 0.14081143 0.032000005
0.074238099 0.14081143 0.032000005
0.075546667 0.14064762 0.031000018
0.076880001 0.14064762 0.031000018
0.078213334 0.14064762 0.031000018
0.079481907 0.14032 0.028999984
0.080811426 0.14032 0.028999984
0.082140952 0.14032 0.028999984
0.083470479 0.14032 0.028999984
0.084800005 0.14032 0.028999984
0.086213335 0.14064762 0.031000018
0.087546669 0.14064762 0.031000018
0.088880002 0.14064762 0.031000018
0.090213336 0.14064762 0.031000018
0.09154667 0.14064762 0.031000018
0.092880003 0.14064762 0.031000018
0.094213337 0.14064762 0.031000018
0.09554667 0.14064762 0.031000018
0.096880004 0.14064762 0.031000018
0.09821333 0.14064762 0.031000018
0.099546671 0.14064762 0.031000018
0.10094287 0.14081143 0.032000005
0.10221334 0.14064762 0.031000018
0.10354667 0.14064762 0.031000018
0.10488001 0.14064762 0.031000018
0.10621333 0.14064762 0.031000018
0.10754667 0.14064762 0.031000018
0.10888 0.14064762 0.031000018
0.11028953 0.14081143 0.032000005
0.11162476 0.14081143 0.032000005
0.11296 0.14081143 0.032000005
0.11429524 0.14081143 0.032000005
0.11563048 0.14081143 0.032000005
0.11713715 0.14113905 0.033999979
0.11856382 0.14130287 0.035000026
0.11990477 0.14130287 0.035000026
0.12133715 0.14146668 0.036000013
0.12286668 0.14179429 0.037999988
0.12421334 0.14179429 0.037999988
0.12585144 0.14228572 0.041000009
0.12750097 0.14277714 0.04400003
0.12916191 0.14326857 0.046999991
0.13062857 0.14343238 0.047999978
0.13199429 0.14343238 0.047999978
0.13325334 0.14326857 0.046999991
0.001274284 0.15672953 0.12
0.002845712 0.15656382 0.11900002
0.004346665 0.15656382 0.11900002
0.0057828575 0.15672953 0.12
0.0075999983 0.15590096 0.11500001
0.0092152357 0.15556952 0.11300004
0.011 0.15474094 0.10799998
0.012594283 0.15440953 0.10600001
0.014236189 0.15391238 0.10299999
0.015813332 0.15358096 0.10100001
0.017434288 0.15308382 0.09799999
0.018895239 0.15308382 0.09799999
0.020451427 0.15275238 0.096000016
0.02209143 0.15208952 0.092000008
0.023584761 0.15192381 0.091000021
0.025032379 0.15192381 0.091000021
0.026560001 0.15159237 0.088999987
0.02808 0.15126096 0.087000012
0.029520001 0.15126096 0.087000012
0.030959999 0.15126096 0.087000012
0.032399997 0.15126096 0.087000012
0.034693331 0.14662096 0.059000015
0.036079999 0.14662096 0.059000015
0.037546664 0.14612381 0.055999994
0.038927622 0.14612381 0.055999994
0.040308572 0.14612381 0.055999994
0.041668572 0.14628953 0.056999981
0.043070477 0.14612381 0.055999994
0.044502858 0.14562668 0.053000033
0.04590857 0.14529525 0.050999999
0.047293335 0.14512953 0.050000012
0.048685715 0.1447981 0.047999978
0.050060954 0.14463238 0.046999991
0.051424764 0.14463238 0.046999991
0.0528 0.14430095 0.045000017
0.054171428 0.14380382 0.041999996
0.055525716 0.14380382 0.041999996
0.056880001 0.14380382 0.041999996
0.058232382 0.1436381 0.041000009
0.059577145 0.14330667 0.038999975
0.060925715 0.14330667 0.038999975
0.062266666 0.14314096 0.037999988
0.063613333 0.14314096 0.037999988
0.064937145 0.14280953 0.036000013
0.06628 0.14280953 0.036000013
0.067622855 0.14280953 0.036000013
0.068931431 0.14247809 0.033999979
0.070270479 0.14247809 0.033999979
0.071567625 0.14214668 0.032000005
0.072902858 0.14214668 0.032000005
0.074238099 0.14214668 0.032000005
0.075573333 0.14214668 0.032000005
0.076880001 0.14198096 0.031000018
0.078213334 0.14198096 0.031000018
0.079546668 0.14198096 0.031000018
0.080880001 0.14198096 0.031000018
0.082213335 0.14198096 0.031000018
0.083546668 0.14198096 0.031000018
0.084880002 0.14198096 0.031000018
0.086213335 0.14198096 0.031000018
0.087590478 0.14214668 0.032000005
0.088925719 0.14214668 0.032000005
0.090260953 0.14214668 0.032000005
0.091596194 0.14214668 0.032000005
0.092931435 0.14214668 0.032000005
0.094266668 0.14214668 0.032000005
0.095601901 0.14214668 0.032000005
0.09693715 0.14214668 0.032000005
0.098272383 0.14214668 0.032000005
0.099607617 0.14214668 0.032000005
0.10094287 0.14214668 0.032000005
0.1022781 0.14214668 0.032000005
0.10354667 0.14198096 0.031000018
0.10488001 0.14198096 0.031000018
0.10621333 0.14198096 0.031000018
0.10761905 0.14214668 0.032000005
0.10895429 0.14214668 0.032000005
0.11028953 0.14214668 0.032000005
0.11162476 0.14214668 0.032000005
0.11296 0.14214668 0.032000005
0.11445905 0.14247809 0.033999979
0.1157981 0.14247809 0.033999979
0.11713715 0.14247809 0.033999979
0.11856382 0.14264382 0.035000026
0.11999428 0.14280953 0.036000013
0.12152 0.14314096 0.037999988
0.12286668 0.14314096 0.037999988
0.12449905 0.1436381 0.041000009
0.12594858 0.14380382 0.041999996
0.12750097 0.14413525 0.04400003
0.12916191 0.14463238 0.046999991
0.13052572 0.14463238 0.046999991
0.13377525 0.14761524 0.064999998
0.13538668 0.14794667 0.067000031
0.13678858 0.14794667 0.067000031
0.001274284 0.15823239 0.12
0.002845712 0.15806477 0.11900002
0.0042799972 0.15823239 0.12
