# .PCD v0.7 - Point Cloud Data file format
VERSION 0.7
FIELDS x y z
SIZE 4 4 4
TYPE F F F
COUNT 1 1 1
WIDTH 1351
HEIGHT 1
VIEWPOINT 0 0 0 0 1 0 0
POINTS 1351
DATA ascii
0.095304772 0.067451432 0.010999978
0.096573338 0.067451432 0.010999978
0.097876199 0.067516193 0.012000024
0.099146679 0.067516193 0.012000024
0.10041715 0.067516193 0.012000024
0.10168763 0.067516193 0.012000024
0.10295811 0.067516193 0.012000024
0.10422858 0.067516193 0.012000024
0.10559048 0.067645714 0.013999999
0.10686477 0.067645714 0.013999999
0.10813905 0.067645714 0.013999999
0.10941334 0.067645714 0.013999999
0.11068763 0.067645714 0.013999999
0.11306667 0.068940952 0.033999979
0.11426477 0.068811432 0.032000005
0.1153962 0.068617143 0.028999984
0.11669905 0.068617143 0.028999984
0.11800191 0.068617143 0.028999984
0.11930477 0.068617143 0.028999984
0.12054096 0.068552382 0.027999997
0.12191048 0.068617143 0.028999984
0.12321334 0.068617143 0.028999984
0.1245162 0.068617143 0.028999984
0.12596762 0.068746671 0.031000018
0.12735048 0.068811432 0.032000005
0.12858096 0.068746671 0.031000018
0.12996763 0.068811432 0.032000005
0.13144001 0.068940952 0.033999979
0.13275239 0.068940952 0.033999979
0.13406476 0.068940952 0.033999979
0.13546477 0.06900572 0.035000026
0.13677907 0.06900572 0.035000026
0.13964763 0.07010667 0.051999986
0.1412743 0.070300952 0.055000007
0.14272192 0.070365719 0.055999994
0.1440762 0.070365719 0.055999994
0.14562859 0.07049524 0.058000028
0.14728953 0.070689522 0.06099999
0.14865334 0.070689522 0.06099999
0.011921905 0.072319999 0.064999998
0.013293337 0.072319999 0.064999998
0.014664769 0.072319999 0.064999998
0.016118098 0.072253339 0.06400001
0.017647624 0.072120003 0.061999977
0.019091435 0.072053336 0.06099999
0.02068381 0.07185334 0.058000028
0.022264764 0.071653336 0.055000007
0.023761913 0.071520001 0.052999973
0.025321908 0.071320005 0.050000012
0.026733335 0.071253337 0.049000025
0.02827429 0.071053334 0.046000004
0.029998101 0.070653342 0.040000021
0.031447623 0.070519999 0.037999988
0.032767624 0.070519999 0.037999988
0.034087624 0.070519999 0.037999988
0.03552191 0.070386671 0.036000013
0.036948577 0.070253335 0.033999979
0.038367625 0.070120007 0.032000005
0.039830483 0.069920003 0.028999984
0.041232385 0.069786668 0.02700001
0.042531434 0.069786668 0.02700001
0.04392191 0.069653332 0.024999976
0.045260958 0.069586672 0.023999989
0.046680003 0.069386669 0.021000028
0.048007622 0.069320001 0.019999981
0.049293339 0.069320001 0.019999981
0.050615244 0.069253333 0.018999994
0.051899053 0.069253333 0.018999994
0.053182863 0.069253333 0.018999994
0.054527625 0.069120005 0.01700002
0.055864766 0.068986669 0.014999986
0.057140958 0.068986669 0.014999986
0.058441907 0.068920001 0.013999999
0.059716195 0.068920001 0.013999999
0.060990483 0.068920001 0.013999999
0.062302861 0.068786666 0.012000024
0.063573338 0.068786666 0.012000024
0.064843819 0.068786666 0.012000024
0.066127628 0.068719998 0.010999978
0.067407623 0.068653338 0.0099999905
0.068674289 0.068653338 0.0099999905
0.069940954 0.068653338 0.0099999905
0.071219057 0.068520002 0.0080000162
0.072481908 0.068520002 0.0080000162
0.073744766 0.068520002 0.0080000162
0.075007625 0.068520002 0.0080000162
0.076270483 0.068520002 0.0080000162
0.077533342 0.068520002 0.0080000162
0.078790486 0.068453334 0.0070000291
0.080051437 0.068453334 0.0070000291
0.081312388 0.068453334 0.0070000291
0.082573339 0.068453334 0.0070000291
0.083874293 0.068653338 0.0099999905
0.085171431 0.068786666 0.012000024
0.086441912 0.068786666 0.012000024
0.087712385 0.068786666 0.012000024
0.088982865 0.068786666 0.012000024
0.090253338 0.068786666 0.012000024
0.091499053 0.068719998 0.010999978
0.092794292 0.068786666 0.012000024
0.094064772 0.068786666 0.012000024
0.095304772 0.068719998 0.010999978
0.096573338 0.068719998 0.010999978
0.097876199 0.068786666 0.012000024
0.099146679 0.068786666 0.012000024
0.10049334 0.068920001 0.013999999
0.10176763 0.068920001 0.013999999
0.10304191 0.068920001 0.013999999
0.1043162 0.068920001 0.013999999
0.10559048 0.068920001 0.013999999
0.10686477 0.068920001 0.013999999
0.10813905 0.068920001 0.013999999
0.11044191 0.070253335 0.033999979
0.11175429 0.070253335 0.033999979
0.11306667 0.070253335 0.033999979
0.11426477 0.070120007 0.032000005
0.11557334 0.070120007 0.032000005
0.11682096 0.070053339 0.031000018
0.11812763 0.070053339 0.031000018
0.1194343 0.070053339 0.031000018
0.12074097 0.070053339 0.031000018
0.12204763 0.070053339 0.031000018
0.12335429 0.070053339 0.031000018
0.12466096 0.070053339 0.031000018
0.12604192 0.070120007 0.032000005
0.12735048 0.070120007 0.032000005
0.12865905 0.070120007 0.032000005
0.12996763 0.070120007 0.032000005
0.13144001 0.070253335 0.033999979
0.13275239 0.070253335 0.033999979
0.13406476 0.070253335 0.033999979
0.13537715 0.070253335 0.033999979
0.13830096 0.071453333 0.051999986
0.13964763 0.071453333 0.051999986
0.14108762 0.071520001 0.052999973
0.14262667 0.071653336 0.055000007
0.1440762 0.071720004 0.055999994
0.14562859 0.07185334 0.058000028
0.14728953 0.072053336 0.06099999
0.14875621 0.072120003 0.061999977
0.15033144 0.072253339 0.06400001
0.15170097 0.072253339 0.06400001
0.15307048 0.072253339 0.06400001
0.011921905 0.073691435 0.064999998
0.013293337 0.073691435 0.064999998
0.014664769 0.073691435 0.064999998
0.016036194 0.073691435 0.064999998
0.017487623 0.07362286 0.06400001
0.019091435 0.073417142 0.06099999
0.02068381 0.073211432 0.058000028
0.022264764 0.073005714 0.055000007
0.023761913 0.072868571 0.052999973
0.025180958 0.072800003 0.051999986
0.026733335 0.072594292 0.049000025
0.028140958 0.072525717 0.047999978
0.029609527 0.072388574 0.046000004
0.031384766 0.071908571 0.038999975
0.032706674 0.071908571 0.038999975
0.034087624 0.071840003 0.037999988
0.03552191 0.07170286 0.036000013
0.036893334 0.071634293 0.035000026
0.038260959 0.071565717 0.033999979
0.039830483 0.071222857 0.028999984
0.04113334 0.071222857 0.028999984
0.042483814 0.071154289 0.027999997
0.04392191 0.070948571 0.024999976
0.045217149 0.070948571 0.024999976
0.046680003 0.070674293 0.021000028
0.048007622 0.070605718 0.019999981
0.049293339 0.070605718 0.019999981
0.050579056 0.070605718 0.019999981
0.051864766 0.070605718 0.019999981
0.053182863 0.070537142 0.018999994
0.054466672 0.070537142 0.018999994
0.055836193 0.070331432 0.015999973
0.057140958 0.070262857 0.014999986
0.058417149 0.070262857 0.014999986
0.05969334 0.070262857 0.014999986
0.060990483 0.070194289 0.013999999
0.062264767 0.070194289 0.013999999
0.063539051 0.070194289 0.013999999
0.064813338 0.070194289 0.013999999
0.066114292 0.070057146 0.012000024
0.067407623 0.069920003 0.0099999905
0.068664767 0.069988571 0.010999978
0.069940954 0.069920003 0.0099999905
0.071219057 0.069782861 0.0080000162
0.072474293 0.069920003 0.0099999905
0.073744766 0.069782861 0.0080000162
0.075007625 0.069782861 0.0080000162
0.076306671 0.071085721 0.02700001
0.077609532 0.071154289 0.027999997
0.078910485 0.071154289 0.027999997
0.080211431 0.071154289 0.027999997
0.081502862 0.071085721 0.02700001
0.082801908 0.071085721 0.02700001
0.084100962 0.071085721 0.02700001
0.085232385 0.070331432 0.015999973
0.086493343 0.070262857 0.014999986
0.08775048 0.070194289 0.013999999
0.089024767 0.070194289 0.013999999
0.090299055 0.070194289 0.013999999
0.091523819 0.070057146 0.012000024
0.092794292 0.070057146 0.012000024
0.094064772 0.070057146 0.012000024
0.095304772 0.069988571 0.010999978
0.096605718 0.070057146 0.012000024
0.097876199 0.070057146 0.012000024
0.099219054 0.070194289 0.013999999
0.10049334 0.070194289 0.013999999
0.10176763 0.070194289 0.013999999
0.10304191 0.070194289 0.013999999
0.1043162 0.070194289 0.013999999
0.10559048 0.070194289 0.013999999
0.10686477 0.070194289 0.013999999
0.10912953 0.071565717 0.033999979
0.11044191 0.071565717 0.033999979
0.11175429 0.071565717 0.033999979
0.11306667 0.071565717 0.033999979
0.11437905 0.071565717 0.033999979
0.11557334 0.071428575 0.032000005
0.11682096 0.071359999 0.031000018
0.11812763 0.071359999 0.031000018
0.11949906 0.071428575 0.032000005
0.12080763 0.071428575 0.032000005
0.1221162 0.071428575 0.032000005
0.12342477 0.071428575 0.032000005
0.12473334 0.071428575 0.032000005
0.12604192 0.071428575 0.032000005
0.12750286 0.071565717 0.033999979
0.12865905 0.071428575 0.032000005
0.13012762 0.071565717 0.033999979
0.13144001 0.071565717 0.033999979
0.13275239 0.071565717 0.033999979
0.13406476 0.071565717 0.033999979
0.13695429 0.072800003 0.051999986
0.13830096 0.072800003 0.051999986
0.13964763 0.072800003 0.051999986
0.14108762 0.072868571 0.052999973
0.14243621 0.072868571 0.052999973
0.1440762 0.073074289 0.055999994
0.14562859 0.073211432 0.058000028
0.14698668 0.073211432 0.058000028
0.14865334 0.073417142 0.06099999
0.15033144 0.07362286 0.06400001
0.15170097 0.07362286 0.06400001
0.15307048 0.07362286 0.06400001
0.014664769 0.075062864 0.064999998
0.015790477 0.075274289 0.068000019
0.017167624 0.075274289 0.068000019
0.019325718 0.074569531 0.058000028
0.021064769 0.074217148 0.052999973
0.022264764 0.074358098 0.055000007
0.023761913 0.074217148 0.052999973
0.025321908 0.074005716 0.050000012
0.026733335 0.073935241 0.049000025
0.028140958 0.073864758 0.047999978
0.029609527 0.073723815 0.046000004
0.031321909 0.073300958 0.040000021
0.032706674 0.073230475 0.038999975
0.034028579 0.073230475 0.038999975
0.035407625 0.07316 0.037999988
0.036838099 0.07301905 0.036000013
0.038260959 0.072878093 0.033999979
0.039727625 0.072666667 0.031000018
0.04113334 0.072525717 0.028999984
0.042436197 0.072525717 0.028999984
0.043784767 0.072455242 0.027999997
0.04512953 0.072384767 0.02700001
0.046596196 0.07210286 0.023000002
0.047967624 0.07196191 0.021000028
0.049293339 0.071891427 0.019999981
0.050542861 0.07196191 0.021000028
0.051864766 0.071891427 0.019999981
0.053150482 0.071891427 0.019999981
0.054466672 0.071820959 0.018999994
0.055836193 0.071609527 0.015999973
0.057114292 0.071609527 0.015999973
0.058392391 0.071609527 0.015999973
0.059670482 0.071609527 0.015999973
0.060969528 0.071539052 0.014999986
0.062264767 0.071468569 0.013999999
0.063539051 0.071468569 0.013999999
0.064813338 0.071468569 0.013999999
0.066087626 0.071468569 0.013999999
0.067407623 0.071186669 0.0099999905
0.068664767 0.071257144 0.010999978
0.069940954 0.071186669 0.0099999905
0.071207628 0.071186669 0.0099999905
0.072474293 0.071186669 0.0099999905
0.073714294 0.072173335 0.023999989
0.075007625 0.07224381 0.024999976
0.076302864 0.07224381 0.024999976
0.077605717 0.072384767 0.02700001
0.078910485 0.072455242 0.027999997
0.080203816 0.072384767 0.02700001
0.081502862 0.072384767 0.02700001
0.082801908 0.072384767 0.02700001
0.084100962 0.072384767 0.02700001
0.085354291 0.072173335 0.023999989
0.086493343 0.071539052 0.014999986
0.087769531 0.071539052 0.014999986
0.089024767 0.071468569 0.013999999
0.090299055 0.071468569 0.013999999
0.091523819 0.071327627 0.012000024
0.092794292 0.071327627 0.012000024
0.094064772 0.071327627 0.012000024
0.095335245 0.071327627 0.012000024
0.096605718 0.071327627 0.012000024
0.097876199 0.071327627 0.012000024
0.099219054 0.071468569 0.013999999
0.10049334 0.071468569 0.013999999
0.10176763 0.071468569 0.013999999
0.10304191 0.071468569 0.013999999
0.1043162 0.071468569 0.013999999
0.10559048 0.071468569 0.013999999
0.10781715 0.072878093 0.033999979
0.10912953 0.072878093 0.033999979
0.11049334 0.072948575 0.035000026
0.11180763 0.072948575 0.035000026
0.11312191 0.072948575 0.035000026
0.11443619 0.072948575 0.035000026
0.11575048 0.072948575 0.035000026
0.11700381 0.072878093 0.033999979
0.1183162 0.072878093 0.033999979
0.11962858 0.072878093 0.033999979
0.12094095 0.072878093 0.033999979
0.12225334 0.072878093 0.033999979
0.12356572 0.072878093 0.033999979
0.1248781 0.072878093 0.033999979
0.12619048 0.072878093 0.033999979
0.12750286 0.072878093 0.033999979
0.12881525 0.072878093 0.033999979
0.13020763 0.072948575 0.035000026
0.13144001 0.072878093 0.033999979
0.13275239 0.072878093 0.033999979
0.13535048 0.073935241 0.049000025
0.13677905 0.074005716 0.050000012
0.1381219 0.074005716 0.050000012
0.13964763 0.074146666 0.051999986
0.1409943 0.074146666 0.051999986
0.14234096 0.074146666 0.051999986
0.14397906 0.074358098 0.055000007
0.14533144 0.074358098 0.055000007
0.14678478 0.074428573 0.055999994
0.14834477 0.074569531 0.058000028
0.14970288 0.074569531 0.058000028
0.15170097 0.074992381 0.06400001
0.014245719 0.076796196 0.069999993
0.015626673 0.076796196 0.069999993
0.017407622 0.076434284 0.064999998
0.019013342 0.076217145 0.061999977
0.02068381 0.075927623 0.058000028
0.022264764 0.075710483 0.055000007
0.023761913 0.075565711 0.052999973
0.025180958 0.075493336 0.051999986
0.026733335 0.075276196 0.049000025
0.028140958 0.075203814 0.047999978
0.029609527 0.075059049 0.046000004
0.031133339 0.074841902 0.042999983
0.032523815 0.074769527 0.041999996
0.033969525 0.074624762 0.040000021
0.035350483 0.07455238 0.038999975
0.036838099 0.07433524 0.036000013
0.038207624 0.074262857 0.035000026
0.039573338 0.074190475 0.033999979
0.041034292 0.073973335 0.031000018
0.042340957 0.073973335 0.031000018
0.043739054 0.073828571 0.028999984
0.045085721 0.073756188 0.027999997
0.046512388 0.073539048 0.024999976
0.047847621 0.073466666 0.023999989
0.049255241 0.073249526 0.021000028
0.050470479 0.073394291 0.023000002
0.051830478 0.073249526 0.021000028
0.053150482 0.073177144 0.019999981
0.054436196 0.073177144 0.019999981
0.055807624 0.072960004 0.01700002
0.057087623 0.072960004 0.01700002
0.058367625 0.072960004 0.01700002
0.059647623 0.072960004 0.01700002
0.060948577 0.072887622 0.015999973
0.062226672 0.072887622 0.015999973
0.06350477 0.072887622 0.015999973
0.064798102 0.072815239 0.014999986
0.066074289 0.072815239 0.014999986
0.067339055 0.072887622 0.015999973
0.06861715 0.072887622 0.015999973
0.06990286 0.072815239 0.014999986
0.07117334 0.072887622 0.015999973
0.072424769 0.073394291 0.023000002
0.073714294 0.073466666 0.023999989
0.075007625 0.073539048 0.024999976
0.076302864 0.073539048 0.024999976
0.077609532 0.073756188 0.027999997
0.078910485 0.073756188 0.027999997
0.080203816 0.073683813 0.02700001
0.081512384 0.073756188 0.027999997
0.082801908 0.073683813 0.02700001
0.084100962 0.073683813 0.02700001
0.085354291 0.073466666 0.023999989
0.086527623 0.072960004 0.01700002
0.087769531 0.072815239 0.014999986
0.089024767 0.072742857 0.013999999
0.090299055 0.072742857 0.013999999
0.091573343 0.072742857 0.013999999
0.092794292 0.0725981 0.012000024
0.094064772 0.0725981 0.012000024
0.095335245 0.0725981 0.012000024
0.096605718 0.0725981 0.012000024
0.097944766 0.072742857 0.013999999
0.099219054 0.072742857 0.013999999
0.10049334 0.072742857 0.013999999
0.10176763 0.072742857 0.013999999
0.10304191 0.072742857 0.013999999
0.1043162 0.072742857 0.013999999
0.10559048 0.072742857 0.013999999
0.10786477 0.074262857 0.035000026
0.10917906 0.074262857 0.035000026
0.11049334 0.074262857 0.035000026
0.11180763 0.074262857 0.035000026
0.11312191 0.074262857 0.035000026
0.11443619 0.074262857 0.035000026
0.11575048 0.074262857 0.035000026
0.11706477 0.074262857 0.035000026
0.11837906 0.074262857 0.035000026
0.11969334 0.074262857 0.035000026
0.12100763 0.074262857 0.035000026
0.12232192 0.074262857 0.035000026
0.12356572 0.074190475 0.033999979
0.12495048 0.074262857 0.035000026
0.12626477 0.074262857 0.035000026
0.12757906 0.074262857 0.035000026
0.12889335 0.074262857 0.035000026
0.13020763 0.074262857 0.035000026
0.13152191 0.074262857 0.035000026
0.13283619 0.074262857 0.035000026
0.13543621 0.075348571 0.050000012
0.13677905 0.075348571 0.050000012
0.13830096 0.075493336 0.051999986
0.13973905 0.075565711 0.052999973
0.14108762 0.075565711 0.052999973
0.14262667 0.075710483 0.055000007
0.14397906 0.075710483 0.055000007
0.14543048 0.075782858 0.055999994
0.14698668 0.075927623 0.058000028
0.14834477 0.075927623 0.058000028
0.14970288 0.075927623 0.058000028
0.013910484 0.078474291 0.074000001
0.015544768 0.078251429 0.07099998
0.016927626 0.078251429 0.07099998
0.019325718 0.077285722 0.058000028
0.02068381 0.077285722 0.058000028
0.022264764 0.07706286 0.055000007
0.023617145 0.07706286 0.055000007
0.025180958 0.076839998 0.051999986
0.026664767 0.076691434 0.050000012
0.028140958 0.076542854 0.047999978
0.029609527 0.07639429 0.046000004
0.031007621 0.07632 0.045000017
0.032523815 0.076097146 0.041999996
0.033969525 0.075948574 0.040000021
0.035293337 0.075948574 0.040000021
0.036727626 0.075800002 0.037999988
0.038154289 0.07565143 0.036000013
0.03952191 0.075577147 0.035000026
0.040984765 0.075354286 0.032000005
0.042293336 0.075354286 0.032000005
0.043647625 0.075280003 0.031000018
0.044954292 0.075280003 0.031000018
0.046344768 0.075131431 0.028999984
0.047647625 0.075131431 0.028999984
0.049026668 0.074982859 0.02700001
0.050434291 0.074760005 0.023999989
0.05176191 0.074685715 0.023000002
0.053118102 0.074537151 0.021000028
0.054405719 0.074537151 0.021000028
0.055750482 0.074388571 0.018999994
0.057034291 0.074388571 0.018999994
0.058318101 0.074388571 0.018999994
0.05960191 0.074388571 0.018999994
0.060927622 0.074240007 0.01700002
0.062207624 0.074240007 0.01700002
0.063487627 0.074240007 0.01700002
0.064767621 0.074240007 0.01700002
0.066047624 0.074240007 0.01700002
0.067327626 0.074240007 0.01700002
0.068588577 0.074388571 0.018999994
0.069887623 0.074240007 0.01700002
0.071144767 0.074537151 0.021000028
0.072424769 0.074685715 0.023000002
0.073714294 0.074760005 0.023999989
0.075007625 0.074834287 0.024999976
0.076302864 0.074834287 0.024999976
0.077605717 0.074982859 0.02700001
0.078910485 0.075057141 0.027999997
0.080203816 0.074982859 0.02700001
0.081512384 0.075057141 0.027999997
0.082801908 0.074982859 0.02700001
0.084100962 0.074982859 0.02700001
0.085369527 0.074834287 0.024999976
0.086527623 0.074240007 0.01700002
0.087788574 0.074165717 0.015999973
0.089024767 0.074017145 0.013999999
0.090299055 0.074017145 0.013999999
0.091573343 0.074017145 0.013999999
0.092794292 0.073868573 0.012000024
0.094064772 0.073868573 0.012000024
0.095335245 0.073868573 0.012000024
0.096605718 0.073868573 0.012000024
0.097876199 0.073868573 0.012000024
0.099219054 0.074017145 0.013999999
0.10049334 0.074017145 0.013999999
0.10176763 0.074017145 0.013999999
0.10304191 0.074017145 0.013999999
0.1043162 0.074017145 0.013999999
0.10559048 0.074017145 0.013999999
0.10786477 0.075577147 0.035000026
0.10917906 0.075577147 0.035000026
0.11049334 0.075577147 0.035000026
0.11180763 0.075577147 0.035000026
0.11312191 0.075577147 0.035000026
0.11443619 0.075577147 0.035000026
0.11575048 0.075577147 0.035000026
0.11706477 0.075577147 0.035000026
0.11837906 0.075577147 0.035000026
0.11969334 0.075577147 0.035000026
0.12100763 0.075577147 0.035000026
0.12232192 0.075577147 0.035000026
0.1236362 0.075577147 0.035000026
0.12495048 0.075577147 0.035000026
0.12626477 0.075577147 0.035000026
0.12765524 0.07565143 0.036000013
0.12897143 0.07565143 0.036000013
0.13052763 0.075874284 0.038999975
0.13160382 0.07565143 0.036000013
0.13367429 0.07632 0.045000017
0.13526477 0.076542854 0.047999978
0.13677905 0.076691434 0.050000012
0.13830096 0.076839998 0.051999986
0.13964763 0.076839998 0.051999986
0.14108762 0.076914288 0.052999973
0.14243621 0.076914288 0.052999973
0.14397906 0.07706286 0.055000007
0.14543048 0.077137142 0.055999994
0.14698668 0.077285722 0.058000028
0.14834477 0.077285722 0.058000028
0.012521911 0.079862863 0.074000001
0.013994288 0.079786673 0.073000014
0.015544768 0.079634286 0.07099998
0.017007623 0.079558097 0.069999993
0.018779054 0.079177149 0.064999998
0.020607624 0.078720003 0.059000015
0.02196762 0.078720003 0.059000015
0.023400001 0.078643814 0.058000028
0.025110479 0.078262858 0.052999973
0.026664767 0.078034289 0.050000012
0.028140958 0.07788191 0.047999978
0.029609527 0.077729523 0.046000004
0.031133339 0.077500954 0.042999983
0.032523815 0.077424765 0.041999996
0.033969525 0.077272385 0.040000021
0.035350483 0.077196188 0.038999975
0.036727626 0.077120006 0.037999988
0.038154289 0.076967619 0.036000013
0.03952191 0.07689143 0.035000026
0.04088572 0.07681524 0.033999979
0.042198099 0.07681524 0.033999979
0.043601908 0.076662861 0.032000005
0.044910483 0.076662861 0.032000005
0.046260957 0.076586671 0.031000018
0.047567621 0.076586671 0.031000018
0.048950482 0.076434284 0.028999984
0.050398104 0.076129526 0.024999976
0.051727623 0.076053336 0.023999989
0.053053338 0.075977147 0.023000002
0.054405719 0.075824767 0.021000028
0.055721909 0.07574857 0.019999981
0.057034291 0.075672381 0.018999994
0.058318101 0.075672381 0.018999994
0.05960191 0.075672381 0.018999994
0.06088572 0.075672381 0.018999994
0.062169529 0.075672381 0.018999994
0.063487627 0.075520001 0.01700002
0.064767621 0.075520001 0.01700002
0.066020958 0.075672381 0.018999994
0.067304768 0.075672381 0.018999994
0.068579055 0.07574857 0.019999981
0.069864765 0.07574857 0.019999981
0.071144767 0.075824767 0.021000028
0.072424769 0.075977147 0.023000002
0.073714294 0.076053336 0.023999989
0.075007625 0.076053336 0.023999989
0.076302864 0.076129526 0.024999976
0.077605717 0.076281913 0.02700001
0.078910485 0.076358095 0.027999997
0.080203816 0.076281913 0.02700001
0.081512384 0.076358095 0.027999997
0.082801908 0.076281913 0.02700001
0.084100962 0.076281913 0.02700001
0.085369527 0.076129526 0.024999976
0.086579055 0.07574857 0.019999981
0.087788574 0.075443812 0.015999973
0.089024767 0.075291432 0.013999999
0.090299055 0.075291432 0.013999999
0.091573343 0.075291432 0.013999999
0.092794292 0.075139053 0.012000024
0.094064772 0.075139053 0.012000024
0.095335245 0.075139053 0.012000024
0.096605718 0.075139053 0.012000024
0.097876199 0.075139053 0.012000024
0.099146679 0.075139053 0.012000024
0.10041715 0.075139053 0.012000024
0.10168763 0.075139053 0.012000024
0.10304191 0.075291432 0.013999999
0.1043162 0.075291432 0.013999999
0.10655048 0.07689143 0.035000026
0.10786477 0.07689143 0.035000026
0.10917906 0.07689143 0.035000026
0.11049334 0.07689143 0.035000026
0.11180763 0.07689143 0.035000026
0.11312191 0.07689143 0.035000026
0.11443619 0.07689143 0.035000026
0.11575048 0.07689143 0.035000026
0.11706477 0.07689143 0.035000026
0.11837906 0.07689143 0.035000026
0.1197581 0.076967619 0.036000013
0.12107429 0.076967619 0.036000013
0.12239048 0.076967619 0.036000013
0.12370668 0.076967619 0.036000013
0.12502286 0.076967619 0.036000013
0.12633905 0.076967619 0.036000013
0.12765524 0.076967619 0.036000013
0.12897143 0.076967619 0.036000013
0.13076763 0.077424765 0.041999996
0.13242286 0.077729523 0.046000004
0.13367429 0.077653334 0.045000017
0.13509335 0.077729523 0.046000004
0.13677905 0.078034289 0.050000012
0.1381219 0.078034289 0.050000012
0.13964763 0.078186668 0.051999986
0.14108762 0.078262858 0.052999973
0.14262667 0.078415245 0.055000007
0.14397906 0.078415245 0.055000007
0.14543048 0.078491427 0.055999994
0.14698668 0.078643814 0.058000028
0.14834477 0.078643814 0.058000028
0.012607623 0.081173338 0.073000014
0.013994288 0.081173338 0.073000014
0.015544768 0.081017144 0.07099998
0.017007623 0.080939047 0.069999993
0.018544767 0.080782861 0.068000019
0.019921906 0.080782861 0.068000019
0.02196762 0.080080003 0.059000015
0.023400001 0.080001906 0.058000028
0.024899051 0.079845719 0.055999994
0.026527625 0.079533339 0.051999986
0.027874291 0.079533339 0.051999986
0.029480007 0.079220951 0.047999978
0.031007621 0.078986675 0.045000017
0.032523815 0.078752384 0.041999996
0.033851434 0.078752384 0.041999996
0.035293337 0.078596197 0.040000021
0.036617149 0.078596197 0.040000021
0.037994295 0.078518093 0.038999975
0.039367624 0.078440003 0.037999988
0.040786669 0.078283809 0.036000013
0.042150479 0.07820572 0.035000026
0.043510485 0.078127623 0.033999979
0.044910483 0.077971429 0.032000005
0.046219051 0.077971429 0.032000005
0.047567621 0.077893339 0.031000018
0.048874289 0.077893339 0.031000018
0.050180957 0.077893339 0.031000018
0.051693343 0.077424765 0.024999976
0.053020958 0.077346668 0.023999989
0.054344766 0.077268578 0.023000002
0.055693336 0.077112384 0.021000028
0.056980956 0.077112384 0.021000028
0.058293339 0.077034287 0.019999981
0.059579052 0.077034287 0.019999981
0.060864769 0.077034287 0.019999981
0.062131435 0.077112384 0.021000028
0.063419051 0.077112384 0.021000028
0.064737149 0.07695619 0.018999994
0.066020958 0.07695619 0.018999994
0.067304768 0.07695619 0.018999994
0.068579055 0.077034287 0.019999981
0.069864765 0.077034287 0.019999981
0.071133338 0.077268578 0.023000002
0.072424769 0.077268578 0.023000002
0.073714294 0.077346668 0.023999989
0.075007625 0.077424765 0.024999976
0.076302864 0.077424765 0.024999976
0.077605717 0.077580959 0.02700001
0.078910485 0.077659048 0.027999997
0.080203816 0.077580959 0.02700001
0.081512384 0.077659048 0.027999997
0.082801908 0.077580959 0.02700001
0.084100962 0.077580959 0.02700001
0.085369527 0.077424765 0.024999976
0.086579055 0.077034287 0.019999981
0.087807626 0.076800004 0.01700002
0.089045718 0.07664381 0.014999986
0.090299055 0.076565713 0.013999999
0.091573343 0.076565713 0.013999999
0.092794292 0.076409526 0.012000024
0.094064772 0.076409526 0.012000024
0.095304772 0.076331429 0.010999978
0.096605718 0.076409526 0.012000024
0.097876199 0.076409526 0.012000024
0.099146679 0.076409526 0.012000024
0.10041715 0.076409526 0.012000024
0.10168763 0.076409526 0.012000024
0.10295811 0.076409526 0.012000024
0.10422858 0.076409526 0.012000024
0.10655048 0.07820572 0.035000026
0.10786477 0.07820572 0.035000026
0.10917906 0.07820572 0.035000026
0.11049334 0.07820572 0.035000026
0.11180763 0.07820572 0.035000026
0.11312191 0.07820572 0.035000026
0.11443619 0.07820572 0.035000026
0.11575048 0.07820572 0.035000026
0.11706477 0.07820572 0.035000026
0.11837906 0.07820572 0.035000026
0.1197581 0.078283809 0.036000013
0.12120762 0.078440003 0.037999988
0.12252763 0.078440003 0.037999988
0.12384763 0.078440003 0.037999988
0.12516762 0.078440003 0.037999988
0.12648763 0.078440003 0.037999988
0.12788382 0.078518093 0.038999975
0.12944001 0.078752384 0.041999996
0.13084763 0.078830473 0.042999983
0.13234097 0.078986675 0.045000017
0.1337581 0.079064764 0.046000004
0.13526477 0.079220951 0.047999978
0.13669144 0.079299055 0.049000025
0.1381219 0.079377145 0.050000012
0.13964763 0.079533339 0.051999986
0.14108762 0.079611428 0.052999973
0.14243621 0.079611428 0.052999973
0.14397906 0.079767622 0.055000007
0.14543048 0.079845719 0.055999994
0.14698668 0.080001906 0.058000028
0.14834477 0.080001906 0.058000028
0.012607623 0.082560003 0.073000014
0.014161911 0.082400002 0.07099998
0.015544768 0.082400002 0.07099998
0.017007623 0.082320005 0.069999993
0.018544767 0.082160003 0.068000019
0.019998096 0.082080007 0.067000031
0.02196762 0.081440009 0.059000015
0.023327623 0.081440009 0.059000015
0.024687622 0.081440009 0.059000015
0.026733335 0.080640003 0.049000025
0.028074291 0.080640003 0.049000025
0.029480007 0.080559999 0.047999978
0.030944765 0.080400005 0.046000004
0.032340955 0.080320001 0.045000017
0.033851434 0.080080003 0.041999996
0.035179053 0.080080003 0.041999996
0.036617149 0.079920001 0.040000021
0.037940957 0.079920001 0.040000021
0.039316196 0.079840004 0.038999975
0.0406381 0.079840004 0.038999975
0.042102862 0.079599999 0.036000013
0.043464765 0.079520009 0.035000026
0.044822864 0.079439998 0.033999979
0.046135247 0.079439998 0.033999979
0.047527622 0.079280004 0.032000005
0.048836194 0.079280004 0.032000005
0.050180957 0.079200007 0.031000018
0.05159048 0.078960001 0.027999997
0.052923813 0.078880005 0.02700001
0.054283813 0.078719996 0.024999976
0.055607624 0.078640006 0.023999989
0.056900956 0.078640006 0.023999989
0.058219053 0.078560002 0.023000002
0.059510481 0.078560002 0.023000002
0.060801908 0.078560002 0.023000002
0.06209334 0.078560002 0.023000002
0.063384771 0.078560002 0.023000002
0.064706668 0.078400001 0.021000028
0.065994292 0.078400001 0.021000028
0.067293338 0.078320004 0.019999981
0.068569526 0.078400001 0.021000028
0.06985715 0.078400001 0.021000028
0.071133338 0.078560002 0.023000002
0.072424769 0.078560002 0.023000002
0.073714294 0.078640006 0.023999989
0.075007625 0.078719996 0.024999976
0.076306671 0.078880005 0.02700001
0.077605717 0.078880005 0.02700001
0.078910485 0.078960001 0.027999997
0.080203816 0.078880005 0.02700001
0.081502862 0.078880005 0.02700001
0.082801908 0.078880005 0.02700001
0.084074289 0.078719996 0.024999976
0.085354291 0.078640006 0.023999989
0.086579055 0.078320004 0.019999981
0.087807626 0.078080006 0.01700002
0.089066669 0.078000002 0.015999973
0.090299055 0.07784 0.013999999
0.091573343 0.07784 0.013999999
0.092794292 0.077680007 0.012000024
0.094064772 0.077680007 0.012000024
0.095304772 0.077600002 0.010999978
0.096573338 0.077600002 0.010999978
0.097841911 0.077600002 0.010999978
0.099146679 0.077680007 0.012000024
0.10041715 0.077680007 0.012000024
0.10168763 0.077680007 0.012000024
0.10295811 0.077680007 0.012000024
0.10422858 0.077680007 0.012000024
0.10549906 0.077680007 0.012000024
0.10786477 0.079520009 0.035000026
0.10917906 0.079520009 0.035000026
0.11049334 0.079520009 0.035000026
0.11180763 0.079520009 0.035000026
0.11312191 0.079520009 0.035000026
0.11443619 0.079520009 0.035000026
0.11580953 0.079599999 0.036000013
0.11712572 0.079599999 0.036000013
0.11844191 0.079599999 0.036000013
0.11988762 0.07976 0.037999988
0.12120762 0.07976 0.037999988
0.12252763 0.07976 0.037999988
0.1239181 0.079840004 0.038999975
0.12524 0.079840004 0.038999975
0.12656191 0.079840004 0.038999975
0.12788382 0.079840004 0.038999975
0.12951809 0.080159999 0.042999983
0.13100763 0.080320001 0.045000017
0.13234097 0.080320001 0.045000017
0.1337581 0.080400005 0.046000004
0.13526477 0.080559999 0.047999978
0.13660382 0.080559999 0.047999978
0.1381219 0.080720007 0.050000012
0.13964763 0.080880001 0.051999986
0.14108762 0.080959998 0.052999973
0.14243621 0.080959998 0.052999973
0.14397906 0.081120007 0.055000007
0.14543048 0.081200004 0.055999994
0.14678478 0.081200004 0.055999994
0.14834477 0.081360005 0.058000028
0.011133336 0.084028572 0.074000001
0.012607623 0.083946675 0.073000014
0.014161911 0.083782859 0.07099998
0.015544768 0.083782859 0.07099998
0.017007623 0.083700955 0.069999993
0.018544767 0.083537146 0.068000019
0.020150479 0.083291434 0.064999998
0.02196762 0.082800001 0.059000015
0.023327623 0.082800001 0.059000015
0.024687622 0.082800001 0.059000015
0.026527625 0.082226671 0.051999986
0.028074291 0.081980959 0.049000025
0.029480007 0.081899047 0.047999978
0.030819055 0.081899047 0.047999978
0.032340955 0.081653334 0.045000017
0.033674292 0.081653334 0.045000017
0.035007622 0.081653334 0.045000017
0.036506671 0.081407622 0.041999996
0.037940957 0.081243813 0.040000021
0.039316196 0.081161909 0.038999975
0.0406381 0.081161909 0.038999975
0.042102862 0.080916196 0.036000013
0.043464765 0.080834292 0.035000026
0.044779055 0.080834292 0.035000026
0.046135247 0.08075238 0.033999979
0.047447626 0.08075238 0.033999979
0.048836194 0.080588579 0.032000005
0.050180957 0.080506675 0.031000018
0.051556196 0.080342859 0.028999984
0.052891433 0.080260955 0.027999997
0.054222859 0.080179051 0.02700001
0.055607624 0.079933338 0.023999989
0.056900956 0.079933338 0.023999989
0.058194291 0.079933338 0.023999989
0.059487626 0.079933338 0.023999989
0.060780957 0.079933338 0.023999989
0.062074292 0.079933338 0.023999989
0.063384771 0.079851434 0.023000002
0.064676195 0.079851434 0.023000002
0.065994292 0.079687625 0.021000028
0.067259051 0.079851434 0.023000002
0.068550482 0.079851434 0.023000002
0.069841914 0.079851434 0.023000002
0.071127623 0.079933338 0.023999989
0.072420955 0.079933338 0.023999989
0.073712386 0.080015235 0.024999976
0.075007625 0.080179051 0.02700001
0.076306671 0.080179051 0.02700001
0.077605717 0.080179051 0.02700001
0.078910485 0.080260955 0.027999997
0.080203816 0.080179051 0.02700001
0.081512384 0.080260955 0.027999997
0.082801908 0.080179051 0.02700001
0.084074289 0.080015235 0.024999976
0.085354291 0.079933338 0.023999989
0.086579055 0.079605713 0.019999981
0.087807626 0.079360001 0.01700002
0.089066669 0.079278097 0.015999973
0.090299055 0.079114288 0.013999999
0.091573343 0.079114288 0.013999999
0.092794292 0.07895048 0.012000024
0.094064772 0.07895048 0.012000024
0.095304772 0.078868575 0.010999978
0.096573338 0.078868575 0.010999978
0.097841911 0.078868575 0.010999978
0.099110484 0.078868575 0.010999978
0.10037905 0.078868575 0.010999978
0.10164762 0.078868575 0.010999978
0.10295811 0.07895048 0.012000024
0.10422858 0.07895048 0.012000024
0.10655048 0.080834292 0.035000026
0.10786477 0.080834292 0.035000026
0.10912953 0.08075238 0.033999979
0.11049334 0.080834292 0.035000026
0.11175429 0.08075238 0.033999979
0.11312191 0.080834292 0.035000026
0.11443619 0.080834292 0.035000026
0.11580953 0.080916196 0.036000013
0.11712572 0.080916196 0.036000013
0.11844191 0.080916196 0.036000013
0.11988762 0.081080005 0.037999988
0.12120762 0.081080005 0.037999988
0.1225962 0.081161909 0.038999975
0.1239181 0.081161909 0.038999975
0.12531239 0.081243813 0.040000021
0.12663621 0.081243813 0.040000021
0.12796001 0.081243813 0.040000021
0.12951809 0.081489526 0.042999983
0.13100763 0.081653334 0.045000017
0.13242286 0.081735238 0.046000004
0.1337581 0.081735238 0.046000004
0.13526477 0.081899047 0.047999978
0.13660382 0.081899047 0.047999978
0.13803239 0.081980959 0.049000025
0.13946477 0.082062863 0.050000012
0.1409943 0.082226671 0.051999986
0.14243621 0.082308576 0.052999973
0.14397906 0.082472384 0.055000007
0.14543048 0.082554288 0.055999994
0.14678478 0.082554288 0.055999994
0.011133336 0.085417144 0.074000001
0.012607623 0.08533334 0.073000014
0.014161911 0.085165717 0.07099998
0.015544768 0.085165717 0.07099998
0.017007623 0.085081905 0.069999993
0.018622857 0.084830485 0.067000031
0.020150479 0.084662855 0.064999998
0.021596193 0.084579051 0.06400001
0.023327623 0.084160008 0.059000015
0.024899051 0.083908573 0.055999994
0.026459053 0.083657146 0.052999973
0.028007623 0.083405718 0.050000012
0.029480007 0.083238095 0.047999978
0.030819055 0.083238095 0.047999978
0.032340955 0.082986675 0.045000017
0.033674292 0.082986675 0.045000017
0.03512191 0.082819045 0.042999983
0.036506671 0.08273524 0.041999996
0.03783429 0.08273524 0.041999996
0.039264765 0.082567625 0.040000021
0.040588576 0.082567625 0.040000021
0.042007625 0.082400002 0.037999988
0.043419052 0.082232386 0.036000013
0.044735245 0.082232386 0.036000013
0.046093337 0.082148574 0.035000026
0.04740762 0.082148574 0.035000026
0.04872191 0.082148574 0.035000026
0.050072387 0.082064763 0.033999979
0.051453337 0.081897147 0.032000005
0.052859053 0.081645712 0.028999984
0.05416191 0.081645712 0.028999984
0.055521909 0.081478097 0.02700001
0.05687429 0.081310473 0.024999976
0.058169529 0.081310473 0.024999976
0.059464768 0.081310473 0.024999976
0.060780957 0.081226669 0.023999989
0.062074292 0.081226669 0.023999989
0.063367628 0.081226669 0.023999989
0.064660959 0.081226669 0.023999989
0.06595429 0.081226669 0.023999989
0.067247622 0.081226669 0.023999989
0.068540961 0.081226669 0.023999989
0.069834292 0.081226669 0.023999989
0.071127623 0.081226669 0.023999989
0.072409533 0.081478097 0.02700001
0.073708579 0.081478097 0.02700001
0.075007625 0.081478097 0.02700001
0.076306671 0.081478097 0.02700001
0.077605717 0.081478097 0.02700001
0.07890477 0.081478097 0.02700001
0.08018858 0.081310473 0.024999976
0.081483819 0.081310473 0.024999976
0.08277905 0.081310473 0.024999976
0.08406096 0.081226669 0.023999989
0.085339054 0.081142858 0.023000002
0.086561911 0.080807626 0.018999994
0.087807626 0.080640003 0.01700002
0.089066669 0.080556192 0.015999973
0.090321913 0.080472387 0.014999986
0.091573343 0.080388576 0.013999999
0.092794292 0.08022096 0.012000024
0.094036192 0.080137141 0.010999978
0.095274292 0.080053337 0.0099999905
0.096540958 0.080053337 0.0099999905
0.097807623 0.080053337 0.0099999905
0.099110484 0.080137141 0.010999978
0.10037905 0.080137141 0.010999978
0.10164762 0.080137141 0.010999978
0.10295811 0.08022096 0.012000024
0.10422858 0.08022096 0.012000024
0.10549906 0.08022096 0.012000024
0.10786477 0.082148574 0.035000026
0.10912953 0.082064763 0.033999979
0.11044191 0.082064763 0.033999979
0.11175429 0.082064763 0.033999979
0.11312191 0.082148574 0.035000026
0.11443619 0.082148574 0.035000026
0.11580953 0.082232386 0.036000013
0.11712572 0.082232386 0.036000013
0.11844191 0.082232386 0.036000013
0.11988762 0.082400002 0.037999988
0.12120762 0.082400002 0.037999988
0.1225962 0.082483806 0.038999975
0.12398858 0.082567625 0.040000021
0.12531239 0.082567625 0.040000021
0.12678477 0.08273524 0.041999996
0.12811239 0.08273524 0.041999996
0.1296743 0.082986675 0.045000017
0.13100763 0.082986675 0.045000017
0.13242286 0.083070479 0.046000004
0.1337581 0.083070479 0.046000004
0.13526477 0.083238095 0.047999978
0.13660382 0.083238095 0.047999978
0.13803239 0.083321907 0.049000025
0.13946477 0.083405718 0.050000012
0.14080763 0.083405718 0.050000012
0.14243621 0.083657146 0.052999973
0.1440762 0.083908573 0.055999994
0.14562859 0.084076196 0.058000028
0.14698668 0.084076196 0.058000028
0.0095657259 0.086977139 0.075999975
0.010958105 0.086977139 0.075999975
0.012607623 0.086720005 0.073000014
0.013994288 0.086720005 0.073000014
0.015544768 0.086548574 0.07099998
0.017007623 0.086462855 0.069999993
0.018544767 0.086291432 0.068000019
0.020150479 0.08603429 0.064999998
0.02196762 0.085519999 0.059000015
0.023327623 0.085519999 0.059000015
0.024899051 0.085262857 0.055999994
0.026459053 0.085005715 0.052999973
0.028074291 0.084662862 0.049000025
0.029480007 0.084577143 0.047999978
0.030944765 0.08440572 0.046000004
0.032280006 0.08440572 0.046000004
0.033674292 0.084320001 0.045000017
0.03512191 0.084148571 0.042999983
0.036451433 0.084148571 0.042999983
0.03783429 0.084062859 0.041999996
0.039264765 0.083891429 0.040000021
0.040588576 0.083891429 0.040000021
0.041960005 0.08380571 0.038999975
0.043327626 0.083720006 0.037999988
0.044735245 0.083548576 0.036000013
0.046093337 0.083462864 0.035000026
0.04740762 0.083462864 0.035000026
0.04872191 0.083462864 0.035000026
0.050072387 0.083377145 0.033999979
0.051384769 0.083377145 0.033999979
0.052794293 0.083120003 0.031000018
0.05416191 0.082948573 0.028999984
0.05549334 0.082862861 0.027999997
0.056820959 0.08277715 0.02700001
0.058120005 0.08277715 0.02700001
0.059419055 0.08277715 0.02700001
0.060718101 0.08277715 0.02700001
0.062017146 0.08277715 0.02700001
0.063316196 0.08277715 0.02700001
0.064615242 0.08277715 0.02700001
0.065914288 0.08277715 0.02700001
0.067213342 0.08277715 0.02700001
0.068512388 0.08277715 0.02700001
0.069811434 0.08277715 0.02700001
0.071104765 0.082862861 0.027999997
0.072405718 0.082862861 0.027999997
0.073706672 0.082862861 0.027999997
0.075007625 0.082862861 0.027999997
0.076306671 0.08277715 0.02700001
0.077605717 0.08277715 0.02700001
0.07890477 0.08277715 0.02700001
0.08018858 0.082605712 0.024999976
0.081483819 0.082605712 0.024999976
0.08277905 0.082605712 0.024999976
0.08406096 0.082520001 0.023999989
0.085339054 0.082434289 0.023000002
0.086561911 0.082091436 0.018999994
0.087807626 0.081920005 0.01700002
0.089066669 0.081834286 0.015999973
0.090321913 0.081748575 0.014999986
0.091523819 0.081491433 0.012000024
0.092794292 0.081491433 0.012000024
0.094036192 0.081405714 0.010999978
0.095274292 0.081320003 0.0099999905
0.096476197 0.08114858 0.0080000162
0.097739056 0.08114858 0.0080000162
0.099001914 0.08114858 0.0080000162
0.10034096 0.081320003 0.0099999905
0.10164762 0.081405714 0.010999978
0.1029162 0.081405714 0.010999978
0.10418477 0.081405714 0.010999978
0.10549906 0.081491433 0.012000024
0.10676953 0.081491433 0.012000024
0.10912953 0.083377145 0.033999979
0.11044191 0.083377145 0.033999979
0.11164762 0.083205715 0.032000005
0.11312191 0.083462864 0.035000026
0.11443619 0.083462864 0.035000026
0.11575048 0.083462864 0.035000026
0.11712572 0.083548576 0.036000013
0.11844191 0.083548576 0.036000013
0.11988762 0.083720006 0.037999988
0.12120762 0.083720006 0.037999988
0.1225962 0.08380571 0.038999975
0.12398858 0.083891429 0.040000021
0.12531239 0.083891429 0.040000021
0.12678477 0.084062859 0.041999996
0.12818858 0.084148571 0.042999983
0.1296743 0.084320001 0.045000017
0.13108763 0.08440572 0.046000004
0.13242286 0.08440572 0.046000004
0.1337581 0.08440572 0.046000004
0.13509335 0.08440572 0.046000004
0.13660382 0.084577143 0.047999978
0.13794287 0.084577143 0.047999978
0.13946477 0.084748574 0.050000012
0.14080763 0.084748574 0.050000012
0.14215049 0.084748574 0.050000012
0.14397906 0.085177146 0.055000007
0.14562859 0.085434288 0.058000028
0.1475924 0.085948579 0.06400001
0.14906478 0.08603429 0.064999998
0.15064573 0.086205721 0.067000031
0.15202096 0.086205721 0.067000031
0.0095657259 0.088369519 0.075999975
0.010958105 0.088369519 0.075999975
0.012521911 0.088194288 0.074000001
0.013994288 0.088106669 0.073000014
0.015544768 0.087931424 0.07099998
0.017007623 0.087843813 0.069999993
0.018544767 0.087668575 0.068000019
0.020150479 0.087405719 0.064999998
0.021596193 0.087318093 0.06400001
0.023182862 0.087055236 0.06099999
0.024758097 0.086792387 0.058000028
0.026253339 0.086617142 0.055999994
0.027874291 0.086266667 0.051999986
0.029480007 0.085916191 0.047999978
0.030944765 0.085740954 0.046000004
0.032340955 0.085653335 0.045000017
0.033615243 0.085740954 0.046000004
0.035007622 0.085653335 0.045000017
0.036451433 0.085478097 0.042999983
0.03783429 0.085390478 0.041999996
0.039161909 0.085390478 0.041999996
0.040588576 0.085215241 0.040000021
0.041960005 0.085127622 0.038999975
0.043327626 0.085040003 0.037999988
0.044735245 0.084864765 0.036000013
0.046051435 0.084864765 0.036000013
0.047367625 0.084864765 0.036000013
0.04872191 0.084777147 0.035000026
0.050036196 0.084777147 0.035000026
0.051384769 0.084689528 0.033999979
0.052761909 0.08451429 0.032000005
0.054100957 0.084426671 0.031000018
0.05549334 0.084163815 0.027999997
0.056794293 0.084163815 0.027999997
0.058095243 0.084163815 0.027999997
0.059419055 0.084076196 0.02700001
0.060718101 0.084076196 0.02700001
0.062017146 0.084076196 0.02700001
0.063316196 0.084076196 0.02700001
0.064600006 0.084163815 0.027999997
0.065900959 0.084163815 0.027999997
0.067201912 0.084163815 0.027999997
0.068502866 0.084163815 0.027999997
0.069803819 0.084163815 0.027999997
0.071104765 0.084163815 0.027999997
0.072405718 0.084163815 0.027999997
0.073706672 0.084163815 0.027999997
0.075007625 0.084163815 0.027999997
0.076306671 0.084076196 0.02700001
0.077605717 0.084076196 0.02700001
0.078893341 0.083900951 0.024999976
0.08018858 0.083900951 0.024999976
0.081474289 0.083813332 0.023999989
0.082767628 0.083813332 0.023999989
0.084047623 0.083725721 0.023000002
0.085293338 0.083462857 0.019999981
0.086561911 0.083375238 0.018999994
0.087807626 0.083200008 0.01700002
0.089066669 0.083112381 0.015999973
0.090321913 0.083024763 0.014999986
0.091573343 0.082937144 0.013999999
0.092794292 0.082761914 0.012000024
0.094007626 0.082586668 0.0099999905
0.095213339 0.082411431 0.0080000162
0.096476197 0.082411431 0.0080000162
0.097739056 0.082411431 0.0080000162
0.099074289 0.082586668 0.0099999905
0.10034096 0.082586668 0.0099999905
0.10160762 0.082586668 0.0099999905
0.1029162 0.082674287 0.010999978
0.10422858 0.082761914 0.012000024
0.10559048 0.082937144 0.013999999
0.10686477 0.082937144 0.013999999
0.10813905 0.082937144 0.013999999
0.11044191 0.084689528 0.033999979
0.1115943 0.084426671 0.031000018
0.11306667 0.084689528 0.033999979
0.11437905 0.084689528 0.033999979
0.11575048 0.084777147 0.035000026
0.11706477 0.084777147 0.035000026
0.11844191 0.084864765 0.036000013
0.1197581 0.084864765 0.036000013
0.12120762 0.085040003 0.037999988
0.1225962 0.085127622 0.038999975
0.12398858 0.085215241 0.040000021
0.12531239 0.085215241 0.040000021
0.12678477 0.085390478 0.041999996
0.12818858 0.085478097 0.042999983
0.1296743 0.085653335 0.045000017
0.13100763 0.085653335 0.045000017
0.13234097 0.085653335 0.045000017
0.1337581 0.085740954 0.046000004
0.13509335 0.085740954 0.046000004
0.13660382 0.085916191 0.047999978
0.13794287 0.085916191 0.047999978
0.13946477 0.086091429 0.050000012
0.14080763 0.086091429 0.050000012
0.14243621 0.086354285 0.052999973
0.1440762 0.086617142 0.055999994
0.14572763 0.086879998 0.059000015
0.14708763 0.086879998 0.059000015
0.14844763 0.086879998 0.059000015
0.15064573 0.087580957 0.067000031
0.15202096 0.087580957 0.067000031
0.0095657259 0.089761898 0.075999975
0.010958105 0.089761898 0.075999975
0.012521911 0.089582853 0.074000001
0.013994288 0.089493342 0.073000014
0.015544768 0.089314289 0.07099998
0.017007623 0.089224763 0.069999993
0.018544767 0.089045718 0.068000019
0.020150479 0.08877714 0.064999998
0.021596193 0.088687621 0.06400001
0.023327623 0.088240005 0.059000015
0.024758097 0.088150479 0.058000028
0.026253339 0.087971427 0.055999994
0.027874291 0.087613329 0.051999986
0.029415239 0.087344766 0.049000025
0.030944765 0.087076195 0.046000004
0.032280006 0.087076195 0.046000004
0.033615243 0.087076195 0.046000004
0.035007622 0.086986668 0.045000017
0.036451433 0.086807616 0.042999983
0.03783429 0.086718097 0.041999996
0.039161909 0.086718097 0.041999996
0.040588576 0.086539052 0.040000021
0.041960005 0.086449526 0.038999975
0.043327626 0.08636 0.037999988
0.044735245 0.086180955 0.036000013
0.046051435 0.086180955 0.036000013
0.047367625 0.086180955 0.036000013
0.04872191 0.086091436 0.035000026
0.050036196 0.086091436 0.035000026
0.051384769 0.086001903 0.033999979
0.052761909 0.085822858 0.032000005
0.054100957 0.085733332 0.031000018
0.055464767 0.085554294 0.028999984
0.056794293 0.085464768 0.027999997
0.058095243 0.085464768 0.027999997
0.059396196 0.085464768 0.027999997
0.060697146 0.085464768 0.027999997
0.061998099 0.085464768 0.027999997
0.063299052 0.085464768 0.027999997
0.064600006 0.085464768 0.027999997
0.065900959 0.085464768 0.027999997
0.067201912 0.085464768 0.027999997
0.068502866 0.085464768 0.027999997
0.069803819 0.085464768 0.027999997
0.071104765 0.085464768 0.027999997
0.072405718 0.085464768 0.027999997
0.073706672 0.085464768 0.027999997
0.075007625 0.085464768 0.027999997
0.076306671 0.085375242 0.02700001
0.077598102 0.08519619 0.024999976
0.078893341 0.08519619 0.024999976
0.080180958 0.085106663 0.023999989
0.081474289 0.085106663 0.023999989
0.082756199 0.085017145 0.023000002
0.084020957 0.0848381 0.021000028
0.085293338 0.084748574 0.019999981
0.086527623 0.084480003 0.01700002
0.087788574 0.084390476 0.015999973
0.089045718 0.084300958 0.014999986
0.090299055 0.084211431 0.013999999
0.091573343 0.084211431 0.013999999
0.092794292 0.084032387 0.012000024
0.094007626 0.083853334 0.0099999905
0.095213339 0.083674289 0.0080000162
0.096476197 0.083674289 0.0080000162
0.097739056 0.083674289 0.0080000162
0.099001914 0.083674289 0.0080000162
0.10026477 0.083674289 0.0080000162
0.10160762 0.083853334 0.0099999905
0.10287429 0.083853334 0.0099999905
0.10418477 0.08394286 0.010999978
0.10549906 0.084032387 0.012000024
0.10676953 0.084032387 0.012000024
0.10898095 0.085733332 0.031000018
0.11028762 0.085733332 0.031000018
0.11148763 0.085554294 0.028999984
0.11306667 0.086001903 0.033999979
0.11443619 0.086091436 0.035000026
0.11575048 0.086091436 0.035000026
0.11706477 0.086091436 0.035000026
0.11844191 0.086180955 0.036000013
0.1197581 0.086180955 0.036000013
0.12127429 0.086449526 0.038999975
0.12266477 0.086539052 0.040000021
0.12412953 0.086718097 0.041999996
0.12545715 0.086718097 0.041999996
0.12678477 0.086718097 0.041999996
0.12818858 0.086807616 0.042999983
0.12951809 0.086807616 0.042999983
0.13084763 0.086807616 0.042999983
0.13234097 0.086986668 0.045000017
0.13367429 0.086986668 0.045000017
0.13509335 0.087076195 0.046000004
0.13642858 0.087076195 0.046000004
0.13794287 0.087255239 0.047999978
0.13937335 0.087344766 0.049000025
