# .PCD v0.7 - Point Cloud Data file format
VERSION 0.7
FIELDS x y z
SIZE 4 4 4
TYPE F F F
COUNT 1 1 1
WIDTH 1354
HEIGHT 1
VIEWPOINT 0 0 0 0 1 0 0
POINTS 1354
DATA ascii
0.11100952 0.045468573 0.021000028
0.11233144 0.045485716 0.022000015
0.11360762 0.045485716 0.022000015
0.11488381 0.045485716 0.022000015
0.11621334 0.04550286 0.023000002
0.11754667 0.04552 0.024000049
0.11894096 0.045554288 0.026000023
0.12022477 0.045554288 0.026000023
0.12163048 0.045588575 0.028000057
0.12304381 0.045622859 0.030000031
0.12433524 0.045622859 0.030000031
0.12569334 0.045640003 0.031000018
0.12705524 0.045657143 0.032000005
0.12856191 0.045708574 0.035000026
0.12986286 0.045708574 0.035000026
0.1312381 0.045725718 0.036000013
0.13254096 0.045725718 0.036000013
0.134 0.045760002 0.038000047
0.13538668 0.045777146 0.039000034
0.13694096 0.045828573 0.042000055
0.13825524 0.045828573 0.042000055
0.14042667 0.046000004 0.052000046
0.14184763 0.046017148 0.053000033
0.14336191 0.046051431 0.055000007
0.14479239 0.046068575 0.056000054
0.14613333 0.046068575 0.056000054
0.14737906 0.046051431 0.055000007
0.0075390488 0.047752384 0.074000061
0.0089142844 0.047752384 0.074000061
0.010483809 0.047714289 0.072000027
0.01214096 0.047657143 0.069000006
0.013786666 0.047600001 0.066000044
0.015695244 0.047485717 0.060000002
0.017312385 0.047428574 0.057000041
0.019005716 0.047352381 0.053000033
0.020426668 0.047333337 0.052000046
0.021927625 0.047295239 0.050000012
0.023257148 0.047295239 0.050000012
0.024826668 0.047238097 0.047000051
0.026228577 0.047219049 0.046000004
0.027626667 0.047200002 0.045000017
0.029169526 0.04714286 0.042000055
0.030700956 0.047085717 0.039000034
0.032009527 0.047085717 0.039000034
0.033523813 0.047028571 0.036000013
0.034960002 0.04699048 0.034000039
0.036388576 0.046952382 0.032000005
0.037683815 0.046952382 0.032000005
0.039040003 0.046933334 0.031000018
0.040392384 0.046914287 0.030000031
0.041798096 0.046876192 0.028000057
0.043140955 0.046857145 0.02700001
0.044426672 0.046857145 0.02700001
0.045763813 0.046838097 0.026000023
0.047047623 0.046838097 0.026000023
0.048426669 0.046800002 0.024000049
0.049752384 0.046780955 0.023000002
0.051030479 0.046780955 0.023000002
0.052350476 0.046761908 0.022000015
0.053626671 0.046761908 0.022000015
0.054940954 0.04674286 0.021000028
0.056215242 0.04674286 0.021000028
0.057489529 0.04674286 0.021000028
0.058763813 0.04674286 0.021000028
0.060038097 0.04674286 0.021000028
0.0613981 0.046685718 0.018000007
0.062666669 0.046685718 0.018000007
0.063960001 0.046666667 0.01700002
0.065226667 0.046666667 0.01700002
0.066535242 0.046628572 0.015000045
0.0677981 0.046628572 0.015000045
0.069060951 0.046628572 0.015000045
0.07032381 0.046628572 0.015000045
0.071586668 0.046628572 0.015000045
0.072849527 0.046628572 0.015000045
0.074121907 0.046609528 0.014000058
0.075375244 0.046628572 0.015000045
0.076638103 0.046628572 0.015000045
0.077900954 0.046628572 0.015000045
0.079163812 0.046628572 0.015000045
0.080426671 0.046628572 0.015000045
0.081689529 0.046628572 0.015000045
0.082952388 0.046628572 0.015000045
0.084215239 0.046628572 0.015000045
0.085478097 0.046628572 0.015000045
0.086740956 0.046628572 0.015000045
0.088003814 0.046628572 0.015000045
0.089266673 0.046628572 0.015000045
0.090529531 0.046628572 0.015000045
0.09179239 0.046628572 0.015000045
0.093055241 0.046628572 0.015000045
0.094318099 0.046628572 0.015000045
0.095580958 0.046628572 0.015000045
0.09689334 0.046666667 0.01700002
0.098160006 0.046666667 0.01700002
0.099426672 0.046666667 0.01700002
0.10069334 0.046666667 0.01700002
0.10196 0.046666667 0.01700002
0.10322667 0.046666667 0.01700002
0.10452953 0.046685718 0.018000007
0.1057981 0.046685718 0.018000007
0.10710667 0.046704765 0.019000053
0.10837715 0.046704765 0.019000053
0.10973524 0.04674286 0.021000028
0.11100952 0.04674286 0.021000028
0.11233144 0.046761908 0.022000015
0.11360762 0.046761908 0.022000015
0.11493524 0.046780955 0.023000002
0.11621334 0.046780955 0.023000002
0.11754667 0.046800002 0.024000049
0.11894096 0.046838097 0.026000023
0.12022477 0.046838097 0.026000023
0.12163048 0.046876192 0.028000057
0.12304381 0.046914287 0.030000031
0.12433524 0.046914287 0.030000031
0.12569334 0.046933334 0.031000018
0.12705524 0.046952382 0.032000005
0.12849143 0.04699048 0.034000039
0.12986286 0.047009528 0.035000026
0.13116381 0.047009528 0.035000026
0.13254096 0.047028571 0.036000013
0.134 0.04706667 0.038000047
0.13538668 0.047085717 0.039000034
0.13702287 0.047161907 0.043000042
0.13833906 0.047161907 0.043000042
0.14042667 0.047333337 0.052000046
0.14202286 0.04739048 0.055000007
0.14336191 0.04739048 0.055000007
0.14479239 0.047409527 0.056000054
0.14613333 0.047409527 0.056000054
0.0049295276 0.049379051 0.086000025
0.0068323836 0.049274288 0.08100003
0.0085180998 0.049211431 0.078000009
0.010289527 0.049127623 0.074000061
0.01214096 0.049022861 0.069000006
0.013786666 0.048960004 0.066000044
0.015695244 0.048834287 0.060000002
0.017312385 0.048771434 0.057000041
0.018742856 0.048750479 0.056000054
0.020340953 0.048687622 0.053000033
0.021759998 0.048666671 0.052000046
0.023257148 0.048624761 0.050000012
0.024826668 0.048561908 0.047000051
0.02630667 0.048520003 0.045000017
0.02777905 0.048478097 0.043000042
0.029169526 0.048457146 0.042000055
0.030700956 0.048394289 0.039000034
0.032080002 0.048373334 0.038000047
0.033523813 0.048331432 0.036000013
0.035093337 0.04824762 0.032000005
0.036388576 0.04824762 0.032000005
0.037683815 0.04824762 0.032000005
0.039040003 0.048226669 0.031000018
0.040333338 0.048226669 0.031000018
0.041798096 0.048163813 0.028000057
0.043140955 0.048142858 0.02700001
0.044426672 0.048142858 0.02700001
0.045763813 0.048121907 0.026000023
0.047047623 0.048121907 0.026000023
0.048426669 0.048080005 0.024000049
0.049752384 0.04805905 0.023000002
0.051030479 0.04805905 0.023000002
0.052350476 0.048038099 0.022000015
0.053626671 0.048038099 0.022000015
0.054902859 0.048038099 0.022000015
0.056215242 0.048017144 0.021000028
0.057489529 0.048017144 0.021000028
0.058763813 0.048017144 0.021000028
0.06009905 0.047975242 0.019000053
0.0613981 0.047954287 0.018000007
0.062666669 0.047954287 0.018000007
0.063960001 0.047933336 0.01700002
0.065226667 0.047933336 0.01700002
0.066535242 0.047891431 0.015000045
0.0677981 0.047891431 0.015000045
0.069060951 0.047891431 0.015000045
0.07032381 0.047891431 0.015000045
0.071586668 0.047891431 0.015000045
0.072849527 0.047891431 0.015000045
0.074112386 0.047891431 0.015000045
0.075375244 0.047891431 0.015000045
0.076638103 0.047891431 0.015000045
0.077900954 0.047891431 0.015000045
0.079163812 0.047891431 0.015000045
0.080426671 0.047891431 0.015000045
0.081689529 0.047891431 0.015000045
0.082952388 0.047891431 0.015000045
0.084215239 0.047891431 0.015000045
0.085478097 0.047891431 0.015000045
0.086740956 0.047891431 0.015000045
0.088003814 0.047891431 0.015000045
0.089266673 0.047891431 0.015000045
0.090529531 0.047891431 0.015000045
0.09179239 0.047891431 0.015000045
0.093055241 0.047891431 0.015000045
0.094318099 0.047891431 0.015000045
0.095580958 0.047891431 0.015000045
0.09689334 0.047933336 0.01700002
0.098160006 0.047933336 0.01700002
0.099426672 0.047933336 0.01700002
0.10069334 0.047933336 0.01700002
0.10196 0.047933336 0.01700002
0.10322667 0.047933336 0.01700002
0.10452953 0.047954287 0.018000007
0.1057981 0.047954287 0.018000007
0.10710667 0.047975242 0.019000053
0.10846096 0.048017144 0.021000028
0.10973524 0.048017144 0.021000028
0.11100952 0.048017144 0.021000028
0.11233144 0.048038099 0.022000015
0.11360762 0.048038099 0.022000015
0.11493524 0.04805905 0.023000002
0.11626668 0.048080005 0.024000049
0.11754667 0.048080005 0.024000049
0.11894096 0.048121907 0.026000023
0.12022477 0.048121907 0.026000023
0.12163048 0.048163813 0.028000057
0.12304381 0.048205718 0.030000031
0.12433524 0.048205718 0.030000031
0.12569334 0.048226669 0.031000018
0.12705524 0.04824762 0.032000005
0.12849143 0.048289526 0.034000039
0.12986286 0.048310481 0.035000026
0.13116381 0.048310481 0.035000026
0.13254096 0.048331432 0.036000013
0.134 0.048373334 0.038000047
0.13530667 0.048373334 0.038000047
0.13702287 0.048478097 0.043000042
0.13833906 0.048478097 0.043000042
0.14051239 0.048687622 0.053000033
0.14202286 0.048729524 0.055000007
0.14345144 0.048750479 0.056000054
0.14479239 0.048750479 0.056000054
0.14613333 0.048750479 0.056000054
0.14747429 0.048750479 0.056000054
0.0049295276 0.050777145 0.086000025
0.0071352422 0.050594285 0.078000009
0.0085180998 0.050594285 0.078000009
0.009998098 0.050571434 0.077000022
0.011950478 0.050434288 0.07100004
0.013506673 0.050388575 0.069000006
0.015695244 0.050182857 0.060000002
0.017312385 0.050114289 0.057000041
0.018830478 0.050068572 0.055000007
0.020340953 0.050022863 0.053000033
0.021759998 0.050000004 0.052000046
0.023257148 0.049954288 0.050000012
0.024826668 0.049885716 0.047000051
0.02630667 0.049840003 0.045000017
0.02777905 0.049794286 0.043000042
0.029243812 0.04974857 0.041000009
0.030700956 0.04970286 0.039000034
0.032080002 0.049680002 0.038000047
0.033523813 0.049634285 0.036000013
0.034960002 0.049588572 0.034000039
0.036388576 0.049542859 0.032000005
0.037683815 0.049542859 0.032000005
0.039040003 0.049520001 0.031000018
0.040333338 0.049520001 0.031000018
0.041798096 0.049451433 0.028000057
0.043140955 0.049428575 0.02700001
0.044426672 0.049428575 0.02700001
0.045763813 0.049405716 0.026000023
0.047047623 0.049405716 0.026000023
0.048426669 0.049360003 0.024000049
0.049706668 0.049360003 0.024000049
0.051030479 0.049337145 0.023000002
0.052350476 0.049314287 0.022000015
0.053626671 0.049314287 0.022000015
0.054940954 0.049291432 0.021000028
0.056215242 0.049291432 0.021000028
0.057489529 0.049291432 0.021000028
0.058828574 0.049245715 0.019000053
0.06009905 0.049245715 0.019000053
0.0613981 0.049222857 0.018000007
0.062666669 0.049222857 0.018000007
0.063960001 0.049200002 0.01700002
0.065272383 0.049154289 0.015000045
0.066535242 0.049154289 0.015000045
0.0677981 0.049154289 0.015000045
0.069060951 0.049154289 0.015000045
0.07032381 0.049154289 0.015000045
0.071586668 0.049154289 0.015000045
0.072849527 0.049154289 0.015000045
0.074112386 0.049154289 0.015000045
0.075375244 0.049154289 0.015000045
0.076638103 0.049154289 0.015000045
0.077900954 0.049154289 0.015000045
0.079163812 0.049154289 0.015000045
0.080426671 0.049154289 0.015000045
0.081687622 0.049131431 0.014000058
0.082952388 0.049154289 0.015000045
0.084215239 0.049154289 0.015000045
0.085478097 0.049154289 0.015000045
0.086740956 0.049154289 0.015000045
0.088003814 0.049154289 0.015000045
0.089266673 0.049154289 0.015000045
0.090529531 0.049154289 0.015000045
0.09179239 0.049154289 0.015000045
0.093055241 0.049154289 0.015000045
0.094318099 0.049154289 0.015000045
0.095580958 0.049154289 0.015000045
0.096843816 0.049154289 0.015000045
0.098106667 0.049154289 0.015000045
0.099426672 0.049200002 0.01700002
0.10069334 0.049200002 0.01700002
0.10196 0.049200002 0.01700002
0.10326096 0.049222857 0.018000007
0.10452953 0.049222857 0.018000007
0.1057981 0.049222857 0.018000007
0.10710667 0.049245715 0.019000053
0.10846096 0.049291432 0.021000028
0.10973524 0.049291432 0.021000028
0.11100952 0.049291432 0.021000028
0.11233144 0.049314287 0.022000015
0.1135581 0.049291432 0.021000028
0.11488381 0.049314287 0.022000015
0.11621334 0.049337145 0.023000002
0.11754667 0.049360003 0.024000049
0.11894096 0.049405716 0.026000023
0.12028381 0.049428575 0.02700001
0.12163048 0.049451433 0.028000057
0.12304381 0.049497146 0.030000031
0.12433524 0.049497146 0.030000031
0.12569334 0.049520001 0.031000018
0.12698667 0.049520001 0.031000018
0.12835048 0.049542859 0.032000005
0.12986286 0.049611431 0.035000026
0.13116381 0.049611431 0.035000026
0.13246477 0.049611431 0.035000026
0.13384381 0.049634285 0.036000013
0.13530667 0.049680002 0.038000047
0.13661334 0.049680002 0.038000047
0.13909334 0.050000004 0.052000046
0.14042667 0.050000004 0.052000046
0.14184763 0.050022863 0.053000033
0.14345144 0.050091431 0.056000054
0.14479239 0.050091431 0.056000054
0.14613333 0.050091431 0.056000054
0.14747429 0.050091431 0.056000054
0.0065295249 0.052125715 0.084000051
0.0082209557 0.052051432 0.08100003
0.0097066686 0.05202667 0.080000043
0.011093333 0.05202667 0.080000043
0.012946665 0.05190286 0.075000048
0.015512384 0.051580954 0.062000036
0.01713334 0.051506668 0.059000015
0.018830478 0.05140762 0.055000007
0.020340953 0.051358096 0.053000033
0.021759998 0.051333338 0.052000046
0.023257148 0.051283814 0.050000012
0.024826668 0.051209524 0.047000051
0.02630667 0.05116 0.045000017
0.02777905 0.05111048 0.043000042
0.029169526 0.051085718 0.042000055
0.030700956 0.051011432 0.039000034
0.032080002 0.05098667 0.038000047
0.033523813 0.050937146 0.036000013
0.034960002 0.050887622 0.034000039
0.036259048 0.050887622 0.034000039
0.037683815 0.050838098 0.032000005
0.039040003 0.050813336 0.031000018
0.040333338 0.050813336 0.031000018
0.041683815 0.050788574 0.030000031
0.043140955 0.050714288 0.02700001
0.044426672 0.050714288 0.02700001
0.045763813 0.050689526 0.026000023
0.047146667 0.050640002 0.024000049
0.048426669 0.050640002 0.024000049
0.049706668 0.050640002 0.024000049
0.051030479 0.050615236 0.023000002
0.052350476 0.050590478 0.022000015
0.053626671 0.050590478 0.022000015
0.054940954 0.05056572 0.021000028
0.056215242 0.05056572 0.021000028
0.057489529 0.05056572 0.021000028
0.058763813 0.05056572 0.021000028
0.06009905 0.050516196 0.019000053
0.0613981 0.05049143 0.018000007
0.062693335 0.050466672 0.01700002
0.064009525 0.050417148 0.015000045
0.065272383 0.050417148 0.015000045
0.066535242 0.050417148 0.015000045
0.0677981 0.050417148 0.015000045
0.069060951 0.050417148 0.015000045
0.07032381 0.050417148 0.015000045
0.071586668 0.050417148 0.015000045
0.072849527 0.050417148 0.015000045
0.074112386 0.050417148 0.015000045
0.075375244 0.050417148 0.015000045
0.076638103 0.050417148 0.015000045
0.077900954 0.050417148 0.015000045
0.079163812 0.050417148 0.015000045
0.080426671 0.050392382 0.014000058
0.081687622 0.050392382 0.014000058
0.082948573 0.050392382 0.014000058
0.084209532 0.050392382 0.014000058
0.085478097 0.050417148 0.015000045
0.086740956 0.050417148 0.015000045
0.088003814 0.050417148 0.015000045
0.089266673 0.050417148 0.015000045
0.090529531 0.050417148 0.015000045
0.09179239 0.050417148 0.015000045
0.093055241 0.050417148 0.015000045
0.094318099 0.050417148 0.015000045
0.095580958 0.050417148 0.015000045
0.096843816 0.050417148 0.015000045
0.098106667 0.050417148 0.015000045
0.099369526 0.050417148 0.015000045
0.10069334 0.050466672 0.01700002
0.10196 0.050466672 0.01700002
0.10326096 0.05049143 0.018000007
0.10452953 0.05049143 0.018000007
0.1057981 0.05049143 0.018000007
0.10706667 0.05049143 0.018000007
0.10837715 0.050516196 0.019000053
0.10973524 0.05056572 0.021000028
0.11100952 0.05056572 0.021000028
0.11228381 0.05056572 0.021000028
0.1135581 0.05056572 0.021000028
0.11488381 0.050590478 0.022000015
0.11621334 0.050615236 0.023000002
0.11754667 0.050640002 0.024000049
0.11894096 0.050689526 0.026000023
0.12028381 0.050714288 0.02700001
0.12163048 0.05073905 0.028000057
0.12304381 0.050788574 0.030000031
0.12433524 0.050788574 0.030000031
0.12569334 0.050813336 0.031000018
0.12698667 0.050813336 0.031000018
0.12835048 0.050838098 0.032000005
0.12979048 0.050887622 0.034000039
0.13116381 0.050912384 0.035000026
0.13246477 0.050912384 0.035000026
0.13384381 0.050937146 0.036000013
0.13514668 0.050937146 0.036000013
0.13644953 0.050937146 0.036000013
0.13775238 0.050937146 0.036000013
0.14051239 0.051358096 0.053000033
0.14202286 0.05140762 0.055000007
0.14345144 0.051432386 0.056000054
0.14479239 0.051432386 0.056000054
0.14613333 0.051432386 0.056000054
0.0065295249 0.053520001 0.084000051
0.0080228597 0.053493336 0.083000004
0.0097066686 0.053413335 0.080000043
0.011664763 0.053253338 0.074000061
0.013226666 0.053199999 0.072000027
0.014598094 0.053199999 0.072000027
0.017043814 0.05288 0.060000002
0.018480007 0.052853338 0.059000015
0.019826669 0.052853338 0.059000015
0.021508574 0.052746668 0.055000007
0.023011431 0.052693337 0.053000033
0.024826668 0.052533336 0.047000051
0.02646286 0.05242667 0.043000042
0.02777905 0.05242667 0.043000042
0.029169526 0.0524 0.042000055
0.030700956 0.052320004 0.039000034
0.032080002 0.052293338 0.038000047
0.033523813 0.052240003 0.036000013
0.034893338 0.052213334 0.035000026
0.036259048 0.052186668 0.034000039
0.037683815 0.052133337 0.032000005
0.03897905 0.052133337 0.032000005
0.040333338 0.052106671 0.031000018
0.041683815 0.052080005 0.030000031
0.043140955 0.052000001 0.02700001
0.044426672 0.052000001 0.02700001
0.045763813 0.051973335 0.026000023
0.047047623 0.051973335 0.026000023
0.048426669 0.051920004 0.024000049
0.049706668 0.051920004 0.024000049
0.051030479 0.051893335 0.023000002
0.052350476 0.051866669 0.022000015
0.053626671 0.051866669 0.022000015
0.054902859 0.051866669 0.022000015
0.056215242 0.05184 0.021000028
0.057489529 0.05184 0.021000028
0.058828574 0.051786669 0.019000053
0.06009905 0.051786669 0.019000053
0.061426669 0.051733337 0.01700002
0.062693335 0.051733337 0.01700002
0.064009525 0.051680002 0.015000045
0.065272383 0.051680002 0.015000045
0.066535242 0.051680002 0.015000045
0.0677981 0.051680002 0.015000045
0.069060951 0.051680002 0.015000045
0.07032381 0.051680002 0.015000045
0.071586668 0.051680002 0.015000045
0.072849527 0.051680002 0.015000045
0.074112386 0.051680002 0.015000045
0.075375244 0.051680002 0.015000045
0.076638103 0.051680002 0.015000045
0.077900954 0.051680002 0.015000045
0.079163812 0.051680002 0.015000045
0.080426671 0.051653337 0.014000058
0.081687622 0.051653337 0.014000058
0.082948573 0.051653337 0.014000058
0.084209532 0.051653337 0.014000058
0.085478097 0.051680002 0.015000045
0.086740956 0.051680002 0.015000045
0.088003814 0.051680002 0.015000045
0.089266673 0.051680002 0.015000045
0.090529531 0.051680002 0.015000045
0.09179239 0.051680002 0.015000045
0.093055241 0.051680002 0.015000045
0.094318099 0.051680002 0.015000045
0.095580958 0.051680002 0.015000045
0.096843816 0.051680002 0.015000045
0.098106667 0.051680002 0.015000045
0.099369526 0.051680002 0.015000045
0.10069334 0.051733337 0.01700002
0.10196 0.051733337 0.01700002
0.10322667 0.051733337 0.01700002
0.10452953 0.051760003 0.018000007
0.1057981 0.051760003 0.018000007
0.10706667 0.051760003 0.018000007
0.10837715 0.051786669 0.019000053
0.10964762 0.051786669 0.019000053
0.11100952 0.05184 0.021000028
0.11233144 0.051866669 0.022000015
0.11360762 0.051866669 0.022000015
0.11493524 0.051893335 0.023000002
0.11621334 0.051893335 0.023000002
0.11754667 0.051920004 0.024000049
0.11894096 0.051973335 0.026000023
0.12028381 0.052000001 0.02700001
0.12175238 0.052080005 0.030000031
0.12304381 0.052080005 0.030000031
0.12433524 0.052080005 0.030000031
0.12569334 0.052106671 0.031000018
0.12698667 0.052106671 0.031000018
0.12835048 0.052133337 0.032000005
0.12979048 0.052186668 0.034000039
0.13116381 0.052213334 0.035000026
0.13254096 0.052240003 0.036000013
0.13384381 0.052240003 0.036000013
0.13514668 0.052240003 0.036000013
0.13644953 0.052240003 0.036000013
0.13775238 0.052240003 0.036000013
0.14076953 0.052773334 0.056000054
0.14211048 0.052773334 0.056000054
0.14345144 0.052773334 0.056000054
0.14479239 0.052773334 0.056000054
0.14613333 0.052773334 0.056000054
0.0080228597 0.054885715 0.083000004
0.0097066686 0.054800004 0.080000043
0.011664763 0.054628573 0.074000061
0.013226666 0.054571431 0.072000027
0.014598094 0.054571431 0.072000027
0.017043814 0.054228574 0.060000002
0.018480007 0.054200001 0.059000015
0.019998096 0.054142863 0.057000041
0.021424763 0.05411429 0.056000054
0.022847623 0.054085717 0.055000007
0.024826668 0.053857148 0.047000051
0.02630667 0.053800002 0.045000017
0.02777905 0.05374286 0.043000042
0.029169526 0.05371429 0.042000055
0.030556194 0.053685717 0.041000009
0.032009527 0.053628571 0.039000034
0.033523813 0.05354286 0.036000013
0.034893338 0.053514287 0.035000026
0.036259048 0.053485718 0.034000039
0.037558097 0.053485718 0.034000039
0.03897905 0.053428575 0.032000005
0.040333338 0.053400002 0.031000018
0.041626669 0.053400002 0.031000018
0.043140955 0.053285718 0.02700001
0.044426672 0.053285718 0.02700001
0.045763813 0.053257145 0.026000023
0.047047623 0.053257145 0.026000023
0.048426669 0.053200003 0.024000049
0.049706668 0.053200003 0.024000049
0.05098667 0.053200003 0.024000049
0.052308574 0.053171434 0.023000002
0.053626671 0.053142861 0.022000015
0.054902859 0.053142861 0.022000015
0.05617905 0.053142861 0.022000015
0.057489529 0.053114288 0.021000028
0.058763813 0.053114288 0.021000028
0.060038097 0.053114288 0.021000028
0.0613981 0.053028572 0.018000007
0.062666669 0.053028572 0.018000007
0.064009525 0.052942861 0.015000045
0.065272383 0.052942861 0.015000045
0.066535242 0.052942861 0.015000045
0.0677981 0.052942861 0.015000045
0.069060951 0.052942861 0.015000045
0.07032381 0.052942861 0.015000045
0.071586668 0.052942861 0.015000045
0.072849527 0.052942861 0.015000045
0.074112386 0.052942861 0.015000045
0.075375244 0.052942861 0.015000045
0.076638103 0.052942861 0.015000045
0.077900954 0.052942861 0.015000045
0.079163812 0.052942861 0.015000045
0.080426671 0.052914292 0.014000058
0.081687622 0.052914292 0.014000058
0.082948573 0.052914292 0.014000058
0.084209532 0.052914292 0.014000058
0.085470483 0.052914292 0.014000058
0.086740956 0.052942861 0.015000045
0.088003814 0.052942861 0.015000045
0.089266673 0.052942861 0.015000045
0.090529531 0.052942861 0.015000045
0.09179239 0.052942861 0.015000045
0.093055241 0.052942861 0.015000045
0.094318099 0.052942861 0.015000045
0.095580958 0.052942861 0.015000045
0.096843816 0.052942861 0.015000045
0.098106667 0.052942861 0.015000045
0.099369526 0.052942861 0.015000045
0.10063238 0.052942861 0.015000045
0.10196 0.053000003 0.01700002
0.10326096 0.053028572 0.018000007
0.10452953 0.053028572 0.018000007
0.1057981 0.053028572 0.018000007
0.10706667 0.053028572 0.018000007
0.10837715 0.053057149 0.019000053
0.10973524 0.053114288 0.021000028
0.11100952 0.053114288 0.021000028
0.11233144 0.053142861 0.022000015
0.11360762 0.053142861 0.022000015
0.11493524 0.053171434 0.023000002
0.11621334 0.053171434 0.023000002
0.11754667 0.053200003 0.024000049
0.11894096 0.053257145 0.026000023
0.12028381 0.053285718 0.02700001
0.12175238 0.053371429 0.030000031
0.12304381 0.053371429 0.030000031
0.12433524 0.053371429 0.030000031
0.12569334 0.053400002 0.031000018
0.12705524 0.053428575 0.032000005
0.12849143 0.053485718 0.034000039
0.12986286 0.053514287 0.035000026
0.13116381 0.053514287 0.035000026
0.13254096 0.05354286 0.036000013
0.13384381 0.05354286 0.036000013
0.13514668 0.05354286 0.036000013
0.13644953 0.05354286 0.036000013
0.13775238 0.05354286 0.036000013
0.14085525 0.054142863 0.057000041
0.1421981 0.054142863 0.057000041
0.14354095 0.054142863 0.057000041
0.14488381 0.054142863 0.057000041
0.14613333 0.05411429 0.056000054
0.017043814 0.055577144 0.060000002
0.018392384 0.055577144 0.060000002
0.019826669 0.055546671 0.059000015
0.021173336 0.055546671 0.059000015
0.023502856 0.055180956 0.047000051
0.024826668 0.055180956 0.047000051
0.02630667 0.055120002 0.045000017
0.02777905 0.055059053 0.043000042
0.029169526 0.055028573 0.042000055
0.030556194 0.0549981 0.041000009
0.032009527 0.054937147 0.039000034
0.033523813 0.054845717 0.036000013
0.034893338 0.05481524 0.035000026
0.036259048 0.054784767 0.034000039
0.037683815 0.054723814 0.032000005
0.03897905 0.054723814 0.032000005
0.040333338 0.054693334 0.031000018
0.041626669 0.054693334 0.031000018
0.043085717 0.054601908 0.028000057
0.044426672 0.054571431 0.02700001
0.045763813 0.054540955 0.026000023
0.047047623 0.054540955 0.026000023
0.048331432 0.054540955 0.026000023
0.049706668 0.054480001 0.024000049
0.05098667 0.054480001 0.024000049
0.052308574 0.054449525 0.023000002
0.053586669 0.054449525 0.023000002
0.054902859 0.054419048 0.022000015
0.05617905 0.054419048 0.022000015
0.057455242 0.054419048 0.022000015
0.058763813 0.054388575 0.021000028
0.060038097 0.054388575 0.021000028
0.0613981 0.054297145 0.018000007
0.062746674 0.054205716 0.015000045
0.064009525 0.054205716 0.015000045
0.065272383 0.054205716 0.015000045
0.066535242 0.054205716 0.015000045
0.0677981 0.054205716 0.015000045
0.069060951 0.054205716 0.015000045
0.07032381 0.054205716 0.015000045
0.071586668 0.054205716 0.015000045
0.072849527 0.054205716 0.015000045
0.074112386 0.054205716 0.015000045
0.075375244 0.054205716 0.015000045
0.076638103 0.054205716 0.015000045
0.077900954 0.054205716 0.015000045
0.079163812 0.054205716 0.015000045
0.080426671 0.054175243 0.014000058
0.081687622 0.054175243 0.014000058
0.082948573 0.054175243 0.014000058
0.084209532 0.054175243 0.014000058
0.085470483 0.054175243 0.014000058
0.086740956 0.054205716 0.015000045
0.088003814 0.054205716 0.015000045
0.089266673 0.054205716 0.015000045
0.090529531 0.054205716 0.015000045
0.09179239 0.054205716 0.015000045
0.093055241 0.054205716 0.015000045
0.094318099 0.054205716 0.015000045
0.095580958 0.054205716 0.015000045
0.096843816 0.054205716 0.015000045
0.098106667 0.054205716 0.015000045
0.099369526 0.054205716 0.015000045
0.10063238 0.054205716 0.015000045
0.10196 0.054266669 0.01700002
0.10322667 0.054266669 0.01700002
0.10452953 0.054297145 0.018000007
0.1057981 0.054297145 0.018000007
0.10710667 0.054327622 0.019000053
0.10837715 0.054327622 0.019000053
0.10973524 0.054388575 0.021000028
0.11100952 0.054388575 0.021000028
0.11233144 0.054419048 0.022000015
0.11360762 0.054419048 0.022000015
0.11493524 0.054449525 0.023000002
0.11621334 0.054449525 0.023000002
0.11754667 0.054480001 0.024000049
0.11894096 0.054540955 0.026000023
0.12028381 0.054571431 0.02700001
0.12163048 0.054601908 0.028000057
0.12304381 0.054662861 0.030000031
0.12433524 0.054662861 0.030000031
0.12569334 0.054693334 0.031000018
0.12698667 0.054693334 0.031000018
0.12835048 0.054723814 0.032000005
0.12986286 0.05481524 0.035000026
0.13116381 0.05481524 0.035000026
0.13254096 0.054845717 0.036000013
0.13384381 0.054845717 0.036000013
0.13514668 0.054845717 0.036000013
0.13644953 0.054845717 0.036000013
0.13775238 0.054845717 0.036000013
0.14085525 0.055485718 0.057000041
0.1421981 0.055485718 0.057000041
0.14354095 0.055485718 0.057000041
0.14488381 0.055485718 0.057000041
0.017043814 0.056925714 0.060000002
0.018480007 0.056893334 0.059000015
0.019998096 0.056828573 0.057000041
0.021340951 0.056828573 0.057000041
0.023502856 0.056504764 0.047000051
0.024826668 0.056504764 0.047000051
0.02630667 0.056440003 0.045000017
0.02777905 0.056375243 0.043000042
0.029169526 0.056342863 0.042000055
0.030556194 0.056310479 0.041000009
0.032009527 0.056245718 0.039000034
0.033523813 0.056148574 0.036000013
0.034893338 0.056116194 0.035000026
0.036259048 0.056083813 0.034000039
0.037683815 0.056019049 0.032000005
0.03897905 0.056019049 0.032000005
0.040333338 0.055986669 0.031000018
0.041626669 0.055986669 0.031000018
0.043085717 0.055889525 0.028000057
0.044426672 0.055857144 0.02700001
0.045763813 0.055824764 0.026000023
0.047047623 0.055824764 0.026000023
0.048331432 0.055824764 0.026000023
0.049706668 0.055760004 0.024000049
0.05098667 0.055760004 0.024000049
0.052308574 0.05572762 0.023000002
0.053586669 0.05572762 0.023000002
0.054902859 0.055695239 0.022000015
0.05617905 0.055695239 0.022000015
0.057489529 0.055662859 0.021000028
0.058763813 0.055662859 0.021000028
0.060038097 0.055662859 0.021000028
0.0613981 0.055565715 0.018000007
0.062693335 0.055533335 0.01700002
0.064009525 0.055468574 0.015000045
0.065272383 0.055468574 0.015000045
0.066535242 0.055468574 0.015000045
0.0677981 0.055468574 0.015000045
0.069060951 0.055468574 0.015000045
0.07032381 0.055468574 0.015000045
0.071586668 0.055468574 0.015000045
0.072849527 0.055468574 0.015000045
0.074112386 0.055468574 0.015000045
0.075375244 0.055468574 0.015000045
0.07664381 0.055436194 0.014000058
0.077900954 0.055468574 0.015000045
0.079163812 0.055468574 0.015000045
0.080426671 0.055436194 0.014000058
0.081687622 0.055436194 0.014000058
0.082948573 0.055436194 0.014000058
0.084209532 0.055436194 0.014000058
0.085470483 0.055436194 0.014000058
0.086740956 0.055468574 0.015000045
0.088003814 0.055468574 0.015000045
0.089266673 0.055468574 0.015000045
0.090529531 0.055468574 0.015000045
0.09179239 0.055468574 0.015000045
0.093055241 0.055468574 0.015000045
0.094318099 0.055468574 0.015000045
0.095580958 0.055468574 0.015000045
0.096843816 0.055468574 0.015000045
0.098106667 0.055468574 0.015000045
0.099369526 0.055468574 0.015000045
0.10069334 0.055533335 0.01700002
0.10196 0.055533335 0.01700002
0.10326096 0.055565715 0.018000007
0.10456572 0.055598099 0.019000053
0.1058362 0.055598099 0.019000053
0.10710667 0.055598099 0.019000053
0.10846096 0.055662859 0.021000028
0.10973524 0.055662859 0.021000028
0.11100952 0.055662859 0.021000028
0.11233144 0.055695239 0.022000015
0.11360762 0.055695239 0.022000015
0.11493524 0.05572762 0.023000002
0.11621334 0.05572762 0.023000002
0.11754667 0.055760004 0.024000049
0.11882667 0.055760004 0.024000049
0.12022477 0.055824764 0.026000023
0.12163048 0.055889525 0.028000057
0.1229181 0.055889525 0.028000057
0.12433524 0.055954289 0.030000031
0.12562667 0.055954289 0.030000031
0.12698667 0.055986669 0.031000018
0.12835048 0.056019049 0.032000005
0.12964572 0.056019049 0.032000005
0.13116381 0.056116194 0.035000026
0.13254096 0.056148574 0.036000013
0.13384381 0.056148574 0.036000013
0.13530667 0.056213334 0.038000047
0.13669525 0.056245718 0.039000034
0.13800381 0.056245718 0.039000034
0.018480007 0.058240004 0.059000015
0.019998096 0.058171429 0.057000041
0.021340951 0.058171429 0.057000041
0.022765711 0.058137149 0.056000054
0.025146671 0.057691433 0.043000042
0.02646286 0.057691433 0.043000042
0.02777905 0.057691433 0.043000042
0.029169526 0.057657145 0.042000055
0.030556194 0.057622857 0.041000009
0.031868577 0.057622857 0.041000009
0.033523813 0.057451431 0.036000013
0.034893338 0.057417147 0.035000026
0.036259048 0.057382859 0.034000039
0.037558097 0.057382859 0.034000039
0.03897905 0.057314284 0.032000005
0.040274289 0.057314284 0.032000005
0.041626669 0.057280004 0.031000018
0.043085717 0.057177149 0.028000057
0.044426672 0.057142861 0.02700001
0.045712385 0.057142861 0.02700001
0.047047623 0.057108574 0.026000023
0.048331432 0.057108574 0.026000023
0.049706668 0.057040002 0.024000049
0.05098667 0.057040002 0.024000049
0.052308574 0.057005718 0.023000002
0.053586669 0.057005718 0.023000002
0.054864764 0.057005718 0.023000002
0.05617905 0.056971431 0.022000015
0.057455242 0.056971431 0.022000015
0.058763813 0.056937143 0.021000028
0.060038097 0.056937143 0.021000028
0.061369523 0.056868576 0.019000053
0.062693335 0.0568 0.01700002
0.063960001 0.0568 0.01700002
0.065226667 0.0568 0.01700002
0.066535242 0.056731433 0.015000045
0.0677981 0.056731433 0.015000045
0.069060951 0.056731433 0.015000045
0.07032381 0.056731433 0.015000045
0.071586668 0.056731433 0.015000045
0.072849527 0.056731433 0.015000045
0.074112386 0.056731433 0.015000045
0.075375244 0.056731433 0.015000045
0.07664381 0.056697145 0.014000058
0.077904768 0.056697145 0.014000058
0.079165719 0.056697145 0.014000058
0.080426671 0.056697145 0.014000058
0.081687622 0.056697145 0.014000058
0.082948573 0.056697145 0.014000058
0.084209532 0.056697145 0.014000058
0.085470483 0.056697145 0.014000058
0.086740956 0.056731433 0.015000045
0.088003814 0.056731433 0.015000045
0.089266673 0.056731433 0.015000045
0.090529531 0.056731433 0.015000045
0.09179239 0.056731433 0.015000045
0.093055241 0.056731433 0.015000045
0.094318099 0.056731433 0.015000045
0.095580958 0.056731433 0.015000045
0.096843816 0.056731433 0.015000045
0.098106667 0.056731433 0.015000045
0.099426672 0.0568 0.01700002
0.10069334 0.0568 0.01700002
0.10196 0.0568 0.01700002
0.10326096 0.056834288 0.018000007
0.10456572 0.056868576 0.019000053
0.1058362 0.056868576 0.019000053
0.10710667 0.056868576 0.019000053
0.10846096 0.056937143 0.021000028
0.10973524 0.056937143 0.021000028
0.11100952 0.056937143 0.021000028
0.11233144 0.056971431 0.022000015
0.11360762 0.056971431 0.022000015
0.11493524 0.057005718 0.023000002
0.11621334 0.057005718 0.023000002
0.11754667 0.057040002 0.024000049
0.11882667 0.057040002 0.024000049
0.12022477 0.057108574 0.026000023
0.12163048 0.057177149 0.028000057
0.1229181 0.057177149 0.028000057
0.12433524 0.057245716 0.030000031
0.12562667 0.057245716 0.030000031
0.12698667 0.057280004 0.031000018
0.12828001 0.057280004 0.031000018
0.12979048 0.057382859 0.034000039
0.13116381 0.057417147 0.035000026
0.13254096 0.057451431 0.036000013
0.134 0.057520002 0.038000047
0.13538668 0.05755429 0.039000034
0.13669525 0.05755429 0.039000034
0.13817143 0.057622857 0.041000009
0.13948381 0.057622857 0.041000009
0.016775243 0.059731431 0.063000023
0.018392384 0.059622858 0.060000002
0.019826669 0.059586667 0.059000015
0.021173336 0.059586667 0.059000015
0.022765711 0.059478097 0.056000054
0.024426669 0.059333339 0.052000046
0.02630667 0.059080005 0.045000017
0.027626667 0.059080005 0.045000017
0.02909524 0.059007622 0.043000042
0.030483812 0.058971431 0.042000055
0.031868577 0.05893524 0.041000009
0.03338667 0.05882667 0.038000047
0.034893338 0.058718096 0.035000026
0.036259048 0.058681909 0.034000039
0.037558097 0.058681909 0.034000039
0.03897905 0.058609523 0.032000005
0.040274289 0.058609523 0.032000005
0.041626669 0.058573335 0.031000018
0.043085717 0.058464766 0.028000057
0.044426672 0.058428571 0.02700001
0.045712385 0.058428571 0.02700001
0.047047623 0.058392383 0.026000023
0.048331432 0.058392383 0.026000023
0.049706668 0.058320001 0.024000049
0.05098667 0.058320001 0.024000049
0.052308574 0.058283813 0.023000002
0.053586669 0.058283813 0.023000002
0.054864764 0.058283813 0.023000002
0.05617905 0.058247622 0.022000015
0.057455242 0.058247622 0.022000015
0.058763813 0.058211431 0.021000028
0.060038097 0.058211431 0.021000028
0.061369523 0.058139052 0.019000053
0.062666669 0.058102861 0.018000007
0.064009525 0.057994291 0.015000045
0.065272383 0.057994291 0.015000045
0.066535242 0.057994291 0.015000045
0.0677981 0.057994291 0.015000045
0.069060951 0.057994291 0.015000045
0.07032381 0.057994291 0.015000045
0.071586668 0.057994291 0.015000045
0.072849527 0.057994291 0.015000045
0.074112386 0.057994291 0.015000045
0.075382859 0.057958096 0.014000058
0.07664381 0.057958096 0.014000058
0.077904768 0.057958096 0.014000058
0.079165719 0.057958096 0.014000058
0.080426671 0.057958096 0.014000058
0.081687622 0.057958096 0.014000058
0.082948573 0.057958096 0.014000058
0.084215239 0.057994291 0.015000045
0.085478097 0.057994291 0.015000045
0.086740956 0.057994291 0.015000045
0.088003814 0.057994291 0.015000045
0.089266673 0.057994291 0.015000045
0.090529531 0.057994291 0.015000045
0.09179239 0.057994291 0.015000045
0.093055241 0.057994291 0.015000045
0.094318099 0.057994291 0.015000045
0.095580958 0.057994291 0.015000045
0.096843816 0.057994291 0.015000045
0.098160006 0.058066666 0.01700002
0.099426672 0.058066666 0.01700002
0.10069334 0.058066666 0.01700002
0.10196 0.058066666 0.01700002
0.10326096 0.058102861 0.018000007
0.10456572 0.058139052 0.019000053
0.1058362 0.058139052 0.019000053
0.10710667 0.058139052 0.019000053
0.10846096 0.058211431 0.021000028
0.10973524 0.058211431 0.021000028
0.11100952 0.058211431 0.021000028
0.11233144 0.058247622 0.022000015
0.11360762 0.058247622 0.022000015
0.11498667 0.058320001 0.024000049
0.11626668 0.058320001 0.024000049
0.11754667 0.058320001 0.024000049
0.11882667 0.058320001 0.024000049
0.12022477 0.058392383 0.026000023
0.12156953 0.058428571 0.02700001
0.1229181 0.058464766 0.028000057
0.12433524 0.058537148 0.030000031
0.12562667 0.058537148 0.030000031
0.12691811 0.058537148 0.030000031
0.12828001 0.058573335 0.031000018
0.12979048 0.058681909 0.034000039
0.13116381 0.058718096 0.035000026
0.13254096 0.058754288 0.036000013
0.134 0.05882667 0.038000047
0.13538668 0.058862858 0.039000034
0.13669525 0.058862858 0.039000034
0.13817143 0.05893524 0.041000009
0.13948381 0.05893524 0.041000009
0.015146665 0.0612 0.066000044
0.016775243 0.061085716 0.063000023
0.018217139 0.061047621 0.062000036
0.019826669 0.060933337 0.059000015
0.021340951 0.060857147 0.057000041
0.022765711 0.060819052 0.056000054
0.024426669 0.060666669 0.052000046
0.026150476 0.060476195 0.047000051
0.027550481 0.060438097 0.046000004
0.02909524 0.060323812 0.043000042
0.030483812 0.060285717 0.042000055
0.031868577 0.060247622 0.041000009
0.03338667 0.060133338 0.038000047
0.03482667 0.060057145 0.036000013
0.036259048 0.059980959 0.034000039
0.037558097 0.059980959 0.034000039
0.03897905 0.059904762 0.032000005
0.040333338 0.059866667 0.031000018
0.041626669 0.059866667 0.031000018
0.043085717 0.059752386 0.028000057
0.044426672 0.059714288 0.02700001
0.045712385 0.059714288 0.02700001
0.046998098 0.059714288 0.02700001
0.048331432 0.059676193 0.026000023
0.049706668 0.059600003 0.024000049
0.05098667 0.059600003 0.024000049
0.052308574 0.059561908 0.023000002
0.053586669 0.059561908 0.023000002
0.054864764 0.059561908 0.023000002
0.05617905 0.059523813 0.022000015
0.057455242 0.059523813 0.022000015
0.058731433 0.059523813 0.022000015
0.060038097 0.059485719 0.021000028
0.061369523 0.059409529 0.019000053
0.062640004 0.059409529 0.019000053
0.063935243 0.05937143 0.018000007
0.065226667 0.059333336 0.01700002
0.06649334 0.059333336 0.01700002
0.067760006 0.059333336 0.01700002
0.069060951 0.059257146 0.015000045
0.07032381 0.059257146 0.015000045
0.071586668 0.059257146 0.015000045
0.072849527 0.059257146 0.015000045
0.074112386 0.059257146 0.015000045
0.075382859 0.059219055 0.014000058
0.07664381 0.059219055 0.014000058
0.077904768 0.059219055 0.014000058
0.079163812 0.059257146 0.015000045
0.080426671 0.059219055 0.014000058
0.081689529 0.059257146 0.015000045
0.082952388 0.059257146 0.015000045
0.084215239 0.059257146 0.015000045
0.085478097 0.059257146 0.015000045
0.086740956 0.059257146 0.015000045
0.088003814 0.059257146 0.015000045
0.089266673 0.059257146 0.015000045
0.090529531 0.059257146 0.015000045
0.09179239 0.059257146 0.015000045
0.093055241 0.059257146 0.015000045
0.094318099 0.059257146 0.015000045
0.095580958 0.059257146 0.015000045
0.09689334 0.059333336 0.01700002
0.098160006 0.059333336 0.01700002
0.099426672 0.059333336 0.01700002
0.10069334 0.059333336 0.01700002
0.10199238 0.05937143 0.018000007
0.10326096 0.05937143 0.018000007
0.10456572 0.059409529 0.019000053
0.1058362 0.059409529 0.019000053
0.10710667 0.059409529 0.019000053
0.10837715 0.059409529 0.019000053
0.10973524 0.059485719 0.021000028
0.11100952 0.059485719 0.021000028
0.11228381 0.059485719 0.021000028
0.11360762 0.059523813 0.022000015
0.11493524 0.059561908 0.023000002
0.11626668 0.059600003 0.024000049
0.11754667 0.059600003 0.024000049
0.11882667 0.059600003 0.024000049
0.12022477 0.059676193 0.026000023
0.12156953 0.059714288 0.02700001
0.1229181 0.059752386 0.028000057
0.12420572 0.059752386 0.028000057
0.12562667 0.059828572 0.030000031
0.12691811 0.059828572 0.030000031
0.12828001 0.059866667 0.031000018
0.12986286 0.06001905 0.035000026
0.13116381 0.06001905 0.035000026
0.13254096 0.060057145 0.036000013
0.1340781 0.060171433 0.039000034
0.13538668 0.060171433 0.039000034
0.13685906 0.060247622 0.041000009
0.13817143 0.060247622 0.041000009
0.13948381 0.060247622 0.041000009
0.012946665 0.062920004 0.075000048
0.014598094 0.062800005 0.072000027
0.016596191 0.062520005 0.065000057
0.018217139 0.062400006 0.062000036
0.019826669 0.062279999 0.059000015
0.021424763 0.062160004 0.056000054
0.022847623 0.062120002 0.055000007
0.02458667 0.061920002 0.050000012
0.025994286 0.061880004 0.049000025
0.027550481 0.061760001 0.046000004
0.02909524 0.061640002 0.043000042
0.030483812 0.061600007 0.042000055
0.031798095 0.061600007 0.042000055
0.03338667 0.061440006 0.038000047
0.03482667 0.061360002 0.036000013
0.036259048 0.061280005 0.034000039
0.037683815 0.0612 0.032000005
0.03897905 0.0612 0.032000005
0.040333338 0.061160006 0.031000018
0.041626669 0.061160006 0.031000018
0.042975239 0.061120003 0.030000031
0.044373333 0.061040003 0.028000057
0.045712385 0.061000004 0.02700001
0.047047623 0.060960002 0.026000023
0.048331432 0.060960002 0.026000023
0.049706668 0.060880005 0.024000049
0.05098667 0.060880005 0.024000049
0.052266669 0.060880005 0.024000049
0.053586669 0.060840003 0.023000002
0.054864764 0.060840003 0.023000002
0.05617905 0.060800001 0.022000015
0.057455242 0.060800001 0.022000015
0.058731433 0.060800001 0.022000015
0.060038097 0.060760003 0.021000028
0.061369523 0.060680002 0.019000053
0.062640004 0.060680002 0.019000053
0.063935243 0.06064 0.018000007
0.065226667 0.060600001 0.01700002
0.066535242 0.060520004 0.015000045
0.0677981 0.060520004 0.015000045
0.069060951 0.060520004 0.015000045
0.07032381 0.060520004 0.015000045
0.071586668 0.060520004 0.015000045
0.072849527 0.060520004 0.015000045
0.074112386 0.060520004 0.015000045
0.075382859 0.060480006 0.014000058
0.07664381 0.060480006 0.014000058
0.077904768 0.060480006 0.014000058
0.079165719 0.060480006 0.014000058
0.080426671 0.060480006 0.014000058
0.081687622 0.060480006 0.014000058
0.082952388 0.060520004 0.015000045
0.084215239 0.060520004 0.015000045
0.085478097 0.060520004 0.015000045
0.086740956 0.060520004 0.015000045
0.088003814 0.060520004 0.015000045
0.089266673 0.060520004 0.015000045
0.090529531 0.060520004 0.015000045
0.09179239 0.060520004 0.015000045
0.093055241 0.060520004 0.015000045
0.094318099 0.060520004 0.015000045
0.095580958 0.060520004 0.015000045
0.09689334 0.060600001 0.01700002
0.098160006 0.060600001 0.01700002
0.099426672 0.060600001 0.01700002
0.10069334 0.060600001 0.01700002
0.10202476 0.060680002 0.019000053
0.10329524 0.060680002 0.019000053
0.10456572 0.060680002 0.019000053
0.1058362 0.060680002 0.019000053
0.10710667 0.060680002 0.019000053
0.10837715 0.060680002 0.019000053
0.10973524 0.060760003 0.021000028
0.11100952 0.060760003 0.021000028
0.11228381 0.060760003 0.021000028
0.1135581 0.060760003 0.021000028
0.11493524 0.060840003 0.023000002
0.11626668 0.060880005 0.024000049
0.11754667 0.060880005 0.024000049
0.11882667 0.060880005 0.024000049
0.12022477 0.060960002 0.026000023
0.12156953 0.061000004 0.02700001
0.1229181 0.061040003 0.028000057
0.12420572 0.061040003 0.028000057
0.12549335 0.061040003 0.028000057
0.12691811 0.061120003 0.030000031
0.12828001 0.061160006 0.031000018
0.12986286 0.061320003 0.035000026
0.13116381 0.061320003 0.035000026
0.13254096 0.061360002 0.036000013
0.134 0.061440006 0.038000047
0.13538668 0.061480004 0.039000034
0.13669525 0.061480004 0.039000034
0.13800381 0.061480004 0.039000034
0.13948381 0.061560001 0.041000009
0.0099009573 0.064422861 0.078000009
0.011093333 0.064506672 0.080000043
0.012759998 0.064380959 0.077000022
0.014323808 0.064297147 0.075000048
0.016506664 0.063920006 0.066000044
0.018129528 0.063794285 0.063000023
0.019826669 0.063626669 0.059000015
0.021340951 0.063542858 0.057000041
0.022765711 0.063500956 0.056000054
0.024666667 0.063207626 0.049000025
0.026150476 0.063123815 0.047000051
0.027550481 0.063081905 0.046000004
0.02909524 0.062956192 0.043000042
0.030483812 0.06291429 0.042000055
0.031868577 0.06287238 0.041000009
0.03338667 0.062746674 0.038000047
0.03482667 0.062662855 0.036000013
0.036259048 0.062579051 0.034000039
0.037683815 0.062495239 0.032000005
0.03897905 0.062495239 0.032000005
0.040333338 0.062453337 0.031000018
0.041626669 0.062453337 0.031000018
0.042920005 0.062453337 0.031000018
0.044373333 0.062327623 0.028000057
0.045712385 0.062285714 0.02700001
0.046998098 0.062285714 0.02700001
0.048331432 0.062243812 0.026000023
0.049706668 0.062160004 0.024000049
0.05098667 0.062160004 0.024000049
0.052266669 0.062160004 0.024000049
0.053586669 0.062118098 0.023000002
0.054864764 0.062118098 0.023000002
0.05617905 0.062076196 0.022000015
0.057455242 0.062076196 0.022000015
0.058731433 0.062076196 0.022000015
0.060038097 0.062034287 0.021000028
0.061369523 0.061950482 0.019000053
0.062640004 0.061950482 0.019000053
0.063910477 0.061950482 0.019000053
0.065226667 0.061866671 0.01700002
0.066535242 0.061782859 0.015000045
0.0677981 0.061782859 0.015000045
0.069060951 0.061782859 0.015000045
0.07032381 0.061782859 0.015000045
0.071586668 0.061782859 0.015000045
0.072849527 0.061782859 0.015000045
0.074112386 0.061782859 0.015000045
0.075382859 0.061740957 0.014000058
0.07664381 0.061740957 0.014000058
0.077900954 0.061782859 0.015000045
0.079163812 0.061782859 0.015000045
0.080426671 0.061740957 0.014000058
0.081687622 0.061740957 0.014000058
0.082952388 0.061782859 0.015000045
0.084215239 0.061782859 0.015000045
0.085478097 0.061782859 0.015000045
0.086740956 0.061782859 0.015000045
0.088003814 0.061782859 0.015000045
0.089266673 0.061782859 0.015000045
0.090529531 0.061782859 0.015000045
0.09179239 0.061782859 0.015000045
0.093055241 0.061782859 0.015000045
0.094360001 0.061866671 0.01700002
0.095626675 0.061866671 0.01700002
0.09689334 0.061866671 0.01700002
0.098186672 0.061908573 0.018000007
0.099455237 0.061908573 0.018000007
0.10072382 0.061908573 0.018000007
0.10199238 0.061908573 0.018000007
0.10329524 0.061950482 0.019000053
0.10456572 0.061950482 0.019000053
0.1058362 0.061950482 0.019000053
0.10710667 0.061950482 0.019000053
0.10837715 0.061950482 0.019000053
0.10973524 0.062034287 0.021000028
0.1109181 0.061950482 0.019000053
0.11228381 0.062034287 0.021000028
0.1135581 0.062034287 0.021000028
0.11493524 0.062118098 0.023000002
0.11626668 0.062160004 0.024000049
0.11754667 0.062160004 0.024000049
0.11882667 0.062160004 0.024000049
0.12028381 0.062285714 0.02700001
0.12163048 0.062327623 0.028000057
0.1229181 0.062327623 0.028000057
0.12420572 0.062327623 0.028000057
0.12562667 0.062411431 0.030000031
0.12691811 0.062411431 0.030000031
0.12828001 0.062453337 0.031000018
0.12979048 0.062579051 0.034000039
0.13116381 0.062620953 0.035000026
0.13254096 0.062662855 0.036000013
0.1340781 0.062788576 0.039000034
0.13554667 0.06287238 0.041000009
0.13702287 0.062956192 0.043000042
0.13833906 0.062956192 0.043000042
0.0066304803 0.066024765 0.083000004
0.0080228597 0.066024765 0.083000004
0.0096095279 0.065937147 0.08100003
0.011093333 0.065893337 0.080000043
0.012666672 0.065805718 0.078000009
0.014415242 0.065630481 0.074000061
0.01632762 0.065367624 0.068000019
0.017866671 0.065280005 0.066000044
0.019483812 0.065148577 0.063000023
0.0208381 0.065148577 0.063000023
0.022765711 0.064841911 0.056000054
0.024426669 0.064666674 0.052000046
0.025994286 0.064535238 0.049000025
0.027321909 0.064535238 0.049000025
0.028946672 0.06436 0.045000017
0.03041143 0.064272381 0.043000042
0.031798095 0.064228572 0.042000055
0.03338667 0.064053334 0.038000047
0.03482667 0.063965715 0.036000013
0.036259048 0.063878097 0.034000039
0.037683815 0.063790478 0.032000005
0.03897905 0.063790478 0.032000005
0.040333338 0.063746668 0.031000018
0.041626669 0.063746668 0.031000018
0.042975239 0.063702859 0.030000031
0.044373333 0.06361524 0.028000057
0.045712385 0.063571431 0.02700001
0.046998098 0.063571431 0.02700001
0.048331432 0.063527621 0.026000023
0.049706668 0.063440003 0.024000049
0.05098667 0.063440003 0.024000049
0.052266669 0.063440003 0.024000049
0.053586669 0.063396193 0.023000002
0.054864764 0.063396193 0.023000002
0.05617905 0.063352384 0.022000015
0.057489529 0.063308574 0.021000028
0.058763813 0.063308574 0.021000028
0.060038097 0.063308574 0.021000028
0.061369523 0.063220955 0.019000053
0.062640004 0.063220955 0.019000053
0.063935243 0.063177146 0.018000007
0.065226667 0.063133337 0.01700002
0.066535242 0.063045718 0.015000045
0.0677981 0.063045718 0.015000045
0.069060951 0.063045718 0.015000045
0.07032381 0.063045718 0.015000045
0.071586668 0.063045718 0.015000045
0.072849527 0.063045718 0.015000045
