# .PCD v0.7 - Point Cloud Data file format
VERSION 0.7
FIELDS x y z
SIZE 4 4 4
TYPE F F F
COUNT 1 1 1
WIDTH 1364
HEIGHT 1
VIEWPOINT 0 0 0 0 1 0 0
POINTS 1364
DATA ascii
0.14076382 0.026217142 0.060000002
0.14236763 0.026148573 0.062999964
0.14381525 0.026125716 0.063999951
0.1454381 0.026057143 0.066999972
0.14680955 0.026057143 0.066999972
0.14818096 0.026057143 0.066999972
0.15000954 0.025942856 0.071999967
0.15223049 0.025737144 0.08099997
0.00086667389 0.026799999 0.097000003
0.0054304898 0.027135238 0.08099997
0.0068285763 0.027135238 0.08099997
0.0084323883 0.027177142 0.078999996
0.0099276304 0.027198095 0.077999949
0.011617146 0.027260952 0.074999988
0.013198107 0.027302857 0.072999954
0.014676206 0.02732381 0.071999967
0.016337149 0.027386665 0.069000006
0.017895244 0.027428573 0.066999972
0.019356199 0.027449524 0.065999985
0.020900957 0.02749143 0.063999951
0.02252382 0.027554285 0.06099999
0.024135251 0.027617145 0.057999969
0.025735248 0.027680002 0.054999948
0.027083822 0.027680002 0.054999948
0.028432392 0.027680002 0.054999948
0.029857155 0.027700953 0.05399996
0.031500965 0.027784763 0.049999952
0.032984775 0.027826667 0.047999978
0.034531441 0.027889526 0.044999957
0.035929535 0.027910477 0.04399997
0.037257154 0.027910477 0.04399997
0.038714297 0.02795238 0.041999996
0.040289532 0.028036192 0.037999988
0.041605722 0.028036192 0.037999988
0.042980962 0.028057143 0.037
0.044295248 0.028057143 0.037
0.045664772 0.028078098 0.035999954
0.047083821 0.02812 0.033999979
0.048392389 0.02812 0.033999979
0.049750488 0.028140953 0.032999992
0.051057152 0.028140953 0.032999992
0.05245525 0.028182859 0.030999959
0.053758107 0.028182859 0.030999959
0.055102866 0.02820381 0.029999971
0.056403819 0.02820381 0.029999971
0.057742864 0.028224763 0.028999984
0.059041914 0.028224763 0.028999984
0.060409538 0.028266668 0.02699995
0.061704773 0.028266668 0.02699995
0.063000008 0.028266668 0.02699995
0.06432382 0.028287619 0.025999963
0.065617152 0.028287619 0.025999963
0.066935249 0.028308572 0.024999976
0.06822668 0.028308572 0.024999976
0.069518104 0.028308572 0.024999976
0.070809536 0.028308572 0.024999976
0.072100967 0.028308572 0.024999976
0.073392391 0.028308572 0.024999976
0.074683823 0.028308572 0.024999976
0.075975247 0.028308572 0.024999976
0.077285722 0.028350476 0.023000002
0.07855811 0.028308572 0.024999976
0.079860963 0.028350476 0.023000002
0.08114858 0.028350476 0.023000002
0.082436204 0.028350476 0.023000002
0.083723821 0.028350476 0.023000002
0.085011438 0.028350476 0.023000002
0.086299062 0.028350476 0.023000002
0.087598108 0.028308572 0.024999976
0.088889532 0.028308572 0.024999976
0.090180963 0.028308572 0.024999976
0.091483824 0.028287619 0.025999963
0.092777155 0.028287619 0.025999963
0.094070487 0.028287619 0.025999963
0.095363818 0.028287619 0.025999963
0.096657157 0.028287619 0.025999963
0.097950488 0.028287619 0.025999963
0.09924382 0.028287619 0.025999963
0.10053715 0.028287619 0.025999963
0.10183049 0.028287619 0.025999963
0.10312382 0.028287619 0.025999963
0.10441715 0.028287619 0.025999963
0.10574287 0.028266668 0.02699995
0.1070381 0.028266668 0.02699995
0.10840572 0.028224763 0.028999984
0.10970478 0.028224763 0.028999984
0.11104383 0.02820381 0.029999971
0.11234477 0.02820381 0.029999971
0.11368953 0.028182859 0.030999959
0.11508382 0.028140953 0.032999992
0.11643811 0.02812 0.033999979
0.11784573 0.028078098 0.035999954
0.1191581 0.028078098 0.035999954
0.12052383 0.028057143 0.037
0.12183811 0.028057143 0.037
0.12315239 0.028057143 0.037
0.12452573 0.028036192 0.037999988
0.12596382 0.027994286 0.039999962
0.12728383 0.027994286 0.039999962
0.12866858 0.027973335 0.040999949
0.13005716 0.02795238 0.041999996
0.13151811 0.027910477 0.04399997
0.13326858 0.027784763 0.049999952
0.13468002 0.02776381 0.050999999
0.13609526 0.027742857 0.051999986
0.13759048 0.027700953 0.05399996
0.13893716 0.027700953 0.05399996
0.14060383 0.027617145 0.057999969
0.14236763 0.027512383 0.062999964
0.14381525 0.02749143 0.063999951
0.14518097 0.02749143 0.063999951
0.14654669 0.02749143 0.063999951
0.14818096 0.027428573 0.066999972
0.15000954 0.02732381 0.071999967
0.0011980981 0.028285716 0.093999982
0.0033809617 0.028419048 0.086999953
0.0047904849 0.028419048 0.086999953
0.0066190511 0.028495237 0.083000004
0.0082266778 0.028533336 0.08099997
0.0098266751 0.028571429 0.078999996
0.011617146 0.02864762 0.074999988
0.013295248 0.028704762 0.071999967
0.014866672 0.028742857 0.069999993
0.016337149 0.028761905 0.069000006
0.017895244 0.0288 0.066999972
0.019356199 0.028819047 0.065999985
0.021163821 0.028914288 0.06099999
0.022609532 0.028933333 0.060000002
0.024135251 0.02897143 0.057999969
0.025571436 0.028990477 0.056999981
0.027083822 0.029028572 0.054999948
0.028510485 0.02904762 0.05399996
0.030009534 0.029085714 0.051999986
0.031500965 0.029123809 0.049999952
0.033057149 0.029180953 0.046999991
0.034531441 0.02921905 0.044999957
0.035929535 0.029238097 0.04399997
0.037390482 0.02927619 0.041999996
0.038779058 0.02929524 0.040999949
0.040289532 0.029352382 0.037999988
0.041605722 0.029352382 0.037999988
0.042980962 0.029371429 0.037
0.044295248 0.029371429 0.037
0.045664772 0.029390477 0.035999954
0.046977155 0.029390477 0.035999954
0.048392389 0.029428571 0.033999979
0.049700961 0.029428571 0.033999979
0.051057152 0.029447619 0.032999992
0.05245525 0.029485716 0.030999959
0.053758107 0.029485716 0.030999959
0.055102866 0.029504763 0.029999971
0.056443818 0.029523809 0.028999984
0.057742864 0.029523809 0.028999984
0.059041914 0.029523809 0.028999984
0.060409538 0.029561907 0.02699995
0.061704773 0.029561907 0.02699995
0.063000008 0.029561907 0.02699995
0.06432382 0.029580954 0.025999963
0.065643817 0.029600002 0.024999976
0.066935249 0.029600002 0.024999976
0.06822668 0.029600002 0.024999976
0.069518104 0.029600002 0.024999976
0.070809536 0.029600002 0.024999976
0.072100967 0.029600002 0.024999976
0.073392391 0.029600002 0.024999976
0.074683823 0.029600002 0.024999976
0.075975247 0.029600002 0.024999976
0.077266678 0.029600002 0.024999976
0.07855811 0.029600002 0.024999976
0.079860963 0.029638095 0.023000002
0.08114858 0.029638095 0.023000002
0.082436204 0.029638095 0.023000002
0.083723821 0.029638095 0.023000002
0.085011438 0.029638095 0.023000002
0.086299062 0.029638095 0.023000002
0.087586679 0.029638095 0.023000002
0.088874295 0.029638095 0.023000002
0.090180963 0.029600002 0.024999976
0.091483824 0.029580954 0.025999963
0.092777155 0.029580954 0.025999963
0.094070487 0.029580954 0.025999963
0.095363818 0.029580954 0.025999963
0.096657157 0.029580954 0.025999963
0.097950488 0.029580954 0.025999963
0.09924382 0.029580954 0.025999963
0.10053715 0.029580954 0.025999963
0.10183049 0.029580954 0.025999963
0.10312382 0.029580954 0.025999963
0.10441715 0.029580954 0.025999963
0.10571049 0.029580954 0.025999963
0.10700382 0.029580954 0.025999963
0.10829715 0.029580954 0.025999963
0.10970478 0.029523809 0.028999984
0.11100382 0.029523809 0.028999984
0.11234477 0.029504763 0.029999971
0.11364572 0.029504763 0.029999971
0.1149924 0.029485716 0.030999959
0.11643811 0.029428571 0.033999979
0.11774668 0.029428571 0.033999979
0.1191581 0.029390477 0.035999954
0.12052383 0.029371429 0.037
0.12183811 0.029371429 0.037
0.12315239 0.029371429 0.037
0.12452573 0.029352382 0.037999988
0.12584192 0.029352382 0.037999988
0.12728383 0.029314287 0.039999962
0.12866858 0.02929524 0.040999949
0.13005716 0.02927619 0.041999996
0.13151811 0.029238097 0.04399997
0.13312763 0.029161906 0.047999978
0.13460763 0.029123809 0.049999952
0.13609526 0.029085714 0.051999986
0.1374381 0.029085714 0.051999986
0.13893716 0.02904762 0.05399996
0.14052382 0.028990477 0.056999981
0.14220382 0.028914288 0.06099999
0.14373145 0.028876191 0.062999964
0.14535239 0.028819047 0.065999985
0.14672191 0.028819047 0.065999985
0.14809144 0.028819047 0.065999985
0 0.029742857 0.092000008
0.0017504841 0.029794287 0.088999987
0.0034895316 0.029845715 0.085999966
0.0047904849 0.029828573 0.086999953
0.0066190511 0.029897142 0.083000004
0.0082266778 0.02993143 0.08099997
0.0098266751 0.029965715 0.078999996
0.011617146 0.030034285 0.074999988
0.013295248 0.030085716 0.071999967
0.014961913 0.030137144 0.069000006
0.016523816 0.030171428 0.066999972
0.017986678 0.030188572 0.065999985
0.019535251 0.030222859 0.063999951
0.021163821 0.030274287 0.06099999
0.022609532 0.030291429 0.060000002
0.024219055 0.030342858 0.056999981
0.025735248 0.030377144 0.054999948
0.027083822 0.030377144 0.054999948
0.028510485 0.030394286 0.05399996
0.030009534 0.030428573 0.051999986
0.031500965 0.030462857 0.049999952
0.033057149 0.030514287 0.046999991
0.034531441 0.030548573 0.044999957
0.035929535 0.030565716 0.04399997
0.037390482 0.0306 0.041999996
0.038779058 0.030617144 0.040999949
0.040289532 0.030668572 0.037999988
0.041605722 0.030668572 0.037999988
0.042980962 0.030685715 0.037
0.044295248 0.030685715 0.037
0.045664772 0.030702859 0.035999954
0.047083821 0.030737143 0.033999979
0.048392389 0.030737143 0.033999979
0.049750488 0.030754287 0.032999992
0.051057152 0.030754287 0.032999992
0.05245525 0.030788573 0.030999959
0.053758107 0.030788573 0.030999959
0.055102866 0.030805714 0.029999971
0.056403819 0.030805714 0.029999971
0.057742864 0.030822858 0.028999984
0.059041914 0.030822858 0.028999984
0.060409538 0.030857146 0.02699995
0.061704773 0.030857146 0.02699995
0.063000008 0.030857146 0.02699995
0.064352393 0.03089143 0.024999976
0.065643817 0.03089143 0.024999976
0.066935249 0.03089143 0.024999976
0.06822668 0.03089143 0.024999976
0.069518104 0.03089143 0.024999976
0.070809536 0.03089143 0.024999976
0.072100967 0.03089143 0.024999976
0.073392391 0.03089143 0.024999976
0.074683823 0.03089143 0.024999976
0.075975247 0.03089143 0.024999976
0.077266678 0.03089143 0.024999976
0.07855811 0.03089143 0.024999976
0.079849534 0.03089143 0.024999976
0.08114858 0.030925713 0.023000002
0.082436204 0.030925713 0.023000002
0.083723821 0.030925713 0.023000002
0.085011438 0.030925713 0.023000002
0.086299062 0.030925713 0.023000002
0.087586679 0.030925713 0.023000002
0.088874295 0.030925713 0.023000002
0.09016192 0.030925713 0.023000002
0.091472395 0.03089143 0.024999976
0.092763819 0.03089143 0.024999976
0.09405525 0.03089143 0.024999976
0.095363818 0.030874286 0.025999963
0.096657157 0.030874286 0.025999963
0.097950488 0.030874286 0.025999963
0.09924382 0.030874286 0.025999963
0.10053715 0.030874286 0.025999963
0.10183049 0.030874286 0.025999963
0.10312382 0.030874286 0.025999963
0.10441715 0.030874286 0.025999963
0.10571049 0.030874286 0.025999963
0.10700382 0.030874286 0.025999963
0.10833334 0.030857146 0.02699995
0.10962858 0.030857146 0.02699995
0.11100382 0.030822858 0.028999984
0.11234477 0.030805714 0.029999971
0.11364572 0.030805714 0.029999971
0.1149924 0.030788573 0.030999959
0.11639049 0.030754287 0.032999992
0.11774668 0.030737143 0.033999979
0.1191581 0.030702859 0.035999954
0.12047049 0.030702859 0.035999954
0.12183811 0.030685715 0.037
0.12315239 0.030685715 0.037
0.12452573 0.030668572 0.037999988
0.12584192 0.030668572 0.037999988
0.12728383 0.030634288 0.039999962
0.12866858 0.030617144 0.040999949
0.13005716 0.0306 0.041999996
0.13138098 0.0306 0.041999996
0.13312763 0.030497143 0.047999978
0.13460763 0.030462857 0.049999952
0.13602096 0.030445714 0.050999999
0.1374381 0.030428573 0.051999986
0.13893716 0.030394286 0.05399996
0.14052382 0.030342858 0.056999981
0.14212191 0.030291429 0.060000002
0.14373145 0.030240001 0.062999964
0.14535239 0.030188572 0.065999985
0.14680955 0.030171428 0.066999972
0.14818096 0.030171428 0.066999972
0.0016400069 0.031192381 0.089999974
0.0033809617 0.031238098 0.086999953
0.0045771524 0.031207621 0.088999987
0.0068285763 0.031329524 0.08099997
0.0084323883 0.03136 0.078999996
0.0099276304 0.031375241 0.077999949
0.011617146 0.031420954 0.074999988
0.013295248 0.031466667 0.071999967
0.014961913 0.03151238 0.069000006
0.016523816 0.03154286 0.066999972
0.017986678 0.031558096 0.065999985
0.019535251 0.031588573 0.063999951
0.021163821 0.031634286 0.06099999
0.022609532 0.031649522 0.060000002
0.024219055 0.031695239 0.056999981
0.025735248 0.031725716 0.054999948
0.027083822 0.031725716 0.054999948
0.028510485 0.031740952 0.05399996
0.029857155 0.031740952 0.05399996
0.031649534 0.031832382 0.047999978
0.033057149 0.031847619 0.046999991
0.034531441 0.031878095 0.044999957
0.036066674 0.031923808 0.041999996
0.037457153 0.031939048 0.040999949
0.038843822 0.031954288 0.039999962
0.040289532 0.031984761 0.037999988
0.041666675 0.032000002 0.037
0.042980962 0.032000002 0.037
0.044295248 0.032000002 0.037
0.045664772 0.032015238 0.035999954
0.047083821 0.032045715 0.033999979
0.048392389 0.032045715 0.033999979
0.049750488 0.032060951 0.032999992
0.051057152 0.032060951 0.032999992
0.05245525 0.032091431 0.030999959
0.053758107 0.032091431 0.030999959
0.055102866 0.032106668 0.029999971
0.056443818 0.032121904 0.028999984
0.057742864 0.032121904 0.028999984
0.0591143 0.032152381 0.02699995
0.060409538 0.032152381 0.02699995
0.061704773 0.032152381 0.02699995
0.063030489 0.032167621 0.025999963
0.064352393 0.032182857 0.024999976
0.065643817 0.032182857 0.024999976
0.066935249 0.032182857 0.024999976
0.06822668 0.032182857 0.024999976
0.069518104 0.032182857 0.024999976
0.070809536 0.032182857 0.024999976
0.072100967 0.032182857 0.024999976
0.073392391 0.032182857 0.024999976
0.074683823 0.032182857 0.024999976
0.075975247 0.032182857 0.024999976
0.077266678 0.032182857 0.024999976
0.07855811 0.032182857 0.024999976
0.079860963 0.032213334 0.023000002
0.08114858 0.032213334 0.023000002
0.082438104 0.032228574 0.021999955
0.083723821 0.032228574 0.021999955
0.085011438 0.032213334 0.023000002
0.086295247 0.032228574 0.021999955
0.087586679 0.032213334 0.023000002
0.088874295 0.032213334 0.023000002
0.09016192 0.032213334 0.023000002
0.091472395 0.032182857 0.024999976
0.092763819 0.032182857 0.024999976
0.09405525 0.032182857 0.024999976
0.095346674 0.032182857 0.024999976
0.096638106 0.032182857 0.024999976
0.097929537 0.032182857 0.024999976
0.09924382 0.032167621 0.025999963
0.10053715 0.032167621 0.025999963
0.10183049 0.032167621 0.025999963
0.10312382 0.032167621 0.025999963
0.10441715 0.032167621 0.025999963
0.10571049 0.032167621 0.025999963
0.10700382 0.032167621 0.025999963
0.10833334 0.032152381 0.02699995
0.10962858 0.032152381 0.02699995
0.11100382 0.032121904 0.028999984
0.11234477 0.032106668 0.029999971
0.11364572 0.032106668 0.029999971
0.11494668 0.032106668 0.029999971
0.11639049 0.032060951 0.032999992
0.11774668 0.032045715 0.033999979
0.1191581 0.032015238 0.035999954
0.12047049 0.032015238 0.035999954
0.12183811 0.032000002 0.037
0.12315239 0.032000002 0.037
0.12446668 0.032000002 0.037
0.12584192 0.031984761 0.037999988
0.12715811 0.031984761 0.037999988
0.12866858 0.031939048 0.040999949
0.13005716 0.031923808 0.041999996
0.13138098 0.031923808 0.041999996
0.13312763 0.031832382 0.047999978
0.13446286 0.031832382 0.047999978
0.13594668 0.031801905 0.049999952
0.1374381 0.031771429 0.051999986
0.13878097 0.031771429 0.051999986
0.14036381 0.031725716 0.054999948
0.14187621 0.031695239 0.056999981
0.14373145 0.031603809 0.062999964
0.14535239 0.031558096 0.065999985
0.14672191 0.031558096 0.065999985
0.14818096 0.03154286 0.066999972
0.0014190525 0.032580953 0.092000008
0.0028380975 0.032580953 0.092000008
0.0054304898 0.032727621 0.08099997
0.0068285763 0.032727621 0.08099997
0.0084323883 0.032754287 0.078999996
0.0099276304 0.03276762 0.077999949
0.01181525 0.032834288 0.072999954
0.013295248 0.032847621 0.071999967
0.014961913 0.032887619 0.069000006
0.016523816 0.032914288 0.066999972
0.017986678 0.032927617 0.065999985
0.019535251 0.032954287 0.063999951
0.021163821 0.032994285 0.06099999
0.022780962 0.033034287 0.057999969
0.024219055 0.03304762 0.056999981
0.025735248 0.03307429 0.054999948
0.027163822 0.033087619 0.05399996
0.028666675 0.033114284 0.051999986
0.030085724 0.033127621 0.050999999
0.031649534 0.033167619 0.047999978
0.033057149 0.033180952 0.046999991
0.034531441 0.033207621 0.044999957
0.036066674 0.03324762 0.041999996
0.037457153 0.033260956 0.040999949
0.038843822 0.033274285 0.039999962
0.040289532 0.033300951 0.037999988
0.041666675 0.033314288 0.037
0.042980962 0.033314288 0.037
0.044295248 0.033314288 0.037
0.045664772 0.03332762 0.035999954
0.047083821 0.033354286 0.033999979
0.048392389 0.033354286 0.033999979
0.049750488 0.033367619 0.032999992
0.051152393 0.033394285 0.030999959
0.05245525 0.033394285 0.030999959
0.053758107 0.033394285 0.030999959
0.055102866 0.033407621 0.029999971
0.056443818 0.033420954 0.028999984
0.057742864 0.033420954 0.028999984
0.0591143 0.03344762 0.02699995
0.060409538 0.03344762 0.02699995
0.061737154 0.033460952 0.025999963
0.063030489 0.033460952 0.025999963
0.064352393 0.033474285 0.024999976
0.065643817 0.033474285 0.024999976
0.066935249 0.033474285 0.024999976
0.06822668 0.033474285 0.024999976
0.069518104 0.033474285 0.024999976
0.070809536 0.033474285 0.024999976
0.072100967 0.033474285 0.024999976
0.073392391 0.033474285 0.024999976
0.074683823 0.033474285 0.024999976
0.075975247 0.033474285 0.024999976
0.077266678 0.033474285 0.024999976
0.07855811 0.033474285 0.024999976
0.079849534 0.033474285 0.024999976
0.08114858 0.033500955 0.023000002
0.082436204 0.033500955 0.023000002
0.083723821 0.033514287 0.021999955
0.085009538 0.033514287 0.021999955
0.086295247 0.033514287 0.021999955
0.087580964 0.033514287 0.021999955
0.088866681 0.033514287 0.021999955
0.09015239 0.033514287 0.021999955
0.091449536 0.033500955 0.023000002
0.092763819 0.033474285 0.024999976
0.09405525 0.033474285 0.024999976
0.095346674 0.033474285 0.024999976
0.096638106 0.033474285 0.024999976
0.097929537 0.033474285 0.024999976
0.09924382 0.033460952 0.025999963
0.10053715 0.033460952 0.025999963
0.10180382 0.033474285 0.024999976
0.10312382 0.033460952 0.025999963
0.10441715 0.033460952 0.025999963
0.10571049 0.033460952 0.025999963
0.10700382 0.033460952 0.025999963
0.10833334 0.03344762 0.02699995
0.10962858 0.03344762 0.02699995
0.11100382 0.033420954 0.028999984
0.11230287 0.033420954 0.028999984
0.11364572 0.033407621 0.029999971
0.11494668 0.033407621 0.029999971
0.11629525 0.033394285 0.030999959
0.11774668 0.033354286 0.033999979
0.1191581 0.03332762 0.035999954
0.12047049 0.03332762 0.035999954
0.12183811 0.033314288 0.037
0.12315239 0.033314288 0.037
0.12446668 0.033314288 0.037
0.12584192 0.033300951 0.037999988
0.12715811 0.033300951 0.037999988
0.12860382 0.033274285 0.039999962
0.12999049 0.033260956 0.040999949
0.13138098 0.03324762 0.041999996
0.13305715 0.033180952 0.046999991
0.13446286 0.033167619 0.047999978
0.13594668 0.033140954 0.049999952
0.1374381 0.033114284 0.051999986
0.13878097 0.033114284 0.051999986
0.14036381 0.03307429 0.054999948
0.14187621 0.03304762 0.056999981
0.14373145 0.03296762 0.062999964
0.14518097 0.032954287 0.063999951
0.14680955 0.032914288 0.066999972
0.14818096 0.032914288 0.066999972
0.0014190525 0.034000002 0.092000008
0.0028380975 0.034000002 0.092000008
0.0054304898 0.034125715 0.08099997
0.0063047707 0.034068573 0.085999966
0.008535251 0.034160003 0.077999949
0.0099276304 0.034160003 0.077999949
0.011914298 0.034228571 0.071999967
0.013780959 0.034285717 0.066999972
0.015152395 0.034285717 0.066999972
0.016617149 0.034297146 0.065999985
0.017986678 0.034297146 0.065999985
0.019535251 0.034320001 0.063999951
0.021251433 0.034365714 0.060000002
0.022780962 0.034388572 0.057999969
0.024386678 0.03442286 0.054999948
0.025735248 0.03442286 0.054999948
0.027083822 0.03442286 0.054999948
0.028666675 0.034457143 0.051999986
0.030085724 0.034468573 0.050999999
0.031649534 0.034502856 0.047999978
0.033057149 0.034514286 0.046999991
0.034531441 0.034537144 0.044999957
0.036066674 0.034571432 0.041999996
0.037457153 0.034582857 0.040999949
0.038843822 0.034594286 0.039999962
0.040289532 0.034617145 0.037999988
0.041666675 0.03462857 0.037
0.042980962 0.03462857 0.037
0.044352394 0.034640003 0.035999954
0.045664772 0.034640003 0.035999954
0.047083821 0.034662858 0.033999979
0.04844382 0.034674287 0.032999992
0.049750488 0.034674287 0.032999992
0.051152393 0.034697145 0.030999959
0.05245525 0.034697145 0.030999959
0.053801917 0.034708574 0.029999971
0.055102866 0.034708574 0.029999971
0.056443818 0.03472 0.028999984
0.057819061 0.034742858 0.02699995
0.0591143 0.034742858 0.02699995
0.060409538 0.034742858 0.02699995
0.061704773 0.034742858 0.02699995
0.063030489 0.034754287 0.025999963
0.064352393 0.034765713 0.024999976
0.065643817 0.034765713 0.024999976
0.066935249 0.034765713 0.024999976
0.06822668 0.034765713 0.024999976
0.069518104 0.034765713 0.024999976
0.070809536 0.034765713 0.024999976
0.072100967 0.034765713 0.024999976
0.073392391 0.034765713 0.024999976
0.074683823 0.034765713 0.024999976
0.075975247 0.034765713 0.024999976
0.077266678 0.034765713 0.024999976
0.07855811 0.034765713 0.024999976
0.079860963 0.034788571 0.023000002
0.08114858 0.034788571 0.023000002
0.082436204 0.034788571 0.023000002
0.083723821 0.0348 0.021999955
0.085009538 0.0348 0.021999955
0.086295247 0.0348 0.021999955
0.087580964 0.0348 0.021999955
0.088866681 0.0348 0.021999955
0.09016192 0.034788571 0.023000002
0.091449536 0.034788571 0.023000002
0.092763819 0.034765713 0.024999976
0.09405525 0.034765713 0.024999976
0.095346674 0.034765713 0.024999976
0.096638106 0.034765713 0.024999976
0.097929537 0.034765713 0.024999976
0.09924382 0.034754287 0.025999963
0.10051239 0.034765713 0.024999976
0.10180382 0.034765713 0.024999976
0.10309525 0.034765713 0.024999976
0.10441715 0.034754287 0.025999963
0.10571049 0.034754287 0.025999963
0.10700382 0.034754287 0.025999963
0.10833334 0.034742858 0.02699995
0.10962858 0.034742858 0.02699995
0.11092382 0.034742858 0.02699995
0.11230287 0.03472 0.028999984
0.11360192 0.03472 0.028999984
0.11494668 0.034708574 0.029999971
0.11629525 0.034697145 0.030999959
0.11774668 0.034662858 0.033999979
0.1191581 0.034640003 0.035999954
0.12047049 0.034640003 0.035999954
0.12183811 0.03462857 0.037
0.12315239 0.03462857 0.037
0.12446668 0.03462857 0.037
0.12578097 0.03462857 0.037
0.12709525 0.03462857 0.037
0.1284743 0.034617145 0.037999988
0.12992382 0.034594286 0.039999962
0.1313124 0.034582857 0.040999949
0.1329162 0.034537144 0.044999957
0.13439049 0.034514286 0.046999991
0.13594668 0.034480002 0.049999952
0.13736191 0.034468573 0.050999999
0.13878097 0.034457143 0.051999986
0.14028382 0.034434289 0.05399996
0.14187621 0.034400001 0.056999981
0.14356382 0.034354284 0.06099999
0.14535239 0.034297146 0.065999985
0.14672191 0.034297146 0.065999985
0.14836001 0.034262858 0.069000006
0.14973524 0.034262858 0.069000006
0.0063047707 0.035476193 0.085999966
0.0077123865 0.035476193 0.085999966
0.0098266751 0.035542857 0.078999996
0.01181525 0.035599999 0.072999954
0.013780959 0.035657145 0.066999972
0.015247628 0.035666667 0.065999985
0.016617149 0.035666667 0.065999985
0.017986678 0.035666667 0.065999985
0.019535251 0.035685714 0.063999951
0.021251433 0.035723809 0.060000002
0.022866677 0.035752382 0.056999981
0.024386678 0.03577143 0.054999948
0.025735248 0.03577143 0.054999948
0.027163822 0.035780955 0.05399996
0.028666675 0.035800003 0.051999986
0.030085724 0.035809524 0.050999999
0.031649534 0.035838097 0.047999978
0.033057149 0.035847619 0.046999991
0.034531441 0.035866667 0.044999957
0.036066674 0.03589524 0.041999996
0.037457153 0.035904765 0.040999949
0.038843822 0.035914287 0.039999962
0.040289532 0.035933334 0.037999988
0.041666675 0.03594286 0.037
0.042980962 0.03594286 0.037
0.044352394 0.035952382 0.035999954
0.045664772 0.035952382 0.035999954
0.047083821 0.035971429 0.033999979
0.04844382 0.035980955 0.032999992
0.049750488 0.035980955 0.032999992
0.051152393 0.036000002 0.030999959
0.05245525 0.036000002 0.030999959
0.053758107 0.036000002 0.030999959
0.055102866 0.036009524 0.029999971
0.056443818 0.03601905 0.028999984
0.057742864 0.03601905 0.028999984
0.0591143 0.036038097 0.02699995
0.060409538 0.036038097 0.02699995
0.061737154 0.036047619 0.025999963
0.063030489 0.036047619 0.025999963
0.064352393 0.036057144 0.024999976
0.065643817 0.036057144 0.024999976
0.066984773 0.036076192 0.023000002
0.068272389 0.036076192 0.023000002
0.069560006 0.036076192 0.023000002
0.070847631 0.036076192 0.023000002
0.072135247 0.036076192 0.023000002
0.073422864 0.036076192 0.023000002
0.074710488 0.036076192 0.023000002
0.075998105 0.036076192 0.023000002
0.077285722 0.036076192 0.023000002
0.078573346 0.036076192 0.023000002
0.079860963 0.036076192 0.023000002
0.08114858 0.036076192 0.023000002
0.082438104 0.036085717 0.021999955
0.083723821 0.036085717 0.021999955
0.085009538 0.036085717 0.021999955
0.086295247 0.036085717 0.021999955
0.087580964 0.036085717 0.021999955
0.088866681 0.036085717 0.021999955
0.09015239 0.036085717 0.021999955
0.091449536 0.036076192 0.023000002
0.092763819 0.036057144 0.024999976
0.09405525 0.036057144 0.024999976
0.095346674 0.036057144 0.024999976
0.096638106 0.036057144 0.024999976
0.097929537 0.036057144 0.024999976
0.09924382 0.036047619 0.025999963
0.10053715 0.036047619 0.025999963
0.10180382 0.036057144 0.024999976
0.10309525 0.036057144 0.024999976
0.10441715 0.036047619 0.025999963
0.10571049 0.036047619 0.025999963
0.10700382 0.036047619 0.025999963
0.10833334 0.036038097 0.02699995
0.10962858 0.036038097 0.02699995
0.11092382 0.036038097 0.02699995
0.11230287 0.03601905 0.028999984
0.11360192 0.03601905 0.028999984
0.11494668 0.036009524 0.029999971
0.11629525 0.036000002 0.030999959
0.11774668 0.035971429 0.033999979
0.1191581 0.035952382 0.035999954
0.12047049 0.035952382 0.035999954
0.12183811 0.03594286 0.037
0.12315239 0.03594286 0.037
0.12446668 0.03594286 0.037
0.12578097 0.03594286 0.037
0.12715811 0.035933334 0.037999988
0.1284743 0.035933334 0.037999988
0.12992382 0.035914287 0.039999962
0.13138098 0.03589524 0.041999996
0.1329162 0.035866667 0.044999957
0.13439049 0.035847619 0.046999991
0.13579811 0.035838097 0.047999978
0.13736191 0.035809524 0.050999999
0.13878097 0.035800003 0.051999986
0.14028382 0.035780955 0.05399996
0.14163049 0.035780955 0.05399996
0.14297715 0.035780955 0.05399996
0.1454381 0.035657145 0.066999972
0.14680955 0.035657145 0.066999972
0.14844954 0.035628572 0.069999993
0.15010096 0.035599999 0.072999954
0.15148382 0.035599999 0.072999954
0.0062000081 0.03687619 0.086999953
0.0076095387 0.03687619 0.086999953
0.0098266751 0.036937144 0.078999996
0.01181525 0.036982857 0.072999954
0.013780959 0.037028573 0.066999972
0.015247628 0.037036192 0.065999985
0.016617149 0.037036192 0.065999985
0.017986678 0.037036192 0.065999985
0.019535251 0.037051432 0.063999951
0.021426678 0.037097145 0.057999969
0.022866677 0.037104763 0.056999981
0.024386678 0.03712 0.054999948
0.025817152 0.037127621 0.05399996
0.027163822 0.037127621 0.05399996
0.028666675 0.037142858 0.051999986
0.030085724 0.037150476 0.050999999
0.031649534 0.037173335 0.047999978
0.033057149 0.037180953 0.046999991
0.034531441 0.037196193 0.044999957
0.036066674 0.037219048 0.041999996
0.037390482 0.037219048 0.041999996
0.038779058 0.037226669 0.040999949
0.040289532 0.037249524 0.037999988
0.041605722 0.037249524 0.037999988
0.042980962 0.037257142 0.037
0.044352394 0.037264764 0.035999954
0.045664772 0.037264764 0.035999954
0.047083821 0.037280001 0.033999979
0.04844382 0.037287619 0.032999992
0.049750488 0.037287619 0.032999992
0.051152393 0.037302859 0.030999959
0.05245525 0.037302859 0.030999959
0.053758107 0.037302859 0.030999959
0.055102866 0.037310477 0.029999971
0.056443818 0.037318096 0.028999984
0.057742864 0.037318096 0.028999984
0.0591143 0.037333336 0.02699995
0.060409538 0.037333336 0.02699995
0.061737154 0.037340954 0.025999963
0.063030489 0.037340954 0.025999963
0.064352393 0.037348572 0.024999976
0.065643817 0.037348572 0.024999976
0.066984773 0.037363812 0.023000002
0.068272389 0.037363812 0.023000002
0.069560006 0.037363812 0.023000002
0.070847631 0.037363812 0.023000002
0.072135247 0.037363812 0.023000002
0.073422864 0.037363812 0.023000002
0.074710488 0.037363812 0.023000002
0.075998105 0.037363812 0.023000002
0.077285722 0.037363812 0.023000002
0.078580961 0.037371431 0.021999955
0.079866678 0.037371431 0.021999955
0.081152394 0.037371431 0.021999955
0.082438104 0.037371431 0.021999955
0.083723821 0.037371431 0.021999955
0.085009538 0.037371431 0.021999955
0.086295247 0.037371431 0.021999955
0.087580964 0.037371431 0.021999955
0.088866681 0.037371431 0.021999955
0.09015239 0.037371431 0.021999955
0.091438107 0.037371431 0.021999955
0.092737153 0.037363812 0.023000002
0.094024777 0.037363812 0.023000002
0.095312394 0.037363812 0.023000002
0.096600011 0.037363812 0.023000002
0.097887635 0.037363812 0.023000002
0.099220961 0.037348572 0.024999976
0.10051239 0.037348572 0.024999976
0.10180382 0.037348572 0.024999976
0.10309525 0.037348572 0.024999976
0.10438668 0.037348572 0.024999976
0.10571049 0.037340954 0.025999963
0.1070381 0.037333336 0.02699995
0.10833334 0.037333336 0.02699995
0.10962858 0.037333336 0.02699995
0.11092382 0.037333336 0.02699995
0.11230287 0.037318096 0.028999984
0.11360192 0.037318096 0.028999984
0.11494668 0.037310477 0.029999971
0.11624763 0.037310477 0.029999971
0.11769715 0.037287619 0.032999992
0.1191581 0.037264764 0.035999954
0.12047049 0.037264764 0.035999954
0.12178287 0.037264764 0.035999954
0.12315239 0.037257142 0.037
0.12446668 0.037257142 0.037
0.12578097 0.037257142 0.037
0.12709525 0.037257142 0.037
0.1284743 0.037249524 0.037999988
0.12992382 0.037234288 0.039999962
0.1313124 0.037226669 0.040999949
0.13284573 0.037203811 0.04399997
0.13424572 0.037196193 0.044999957
0.13572383 0.037180953 0.046999991
0.13728572 0.037158098 0.049999952
0.13870287 0.037150476 0.050999999
0.14012383 0.037142858 0.051999986
0.14163049 0.037127621 0.05399996
0.14297715 0.037127621 0.05399996
0.1454381 0.037028573 0.066999972
0.14698479 0.037013333 0.069000006
0.14862859 0.036990479 0.071999967
0.15028381 0.03696762 0.074999988
0.15167049 0.03696762 0.074999988
0.0028380975 0.038257144 0.092000008
0.0042571425 0.038257144 0.092000008
0.0058857203 0.038268574 0.089999974
0.007300958 0.038268574 0.089999974
0.01053334 0.038371429 0.071999967
0.011914298 0.038371429 0.071999967
0.013489537 0.038382858 0.069999993
0.015152395 0.038400002 0.066999972
0.016617149 0.038405716 0.065999985
0.017986678 0.038405716 0.065999985
0.01962477 0.03842286 0.062999964
0.021426678 0.038451429 0.057999969
0.022866677 0.038457144 0.056999981
0.024386678 0.038468573 0.054999948
0.025817152 0.038474288 0.05399996
0.027163822 0.038474288 0.05399996
0.028666675 0.038485713 0.051999986
0.030314296 0.038508572 0.047999978
0.03172382 0.038514286 0.046999991
0.033201918 0.038525715 0.044999957
0.034601912 0.03853143 0.04399997
0.036066674 0.038542859 0.041999996
0.037390482 0.038542859 0.041999996
0.038779058 0.038548574 0.040999949
0.040289532 0.038565714 0.037999988
0.041605722 0.038565714 0.037999988
0.042980962 0.038571429 0.037
0.044352394 0.038577143 0.035999954
0.04577525 0.038588572 0.033999979
0.047137149 0.038594287 0.032999992
0.04844382 0.038594287 0.032999992
0.049849536 0.038605716 0.030999959
0.051152393 0.038605716 0.030999959
0.05245525 0.038605716 0.030999959
0.053758107 0.038605716 0.030999959
0.055060964 0.038605716 0.030999959
0.056403819 0.038611431 0.029999971
0.057742864 0.038617145 0.028999984
0.0591143 0.038628574 0.02699995
0.060409538 0.038628574 0.02699995
0.061737154 0.038634285 0.025999963
0.063030489 0.038634285 0.025999963
0.064352393 0.03864 0.024999976
0.065643817 0.03864 0.024999976
0.066984773 0.038651429 0.023000002
0.068272389 0.038651429 0.023000002
0.069560006 0.038651429 0.023000002
0.070847631 0.038651429 0.023000002
0.072100967 0.03864 0.024999976
0.073422864 0.038651429 0.023000002
0.074710488 0.038651429 0.023000002
0.076009534 0.038657144 0.021999955
0.077295251 0.038657144 0.021999955
0.078580961 0.038657144 0.021999955
0.079860963 0.038651429 0.023000002
0.081152394 0.038657144 0.021999955
0.082436204 0.038651429 0.023000002
0.083723821 0.038657144 0.021999955
0.085009538 0.038657144 0.021999955
0.086295247 0.038657144 0.021999955
0.087580964 0.038657144 0.021999955
0.088866681 0.038657144 0.021999955
0.09015239 0.038657144 0.021999955
0.091438107 0.038657144 0.021999955
0.092737153 0.038651429 0.023000002
0.094024777 0.038651429 0.023000002
0.095312394 0.038651429 0.023000002
0.096600011 0.038651429 0.023000002
0.097887635 0.038651429 0.023000002
0.099175252 0.038651429 0.023000002
0.10051239 0.03864 0.024999976
0.10180382 0.03864 0.024999976
0.10309525 0.03864 0.024999976
0.10441715 0.038634285 0.025999963
0.10571049 0.038634285 0.025999963
0.10700382 0.038634285 0.025999963
0.10829715 0.038634285 0.025999963
0.10962858 0.038628574 0.02699995
0.11092382 0.038628574 0.02699995
0.11230287 0.038617145 0.028999984
0.11360192 0.038617145 0.028999984
0.11494668 0.038611431 0.029999971
0.11629525 0.038605716 0.030999959
0.11769715 0.038594287 0.032999992
0.11900382 0.038594287 0.032999992
0.12036382 0.038588572 0.033999979
0.12167239 0.038588572 0.033999979
0.12309524 0.038577143 0.035999954
0.12440763 0.038577143 0.035999954
0.12572001 0.038577143 0.035999954
0.12709525 0.038571429 0.037
0.1284743 0.038565714 0.037999988
0.12992382 0.038554288 0.039999962
0.1313124 0.038548574 0.040999949
0.13284573 0.03853143 0.04399997
0.13417335 0.03853143 0.04399997
0.13557525 0.038525715 0.044999957
0.13713335 0.038508572 0.047999978
0.13862477 0.038497142 0.049999952
0.13996382 0.038497142 0.049999952
0.14146668 0.038485713 0.051999986
0.14280954 0.038485713 0.051999986
0.1441524 0.038485713 0.051999986
0.14698479 0.038388573 0.069000006
0.14862859 0.038371429 0.071999967
0.15000954 0.038371429 0.071999967
0.15167049 0.038354285 0.074999988
0.0028380975 0.039676193 0.092000008
0.0042571425 0.039676193 0.092000008
0.0058857203 0.039683811 0.089999974
0.007300958 0.039683811 0.089999974
0.0087161958 0.039683811 0.089999974
0.01181525 0.039748572 0.072999954
0.013489537 0.039760001 0.069999993
0.014961913 0.039763812 0.069000006
0.016523816 0.03977143 0.066999972
0.017986678 0.039775237 0.065999985
0.01962477 0.039786667 0.062999964
0.021514289 0.039809525 0.056999981
0.023038104 0.039817143 0.054999948
0.024386678 0.039817143 0.054999948
0.025817152 0.039820954 0.05399996
0.027163822 0.039820954 0.05399996
0.028666675 0.039828572 0.051999986
0.030085724 0.039832383 0.050999999
0.031649534 0.039843813 0.047999978
0.033201918 0.039855238 0.044999957
0.034601912 0.039859049 0.04399997
0.036066674 0.039866667 0.041999996
0.037390482 0.039866667 0.041999996
0.038779058 0.039870478 0.040999949
0.040289532 0.039881907 0.037999988
0.041605722 0.039881907 0.037999988
0.042980962 0.039885715 0.037
0.044352394 0.039889526 0.035999954
0.04577525 0.039897144 0.033999979
0.047083821 0.039897144 0.033999979
0.04844382 0.039900955 0.032999992
0.049849536 0.039908573 0.030999959
0.051152393 0.039908573 0.030999959
0.05245525 0.039908573 0.030999959
0.053801917 0.03991238 0.029999971
0.055102866 0.03991238 0.029999971
0.056443818 0.039916191 0.028999984
0.057742864 0.039916191 0.028999984
0.0591143 0.039923809 0.02699995
0.060409538 0.039923809 0.02699995
0.061737154 0.03992762 0.025999963
0.063030489 0.03992762 0.025999963
0.064352393 0.039931431 0.024999976
0.065643817 0.039931431 0.024999976
0.066984773 0.03993905 0.023000002
0.068272389 0.03993905 0.023000002
0.069560006 0.03993905 0.023000002
0.070847631 0.03993905 0.023000002
0.072135247 0.03993905 0.023000002
0.073438108 0.039942857 0.021999955
0.074723825 0.039942857 0.021999955
0.076009534 0.039942857 0.021999955
0.077295251 0.039942857 0.021999955
0.078580961 0.039942857 0.021999955
0.079866678 0.039942857 0.021999955
0.081152394 0.039942857 0.021999955
0.082438104 0.039942857 0.021999955
0.083723821 0.039942857 0.021999955
0.085009538 0.039942857 0.021999955
0.086299062 0.03993905 0.023000002
0.087580964 0.039942857 0.021999955
0.088866681 0.039942857 0.021999955
0.09015239 0.039942857 0.021999955
0.091438107 0.039942857 0.021999955
0.092737153 0.03993905 0.023000002
0.094024777 0.03993905 0.023000002
0.09529525 0.039942857 0.021999955
0.096580967 0.039942857 0.021999955
0.097866677 0.039942857 0.021999955
0.099175252 0.03993905 0.023000002
0.10051239 0.039931431 0.024999976
0.10180382 0.039931431 0.024999976
0.10309525 0.039931431 0.024999976
0.10438668 0.039931431 0.024999976
0.10567811 0.039931431 0.024999976
0.10700382 0.03992762 0.025999963
0.10829715 0.03992762 0.025999963
0.10959049 0.03992762 0.025999963
0.11092382 0.039923809 0.02699995
0.11230287 0.039916191 0.028999984
0.11360192 0.039916191 0.028999984
0.11494668 0.03991238 0.029999971
0.11629525 0.039908573 0.030999959
0.1175981 0.039908573 0.030999959
0.11900382 0.039900955 0.032999992
0.12036382 0.039897144 0.033999979
0.12178287 0.039889526 0.035999954
0.12298097 0.039897144 0.033999979
0.12440763 0.039889526 0.035999954
0.12578097 0.039885715 0.037
0.12709525 0.039885715 0.037
0.12860382 0.039874285 0.039999962
0.12992382 0.039874285 0.039999962
0.1313124 0.039870478 0.040999949
0.13284573 0.039859049 0.04399997
0.13417335 0.039859049 0.04399997
0.13557525 0.039855238 0.044999957
0.13713335 0.039843813 0.047999978
0.13862477 0.039836191 0.049999952
0.14012383 0.039828572 0.051999986
0.14146668 0.039828572 0.051999986
0.14280954 0.039828572 0.051999986
0.1441524 0.039828572 0.051999986
0.14698479 0.039763812 0.069000006
0.14862859 0.039752383 0.071999967
0.15000954 0.039752383 0.071999967
0.0028380975 0.041095238 0.092000008
0.0051104799 0.041110478 0.083999991
0.0062000081 0.041104764 0.086999953
0.007300958 0.041099049 0.089999974
0.0087161958 0.041099049 0.089999974
0.01181525 0.041131429 0.072999954
0.013295248 0.041133333 0.071999967
0.014961913 0.041139048 0.069000006
0.016523816 0.041142859 0.066999972
0.017986678 0.041144762 0.065999985
0.019356199 0.041144762 0.065999985
0.021514289 0.041161906 0.056999981
0.023038104 0.041165717 0.054999948
0.024386678 0.041165717 0.054999948
0.025817152 0.041167621 0.05399996
0.027163822 0.041167621 0.05399996
0.028666675 0.041171432 0.051999986
0.030161913 0.041175239 0.049999952
0.031649534 0.04117905 0.047999978
0.033201918 0.041184764 0.044999957
0.034531441 0.041184764 0.044999957
0.035929535 0.041186668 0.04399997
0.037390482 0.041190479 0.041999996
0.038714297 0.041190479 0.041999996
0.040289532 0.041198097 0.037999988
0.041605722 0.041198097 0.037999988
0.042980962 0.041200001 0.037
0.044352394 0.041201904 0.035999954
0.04577525 0.041205715 0.033999979
0.047083821 0.041205715 0.033999979
0.04844382 0.041207619 0.032999992
0.049849536 0.04121143 0.030999959
0.051152393 0.04121143 0.030999959
0.05245525 0.04121143 0.030999959
0.053801917 0.041213334 0.029999971
0.055102866 0.041213334 0.029999971
0.056443818 0.041215241 0.028999984
0.057742864 0.041215241 0.028999984
0.0591143 0.041219048 0.02699995
0.060443819 0.041220952 0.025999963
0.061737154 0.041220952 0.025999963
0.063030489 0.041220952 0.025999963
0.064352393 0.041222859 0.024999976
0.065643817 0.041222859 0.024999976
0.066984773 0.041226666 0.023000002
0.068272389 0.041226666 0.023000002
0.069560006 0.041226666 0.023000002
0.070847631 0.041226666 0.023000002
0.072152391 0.041228574 0.021999955
0.073438108 0.041228574 0.021999955
0.074723825 0.041228574 0.021999955
0.076009534 0.041228574 0.021999955
0.077295251 0.041228574 0.021999955
0.078580961 0.041228574 0.021999955
0.079866678 0.041228574 0.021999955
0.081152394 0.041228574 0.021999955
0.082438104 0.041228574 0.021999955
0.083723821 0.041228574 0.021999955
0.085009538 0.041228574 0.021999955
0.086299062 0.041226666 0.023000002
0.087586679 0.041226666 0.023000002
0.088866681 0.041228574 0.021999955
0.09015239 0.041228574 0.021999955
0.091438107 0.041228574 0.021999955
0.092737153 0.041226666 0.023000002
0.094024777 0.041226666 0.023000002
0.09529525 0.041228574 0.021999955
0.096580967 0.041228574 0.021999955
0.097866677 0.041228574 0.021999955
0.099175252 0.041226666 0.023000002
0.10051239 0.041222859 0.024999976
0.10180382 0.041222859 0.024999976
0.10309525 0.041222859 0.024999976
0.10438668 0.041222859 0.024999976
0.10567811 0.041222859 0.024999976
0.10700382 0.041220952 0.025999963
0.10829715 0.041220952 0.025999963
0.10959049 0.041220952 0.025999963
0.11092382 0.041219048 0.02699995
0.11221906 0.041219048 0.02699995
0.11360192 0.041215241 0.028999984
0.11490096 0.041215241 0.028999984
0.11624763 0.041213334 0.029999971
0.1175981 0.04121143 0.030999959
0.11900382 0.041207619 0.032999992
0.12036382 0.041205715 0.033999979
0.12167239 0.041205715 0.033999979
0.12298097 0.041205715 0.033999979
0.12440763 0.041201904 0.035999954
0.12572001 0.041201904 0.035999954
0.12709525 0.041200001 0.037
0.1284743 0.041198097 0.037999988
0.12992382 0.041194286 0.039999962
0.1313124 0.041192383 0.040999949
0.13284573 0.041186668 0.04399997
0.13417335 0.041186668 0.04399997
0.13550097 0.041186668 0.04399997
0.13713335 0.04117905 0.047999978
0.13862477 0.041175239 0.049999952
0.14004382 0.041173335 0.050999999
0.14163049 0.041167621 0.05399996
0.14297715 0.041167621 0.05399996
0.14862859 0.041133333 0.071999967
0.15000954 0.041133333 0.071999967
0.0037066713 0.042514287 0.083999991
0.0052171499 0.042514287 0.083000004
0.0065142885 0.042514287 0.083999991
0.0077123865 0.042514287 0.085999966
0.009422861 0.042514287 0.083000004
0.011518106 0.042514287 0.075999975
0.013295248 0.042514287 0.071999967
0.014866672 0.042514287 0.069999993
0.016523816 0.042514287 0.066999972
0.017986678 0.042514287 0.065999985
0.019356199 0.042514287 0.065999985
0.021251433 0.042514287 0.060000002
0.022866677 0.042514287 0.056999981
0.024386678 0.042514287 0.054999948
0.025735248 0.042514287 0.054999948
0.027163822 0.042514287 0.05399996
0.028666675 0.042514287 0.051999986
0.030161913 0.042514287 0.049999952
0.031649534 0.042514287 0.047999978
0.033201918 0.042514287 0.044999957
0.034601912 0.042514287 0.04399997
0.035929535 0.042514287 0.04399997
0.037390482 0.042514287 0.041999996
0.038714297 0.042514287 0.041999996
0.040289532 0.042514287 0.037999988
0.041605722 0.042514287 0.037999988
0.042980962 0.042514287 0.037
0.044352394 0.042514287 0.035999954
0.04577525 0.042514287 0.033999979
0.047137149 0.042514287 0.032999992
0.04844382 0.042514287 0.032999992
0.049849536 0.042514287 0.030999959
0.051152393 0.042514287 0.030999959
0.052500963 0.042514287 0.029999971
0.053801917 0.042514287 0.029999971
0.055102866 0.042514287 0.029999971
0.056443818 0.042514287 0.028999984
0.057819061 0.042514287 0.02699995
0.0591143 0.042514287 0.02699995
0.060443819 0.042514287 0.025999963
0.061737154 0.042514287 0.025999963
0.063030489 0.042514287 0.025999963
0.064352393 0.042514287 0.024999976
0.065697148 0.042514287 0.023000002
0.066984773 0.042514287 0.023000002
0.068272389 0.042514287 0.023000002
0.069580965 0.042514287 0.021999955
0.070866674 0.042514287 0.021999955
0.072169535 0.042514287 0.020999968
0.073438108 0.042514287 0.021999955
0.074737154 0.042514287 0.020999968
0.076020963 0.042514287 0.020999968
0.077304773 0.042514287 0.020999968
0.078588583 0.042514287 0.020999968
0.079866678 0.042514287 0.021999955
0.081152394 0.042514287 0.021999955
0.082438104 0.042514287 0.021999955
0.083723821 0.042514287 0.021999955
0.085009538 0.042514287 0.021999955
0.086295247 0.042514287 0.021999955
0.087580964 0.042514287 0.021999955
0.088866681 0.042514287 0.021999955
0.09015239 0.042514287 0.021999955
0.091438107 0.042514287 0.021999955
0.092723817 0.042514287 0.021999955
0.094009534 0.042514287 0.021999955
0.09529525 0.042514287 0.021999955
0.096580967 0.042514287 0.021999955
0.097866677 0.042514287 0.021999955
0.099175252 0.042514287 0.023000002
0.10051239 0.042514287 0.024999976
0.10180382 0.042514287 0.024999976
0.10309525 0.042514287 0.024999976
0.10438668 0.042514287 0.024999976
0.10567811 0.042514287 0.024999976
0.10700382 0.042514287 0.025999963
0.10829715 0.042514287 0.025999963
0.10959049 0.042514287 0.025999963
0.11088382 0.042514287 0.025999963
0.11221906 0.042514287 0.02699995
0.1135143 0.042514287 0.02699995
0.11490096 0.042514287 0.028999984
0.11624763 0.042514287 0.029999971
0.1175981 0.042514287 0.030999959
0.11890096 0.042514287 0.030999959
0.12031049 0.042514287 0.032999992
0.12167239 0.042514287 0.033999979
0.12298097 0.042514287 0.033999979
0.12440763 0.042514287 0.035999954
0.12572001 0.042514287 0.035999954
0.12709525 0.042514287 0.037
0.12860382 0.042514287 0.039999962
0.12992382 0.042514287 0.039999962
0.13138098 0.042514287 0.041999996
0.13284573 0.042514287 0.04399997
0.13417335 0.042514287 0.04399997
0.13557525 0.042514287 0.044999957
0.13713335 0.042514287 0.047999978
0.13862477 0.042514287 0.049999952
0.14028382 0.042514287 0.05399996
0.14163049 0.042514287 0.05399996
0.14297715 0.042514287 0.05399996
0.0038152412 0.043916192 0.083000004
0.0052171499 0.043916192 0.083000004
0.0065142885 0.043918096 0.083999991
0.0079180971 0.043918096 0.083999991
0.009422861 0.043916192 0.083000004
0.01132001 0.043906666 0.077999949
0.013198107 0.043897144 0.072999954
0.014866672 0.04389143 0.069999993
0.016523816 0.043885715 0.066999972
0.017895244 0.043885715 0.066999972
0.019356199 0.043883812 0.065999985
0.021163821 0.043874286 0.06099999
0.022780962 0.043868572 0.057999969
0.024386678 0.043862857 0.054999948
0.025735248 0.043862857 0.054999948
0.027163822 0.043860953 0.05399996
0.028666675 0.043857142 0.051999986
0.030314296 0.043849524 0.047999978
0.03172382 0.04384762 0.046999991
0.033274297 0.043841906 0.04399997
0.034601912 0.043841906 0.04399997
0.035929535 0.043841906 0.04399997
0.037390482 0.043838095 0.041999996
0.038714297 0.043838095 0.041999996
0.040289532 0.043830477 0.037999988
0.041605722 0.043830477 0.037999988
0.042980962 0.043828573 0.037
0.044352394 0.043826669 0.035999954
0.04577525 0.043822858 0.033999979
0.047083821 0.043822858 0.033999979
0.04844382 0.043820955 0.032999992
0.049849536 0.043817144 0.030999959
0.051152393 0.043817144 0.030999959
0.05245525 0.043817144 0.030999959
0.053758107 0.043817144 0.030999959
0.055102866 0.04381524 0.029999971
0.056443818 0.043813333 0.028999984
0.057742864 0.043813333 0.028999984
0.0591143 0.043809526 0.02699995
0.060443819 0.043807622 0.025999963
0.061737154 0.043807622 0.025999963
0.063030489 0.043807622 0.025999963
0.064409532 0.043801907 0.023000002
0.065697148 0.043801907 0.023000002
0.066984773 0.043801907 0.023000002
0.068272389 0.043801907 0.023000002
0.069580965 0.0438 0.021999955
0.070866674 0.0438 0.021999955
0.072152391 0.0438 0.021999955
0.073438108 0.0438 0.021999955
0.074737154 0.043798096 0.020999968
0.076020963 0.043798096 0.020999968
0.077304773 0.043798096 0.020999968
0.078588583 0.043798096 0.020999968
0.079872392 0.043798096 0.020999968
0.081152394 0.0438 0.021999955
0.082440011 0.043798096 0.020999968
0.083723821 0.043798096 0.020999968
0.085009538 0.0438 0.021999955
0.086295247 0.0438 0.021999955
0.087580964 0.0438 0.021999955
0.088866681 0.0438 0.021999955
0.09015239 0.0438 0.021999955
0.091438107 0.0438 0.021999955
0.092723817 0.0438 0.021999955
0.094009534 0.0438 0.021999955
0.09529525 0.0438 0.021999955
0.096580967 0.0438 0.021999955
0.097866677 0.0438 0.021999955
0.099175252 0.043801907 0.023000002
0.10046287 0.043801907 0.023000002
0.10175049 0.043801907 0.023000002
0.10303811 0.043801907 0.023000002
0.10438668 0.043805715 0.024999976
0.10567811 0.043805715 0.024999976
0.10696954 0.043805715 0.024999976
0.10826097 0.043805715 0.024999976
0.10959049 0.043807622 0.025999963
0.11088382 0.043807622 0.025999963
0.11221906 0.043809526 0.02699995
0.1135143 0.043809526 0.02699995
0.11490096 0.043813333 0.028999984
0.11624763 0.04381524 0.029999971
0.1175981 0.043817144 0.030999959
0.11890096 0.043817144 0.030999959
0.12031049 0.043820955 0.032999992
0.12167239 0.043822858 0.033999979
0.12298097 0.043822858 0.033999979
0.12440763 0.043826669 0.035999954
