# .PCD v0.7 - Point Cloud Data file format
VERSION 0.7
FIELDS x y z
SIZE 4 4 4
TYPE F F F
COUNT 1 1 1
WIDTH 1348
HEIGHT 1
VIEWPOINT 0 0 0 0 1 0 0
POINTS 1348
DATA ascii
0.11663048 0.056912385 0.016000032
0.11818286 0.057087623 0.020000041
0.11967619 0.057219051 0.023000002
0.12102857 0.05726286 0.023999989
0.12238476 0.05730667 0.025000036
0.12366477 0.05730667 0.025000036
0.12494476 0.05730667 0.025000036
0.12639238 0.057394288 0.02700001
0.1277619 0.057438098 0.027999997
0.12913524 0.057481907 0.029000044
0.13060191 0.057569526 0.031000018
0.13198477 0.057613336 0.032000005
0.1332781 0.057613336 0.032000005
0.13466667 0.057657145 0.032999992
0.13625333 0.057788573 0.036000013
0.13765332 0.057832383 0.037
0.13895619 0.057832383 0.037
0.14025904 0.057832383 0.037
0.00019046664 0.061329529 0.085000038
0.0019580945 0.061146669 0.08100003
0.0033447593 0.061146669 0.08100003
0.0049104691 0.061055236 0.078999996
0.0063809454 0.061009526 0.078000009
0.0081904717 0.060780957 0.073000014
0.0098133311 0.060643807 0.069999993
0.011424758 0.060506672 0.067000031
0.013104755 0.060323812 0.063000023
0.01461333 0.060232379 0.06099999
0.016190473 0.060095243 0.058000028
0.017904758 0.059866667 0.053000033
0.019455235 0.059729524 0.050000012
0.020994283 0.059592381 0.046999991
0.022521902 0.059455238 0.04400003
0.024171423 0.059226669 0.039000034
0.025607616 0.059135236 0.037
0.026973329 0.059089527 0.036000013
0.028457139 0.05895238 0.032999992
0.029752377 0.05895238 0.032999992
0.031104758 0.058906667 0.032000005
0.032563806 0.058769524 0.029000044
0.033904761 0.058723811 0.027999997
0.035190474 0.058723811 0.027999997
0.036476187 0.058723811 0.027999997
0.037904758 0.058586672 0.025000036
0.039230473 0.058540955 0.023999989
0.040552378 0.058495238 0.023000002
0.041870475 0.058449522 0.022000015
0.043144759 0.058449522 0.022000015
0.044495232 0.058358096 0.020000041
0.0458019 0.058312379 0.018999994
0.047104761 0.05826667 0.018000007
0.048436187 0.05817524 0.016000032
0.049699046 0.05817524 0.016000032
0.05099047 0.058129527 0.015000045
0.052278094 0.05808381 0.013999999
0.053537138 0.05808381 0.013999999
0.054819047 0.058038093 0.013000011
0.056118093 0.057946671 0.011000037
0.057371426 0.057946671 0.011000037
0.058624759 0.057946671 0.011000037
0.059878092 0.057946671 0.011000037
0.061144762 0.05790095 0.0099999905
0.062396187 0.05790095 0.0099999905
0.063647613 0.05790095 0.0099999905
0.064906664 0.057855241 0.0090000033
0.066156186 0.057855241 0.0090000033
0.067405716 0.057855241 0.0090000033
0.068655238 0.057855241 0.0090000033
0.06990476 0.057855241 0.0090000033
0.071152382 0.057809524 0.0080000162
0.072399996 0.057809524 0.0080000162
0.073647618 0.057809524 0.0080000162
0.074895233 0.057809524 0.0080000162
0.076142855 0.057809524 0.0080000162
0.077390477 0.057809524 0.0080000162
0.078638092 0.057809524 0.0080000162
0.07990095 0.057855241 0.0090000033
0.081150472 0.057855241 0.0090000033
0.082399994 0.057855241 0.0090000033
0.083649524 0.057855241 0.0090000033
0.084899046 0.057855241 0.0090000033
0.086148567 0.057855241 0.0090000033
0.087398097 0.057855241 0.0090000033
0.088647619 0.057855241 0.0090000033
0.089897141 0.057855241 0.0090000033
0.091146663 0.057855241 0.0090000033
0.092396185 0.057855241 0.0090000033
0.093681902 0.05790095 0.0099999905
0.094933331 0.05790095 0.0099999905
0.09618476 0.05790095 0.0099999905
0.09743619 0.05790095 0.0099999905
0.098687619 0.05790095 0.0099999905
0.099939048 0.05790095 0.0099999905
0.10119048 0.05790095 0.0099999905
0.10244191 0.05790095 0.0099999905
0.10374476 0.057946671 0.011000037
0.1049981 0.057946671 0.011000037
0.10625143 0.057946671 0.011000037
0.10761905 0.058038093 0.013000011
0.10893524 0.05808381 0.013999999
0.11025524 0.058129527 0.015000045
0.11151619 0.058129527 0.015000045
0.1128419 0.05817524 0.016000032
0.11410476 0.05817524 0.016000032
0.11536762 0.05817524 0.016000032
0.11663048 0.05817524 0.016000032
0.11818286 0.058358096 0.020000041
0.11967619 0.058495238 0.023000002
0.12102857 0.058540955 0.023999989
0.12230666 0.058540955 0.023999989
0.12366477 0.058586672 0.025000036
0.12494476 0.058586672 0.025000036
0.12639238 0.058678098 0.02700001
0.1277619 0.058723811 0.027999997
0.12913524 0.058769524 0.029000044
0.13060191 0.058860958 0.031000018
0.13189334 0.058860958 0.031000018
0.1332781 0.058906667 0.032000005
0.13466667 0.05895238 0.032999992
0.13625333 0.059089527 0.036000013
0.13785142 0.059226669 0.039000034
0.13956191 0.059409529 0.043000042
0.14097905 0.059455238 0.04400003
0.14250475 0.059546664 0.046000004
0.14382476 0.059546664 0.046000004
0.00019046664 0.062723815 0.085000038
0.0019580945 0.062533334 0.08100003
0.0033447593 0.062533334 0.08100003
0.0049104691 0.062438093 0.078999996
0.0063809454 0.062390476 0.078000009
0.0081904717 0.062152378 0.073000014
0.0098133311 0.062009521 0.069999993
0.011506662 0.061819047 0.066000044
0.013104755 0.061676189 0.063000023
0.014691424 0.061533339 0.060000002
0.016342852 0.061342858 0.055999994
0.017904758 0.0612 0.053000033
0.019455235 0.061057143 0.050000012
0.020923804 0.06096191 0.048000038
0.022521902 0.060771428 0.04400003
0.024104755 0.060580954 0.040000021
0.025478091 0.060533337 0.039000034
0.026910473 0.060438097 0.037
0.028335232 0.060342856 0.035000026
0.029752377 0.060247622 0.032999992
0.031104758 0.060199998 0.032000005
0.032563806 0.060057148 0.029000044
0.033904761 0.060009524 0.027999997
0.035190474 0.060009524 0.027999997
0.036525711 0.059961908 0.02700001
0.037904758 0.059866667 0.025000036
0.039230473 0.05981905 0.023999989
0.040508568 0.05981905 0.023999989
0.041870475 0.059723809 0.022000015
0.043224759 0.059628576 0.020000041
0.044495232 0.059628576 0.020000041
0.0458019 0.059580952 0.018999994
0.047104761 0.059533335 0.018000007
0.048371427 0.059533335 0.018000007
0.049699046 0.059438094 0.016000032
0.05099047 0.059390478 0.015000045
0.052251425 0.059390478 0.015000045
0.053537138 0.059342854 0.013999999
0.054819047 0.059295237 0.013000011
0.056118093 0.059200004 0.011000037
0.057371426 0.059200004 0.011000037
0.058624759 0.059200004 0.011000037
0.059878092 0.059200004 0.011000037
0.061131425 0.059200004 0.011000037
0.062396187 0.05915238 0.0099999905
0.063647613 0.05915238 0.0099999905
0.064906664 0.059104763 0.0090000033
0.066156186 0.059104763 0.0090000033
0.067405716 0.059104763 0.0090000033
0.068655238 0.059104763 0.0090000033
0.06990476 0.059104763 0.0090000033
0.071152382 0.059057143 0.0080000162
0.072399996 0.059057143 0.0080000162
0.073647618 0.059057143 0.0080000162
0.074902855 0.059104763 0.0090000033
0.076152377 0.059104763 0.0090000033
0.077401906 0.059104763 0.0090000033
0.078651428 0.059104763 0.0090000033
0.07990095 0.059104763 0.0090000033
0.081150472 0.059104763 0.0090000033
0.082399994 0.059104763 0.0090000033
0.083649524 0.059104763 0.0090000033
0.084899046 0.059104763 0.0090000033
0.086148567 0.059104763 0.0090000033
0.087398097 0.059104763 0.0090000033
0.088647619 0.059104763 0.0090000033
0.089897141 0.059104763 0.0090000033
0.091179043 0.05915238 0.0099999905
0.092430472 0.05915238 0.0099999905
0.093681902 0.05915238 0.0099999905
0.094933331 0.05915238 0.0099999905
0.09618476 0.05915238 0.0099999905
0.09743619 0.05915238 0.0099999905
0.098687619 0.05915238 0.0099999905
0.099984765 0.059200004 0.011000037
0.10119048 0.05915238 0.0099999905
0.10249143 0.059200004 0.011000037
0.10374476 0.059200004 0.011000037
0.1049981 0.059200004 0.011000037
0.1063619 0.059295237 0.013000011
0.10761905 0.059295237 0.013000011
0.10893524 0.059342854 0.013999999
0.11025524 0.059390478 0.015000045
0.11157905 0.059438094 0.016000032
0.1128419 0.059438094 0.016000032
0.11410476 0.059438094 0.016000032
0.11536762 0.059438094 0.016000032
0.11677143 0.059533335 0.018000007
0.11818286 0.059628576 0.020000041
0.11960191 0.059723809 0.022000015
0.12095238 0.059771426 0.023000002
0.12230666 0.05981905 0.023999989
0.12366477 0.059866667 0.025000036
0.12494476 0.059866667 0.025000036
0.12639238 0.059961908 0.02700001
0.1277619 0.060009524 0.027999997
0.12913524 0.060057148 0.029000044
0.13060191 0.060152382 0.031000018
0.13189334 0.060152382 0.031000018
0.1332781 0.060199998 0.032000005
0.13466667 0.060247622 0.032999992
0.13625333 0.06039048 0.036000013
0.13795048 0.060580954 0.040000021
0.13956191 0.060723811 0.043000042
0.14097905 0.060771428 0.04400003
0.14260952 0.060914285 0.046999991
0.14393142 0.060914285 0.046999991
0.14525333 0.060914285 0.046999991
0.00019046664 0.064118095 0.085000038
0.0019580945 0.063920006 0.08100003
0.0033447593 0.063920006 0.08100003
0.0049104691 0.063820951 0.078999996
0.0068190396 0.063523814 0.073000014
0.0081904717 0.063523814 0.073000014
0.0098133311 0.063375242 0.069999993
0.011506662 0.063177146 0.066000044
0.013104755 0.063028574 0.063000023
0.014691424 0.062880002 0.060000002
0.016342852 0.062681906 0.055999994
0.017904758 0.062533334 0.053000033
0.019455235 0.062384762 0.050000012
0.020994283 0.06223619 0.046999991
0.022521902 0.062087625 0.04400003
0.023971427 0.06198857 0.041999996
0.025413327 0.061889529 0.040000021
0.026784755 0.061839998 0.039000034
0.028274283 0.061691433 0.036000013
0.029752377 0.061542861 0.032999992
0.031047616 0.061542861 0.032999992
0.032453328 0.061443813 0.031000018
0.033904761 0.061295241 0.027999997
0.035190474 0.061295241 0.027999997
0.036525711 0.061245717 0.02700001
0.037904758 0.061146669 0.025000036
0.039230473 0.061097138 0.023999989
0.040508568 0.061097138 0.023999989
0.041870475 0.060998097 0.022000015
0.043224759 0.060899049 0.020000041
0.044533331 0.060849525 0.018999994
0.045838095 0.060800001 0.018000007
0.047104761 0.060800001 0.018000007
0.048371427 0.060800001 0.018000007
0.049699046 0.060700953 0.016000032
0.05099047 0.060651429 0.015000045
0.052251425 0.060651429 0.015000045
0.053537138 0.060601905 0.013999999
0.054796189 0.060601905 0.013999999
0.056076188 0.060552381 0.013000011
0.057333332 0.060552381 0.013000011
0.058590472 0.060552381 0.013000011
0.059878092 0.06045334 0.011000037
0.061144762 0.060403809 0.0099999905
0.062396187 0.060403809 0.0099999905
0.063647613 0.060403809 0.0099999905
0.064899042 0.060403809 0.0099999905
0.066150472 0.060403809 0.0099999905
0.067405716 0.060354285 0.0090000033
0.068655238 0.060354285 0.0090000033
0.06990476 0.060354285 0.0090000033
0.071154281 0.060354285 0.0090000033
0.072403803 0.060354285 0.0090000033
0.073653333 0.060354285 0.0090000033
0.074902855 0.060354285 0.0090000033
0.076152377 0.060354285 0.0090000033
0.077401906 0.060354285 0.0090000033
0.078651428 0.060354285 0.0090000033
0.07990095 0.060354285 0.0090000033
0.081150472 0.060354285 0.0090000033
0.082399994 0.060354285 0.0090000033
0.083649524 0.060354285 0.0090000033
0.084899046 0.060354285 0.0090000033
0.086148567 0.060354285 0.0090000033
0.087398097 0.060354285 0.0090000033
0.088647619 0.060354285 0.0090000033
0.089927614 0.060403809 0.0099999905
0.091179043 0.060403809 0.0099999905
0.092430472 0.060403809 0.0099999905
0.093681902 0.060403809 0.0099999905
0.094933331 0.060403809 0.0099999905
0.09618476 0.060403809 0.0099999905
0.09743619 0.060403809 0.0099999905
0.098687619 0.060403809 0.0099999905
0.099939048 0.060403809 0.0099999905
0.10123809 0.06045334 0.011000037
0.10249143 0.06045334 0.011000037
0.10374476 0.06045334 0.011000037
0.1049981 0.06045334 0.011000037
0.1063619 0.060552381 0.013000011
0.10767619 0.060601905 0.013999999
0.10893524 0.060601905 0.013999999
0.11025524 0.060651429 0.015000045
0.11151619 0.060651429 0.015000045
0.1128419 0.060700953 0.016000032
0.11410476 0.060700953 0.016000032
0.11536762 0.060700953 0.016000032
0.11677143 0.060800001 0.018000007
0.11818286 0.060899049 0.020000041
0.11960191 0.060998097 0.022000015
0.12095238 0.061047621 0.023000002
0.12230666 0.061097138 0.023999989
0.12358476 0.061097138 0.023999989
0.12494476 0.061146669 0.025000036
0.12639238 0.061245717 0.02700001
0.1277619 0.061295241 0.027999997
0.12904762 0.061295241 0.027999997
0.13042286 0.061344765 0.029000044
0.13189334 0.061443813 0.031000018
0.1332781 0.061493337 0.032000005
0.13466667 0.061542861 0.032999992
0.13625333 0.061691433 0.036000013
0.13814858 0.06198857 0.041999996
0.13956191 0.062038101 0.043000042
0.14118476 0.062186666 0.046000004
0.14250475 0.062186666 0.046000004
0.14393142 0.06223619 0.046999991
0.14525333 0.06223619 0.046999991
0.14668572 0.062285714 0.048000038
0.14800954 0.062285714 0.048000038
0.0019580945 0.065306671 0.08100003
0.0033447593 0.065306671 0.08100003
0.0049999952 0.065152384 0.078000009
0.0068190396 0.064895242 0.073000014
0.0082761832 0.064843811 0.072000027
0.0098133311 0.064740956 0.069999993
0.011260949 0.064689524 0.069000006
0.012784753 0.064586669 0.067000031
0.01461333 0.064278096 0.06099999
0.016723808 0.063763812 0.050999999
0.01805333 0.063763812 0.050999999
0.019455235 0.063712381 0.050000012
0.020994283 0.063558094 0.046999991
0.022521902 0.063403815 0.04400003
0.023971427 0.063300952 0.041999996
0.025413327 0.063198097 0.040000021
0.026784755 0.063146666 0.039000034
0.02821333 0.06304381 0.037
0.029634278 0.062940955 0.035000026
0.031047616 0.0628381 0.032999992
0.032398093 0.062786669 0.032000005
0.033851422 0.062632382 0.029000044
0.035190474 0.062580951 0.027999997
0.036525711 0.062529527 0.02700001
0.037904758 0.062426671 0.025000036
0.039230473 0.06237524 0.023999989
0.040552378 0.062323809 0.023000002
0.041870475 0.062272385 0.022000015
0.043224759 0.062169522 0.020000041
0.044533331 0.062118098 0.018999994
0.045838095 0.062066667 0.018000007
0.047104761 0.062066667 0.018000007
0.048371427 0.062066667 0.018000007
0.049699046 0.061963812 0.016000032
0.05099047 0.061912388 0.015000045
0.052251425 0.061912388 0.015000045
0.053537138 0.061860956 0.013999999
0.054819047 0.061809525 0.013000011
0.056118093 0.06170667 0.011000037
0.057371426 0.06170667 0.011000037
0.058590472 0.061809525 0.013000011
0.059878092 0.06170667 0.011000037
0.061144762 0.061655238 0.0099999905
0.062396187 0.061655238 0.0099999905
0.063647613 0.061655238 0.0099999905
0.064906664 0.061603807 0.0090000033
0.066156186 0.061603807 0.0090000033
0.067405716 0.061603807 0.0090000033
0.068655238 0.061603807 0.0090000033
0.06990476 0.061603807 0.0090000033
0.071154281 0.061603807 0.0090000033
0.072403803 0.061603807 0.0090000033
0.073653333 0.061603807 0.0090000033
0.074902855 0.061603807 0.0090000033
0.076152377 0.061603807 0.0090000033
0.077401906 0.061603807 0.0090000033
0.078651428 0.061603807 0.0090000033
0.07990095 0.061603807 0.0090000033
0.081150472 0.061603807 0.0090000033
0.082399994 0.061603807 0.0090000033
0.083649524 0.061603807 0.0090000033
0.084899046 0.061603807 0.0090000033
0.086148567 0.061603807 0.0090000033
0.087424755 0.061655238 0.0099999905
0.088676184 0.061655238 0.0099999905
0.089927614 0.061655238 0.0099999905
0.091179043 0.061655238 0.0099999905
0.092430472 0.061655238 0.0099999905
0.093681902 0.061655238 0.0099999905
0.094933331 0.061655238 0.0099999905
0.09618476 0.061655238 0.0099999905
0.09743619 0.061655238 0.0099999905
0.098687619 0.061655238 0.0099999905
0.099984765 0.06170667 0.011000037
0.10123809 0.06170667 0.011000037
0.10259047 0.061809525 0.013000011
0.10384762 0.061809525 0.013000011
0.10515809 0.061860956 0.013999999
0.10641714 0.061860956 0.013999999
0.10773334 0.061912388 0.015000045
0.10899429 0.061912388 0.015000045
0.11025524 0.061912388 0.015000045
0.11151619 0.061912388 0.015000045
0.1128419 0.061963812 0.016000032
0.11410476 0.061963812 0.016000032
0.11536762 0.061963812 0.016000032
0.1168419 0.062118098 0.018999994
0.11818286 0.062169522 0.020000041
0.11960191 0.062272385 0.022000015
0.12095238 0.062323809 0.023000002
0.12222857 0.062323809 0.023000002
0.12358476 0.06237524 0.023999989
0.12494476 0.062426671 0.025000036
0.12639238 0.062529527 0.02700001
0.1277619 0.062580951 0.027999997
0.12904762 0.062580951 0.027999997
0.13042286 0.062632382 0.029000044
0.13189334 0.062735245 0.031000018
0.1332781 0.062786669 0.032000005
0.13457143 0.062786669 0.032000005
0.13635048 0.06304381 0.037
0.13814858 0.063300952 0.041999996
0.13956191 0.063352384 0.043000042
0.14087619 0.063352384 0.043000042
0.14229524 0.063403815 0.04400003
0.14382476 0.06350667 0.046000004
0.14525333 0.063558094 0.046999991
0.14657524 0.063558094 0.046999991
0.14800954 0.063609526 0.048000038
0.0049999952 0.066533335 0.078000009
0.0069066659 0.06621334 0.072000027
0.0084476173 0.06610667 0.069999993
0.0098971389 0.066053331 0.069000006
0.011424758 0.065946668 0.067000031
0.012864754 0.065893337 0.066000044
0.014222853 0.065893337 0.066000044
0.015961904 0.065626666 0.06099999
0.01805333 0.065093331 0.050999999
0.019455235 0.06504 0.050000012
0.020994283 0.064879999 0.046999991
0.022521902 0.064720005 0.04400003
0.023971427 0.064613335 0.041999996
0.025413327 0.064506665 0.040000021
0.026784755 0.064453341 0.039000034
0.02821333 0.064346671 0.037
0.029575236 0.064293332 0.036000013
0.030876186 0.064293332 0.036000013
0.032453328 0.064026669 0.031000018
0.033851422 0.063920006 0.029000044
0.035190474 0.063866667 0.027999997
0.036525711 0.063813336 0.02700001
0.037904758 0.063706674 0.025000036
0.039230473 0.063653335 0.023999989
0.040508568 0.063653335 0.023999989
0.041870475 0.063546665 0.022000015
0.043224759 0.063440003 0.020000041
0.044495232 0.063440003 0.020000041
0.0458019 0.063386671 0.018999994
0.047104761 0.063333333 0.018000007
0.048371427 0.063333333 0.018000007
0.049638093 0.063333333 0.018000007
0.05099047 0.063173339 0.015000045
0.052251425 0.063173339 0.015000045
0.05351238 0.063173339 0.015000045
0.054796189 0.06312 0.013999999
0.056076188 0.063066669 0.013000011
0.057333332 0.063066669 0.013000011
0.058590472 0.063066669 0.013000011
0.059878092 0.062960006 0.011000037
0.061131425 0.062960006 0.011000037
0.062396187 0.062906668 0.0099999905
0.063647613 0.062906668 0.0099999905
0.064899042 0.062906668 0.0099999905
0.066150472 0.062906668 0.0099999905
0.067405716 0.062853336 0.0090000033
0.068655238 0.062853336 0.0090000033
0.06990476 0.062853336 0.0090000033
0.071154281 0.062853336 0.0090000033
0.072403803 0.062853336 0.0090000033
0.073653333 0.062853336 0.0090000033
0.074902855 0.062853336 0.0090000033
0.076152377 0.062853336 0.0090000033
0.077401906 0.062853336 0.0090000033
0.078651428 0.062853336 0.0090000033
0.079916187 0.062906668 0.0099999905
0.081150472 0.062853336 0.0090000033
0.082399994 0.062853336 0.0090000033
0.083670475 0.062906668 0.0099999905
0.084921904 0.062906668 0.0099999905
0.086173333 0.062906668 0.0099999905
0.087424755 0.062906668 0.0099999905
0.088676184 0.062906668 0.0099999905
0.089927614 0.062906668 0.0099999905
0.091211423 0.062960006 0.011000037
0.092430472 0.062906668 0.0099999905
0.093681902 0.062906668 0.0099999905
0.094933331 0.062906668 0.0099999905
0.09618476 0.062906668 0.0099999905
0.09743619 0.062906668 0.0099999905
0.098731428 0.062960006 0.011000037
0.099984765 0.062960006 0.011000037
0.10133334 0.063066669 0.013000011
0.10259047 0.063066669 0.013000011
0.10389905 0.06312 0.013999999
0.10515809 0.06312 0.013999999
0.10647238 0.063173339 0.015000045
0.10773334 0.063173339 0.015000045
0.10899429 0.063173339 0.015000045
0.11025524 0.063173339 0.015000045
0.11157905 0.06322667 0.016000032
0.1128419 0.06322667 0.016000032
0.1142381 0.063333333 0.018000007
0.11550476 0.063333333 0.018000007
0.1168419 0.063386671 0.018999994
0.11818286 0.063440003 0.020000041
0.11960191 0.063546665 0.022000015
0.12087619 0.063546665 0.022000015
0.12222857 0.063600004 0.023000002
0.12358476 0.063653335 0.023999989
0.12494476 0.063706674 0.025000036
0.12639238 0.063813336 0.02700001
0.12767619 0.063813336 0.02700001
0.12904762 0.063866667 0.027999997
0.13042286 0.063920006 0.029000044
0.13189334 0.064026669 0.031000018
0.1332781 0.06408 0.032000005
0.13457143 0.06408 0.032000005
0.13596191 0.064133339 0.032999992
0.13824762 0.064666666 0.043000042
0.13986476 0.064826667 0.046000004
0.14118476 0.064826667 0.046000004
0.14229524 0.064720005 0.04400003
0.14350477 0.064666666 0.043000042
0.14492762 0.064720005 0.04400003
0.14624381 0.064720005 0.04400003
0.0069066659 0.067582861 0.072000027
0.0084476173 0.067472376 0.069999993
0.0098971389 0.067417145 0.069000006
0.011424758 0.067306668 0.067000031
0.012864754 0.067251429 0.066000044
0.014222853 0.067251429 0.066000044
0.015733331 0.067140952 0.06400001
0.017087616 0.067140952 0.06400001
0.019889519 0.066036195 0.04400003
0.021205708 0.066036195 0.04400003
0.022521902 0.066036195 0.04400003
0.023971427 0.065925717 0.041999996
0.025413327 0.06581524 0.040000021
0.026721898 0.06581524 0.040000021
0.028091423 0.065760002 0.039000034
0.029516187 0.065649524 0.037
0.030933328 0.065539055 0.035000026
0.032398093 0.065373331 0.032000005
0.033851422 0.065207623 0.029000044
0.035190474 0.065152384 0.027999997
0.036476187 0.065152384 0.027999997
0.037809521 0.065097146 0.02700001
0.039184757 0.064986669 0.025000036
0.040508568 0.06493143 0.023999989
0.041870475 0.064820953 0.022000015
0.043224759 0.064710483 0.020000041
0.044533331 0.064655237 0.018999994
0.0458019 0.064655237 0.018999994
0.047104761 0.064599998 0.018000007
0.048371427 0.064599998 0.018000007
0.049638093 0.064599998 0.018000007
0.05099047 0.06443429 0.015000045
0.052278094 0.064379051 0.013999999
0.053537138 0.064379051 0.013999999
0.054796189 0.064379051 0.013999999
0.056076188 0.064323813 0.013000011
0.057333332 0.064323813 0.013000011
0.058590472 0.064323813 0.013000011
0.059878092 0.064213336 0.011000037
0.061131425 0.064213336 0.011000037
0.062396187 0.064158097 0.0099999905
0.063647613 0.064158097 0.0099999905
0.064899042 0.064158097 0.0099999905
0.066150472 0.064158097 0.0099999905
0.067405716 0.064102858 0.0090000033
0.068655238 0.064102858 0.0090000033
0.06990476 0.064102858 0.0090000033
0.071154281 0.064102858 0.0090000033
0.072403803 0.064102858 0.0090000033
0.073653333 0.064102858 0.0090000033
0.074902855 0.064102858 0.0090000033
0.076161906 0.064158097 0.0099999905
0.077401906 0.064102858 0.0090000033
0.078651428 0.064102858 0.0090000033
0.079916187 0.064158097 0.0099999905
0.081150472 0.064102858 0.0090000033
0.082399994 0.064102858 0.0090000033
0.083649524 0.064102858 0.0090000033
0.084921904 0.064158097 0.0099999905
0.086173333 0.064158097 0.0099999905
0.087424755 0.064158097 0.0099999905
0.088676184 0.064158097 0.0099999905
0.089958094 0.064213336 0.011000037
0.091211423 0.064213336 0.011000037
0.092430472 0.064158097 0.0099999905
0.093718097 0.064213336 0.011000037
0.094971426 0.064213336 0.011000037
0.096224762 0.064213336 0.011000037
0.097478092 0.064213336 0.011000037
0.098731428 0.064213336 0.011000037
0.10007618 0.064323813 0.013000011
0.10133334 0.064323813 0.013000011
0.10264 0.064379051 0.013999999
0.10395048 0.06443429 0.015000045
0.10521143 0.06443429 0.015000045
0.10647238 0.06443429 0.015000045
0.10773334 0.06443429 0.015000045
0.10899429 0.06443429 0.015000045
0.11025524 0.06443429 0.015000045
0.11157905 0.064489529 0.016000032
0.1128419 0.064489529 0.016000032
0.1142381 0.064599998 0.018000007
0.11550476 0.064599998 0.018000007
0.1168419 0.064655237 0.018999994
0.11818286 0.064710483 0.020000041
0.11960191 0.064820953 0.022000015
0.12095238 0.064876191 0.023000002
0.12222857 0.064876191 0.023000002
0.12358476 0.06493143 0.023999989
0.12494476 0.064986669 0.025000036
0.12639238 0.065097146 0.02700001
0.1277619 0.065152384 0.027999997
0.12913524 0.065207623 0.029000044
0.13060191 0.0653181 0.031000018
0.13189334 0.0653181 0.031000018
0.1332781 0.065373331 0.032000005
0.13466667 0.06542857 0.032999992
0.13596191 0.06542857 0.032999992
0.13814858 0.065925717 0.041999996
0.13966286 0.066036195 0.04400003
0.14118476 0.066146664 0.046000004
0.14219049 0.065980956 0.043000042
0.14339809 0.065925717 0.041999996
0.14481905 0.065980956 0.043000042
0.14613333 0.065980956 0.043000042
0.14744762 0.065980956 0.043000042
0.1487619 0.065980956 0.043000042
0.0069066659 0.068952382 0.072000027
0.0082761832 0.068952382 0.072000027
0.0098971389 0.068780959 0.069000006
0.011424758 0.068666674 0.067000031
0.012864754 0.068609528 0.066000044
0.014379043 0.068495236 0.06400001
0.015809517 0.068438098 0.063000023
0.017161898 0.068438098 0.063000023
0.018514279 0.068438098 0.063000023
0.021205708 0.067352384 0.04400003
0.022521902 0.067352384 0.04400003
0.023971427 0.067238092 0.041999996
0.025413327 0.067123808 0.040000021
0.026721898 0.067123808 0.040000021
0.028091423 0.067066669 0.039000034
0.029516187 0.066952385 0.037
0.030876186 0.066895239 0.036000013
0.032398093 0.06666667 0.032000005
0.033744756 0.066609524 0.031000018
0.035139043 0.06649524 0.029000044
0.036476187 0.066438094 0.027999997
0.037809521 0.066380955 0.02700001
0.039184757 0.066266671 0.025000036
0.040508568 0.066209525 0.023999989
0.041870475 0.06609524 0.022000015
0.043224759 0.065980956 0.020000041
0.044533331 0.06592381 0.018999994
0.045838095 0.065866672 0.018000007
0.047104761 0.065866672 0.018000007
0.048371427 0.065866672 0.018000007
0.049638093 0.065866672 0.018000007
0.05099047 0.065695241 0.015000045
0.052278094 0.065638095 0.013999999
0.053537138 0.065638095 0.013999999
0.054796189 0.065638095 0.013999999
0.056055237 0.065638095 0.013999999
0.057333332 0.065580957 0.013000011
0.058590472 0.065580957 0.013000011
0.059847616 0.065580957 0.013000011
0.061131425 0.065466672 0.011000037
0.062384758 0.065466672 0.011000037
0.063647613 0.065409526 0.0099999905
0.064899042 0.065409526 0.0099999905
0.066150472 0.065409526 0.0099999905
0.067401901 0.065409526 0.0099999905
0.068655238 0.06535238 0.0090000033
0.06990476 0.06535238 0.0090000033
0.071154281 0.06535238 0.0090000033
0.072403803 0.06535238 0.0090000033
0.073653333 0.06535238 0.0090000033
0.074902855 0.06535238 0.0090000033
0.076161906 0.065409526 0.0099999905
0.077401906 0.06535238 0.0090000033
0.078651428 0.06535238 0.0090000033
0.079916187 0.065409526 0.0099999905
0.081150472 0.06535238 0.0090000033
0.082399994 0.06535238 0.0090000033
0.083670475 0.065409526 0.0099999905
0.084921904 0.065409526 0.0099999905
0.086173333 0.065409526 0.0099999905
0.087424755 0.065409526 0.0099999905
0.088704765 0.065466672 0.011000037
0.089958094 0.065466672 0.011000037
0.091211423 0.065466672 0.011000037
0.09246476 0.065466672 0.011000037
0.093718097 0.065466672 0.011000037
0.094971426 0.065466672 0.011000037
0.096224762 0.065466672 0.011000037
0.097478092 0.065466672 0.011000037
0.098731428 0.065466672 0.011000037
0.10007618 0.065580957 0.013000011
0.10133334 0.065580957 0.013000011
0.10264 0.065638095 0.013999999
0.10389905 0.065638095 0.013999999
0.10521143 0.065695241 0.015000045
0.10647238 0.065695241 0.015000045
0.10773334 0.065695241 0.015000045
0.10899429 0.065695241 0.015000045
0.11025524 0.065695241 0.015000045
0.11157905 0.065752387 0.016000032
0.1128419 0.065752387 0.016000032
0.1142381 0.065866672 0.018000007
0.11557333 0.06592381 0.018999994
0.1168419 0.06592381 0.018999994
0.11832762 0.06609524 0.022000015
0.11960191 0.06609524 0.022000015
0.12095238 0.066152379 0.023000002
0.12222857 0.066152379 0.023000002
0.12358476 0.066209525 0.023999989
0.12494476 0.066266671 0.025000036
0.12639238 0.066380955 0.02700001
0.1277619 0.066438094 0.027999997
0.12913524 0.06649524 0.029000044
0.13060191 0.066609524 0.031000018
0.13189334 0.066609524 0.031000018
0.1332781 0.06666667 0.032000005
0.13466667 0.066723809 0.032999992
0.13596191 0.066723809 0.032999992
0.13814858 0.067238092 0.041999996
0.13956191 0.067295238 0.043000042
0.14118476 0.067466669 0.046000004
0.1420857 0.067238092 0.041999996
0.14339809 0.067238092 0.041999996
0.14481905 0.067295238 0.043000042
0.14613333 0.067295238 0.043000042
0.14744762 0.067295238 0.043000042
0.1487619 0.067295238 0.043000042
0.0069066659 0.07032191 0.072000027
0.0082761832 0.07032191 0.072000027
0.0098133311 0.070203811 0.069999993
0.011424758 0.070026666 0.067000031
0.012864754 0.069967628 0.066000044
0.014222853 0.069967628 0.066000044
0.015733331 0.069849521 0.06400001
0.01738476 0.06961333 0.060000002
0.018731426 0.06961333 0.060000002
0.021205708 0.068668574 0.04400003
0.022521902 0.068668574 0.04400003
0.023971427 0.068550475 0.041999996
0.025413327 0.068432383 0.040000021
0.026721898 0.068432383 0.040000021
0.028091423 0.068373337 0.039000034
0.029516187 0.068255238 0.037
0.030876186 0.068196192 0.036000013
0.032342855 0.068019047 0.032999992
0.033744756 0.067900956 0.031000018
0.035139043 0.067782857 0.029000044
0.036476187 0.067723811 0.027999997
0.037809521 0.067664765 0.02700001
0.039184757 0.067546666 0.025000036
0.040508568 0.06748762 0.023999989
0.041870475 0.067369528 0.022000015
0.043224759 0.067251429 0.020000041
0.044533331 0.067192383 0.018999994
0.0458019 0.067192383 0.018999994
0.047104761 0.06713333 0.018000007
0.048371427 0.06713333 0.018000007
0.049638093 0.06713333 0.018000007
0.05099047 0.066956192 0.015000045
0.052278094 0.066897146 0.013999999
0.053537138 0.066897146 0.013999999
0.054796189 0.066897146 0.013999999
0.056055237 0.066897146 0.013999999
0.057333332 0.066838101 0.013000011
0.058590472 0.066838101 0.013000011
0.059847616 0.066838101 0.013000011
0.061131425 0.066720001 0.011000037
0.062384758 0.066720001 0.011000037
0.063638091 0.066720001 0.011000037
0.064899042 0.066660956 0.0099999905
0.066150472 0.066660956 0.0099999905
0.067401901 0.066660956 0.0099999905
0.06865333 0.066660956 0.0099999905
0.06990476 0.066660956 0.0099999905
0.071154281 0.066601902 0.0090000033
0.072403803 0.066601902 0.0090000033
0.073653333 0.066601902 0.0090000033
0.074902855 0.066601902 0.0090000033
0.076161906 0.066660956 0.0099999905
0.077413328 0.066660956 0.0099999905
0.078664757 0.066660956 0.0099999905
0.079916187 0.066660956 0.0099999905
0.081167616 0.066660956 0.0099999905
0.082419045 0.066660956 0.0099999905
0.083670475 0.066660956 0.0099999905
0.084921904 0.066660956 0.0099999905
0.086173333 0.066660956 0.0099999905
0.087451428 0.066720001 0.011000037
0.088704765 0.066720001 0.011000037
0.089958094 0.066720001 0.011000037
0.091211423 0.066720001 0.011000037
0.09246476 0.066720001 0.011000037
0.093718097 0.066720001 0.011000037
0.094971426 0.066720001 0.011000037
0.096224762 0.066720001 0.011000037
0.097478092 0.066720001 0.011000037
0.098731428 0.066720001 0.011000037
0.10007618 0.066838101 0.013000011
0.10138094 0.066897146 0.013999999
0.10264 0.066897146 0.013999999
0.10395048 0.066956192 0.015000045
0.10521143 0.066956192 0.015000045
0.10647238 0.066956192 0.015000045
0.10773334 0.066956192 0.015000045
0.10899429 0.066956192 0.015000045
0.11025524 0.066956192 0.015000045
0.11157905 0.067015238 0.016000032
0.1128419 0.067015238 0.016000032
0.1142381 0.06713333 0.018000007
0.11557333 0.067192383 0.018999994
0.11691238 0.067251429 0.020000041
0.11832762 0.067369528 0.022000015
0.11960191 0.067369528 0.022000015
0.12095238 0.067428574 0.023000002
0.12230666 0.06748762 0.023999989
0.12358476 0.06748762 0.023999989
0.12494476 0.067546666 0.025000036
0.12639238 0.067664765 0.02700001
0.1277619 0.067723811 0.027999997
0.12931047 0.067900956 0.031000018
0.13060191 0.067900956 0.031000018
0.13189334 0.067900956 0.031000018
0.1332781 0.067960002 0.032000005
0.13466667 0.068019047 0.032999992
0.13635048 0.068255238 0.037
0.13765332 0.068255238 0.037
0.13895619 0.068255238 0.037
0.14077333 0.068550475 0.041999996
0.1420857 0.068550475 0.041999996
0.14339809 0.068550475 0.041999996
0.14481905 0.068609528 0.043000042
0.14613333 0.068609528 0.043000042
0.14744762 0.068609528 0.043000042
0.14887619 0.068668574 0.04400003
0.15019238 0.068668574 0.04400003
0.0069066659 0.071691431 0.072000027
0.0085333288 0.071508572 0.069000006
0.0098971389 0.071508572 0.069000006
0.011424758 0.071386673 0.067000031
0.012784753 0.071386673 0.067000031
0.014222853 0.071325719 0.066000044
0.015961904 0.071020953 0.06099999
0.01738476 0.07096 0.060000002
0.018731426 0.07096 0.060000002
0.020923804 0.070228577 0.048000038
0.022247612 0.070228577 0.048000038
0.023904756 0.069923811 0.043000042
0.025413327 0.069740951 0.040000021
0.026721898 0.069740951 0.040000021
0.028091423 0.069680005 0.039000034
0.029398091 0.069680005 0.039000034
0.030876186 0.069497146 0.036000013
0.032342855 0.069314286 0.032999992
0.033744756 0.06919238 0.031000018
0.035139043 0.069070481 0.029000044
0.036476187 0.069009528 0.027999997
0.037809521 0.068948574 0.02700001
0.039230473 0.068765715 0.023999989
0.040552378 0.068704762 0.023000002
0.041870475 0.068643808 0.022000015
0.043224759 0.068521909 0.020000041
0.044533331 0.068460956 0.018999994
0.0458019 0.068460956 0.018999994
0.047104761 0.068400003 0.018000007
0.048371427 0.068400003 0.018000007
0.049638093 0.068400003 0.018000007
0.05099047 0.068217143 0.015000045
0.052251425 0.068217143 0.015000045
0.053537138 0.06815619 0.013999999
0.054796189 0.06815619 0.013999999
0.056055237 0.06815619 0.013999999
0.057333332 0.068095237 0.013000011
0.058590472 0.068095237 0.013000011
0.059847616 0.068095237 0.013000011
0.061131425 0.067973338 0.011000037
0.062384758 0.067973338 0.011000037
0.063638091 0.067973338 0.011000037
0.064891428 0.067973338 0.011000037
0.066150472 0.067912385 0.0099999905
0.067401901 0.067912385 0.0099999905
0.06865333 0.067912385 0.0099999905
0.06990476 0.067912385 0.0099999905
0.071154281 0.067851432 0.0090000033
0.072407618 0.067912385 0.0099999905
0.073659047 0.067912385 0.0099999905
0.074910477 0.067912385 0.0099999905
0.076161906 0.067912385 0.0099999905
0.077413328 0.067912385 0.0099999905
0.078664757 0.067912385 0.0099999905
0.079916187 0.067912385 0.0099999905
0.081167616 0.067912385 0.0099999905
0.082419045 0.067912385 0.0099999905
0.083691426 0.067973338 0.011000037
0.084944762 0.067973338 0.011000037
0.086173333 0.067912385 0.0099999905
0.087451428 0.067973338 0.011000037
0.088704765 0.067973338 0.011000037
0.089958094 0.067973338 0.011000037
0.091211423 0.067973338 0.011000037
0.09246476 0.067973338 0.011000037
0.093718097 0.067973338 0.011000037
0.094971426 0.067973338 0.011000037
0.096224762 0.067973338 0.011000037
0.097478092 0.067973338 0.011000037
0.098731428 0.067973338 0.011000037
0.10007618 0.068095237 0.013000011
0.10138094 0.06815619 0.013999999
0.10268952 0.068217143 0.015000045
0.10395048 0.068217143 0.015000045
0.10521143 0.068217143 0.015000045
0.10647238 0.068217143 0.015000045
0.10773334 0.068217143 0.015000045
0.10899429 0.068217143 0.015000045
0.11031619 0.068278097 0.016000032
0.11157905 0.068278097 0.016000032
0.11297143 0.068400003 0.018000007
0.11430476 0.068460956 0.018999994
0.11564191 0.068521909 0.020000041
0.11691238 0.068521909 0.020000041
0.11832762 0.068643808 0.022000015
0.11967619 0.068704762 0.023000002
0.12102857 0.068765715 0.023999989
0.12230666 0.068765715 0.023999989
0.12366477 0.068826668 0.025000036
0.12510857 0.068948574 0.02700001
0.12639238 0.068948574 0.02700001
0.1277619 0.069009528 0.027999997
0.12931047 0.06919238 0.031000018
0.13060191 0.06919238 0.031000018
0.13189334 0.06919238 0.031000018
0.13337143 0.069314286 0.032999992
0.13466667 0.069314286 0.032999992
0.13596191 0.069314286 0.032999992
0.13973334 0.070838101 0.058000028
0.14107619 0.070838101 0.058000028
0.14241904 0.070838101 0.058000028
0.14219049 0.069923811 0.043000042
0.14350477 0.069923811 0.043000042
0.14481905 0.069923811 0.043000042
0.14613333 0.069923811 0.043000042
0.14744762 0.069923811 0.043000042
0.1487619 0.069923811 0.043000042
0.15019238 0.069984764 0.04400003
0.0087047592 0.072746672 0.067000031
0.0098971389 0.072872378 0.069000006
0.011424758 0.072746672 0.067000031
0.012784753 0.072746672 0.067000031
0.014222853 0.072683811 0.066000044
0.015580945 0.072683811 0.066000044
0.017310474 0.072369523 0.06099999
0.018659048 0.072369523 0.06099999
0.020007614 0.072369523 0.06099999
0.021836184 0.071929529 0.05400002
0.023904756 0.071238101 0.043000042
0.025283806 0.07117524 0.041999996
0.026721898 0.071049526 0.040000021
0.028091423 0.070986673 0.039000034
0.029398091 0.070986673 0.039000034
0.030819044 0.070860952 0.037
0.032342855 0.070609525 0.032999992
0.033691425 0.070546672 0.032000005
0.035139043 0.070358098 0.029000044
0.036476187 0.070295237 0.027999997
0.037904758 0.07010667 0.025000036
0.039230473 0.07004381 0.023999989
0.040552378 0.069980957 0.023000002
0.041870475 0.069918096 0.022000015
0.043144759 0.069918096 0.022000015
0.044495232 0.069792382 0.020000041
0.0458019 0.069729522 0.018999994
0.047070473 0.069729522 0.018999994
0.048371427 0.069666669 0.018000007
0.049638093 0.069666669 0.018000007
0.050961901 0.069540955 0.016000032
0.052251425 0.069478102 0.015000045
0.05351238 0.069478102 0.015000045
0.054773331 0.069478102 0.015000045
0.056055237 0.069415234 0.013999999
0.057314284 0.069415234 0.013999999
0.058590472 0.069352381 0.013000011
0.059847616 0.069352381 0.013000011
0.06110476 0.069352381 0.013000011
0.062384758 0.069226675 0.011000037
0.063638091 0.069226675 0.011000037
0.064891428 0.069226675 0.011000037
0.066150472 0.069163807 0.0099999905
0.067401901 0.069163807 0.0099999905
0.06865333 0.069163807 0.0099999905
0.06990476 0.069163807 0.0099999905
0.071154281 0.069100954 0.0090000033
0.072407618 0.069163807 0.0099999905
0.073659047 0.069163807 0.0099999905
0.074910477 0.069163807 0.0099999905
0.076161906 0.069163807 0.0099999905
0.077413328 0.069163807 0.0099999905
0.078664757 0.069163807 0.0099999905
0.079916187 0.069163807 0.0099999905
0.081167616 0.069163807 0.0099999905
0.082419045 0.069163807 0.0099999905
0.083691426 0.069226675 0.011000037
0.084944762 0.069226675 0.011000037
0.086198092 0.069226675 0.011000037
0.087451428 0.069226675 0.011000037
0.088704765 0.069226675 0.011000037
0.089958094 0.069226675 0.011000037
0.091211423 0.069226675 0.011000037
0.09246476 0.069226675 0.011000037
0.093790472 0.069352381 0.013000011
0.095047615 0.069352381 0.013000011
0.096224762 0.069226675 0.011000037
0.097561903 0.069352381 0.013000011
0.098819047 0.069352381 0.013000011
0.1001219 0.069415234 0.013999999
0.10142857 0.069478102 0.015000045
0.10268952 0.069478102 0.015000045
0.10395048 0.069478102 0.015000045
0.10521143 0.069478102 0.015000045
0.10647238 0.069478102 0.015000045
0.10773334 0.069478102 0.015000045
0.10899429 0.069478102 0.015000045
0.11031619 0.069540955 0.016000032
0.11170477 0.069666669 0.018000007
0.11297143 0.069666669 0.018000007
0.11437143 0.069792382 0.020000041
0.11577904 0.069918096 0.022000015
0.11705333 0.069918096 0.022000015
0.11832762 0.069918096 0.022000015
0.11967619 0.069980957 0.023000002
0.12102857 0.07004381 0.023999989
0.12238476 0.07010667 0.025000036
0.12366477 0.07010667 0.025000036
0.12510857 0.070232384 0.02700001
0.12647618 0.070295237 0.027999997
0.1277619 0.070295237 0.027999997
0.12931047 0.070483811 0.031000018
0.13060191 0.070483811 0.031000018
0.13189334 0.070483811 0.031000018
0.1332781 0.070546672 0.032000005
0.13457143 0.070546672 0.032000005
0.13586476 0.070546672 0.032000005
0.13973334 0.072180957 0.058000028
0.14107619 0.072180957 0.058000028
0.14241904 0.072180957 0.058000028
0.1420857 0.07117524 0.041999996
0.14350477 0.071238101 0.043000042
0.14481905 0.071238101 0.043000042
0.14613333 0.071238101 0.043000042
0.14744762 0.071238101 0.043000042
0.1487619 0.071238101 0.043000042
0.0087047592 0.074106671 0.067000031
0.0098971389 0.074236192 0.069000006
0.011424758 0.074106671 0.067000031
0.012864754 0.07404191 0.066000044
0.014222853 0.07404191 0.066000044
0.015961904 0.073718093 0.06099999
0.017310474 0.073718093 0.06099999
0.018876188 0.073523812 0.058000028
0.02036 0.073394284 0.055999994
0.021836184 0.073264763 0.05400002
0.023438092 0.073005721 0.050000012
0.025154281 0.072617143 0.04400003
0.026596189 0.072487622 0.041999996
0.028030474 0.072358102 0.040000021
0.029398091 0.072293334 0.039000034
0.030704755 0.072293334 0.039000034
0.0321219 0.072163813 0.037
0.03363809 0.071904764 0.032999992
0.035139043 0.071645714 0.029000044
0.036476187 0.071580954 0.027999997
0.037809521 0.071516193 0.02700001
0.039184757 0.071386673 0.025000036
0.040508568 0.071321905 0.023999989
0.041870475 0.071192384 0.022000015
0.043144759 0.071192384 0.022000015
0.044419043 0.071192384 0.022000015
0.04569333 0.071192384 0.022000015
0.047070473 0.070998095 0.018999994
0.048371427 0.070933335 0.018000007
0.049638093 0.070933335 0.018000007
0.050961901 0.070803814 0.016000032
0.052251425 0.070739053 0.015000045
0.05351238 0.070739053 0.015000045
0.054796189 0.070674285 0.013999999
0.056055237 0.070674285 0.013999999
0.057333332 0.070609525 0.013000011
0.058590472 0.070609525 0.013000011
0.059847616 0.070609525 0.013000011
0.061131425 0.070480004 0.011000037
0.062384758 0.070480004 0.011000037
0.063638091 0.070480004 0.011000037
0.064891428 0.070480004 0.011000037
0.066150472 0.070415236 0.0099999905
0.067401901 0.070415236 0.0099999905
0.06865333 0.070415236 0.0099999905
0.06990476 0.070415236 0.0099999905
0.071156189 0.070415236 0.0099999905
0.072407618 0.070415236 0.0099999905
0.073659047 0.070415236 0.0099999905
0.074910477 0.070415236 0.0099999905
0.076161906 0.070415236 0.0099999905
0.077413328 0.070415236 0.0099999905
0.078664757 0.070415236 0.0099999905
0.079931423 0.070480004 0.011000037
0.08118476 0.070480004 0.011000037
0.082438096 0.070480004 0.011000037
0.083691426 0.070480004 0.011000037
0.084944762 0.070480004 0.011000037
0.086198092 0.070480004 0.011000037
0.087451428 0.070480004 0.011000037
0.088761903 0.070609525 0.013000011
0.089958094 0.070480004 0.011000037
0.091276184 0.070609525 0.013000011
0.092533335 0.070609525 0.013000011
0.093790472 0.070609525 0.013000011
0.095047615 0.070609525 0.013000011
0.096304759 0.070609525 0.013000011
0.097561903 0.070609525 0.013000011
0.098862857 0.070674285 0.013999999
0.10016762 0.070739053 0.015000045
0.10142857 0.070739053 0.015000045
0.10268952 0.070739053 0.015000045
0.10395048 0.070739053 0.015000045
0.10521143 0.070739053 0.015000045
0.10647238 0.070739053 0.015000045
0.10773334 0.070739053 0.015000045
0.10899429 0.070739053 0.015000045
0.11049905 0.070998095 0.018999994
0.11176762 0.070998095 0.018999994
0.11303619 0.070998095 0.018999994
0.11437143 0.071062863 0.020000041
0.11577904 0.071192384 0.022000015
0.11712381 0.071257144 0.023000002
0.1184 0.071257144 0.023000002
0.11975047 0.071321905 0.023999989
0.12110476 0.071386673 0.025000036
0.12238476 0.071386673 0.025000036
0.12382476 0.071516193 0.02700001
0.12527238 0.071645714 0.029000044
0.12647618 0.071580954 0.027999997
0.1277619 0.071580954 0.027999997
0.12913524 0.071645714 0.029000044
0.13060191 0.071775243 0.031000018
0.13171047 0.071645714 0.029000044
0.1332781 0.071840003 0.032000005
0.13457143 0.071840003 0.032000005
0.13829333 0.073459052 0.057000041
0.13963428 0.073459052 0.057000041
0.14107619 0.073523812 0.058000028
0.14241904 0.073523812 0.058000028
0.1420857 0.072487622 0.041999996
0.14350477 0.072552383 0.043000042
0.14481905 0.072552383 0.043000042
0.14613333 0.072552383 0.043000042
0.14744762 0.072552383 0.043000042
0.0098971389 0.075600006 0.069000006
0.011424758 0.07546667 0.067000031
0.012784753 0.07546667 0.067000031
0.014222853 0.075400002 0.066000044
0.016038094 0.075000003 0.060000002
0.01738476 0.075000003 0.060000002
0.018948566 0.0748 0.057000041
0.02036 0.074733332 0.055999994
0.021836184 0.074600004 0.05400002
0.023371425 0.0744 0.050999999
0.025154281 0.073933333 0.04400003
0.026596189 0.073799998 0.041999996
0.028030474 0.073666669 0.040000021
0.029339045 0.073666669 0.040000021
0.030704755 0.073600002 0.039000034
0.0321219 0.073466666 0.037
0.03363809 0.073200002 0.032999992
0.035036184 0.073066667 0.031000018
0.036476187 0.072866663 0.027999997
0.037809521 0.072800003 0.02700001
0.039184757 0.072666675 0.025000036
0.040508568 0.0726 0.023999989
0.041828565 0.072533332 0.023000002
0.043144759 0.072466671 0.022000015
0.044419043 0.072466671 0.022000015
0.04569333 0.072466671 0.022000015
0.046967618 0.072466671 0.022000015
0.048339047 0.072266668 0.018999994
0.049638093 0.0722 0.018000007
0.050961901 0.072066672 0.016000032
0.052251425 0.072000004 0.015000045
0.05351238 0.072000004 0.015000045
0.054773331 0.072000004 0.015000045
0.056055237 0.071933337 0.013999999
0.057314284 0.071933337 0.013999999
0.058590472 0.071866669 0.013000011
0.059847616 0.071866669 0.013000011
0.06110476 0.071866669 0.013000011
0.062361903 0.071866669 0.013000011
0.063638091 0.071733341 0.011000037
0.064891428 0.071733341 0.011000037
0.066144757 0.071733341 0.011000037
0.067398094 0.071733341 0.011000037
0.068651423 0.071733341 0.011000037
0.06990476 0.071666665 0.0099999905
0.071156189 0.071666665 0.0099999905
0.072411425 0.071733341 0.011000037
0.073659047 0.071666665 0.0099999905
0.074910477 0.071666665 0.0099999905
0.076171428 0.071733341 0.011000037
0.077424757 0.071733341 0.011000037
0.078678094 0.071733341 0.011000037
0.079931423 0.071733341 0.011000037
0.081219047 0.071866669 0.013000011
0.082476191 0.071866669 0.013000011
0.083733335 0.071866669 0.013000011
0.084990472 0.071866669 0.013000011
0.086198092 0.071733341 0.011000037
0.087504759 0.071866669 0.013000011
0.088761903 0.071866669 0.013000011
0.090019047 0.071866669 0.013000011
0.091276184 0.071866669 0.013000011
0.092533335 0.071866669 0.013000011
0.093826666 0.071933337 0.013999999
0.09508571 0.071933337 0.013999999
0.096344762 0.071933337 0.013999999
0.097603805 0.071933337 0.013999999
0.098906666 0.072000004 0.015000045
0.10016762 0.072000004 0.015000045
0.10142857 0.072000004 0.015000045
0.10268952 0.072000004 0.015000045
0.10395048 0.072000004 0.015000045
0.10521143 0.072000004 0.015000045
0.10647238 0.072000004 0.015000045
0.10773334 0.072000004 0.015000045
0.10899429 0.072000004 0.015000045
0.11056 0.072333336 0.020000041
0.11183047 0.072333336 0.020000041
0.11310095 0.072333336 0.020000041
0.11457142 0.072533332 0.023000002
0.11577904 0.072466671 0.022000015
0.11719428 0.0726 0.023999989
0.11854476 0.072666675 0.025000036
0.11997333 0.072800003 0.02700001
0.12133333 0.072866663 0.027999997
0.12261905 0.072866663 0.027999997
0.12398476 0.072933339 0.029000044
0.12527238 0.072933339 0.029000044
0.12656 0.072933339 0.029000044
0.1277619 0.072866663 0.027999997
0.12913524 0.072933339 0.029000044
0.13042286 0.072933339 0.029000044
0.13171047 0.072933339 0.029000044
0.13477144 0.074200004 0.048000038
0.13609524 0.074200004 0.048000038
0.13771048 0.0744 0.050999999
0.13963428 0.0748 0.057000041
0.14107619 0.074866667 0.058000028
0.14241904 0.074866667 0.058000028
0.14397143 0.075000003 0.060000002
0.14531809 0.075000003 0.060000002
0.14481905 0.073866673 0.043000042
0.14613333 0.073866673 0.043000042
0.14744762 0.073866673 0.043000042
0.0098971389 0.076963812 0.069000006
0.011424758 0.076826669 0.067000031
0.012784753 0.076826669 0.067000031
0.014222853 0.076758102 0.066000044
0.015961904 0.076415241 0.06099999
0.01738476 0.076346666 0.060000002
0.018948566 0.076140955 0.057000041
0.02036 0.07607238 0.055999994
0.021836184 0.075935245 0.05400002
0.023371425 0.075729527 0.050999999
0.025154281 0.075249523 0.04400003
0.026596189 0.07511238 0.041999996
0.028030474 0.074975245 0.040000021
0.029339045 0.074975245 0.040000021
0.030704755 0.07490667 0.039000034
0.0321219 0.074769527 0.037
0.03363809 0.074495234 0.032999992
0.035036184 0.074358098 0.031000018
0.036476187 0.07415238 0.027999997
0.037761904 0.07415238 0.027999997
0.039093331 0.074083813 0.02700001
0.040464759 0.07394667 0.025000036
0.041828565 0.073809527 0.023000002
0.04310476 0.073809527 0.023000002
0.044419043 0.073740952 0.022000015
0.04569333 0.073740952 0.022000015
0.046967618 0.073740952 0.022000015
0.048241902 0.073740952 0.022000015
0.049607616 0.073535241 0.018999994
0.050961901 0.073329531 0.016000032
0.052224759 0.073329531 0.016000032
0.053487614 0.073329531 0.016000032
0.054773331 0.073260956 0.015000045
0.056034282 0.073260956 0.015000045
0.057314284 0.07319238 0.013999999
0.058573332 0.07319238 0.013999999
0.059832379 0.07319238 0.013999999
0.06110476 0.073123813 0.013000011
0.062361903 0.073123813 0.013000011
0.063619047 0.073123813 0.013000011
0.064891428 0.07298667 0.011000037
0.066144757 0.07298667 0.011000037
0.067398094 0.07298667 0.011000037
0.068651423 0.07298667 0.011000037
0.06990476 0.07298667 0.011000037
