# .PCD v0.7 - Point Cloud Data file format
VERSION 0.7
FIELDS x y z
SIZE 4 4 4
TYPE F F F
COUNT 1 1 1
WIDTH 1354
HEIGHT 1
VIEWPOINT 0 0 0 0 1 0 0
POINTS 1354
DATA ascii
0.13854858 0.043430477 0.052999973
0.13989715 0.043430477 0.052999973
0.14124572 0.043430477 0.052999973
0.0081561953 0.044954289 0.075999975
0.0095485747 0.044954289 0.075999975
0.010940962 0.044954289 0.075999975
0.012520008 0.044939049 0.074000001
0.014182866 0.04491619 0.07099998
0.015655242 0.044908572 0.069999993
0.01721143 0.044893336 0.068000019
0.018845718 0.044870477 0.064999998
0.02021715 0.044870477 0.064999998
0.021588575 0.044870477 0.064999998
0.024240002 0.044748574 0.049000025
0.025580954 0.044748574 0.049000025
0.026998099 0.044740953 0.047999978
0.028485719 0.044725716 0.046000004
0.02982096 0.044725716 0.046000004
0.031367626 0.044702858 0.042999983
0.032697149 0.044702858 0.042999983
0.034093339 0.04469524 0.041999996
0.035550483 0.044680003 0.040000021
0.036874291 0.044680003 0.040000021
0.038320005 0.044664763 0.037999988
0.039758097 0.044649526 0.036000013
0.041131433 0.044641908 0.035000026
0.042445716 0.044641908 0.035000026
0.04381334 0.044634286 0.033999979
0.045228574 0.04461905 0.032000005
0.046537146 0.04461905 0.032000005
0.047988579 0.044596191 0.028999984
0.049291436 0.044596191 0.028999984
0.050594293 0.044596191 0.028999984
0.051939052 0.044588573 0.027999997
0.053280003 0.044580955 0.02700001
0.054655246 0.044565715 0.024999976
0.055950485 0.044565715 0.024999976
0.057245724 0.044565715 0.024999976
0.058573339 0.044558097 0.023999989
0.059866674 0.044558097 0.023999989
0.061188579 0.044550478 0.023000002
0.062480003 0.044550478 0.023000002
0.063771434 0.044550478 0.023000002
0.065062866 0.044550478 0.023000002
0.066396192 0.044535242 0.021000028
0.067683816 0.044535242 0.021000028
0.068971433 0.044535242 0.021000028
0.07025905 0.044535242 0.021000028
0.07156001 0.04452762 0.019999981
0.07284572 0.04452762 0.019999981
0.074131437 0.04452762 0.019999981
0.075417146 0.04452762 0.019999981
0.076702863 0.04452762 0.019999981
0.07798858 0.04452762 0.019999981
0.079274289 0.04452762 0.019999981
0.080560006 0.044520002 0.018999994
0.081845723 0.04452762 0.019999981
0.083135247 0.044535242 0.021000028
0.084422864 0.044535242 0.021000028
0.085710481 0.044535242 0.021000028
0.086988576 0.04452762 0.019999981
0.088285722 0.044535242 0.021000028
0.089573339 0.044535242 0.021000028
0.090845719 0.04452762 0.019999981
0.09214858 0.044535242 0.021000028
0.093417153 0.04452762 0.019999981
0.094702862 0.04452762 0.019999981
0.095988579 0.04452762 0.019999981
0.097274289 0.04452762 0.019999981
0.098560005 0.04452762 0.019999981
0.099874295 0.044535242 0.021000028
0.10116191 0.044535242 0.021000028
0.1025143 0.044550478 0.023000002
0.10380572 0.044550478 0.023000002
0.10509715 0.044550478 0.023000002
0.10642667 0.044558097 0.023999989
0.10772001 0.044558097 0.023999989
0.10905524 0.044565715 0.024999976
0.11035048 0.044565715 0.024999976
0.11173715 0.044580955 0.02700001
0.1130362 0.044580955 0.02700001
0.11438477 0.044588573 0.027999997
0.11573715 0.044596191 0.028999984
0.11704001 0.044596191 0.028999984
0.11845334 0.044611432 0.031000018
0.11976001 0.044611432 0.031000018
0.12112572 0.04461905 0.032000005
0.12261716 0.044641908 0.035000026
0.12393144 0.044641908 0.035000026
0.12531048 0.044649526 0.036000013
0.12676001 0.044664763 0.037999988
0.12814859 0.044672381 0.038999975
0.12954096 0.044680003 0.040000021
0.13100953 0.04469524 0.041999996
0.13256001 0.044718098 0.045000017
0.13396953 0.044725716 0.046000004
0.13553905 0.044748574 0.049000025
0.13696001 0.044756193 0.050000012
0.13854858 0.044779047 0.052999973
0.13989715 0.044779047 0.052999973
0.14124572 0.044779047 0.052999973
0.0080571473 0.046356194 0.077000022
0.0095485747 0.046346668 0.075999975
0.010940962 0.046346668 0.075999975
0.012520008 0.046327621 0.074000001
0.014000006 0.046318099 0.073000014
0.015655242 0.046289526 0.069999993
0.017036192 0.046289526 0.069999993
0.01893143 0.046232384 0.06400001
0.020300955 0.046232384 0.06400001
0.022161908 0.046175241 0.058000028
0.023680005 0.04615619 0.055999994
0.025659055 0.046080001 0.047999978
0.026998099 0.046080001 0.047999978
0.028485719 0.046060953 0.046000004
0.02982096 0.046060953 0.046000004
0.031226672 0.046051431 0.045000017
0.03276572 0.046022858 0.041999996
0.034226667 0.046003811 0.040000021
0.035550483 0.046003811 0.040000021
0.037000004 0.045984764 0.037999988
0.038441908 0.045965716 0.036000013
0.039758097 0.045965716 0.036000013
0.041131433 0.045956194 0.035000026
0.042445716 0.045956194 0.035000026
0.04381334 0.045946669 0.033999979
0.045228574 0.045927621 0.032000005
0.046537146 0.045927621 0.032000005
0.047988579 0.045899048 0.028999984
0.049291436 0.045899048 0.028999984
0.050594293 0.045899048 0.028999984
0.051939052 0.045889527 0.027999997
0.053280003 0.045880001 0.02700001
0.054655246 0.045860954 0.024999976
0.055950485 0.045860954 0.024999976
0.057245724 0.045860954 0.024999976
0.058573339 0.045851432 0.023999989
0.059866674 0.045851432 0.023999989
0.061188579 0.045841906 0.023000002
0.062480003 0.045841906 0.023000002
0.063771434 0.045841906 0.023000002
0.065062866 0.045841906 0.023000002
0.06635429 0.045841906 0.023000002
0.067683816 0.045822859 0.021000028
0.068988577 0.045813337 0.019999981
0.070274293 0.045813337 0.019999981
0.07156001 0.045813337 0.019999981
0.07284572 0.045813337 0.019999981
0.074131437 0.045813337 0.019999981
0.075417146 0.045813337 0.019999981
0.076708578 0.045803811 0.018999994
0.077992387 0.045803811 0.018999994
0.079276197 0.045803811 0.018999994
0.080560006 0.045803811 0.018999994
0.081843816 0.045803811 0.018999994
0.083127625 0.045803811 0.018999994
0.084417149 0.045813337 0.019999981
0.085702866 0.045813337 0.019999981
0.086988576 0.045813337 0.019999981
0.088285722 0.045822859 0.021000028
0.089573339 0.045822859 0.021000028
0.090860963 0.045822859 0.021000028
0.09214858 0.045822859 0.021000028
0.093417153 0.045813337 0.019999981
0.094702862 0.045813337 0.019999981
0.095988579 0.045813337 0.019999981
0.097274289 0.045813337 0.019999981
0.098560005 0.045813337 0.019999981
0.099845722 0.045813337 0.019999981
0.10116191 0.045822859 0.021000028
0.10244953 0.045822859 0.021000028
0.10373715 0.045822859 0.021000028
0.10509715 0.045841906 0.023000002
0.10638858 0.045841906 0.023000002
0.10772001 0.045851432 0.023999989
0.10901334 0.045851432 0.023999989
0.11035048 0.045860954 0.024999976
0.11173715 0.045880001 0.02700001
0.1130362 0.045880001 0.02700001
0.11438477 0.045889527 0.027999997
0.11573715 0.045899048 0.028999984
0.11704001 0.045899048 0.028999984
0.11845334 0.0459181 0.031000018
0.11976001 0.0459181 0.031000018
0.12112572 0.045927621 0.032000005
0.12255619 0.045946669 0.033999979
0.12393144 0.045956194 0.035000026
0.12531048 0.045965716 0.036000013
0.12676001 0.045984764 0.037999988
0.12814859 0.045994289 0.038999975
0.12954096 0.046003811 0.040000021
0.13100953 0.046022858 0.041999996
0.13256001 0.046051431 0.045000017
0.13396953 0.046060953 0.046000004
0.13561715 0.046099048 0.050000012
0.13712001 0.046118096 0.051999986
0.13854858 0.046127621 0.052999973
0.13989715 0.046127621 0.052999973
0.0080571473 0.04775048 0.077000022
0.0095485747 0.047739051 0.075999975
0.010940962 0.047739051 0.075999975
0.012520008 0.047716193 0.074000001
0.014548577 0.047636192 0.067000031
0.015923813 0.047636192 0.067000031
0.017474286 0.047613338 0.064999998
0.019102864 0.04757905 0.061999977
0.020552386 0.047567621 0.06099999
0.022161908 0.047533337 0.058000028
0.023680005 0.047510479 0.055999994
0.02534667 0.047464766 0.051999986
0.026998099 0.047419049 0.047999978
0.028485719 0.047396194 0.046000004
0.02982096 0.047396194 0.046000004
0.031438097 0.047350477 0.041999996
0.03276572 0.047350477 0.041999996
0.034226667 0.047327623 0.040000021
0.035550483 0.047327623 0.040000021
0.037125718 0.047281906 0.036000013
0.038441908 0.047281906 0.036000013
0.039817147 0.047270477 0.035000026
0.041131433 0.047270477 0.035000026
0.042500958 0.047259048 0.033999979
0.043920007 0.047236193 0.032000005
0.045228574 0.047236193 0.032000005
0.046586674 0.047224764 0.031000018
0.047988579 0.047201905 0.028999984
0.049291436 0.047201905 0.028999984
0.050638102 0.04719048 0.027999997
0.052064769 0.047156192 0.024999976
0.053360008 0.047156192 0.024999976
0.054655246 0.047156192 0.024999976
0.055950485 0.047156192 0.024999976
0.057245724 0.047156192 0.024999976
0.058540959 0.047156192 0.024999976
0.059836194 0.047156192 0.024999976
0.061188579 0.047133334 0.023000002
0.062480003 0.047133334 0.023000002
0.063771434 0.047133334 0.023000002
0.065062866 0.047133334 0.023000002
0.06635429 0.047133334 0.023000002
0.067683816 0.047110479 0.021000028
0.068988577 0.04709905 0.019999981
0.07025905 0.047110479 0.021000028
0.07156001 0.04709905 0.019999981
0.07284572 0.04709905 0.019999981
0.074131437 0.04709905 0.019999981
0.075424768 0.047087621 0.018999994
0.076708578 0.047087621 0.018999994
0.07798858 0.04709905 0.019999981
0.079274289 0.04709905 0.019999981
0.080560006 0.047087621 0.018999994
0.081843816 0.047087621 0.018999994
0.083127625 0.047087621 0.018999994
0.084417149 0.04709905 0.019999981
0.085702866 0.04709905 0.019999981
0.086979054 0.047087621 0.018999994
0.088262863 0.047087621 0.018999994
0.089560002 0.04709905 0.019999981
0.090845719 0.04709905 0.019999981
0.092131436 0.04709905 0.019999981
0.093417153 0.04709905 0.019999981
0.094702862 0.04709905 0.019999981
0.095988579 0.04709905 0.019999981
0.097274289 0.04709905 0.019999981
0.098560005 0.04709905 0.019999981
0.099845722 0.04709905 0.019999981
0.10113144 0.04709905 0.019999981
0.10244953 0.047110479 0.021000028
0.10373715 0.047110479 0.021000028
0.10509715 0.047133334 0.023000002
0.10638858 0.047133334 0.023000002
0.10772001 0.047144763 0.023999989
0.10901334 0.047144763 0.023999989
0.11035048 0.047156192 0.024999976
0.11173715 0.047179051 0.02700001
0.11308382 0.04719048 0.027999997
0.11438477 0.04719048 0.027999997
0.11573715 0.047201905 0.028999984
0.11704001 0.047201905 0.028999984
0.11845334 0.047224764 0.031000018
0.11976001 0.047224764 0.031000018
0.12112572 0.047236193 0.032000005
0.12255619 0.047259048 0.033999979
0.12393144 0.047270477 0.035000026
0.12524572 0.047270477 0.035000026
0.12662667 0.047281906 0.036000013
0.12814859 0.047316194 0.038999975
0.12954096 0.047327623 0.040000021
0.13100953 0.047350477 0.041999996
0.13241144 0.047361907 0.042999983
0.13396953 0.047396194 0.046000004
0.13553905 0.047430478 0.049000025
0.13712001 0.047464766 0.051999986
0.13871239 0.047499049 0.055000007
0.14006478 0.047499049 0.055000007
0.014182866 0.049064763 0.07099998
0.015923813 0.049011432 0.067000031
0.017474286 0.048984762 0.064999998
0.019188575 0.048931431 0.06099999
0.020720001 0.048904762 0.059000015
0.022325717 0.048864763 0.055999994
0.023760002 0.04885143 0.055000007
0.02534667 0.048811432 0.051999986
0.026998099 0.048758097 0.047999978
0.028485719 0.048731431 0.046000004
0.02982096 0.048731431 0.046000004
0.031367626 0.048691429 0.042999983
0.03276572 0.048678096 0.041999996
0.034226667 0.048651431 0.040000021
0.035550483 0.048651431 0.040000021
0.037000004 0.048624765 0.037999988
0.038441908 0.048598096 0.036000013
0.039758097 0.048598096 0.036000013
0.041131433 0.048584763 0.035000026
0.042500958 0.04857143 0.033999979
0.04381334 0.04857143 0.033999979
0.045228574 0.048544765 0.032000005
0.046586674 0.048531432 0.031000018
0.047988579 0.048504762 0.028999984
0.049291436 0.048504762 0.028999984
0.050638102 0.04849143 0.027999997
0.052064769 0.048451431 0.024999976
0.053360008 0.048451431 0.024999976
0.054655246 0.048451431 0.024999976
0.055950485 0.048451431 0.024999976
0.057245724 0.048451431 0.024999976
0.058540959 0.048451431 0.024999976
0.059836194 0.048451431 0.024999976
0.061188579 0.048424765 0.023000002
0.062480003 0.048424765 0.023000002
0.063771434 0.048424765 0.023000002
0.065062866 0.048424765 0.023000002
0.06635429 0.048424765 0.023000002
0.067683816 0.0483981 0.021000028
0.068988577 0.048384763 0.019999981
0.070274293 0.048384763 0.019999981
0.07156001 0.048384763 0.019999981
0.07284572 0.048384763 0.019999981
0.074131437 0.048384763 0.019999981
0.075424768 0.04837143 0.018999994
0.076708578 0.04837143 0.018999994
0.07798858 0.048384763 0.019999981
0.079276197 0.04837143 0.018999994
0.080560006 0.04837143 0.018999994
0.081843816 0.04837143 0.018999994
0.083131433 0.048384763 0.019999981
0.084417149 0.048384763 0.019999981
0.085702866 0.048384763 0.019999981
0.086988576 0.048384763 0.019999981
0.088274293 0.048384763 0.019999981
0.089560002 0.048384763 0.019999981
0.090845719 0.048384763 0.019999981
0.092131436 0.048384763 0.019999981
0.093417153 0.048384763 0.019999981
0.094702862 0.048384763 0.019999981
0.095988579 0.048384763 0.019999981
0.097274289 0.048384763 0.019999981
0.098586679 0.0483981 0.021000028
0.099845722 0.048384763 0.019999981
0.10116191 0.0483981 0.021000028
0.10244953 0.0483981 0.021000028
0.10373715 0.0483981 0.021000028
0.10509715 0.048424765 0.023000002
0.10642667 0.048438098 0.023999989
0.10776 0.048451431 0.024999976
0.10913906 0.048478097 0.02700001
0.1104381 0.048478097 0.02700001
0.11173715 0.048478097 0.02700001
0.11308382 0.04849143 0.027999997
0.11438477 0.04849143 0.027999997
0.11568572 0.04849143 0.027999997
0.11698668 0.04849143 0.027999997
0.11834286 0.048504762 0.028999984
0.11964572 0.048504762 0.028999984
0.12106667 0.048531432 0.031000018
0.12243429 0.048544765 0.032000005
0.12386858 0.04857143 0.033999979
0.12524572 0.048584763 0.035000026
0.12662667 0.048598096 0.036000013
0.12814859 0.048638098 0.038999975
0.12947048 0.048638098 0.038999975
0.13100953 0.048678096 0.041999996
0.13256001 0.048718099 0.045000017
0.13396953 0.048731431 0.046000004
0.13530478 0.048731431 0.046000004
0.13680001 0.048758097 0.047999978
0.13813905 0.048758097 0.047999978
0.14006478 0.04885143 0.055000007
0.014182866 0.05044762 0.07099998
0.015834287 0.050401907 0.068000019
0.017561913 0.050340954 0.06400001
0.019102864 0.050310478 0.061999977
0.020720001 0.050264765 0.059000015
0.022325717 0.050219052 0.055999994
0.023760002 0.050203811 0.055000007
0.02534667 0.050158098 0.051999986
0.026998099 0.050097145 0.047999978
0.028485719 0.050066669 0.046000004
0.029893335 0.050051432 0.045000017
0.031367626 0.050020956 0.042999983
0.03276572 0.050005715 0.041999996
0.034226667 0.049975239 0.040000021
0.035550483 0.049975239 0.040000021
0.037125718 0.049914289 0.036000013
0.038441908 0.049914289 0.036000013
0.039817147 0.049899049 0.035000026
0.041131433 0.049899049 0.035000026
0.042500958 0.049883813 0.033999979
0.04381334 0.049883813 0.033999979
0.045228574 0.049853336 0.032000005
0.046685722 0.049807623 0.028999984
0.047988579 0.049807623 0.028999984
0.049291436 0.049807623 0.028999984
0.050638102 0.049792383 0.027999997
0.052064769 0.04974667 0.024999976
0.053360008 0.04974667 0.024999976
0.054655246 0.04974667 0.024999976
0.055950485 0.04974667 0.024999976
0.057245724 0.04974667 0.024999976
0.058573339 0.04973143 0.023999989
0.059866674 0.04973143 0.023999989
0.061188579 0.049716193 0.023000002
0.062480003 0.049716193 0.023000002
0.063771434 0.049716193 0.023000002
0.065062866 0.049716193 0.023000002
0.06635429 0.049716193 0.023000002
0.067683816 0.049685717 0.021000028
0.068988577 0.04967048 0.019999981
0.07025905 0.049685717 0.021000028
0.07156001 0.04967048 0.019999981
0.07284572 0.04967048 0.019999981
0.074131437 0.04967048 0.019999981
0.075424768 0.04965524 0.018999994
0.076708578 0.04965524 0.018999994
0.077992387 0.04965524 0.018999994
0.079276197 0.04965524 0.018999994
0.080560006 0.04965524 0.018999994
0.081843816 0.04965524 0.018999994
0.083131433 0.04967048 0.019999981
0.084417149 0.04967048 0.019999981
0.085702866 0.04967048 0.019999981
0.086988576 0.04967048 0.019999981
0.088274293 0.04967048 0.019999981
0.089560002 0.04967048 0.019999981
0.090845719 0.04967048 0.019999981
0.092131436 0.04967048 0.019999981
0.093398102 0.04965524 0.018999994
0.094702862 0.04967048 0.019999981
0.095988579 0.04967048 0.019999981
0.097274289 0.04967048 0.019999981
0.098586679 0.049685717 0.021000028
0.099845722 0.04967048 0.019999981
0.10116191 0.049685717 0.021000028
0.1025143 0.049716193 0.023000002
0.10373715 0.049685717 0.021000028
0.10509715 0.049716193 0.023000002
0.10642667 0.04973143 0.023999989
0.10776 0.04974667 0.024999976
0.10905524 0.04974667 0.024999976
0.1104381 0.049777146 0.02700001
0.11178286 0.049792383 0.027999997
0.1130362 0.049777146 0.02700001
0.11438477 0.049792383 0.027999997
0.11568572 0.049792383 0.027999997
0.11698668 0.049792383 0.027999997
0.11834286 0.049807623 0.028999984
0.11964572 0.049807623 0.028999984
0.12094858 0.049807623 0.028999984
0.12243429 0.049853336 0.032000005
0.12386858 0.049883813 0.033999979
0.12524572 0.049899049 0.035000026
0.12662667 0.049914289 0.036000013
0.12808001 0.049944766 0.037999988
0.12954096 0.049975239 0.040000021
0.13086477 0.049975239 0.040000021
0.13241144 0.050020956 0.042999983
0.13389334 0.050051432 0.045000017
0.13522668 0.050051432 0.045000017
0.13664001 0.050066669 0.046000004
0.13797525 0.050066669 0.046000004
0.014182866 0.051830478 0.07099998
0.015834287 0.05177905 0.068000019
0.017561913 0.051710479 0.06400001
0.019188575 0.051659048 0.06099999
0.020720001 0.051624764 0.059000015
0.022325717 0.051573336 0.055999994
0.023920007 0.051521905 0.052999973
0.02534667 0.051504765 0.051999986
0.026998099 0.051436193 0.047999978
0.028485719 0.051401906 0.046000004
0.02982096 0.051401906 0.046000004
0.031367626 0.051350478 0.042999983
0.03276572 0.051333334 0.041999996
0.034226667 0.05129905 0.040000021
0.035550483 0.05129905 0.040000021
0.037000004 0.051264763 0.037999988
0.038441908 0.051230479 0.036000013
0.039758097 0.051230479 0.036000013
0.041131433 0.051213335 0.035000026
0.042500958 0.051196191 0.033999979
0.043920007 0.051161908 0.032000005
0.045280006 0.051144764 0.031000018
0.046685722 0.051110476 0.028999984
0.047988579 0.051110476 0.028999984
0.049291436 0.051110476 0.028999984
0.050638102 0.051093336 0.027999997
0.052064769 0.051041905 0.024999976
0.053360008 0.051041905 0.024999976
0.054655246 0.051041905 0.024999976
0.055950485 0.051041905 0.024999976
0.057245724 0.051041905 0.024999976
0.058573339 0.051024765 0.023999989
0.059866674 0.051024765 0.023999989
0.061188579 0.051007621 0.023000002
0.062480003 0.051007621 0.023000002
0.063771434 0.051007621 0.023000002
0.065062866 0.051007621 0.023000002
0.06635429 0.051007621 0.023000002
0.067683816 0.050973337 0.021000028
0.068988577 0.050956193 0.019999981
0.070274293 0.050956193 0.019999981
0.07156001 0.050956193 0.019999981
0.072857149 0.05093905 0.018999994
0.074131437 0.050956193 0.019999981
0.075424768 0.05093905 0.018999994
0.076708578 0.05093905 0.018999994
0.077992387 0.05093905 0.018999994
0.079276197 0.05093905 0.018999994
0.080560006 0.05093905 0.018999994
0.081843816 0.05093905 0.018999994
0.083131433 0.050956193 0.019999981
0.084417149 0.050956193 0.019999981
0.085702866 0.050956193 0.019999981
0.086988576 0.050956193 0.019999981
0.088274293 0.050956193 0.019999981
0.089560002 0.050956193 0.019999981
0.090845719 0.050956193 0.019999981
0.092131436 0.050956193 0.019999981
0.093398102 0.05093905 0.018999994
0.094702862 0.050956193 0.019999981
0.095988579 0.050956193 0.019999981
0.097274289 0.050956193 0.019999981
0.098586679 0.050973337 0.021000028
0.099874295 0.050973337 0.021000028
0.10116191 0.050973337 0.021000028
0.1025143 0.051007621 0.023000002
0.10380572 0.051007621 0.023000002
0.10509715 0.051007621 0.023000002
0.10642667 0.051024765 0.023999989
0.10776 0.051041905 0.024999976
0.10905524 0.051041905 0.024999976
0.1104381 0.051076192 0.02700001
0.11173715 0.051076192 0.02700001
0.1130362 0.051076192 0.02700001
0.11438477 0.051093336 0.027999997
0.11563429 0.051076192 0.02700001
0.11698668 0.051093336 0.027999997
0.11828762 0.051093336 0.027999997
0.11964572 0.051110476 0.028999984
0.12094858 0.051110476 0.028999984
0.12237334 0.051144764 0.031000018
0.12374286 0.051161908 0.032000005
0.12518096 0.051196191 0.033999979
0.12656 0.051213335 0.035000026
0.12808001 0.051264763 0.037999988
0.12947048 0.051281907 0.038999975
0.13086477 0.05129905 0.040000021
0.13233715 0.051333334 0.041999996
0.13374096 0.051350478 0.042999983
0.13522668 0.051384762 0.045000017
0.13656001 0.051384762 0.045000017
0.13797525 0.051401906 0.046000004
0.014182866 0.053213336 0.07099998
0.015923813 0.053137146 0.067000031
0.017561913 0.053080004 0.06400001
0.019102864 0.053041905 0.061999977
0.020720001 0.052984763 0.059000015
0.022325717 0.052927621 0.055999994
0.023760002 0.052908573 0.055000007
0.02534667 0.052851431 0.051999986
0.026998099 0.052775241 0.047999978
0.028485719 0.052737147 0.046000004
0.02982096 0.052737147 0.046000004
0.031226672 0.052718095 0.045000017
0.03276572 0.052660953 0.041999996
0.034226667 0.052622862 0.040000021
0.035615243 0.052603811 0.038999975
0.037000004 0.052584764 0.037999988
0.038441908 0.052546669 0.036000013
0.039758097 0.052546669 0.036000013
0.041131433 0.052527621 0.035000026
0.042500958 0.052508574 0.033999979
0.04381334 0.052508574 0.033999979
0.045280006 0.052451432 0.031000018
0.046685722 0.052413337 0.028999984
0.047988579 0.052413337 0.028999984
0.049291436 0.052413337 0.028999984
0.050638102 0.052394286 0.027999997
0.051980957 0.052375242 0.02700001
0.053360008 0.052337144 0.024999976
0.054655246 0.052337144 0.024999976
0.055950485 0.052337144 0.024999976
0.057245724 0.052337144 0.024999976
0.058573339 0.052318096 0.023999989
0.059866674 0.052318096 0.023999989
0.061188579 0.052299049 0.023000002
0.062480003 0.052299049 0.023000002
0.063771434 0.052299049 0.023000002
0.065062866 0.052299049 0.023000002
0.066396192 0.052260958 0.021000028
0.067683816 0.052260958 0.021000028
0.068988577 0.052241907 0.019999981
0.070274293 0.052241907 0.019999981
0.07156001 0.052241907 0.019999981
0.07284572 0.052241907 0.019999981
0.074131437 0.052241907 0.019999981
0.075417146 0.052241907 0.019999981
0.076708578 0.052222859 0.018999994
0.077992387 0.052222859 0.018999994
0.079276197 0.052222859 0.018999994
0.080560006 0.052222859 0.018999994
0.081843816 0.052222859 0.018999994
0.083127625 0.052222859 0.018999994
0.084411435 0.052222859 0.018999994
0.085695244 0.052222859 0.018999994
0.086979054 0.052222859 0.018999994
0.088262863 0.052222859 0.018999994
0.089560002 0.052241907 0.019999981
0.090845719 0.052241907 0.019999981
0.092131436 0.052241907 0.019999981
0.093398102 0.052222859 0.018999994
0.094702862 0.052241907 0.019999981
0.095988579 0.052241907 0.019999981
0.097299054 0.052260958 0.021000028
0.098586679 0.052260958 0.021000028
0.099874295 0.052260958 0.021000028
0.10116191 0.052260958 0.021000028
0.1025143 0.052299049 0.023000002
0.10380572 0.052299049 0.023000002
0.10509715 0.052299049 0.023000002
0.10642667 0.052318096 0.023999989
0.10772001 0.052318096 0.023999989
0.10905524 0.052337144 0.024999976
0.1104381 0.052375242 0.02700001
0.11173715 0.052375242 0.02700001
0.1130362 0.052375242 0.02700001
0.11438477 0.052394286 0.027999997
0.11563429 0.052375242 0.02700001
0.11698668 0.052394286 0.027999997
0.11828762 0.052394286 0.027999997
0.11958858 0.052394286 0.027999997
0.12088953 0.052394286 0.027999997
0.12225144 0.052413337 0.028999984
0.12374286 0.052470479 0.032000005
0.12505144 0.052470479 0.032000005
0.12649333 0.052508574 0.033999979
0.12794286 0.052546669 0.036000013
0.12940001 0.052584764 0.037999988
0.13086477 0.052622862 0.040000021
0.13218859 0.052622862 0.040000021
0.13366477 0.052660953 0.041999996
0.13499239 0.052660953 0.041999996
0.13632001 0.052660953 0.041999996
0.14201716 0.053041905 0.061999977
0.1435581 0.053080004 0.06400001
0.14492762 0.053080004 0.06400001
0.14629716 0.053080004 0.06400001
0.016102865 0.054470479 0.064999998
0.017561913 0.054449528 0.06400001
0.019102864 0.054407619 0.061999977
0.020720001 0.054344766 0.059000015
0.022161908 0.054323811 0.058000028
0.023760002 0.054260954 0.055000007
0.025502861 0.054156192 0.050000012
0.026998099 0.05411429 0.047999978
0.028485719 0.054072384 0.046000004
0.029893335 0.054051433 0.045000017
0.031367626 0.054009527 0.042999983
0.03276572 0.053988576 0.041999996
0.034226667 0.05394667 0.040000021
0.035615243 0.053925715 0.038999975
0.037125718 0.053862859 0.036000013
0.038441908 0.053862859 0.036000013
0.039817147 0.053841908 0.035000026
0.041131433 0.053841908 0.035000026
0.042500958 0.053820953 0.033999979
0.043920007 0.053779051 0.032000005
0.045280006 0.0537581 0.031000018
0.046685722 0.05371619 0.028999984
0.047988579 0.05371619 0.028999984
0.049291436 0.05371619 0.028999984
0.050638102 0.053695239 0.027999997
0.051980957 0.053674288 0.02700001
0.053360008 0.053632382 0.024999976
0.054655246 0.053632382 0.024999976
0.055950485 0.053632382 0.024999976
0.057245724 0.053632382 0.024999976
0.058540959 0.053632382 0.024999976
0.059836194 0.053632382 0.024999976
0.061188579 0.053590477 0.023000002
0.062480003 0.053590477 0.023000002
0.063771434 0.053590477 0.023000002
0.065062866 0.053590477 0.023000002
0.066396192 0.053548574 0.021000028
0.067683816 0.053548574 0.021000028
0.068988577 0.05352762 0.019999981
0.070274293 0.05352762 0.019999981
0.07156001 0.05352762 0.019999981
0.07284572 0.05352762 0.019999981
0.074131437 0.05352762 0.019999981
0.075424768 0.053506669 0.018999994
0.076708578 0.053506669 0.018999994
0.077992387 0.053506669 0.018999994
0.079276197 0.053506669 0.018999994
0.080560006 0.053506669 0.018999994
0.081843816 0.053506669 0.018999994
0.083127625 0.053506669 0.018999994
0.084411435 0.053506669 0.018999994
0.085695244 0.053506669 0.018999994
0.086979054 0.053506669 0.018999994
0.088274293 0.05352762 0.019999981
0.089560002 0.05352762 0.019999981
0.090845719 0.05352762 0.019999981
0.092131436 0.05352762 0.019999981
0.093417153 0.05352762 0.019999981
0.094702862 0.05352762 0.019999981
0.096011437 0.053548574 0.021000028
0.097299054 0.053548574 0.021000028
0.098586679 0.053548574 0.021000028
0.099874295 0.053548574 0.021000028
0.10116191 0.053548574 0.021000028
0.1025143 0.053590477 0.023000002
0.10380572 0.053590477 0.023000002
0.10509715 0.053590477 0.023000002
0.10638858 0.053590477 0.023000002
0.10772001 0.053611431 0.023999989
0.10905524 0.053632382 0.024999976
0.11035048 0.053632382 0.024999976
0.11173715 0.053674288 0.02700001
0.1130362 0.053674288 0.02700001
0.11438477 0.053695239 0.027999997
0.11563429 0.053674288 0.02700001
0.11698668 0.053695239 0.027999997
0.11828762 0.053695239 0.027999997
0.11958858 0.053695239 0.027999997
0.12094858 0.05371619 0.028999984
0.12225144 0.05371619 0.028999984
0.12368001 0.0537581 0.031000018
0.12498668 0.0537581 0.031000018
0.12649333 0.053820953 0.033999979
0.1278743 0.053841908 0.035000026
0.12940001 0.053904764 0.037999988
0.13079238 0.053925715 0.038999975
0.13218859 0.05394667 0.040000021
0.13366477 0.053988576 0.041999996
0.13499239 0.053988576 0.041999996
0.13632001 0.053988576 0.041999996
0.13764763 0.053988576 0.041999996
0.14218858 0.054449528 0.06400001
0.1435581 0.054449528 0.06400001
0.14492762 0.054449528 0.06400001
0.14629716 0.054449528 0.06400001
0.016102865 0.055841908 0.064999998
0.017561913 0.055819049 0.06400001
0.019102864 0.055773333 0.061999977
0.020720001 0.055704765 0.059000015
0.022325717 0.055636194 0.055999994
0.023920007 0.055567622 0.052999973
0.025580954 0.055476196 0.049000025
0.026998099 0.055453334 0.047999978
0.028485719 0.055407621 0.046000004
0.029893335 0.055384763 0.045000017
0.031367626 0.05533905 0.042999983
0.03276572 0.055316195 0.041999996
0.034226667 0.055270478 0.040000021
0.035615243 0.05524762 0.038999975
0.037125718 0.055179052 0.036000013
0.038441908 0.055179052 0.036000013
0.039817147 0.055156194 0.035000026
0.041188579 0.055133335 0.033999979
0.042611435 0.055087622 0.032000005
0.043920007 0.055087622 0.032000005
0.045280006 0.055064764 0.031000018
0.046685722 0.055019051 0.028999984
0.047988579 0.055019051 0.028999984
0.049291436 0.055019051 0.028999984
0.050638102 0.054996192 0.027999997
0.051980957 0.054973334 0.02700001
0.053360008 0.054927621 0.024999976
0.054655246 0.054927621 0.024999976
0.055950485 0.054927621 0.024999976
0.057245724 0.054927621 0.024999976
0.058573339 0.054904766 0.023999989
0.059866674 0.054904766 0.023999989
0.061188579 0.054881908 0.023000002
0.062480003 0.054881908 0.023000002
0.063771434 0.054881908 0.023000002
0.065062866 0.054881908 0.023000002
0.066396192 0.054836191 0.021000028
0.067683816 0.054836191 0.021000028
0.068988577 0.054813337 0.019999981
0.070274293 0.054813337 0.019999981
0.07156001 0.054813337 0.019999981
0.07284572 0.054813337 0.019999981
0.074131437 0.054813337 0.019999981
0.075424768 0.054790478 0.018999994
0.076708578 0.054790478 0.018999994
0.077992387 0.054790478 0.018999994
0.079276197 0.054790478 0.018999994
0.080560006 0.054790478 0.018999994
0.081843816 0.054790478 0.018999994
0.083127625 0.054790478 0.018999994
0.084411435 0.054790478 0.018999994
0.085702866 0.054813337 0.019999981
0.086988576 0.054813337 0.019999981
0.088274293 0.054813337 0.019999981
0.089560002 0.054813337 0.019999981
0.090845719 0.054813337 0.019999981
0.092131436 0.054813337 0.019999981
0.093417153 0.054813337 0.019999981
0.094702862 0.054813337 0.019999981
0.096011437 0.054836191 0.021000028
0.097299054 0.054836191 0.021000028
0.098586679 0.054836191 0.021000028
0.099874295 0.054836191 0.021000028
0.10122287 0.054881908 0.023000002
0.1025143 0.054881908 0.023000002
0.10380572 0.054881908 0.023000002
0.10509715 0.054881908 0.023000002
0.10638858 0.054881908 0.023000002
0.10772001 0.054904766 0.023999989
0.10905524 0.054927621 0.024999976
0.11035048 0.054927621 0.024999976
0.11173715 0.054973334 0.02700001
0.1130362 0.054973334 0.02700001
0.11438477 0.054996192 0.027999997
0.11563429 0.054973334 0.02700001
0.11698668 0.054996192 0.027999997
0.11828762 0.054996192 0.027999997
0.11964572 0.055019051 0.028999984
0.12094858 0.055019051 0.028999984
0.12237334 0.055064764 0.031000018
0.12368001 0.055064764 0.031000018
0.12505144 0.055087622 0.032000005
0.12649333 0.055133335 0.033999979
0.1278743 0.055156194 0.035000026
0.12947048 0.05524762 0.038999975
0.13079238 0.05524762 0.038999975
0.13218859 0.055270478 0.040000021
0.13351239 0.055270478 0.040000021
0.13499239 0.055316195 0.041999996
0.13632001 0.055316195 0.041999996
0.13764763 0.055316195 0.041999996
0.14065143 0.055773333 0.061999977
0.14201716 0.055773333 0.061999977
0.1435581 0.055819049 0.06400001
0.14492762 0.055819049 0.06400001
0.14629716 0.055819049 0.06400001
0.016102865 0.057213336 0.064999998
0.017561913 0.05718857 0.06400001
0.019102864 0.05713905 0.061999977
0.020720001 0.057064764 0.059000015
0.022325717 0.056990478 0.055999994
0.023920007 0.056916192 0.052999973
0.025502861 0.05684191 0.050000012
0.026998099 0.056792382 0.047999978
0.028485719 0.056742862 0.046000004
0.029893335 0.056718096 0.045000017
0.031367626 0.056668572 0.042999983
0.03276572 0.056643814 0.041999996
0.034226667 0.05659429 0.040000021
0.035680007 0.056544766 0.037999988
0.037125718 0.056495242 0.036000013
0.038441908 0.056495242 0.036000013
0.039817147 0.05647048 0.035000026
0.041188579 0.056445718 0.033999979
0.042611435 0.056396194 0.032000005
0.043973334 0.056371428 0.031000018
0.045280006 0.056371428 0.031000018
0.046685722 0.056321904 0.028999984
0.047988579 0.056321904 0.028999984
0.049337149 0.056297146 0.027999997
0.050681911 0.056272384 0.02700001
0.051980957 0.056272384 0.02700001
0.053280003 0.056272384 0.02700001
0.054655246 0.05622286 0.024999976
0.055950485 0.05622286 0.024999976
0.057245724 0.05622286 0.024999976
0.058573339 0.056198098 0.023999989
0.059866674 0.056198098 0.023999989
0.061188579 0.056173336 0.023000002
0.062480003 0.056173336 0.023000002
0.063771434 0.056173336 0.023000002
0.065108575 0.056123815 0.021000028
0.066396192 0.056123815 0.021000028
0.067683816 0.056123815 0.021000028
0.068988577 0.05609905 0.019999981
0.070274293 0.05609905 0.019999981
0.07156001 0.05609905 0.019999981
0.07284572 0.05609905 0.019999981
0.074131437 0.05609905 0.019999981
0.075417146 0.05609905 0.019999981
0.076708578 0.056074288 0.018999994
0.077992387 0.056074288 0.018999994
0.079276197 0.056074288 0.018999994
0.080560006 0.056074288 0.018999994
0.081843816 0.056074288 0.018999994
0.083127625 0.056074288 0.018999994
0.084411435 0.056074288 0.018999994
0.085695244 0.056074288 0.018999994
0.086988576 0.05609905 0.019999981
0.088274293 0.05609905 0.019999981
0.089560002 0.05609905 0.019999981
0.090845719 0.05609905 0.019999981
0.092131436 0.05609905 0.019999981
0.093417153 0.05609905 0.019999981
0.094702862 0.05609905 0.019999981
0.096011437 0.056123815 0.021000028
0.097299054 0.056123815 0.021000028
0.098586679 0.056123815 0.021000028
0.099874295 0.056123815 0.021000028
0.10122287 0.056173336 0.023000002
0.1025143 0.056173336 0.023000002
0.10380572 0.056173336 0.023000002
0.10509715 0.056173336 0.023000002
0.10638858 0.056173336 0.023000002
0.10772001 0.056198098 0.023999989
0.10905524 0.05622286 0.024999976
0.11035048 0.05622286 0.024999976
0.11173715 0.056272384 0.02700001
0.11294096 0.05622286 0.024999976
0.11438477 0.056297146 0.027999997
0.11563429 0.056272384 0.02700001
0.11698668 0.056297146 0.027999997
0.11828762 0.056297146 0.027999997
0.11964572 0.056321904 0.028999984
0.12094858 0.056321904 0.028999984
0.12237334 0.056371428 0.031000018
0.12368001 0.056371428 0.031000018
0.12505144 0.056396194 0.032000005
0.12649333 0.056445718 0.033999979
0.1278743 0.05647048 0.035000026
0.12940001 0.056544766 0.037999988
0.13079238 0.056569524 0.038999975
0.13218859 0.05659429 0.040000021
0.13351239 0.05659429 0.040000021
0.1348362 0.05659429 0.040000021
0.13616002 0.05659429 0.040000021
0.13748382 0.05659429 0.040000021
0.14065143 0.05713905 0.061999977
0.14201716 0.05713905 0.061999977
0.1435581 0.05718857 0.06400001
0.14492762 0.05718857 0.06400001
0.14629716 0.05718857 0.06400001
0.017561913 0.058558099 0.06400001
0.018845718 0.058584765 0.064999998
0.02021715 0.058584765 0.064999998
0.022161908 0.058398098 0.058000028
0.023680005 0.058344766 0.055999994
0.025268577 0.058264762 0.052999973
0.026998099 0.05813143 0.047999978
0.028485719 0.058078095 0.046000004
0.029893335 0.05805143 0.045000017
0.031367626 0.057998098 0.042999983
0.03276572 0.057971433 0.041999996
0.034226667 0.057918098 0.040000021
0.035680007 0.057864763 0.037999988
0.037000004 0.057864763 0.037999988
0.038320005 0.057864763 0.037999988
0.039817147 0.057784766 0.035000026
0.041188579 0.057758097 0.033999979
0.042611435 0.057704762 0.032000005
0.043920007 0.057704762 0.032000005
0.045280006 0.0576781 0.031000018
0.046685722 0.057624765 0.028999984
0.048036195 0.057598099 0.027999997
0.049337149 0.057598099 0.027999997
0.050681911 0.057571433 0.02700001
0.051980957 0.057571433 0.02700001
0.053360008 0.057518099 0.024999976
0.054655246 0.057518099 0.024999976
0.055950485 0.057518099 0.024999976
0.057245724 0.057518099 0.024999976
0.058573339 0.057491429 0.023999989
0.059866674 0.057491429 0.023999989
0.061188579 0.057464764 0.023000002
0.062480003 0.057464764 0.023000002
0.063820958 0.057411432 0.021000028
0.065108575 0.057411432 0.021000028
0.066396192 0.057411432 0.021000028
0.067683816 0.057411432 0.021000028
0.068988577 0.057384763 0.019999981
0.070274293 0.057384763 0.019999981
0.07156001 0.057384763 0.019999981
0.07284572 0.057384763 0.019999981
0.074131437 0.057384763 0.019999981
0.075417146 0.057384763 0.019999981
0.076702863 0.057384763 0.019999981
0.07798858 0.057384763 0.019999981
0.079276197 0.057358101 0.018999994
0.080560006 0.057358101 0.018999994
0.081843816 0.057358101 0.018999994
0.083127625 0.057358101 0.018999994
0.084417149 0.057384763 0.019999981
0.085695244 0.057358101 0.018999994
0.086979054 0.057358101 0.018999994
0.088274293 0.057384763 0.019999981
0.089573339 0.057411432 0.021000028
0.090845719 0.057384763 0.019999981
0.092131436 0.057384763 0.019999981
0.093417153 0.057384763 0.019999981
0.094702862 0.057384763 0.019999981
0.096057147 0.057464764 0.023000002
0.097299054 0.057411432 0.021000028
0.09864001 0.057464764 0.023000002
0.099931434 0.057464764 0.023000002
0.10122287 0.057464764 0.023000002
0.1025143 0.057464764 0.023000002
0.10380572 0.057464764 0.023000002
0.10513334 0.057491429 0.023999989
0.10642667 0.057491429 0.023999989
0.10776 0.057518099 0.024999976
0.10905524 0.057518099 0.024999976
0.1104381 0.057571433 0.02700001
0.11173715 0.057571433 0.02700001
0.1130362 0.057571433 0.02700001
0.11438477 0.057598099 0.027999997
0.11568572 0.057598099 0.027999997
0.11698668 0.057598099 0.027999997
0.11828762 0.057598099 0.027999997
0.11964572 0.057624765 0.028999984
0.12094858 0.057624765 0.028999984
0.12237334 0.0576781 0.031000018
0.12374286 0.057704762 0.032000005
0.12505144 0.057704762 0.032000005
0.12656 0.057784766 0.035000026
0.1278743 0.057784766 0.035000026
0.12947048 0.057891428 0.038999975
0.13079238 0.057891428 0.038999975
0.13218859 0.057918098 0.040000021
0.13351239 0.057918098 0.040000021
0.1348362 0.057918098 0.040000021
0.13616002 0.057918098 0.040000021
0.13748382 0.057918098 0.040000021
0.14081906 0.058558099 0.06400001
0.14218858 0.058558099 0.06400001
0.1435581 0.058558099 0.06400001
0.14492762 0.058558099 0.06400001
0.14629716 0.058558099 0.06400001
0.018845718 0.059956193 0.064999998
0.02021715 0.059956193 0.064999998
0.022161908 0.059756193 0.058000028
0.023680005 0.059699051 0.055999994
0.025268577 0.059613332 0.052999973
0.026998099 0.059470478 0.047999978
0.028485719 0.059413336 0.046000004
0.029893335 0.059384763 0.045000017
0.031367626 0.059327621 0.042999983
0.03276572 0.059299052 0.041999996
0.034226667 0.059241906 0.040000021
0.035680007 0.059184764 0.037999988
0.037125718 0.059127621 0.036000013
0.038441908 0.059127621 0.036000013
0.039817147 0.059099048 0.035000026
0.041188579 0.059070475 0.033999979
0.042611435 0.059013337 0.032000005
0.043973334 0.058984764 0.031000018
0.045280006 0.058984764 0.031000018
0.046685722 0.058927622 0.028999984
0.048036195 0.058899052 0.027999997
0.049337149 0.058899052 0.027999997
0.050681911 0.058870479 0.02700001
0.051980957 0.058870479 0.02700001
0.053360008 0.058813334 0.024999976
0.054655246 0.058813334 0.024999976
0.055950485 0.058813334 0.024999976
0.057245724 0.058813334 0.024999976
0.058540959 0.058813334 0.024999976
0.059866674 0.058784764 0.023999989
0.061188579 0.058756191 0.023000002
0.062480003 0.058756191 0.023000002
0.063771434 0.058756191 0.023000002
0.065108575 0.058699049 0.021000028
0.066396192 0.058699049 0.021000028
0.067683816 0.058699049 0.021000028
0.068988577 0.058670476 0.019999981
0.070274293 0.058670476 0.019999981
0.07156001 0.058670476 0.019999981
0.07284572 0.058670476 0.019999981
0.074131437 0.058670476 0.019999981
0.075417146 0.058670476 0.019999981
0.076702863 0.058670476 0.019999981
0.07798858 0.058670476 0.019999981
0.079276197 0.058641907 0.018999994
0.080560006 0.058641907 0.018999994
0.081843816 0.058641907 0.018999994
0.083127625 0.058641907 0.018999994
0.084411435 0.058641907 0.018999994
0.085702866 0.058670476 0.019999981
0.086988576 0.058670476 0.019999981
0.088274293 0.058670476 0.019999981
0.089573339 0.058699049 0.021000028
0.090860963 0.058699049 0.021000028
0.09214858 0.058699049 0.021000028
0.093436196 0.058699049 0.021000028
0.094723821 0.058699049 0.021000028
0.096057147 0.058756191 0.023000002
0.097348578 0.058756191 0.023000002
0.09864001 0.058756191 0.023000002
0.099931434 0.058756191 0.023000002
0.10122287 0.058756191 0.023000002
0.1025143 0.058756191 0.023000002
0.10384001 0.058784764 0.023999989
0.10513334 0.058784764 0.023999989
0.10642667 0.058784764 0.023999989
0.10776 0.058813334 0.024999976
0.10905524 0.058813334 0.024999976
0.1104381 0.058870479 0.02700001
0.11173715 0.058870479 0.02700001
0.1130362 0.058870479 0.02700001
0.11438477 0.058899052 0.027999997
0.11568572 0.058899052 0.027999997
0.11698668 0.058899052 0.027999997
0.11834286 0.058927622 0.028999984
0.11964572 0.058927622 0.028999984
0.12106667 0.058984764 0.031000018
0.12243429 0.059013337 0.032000005
0.12374286 0.059013337 0.032000005
0.12518096 0.059070475 0.033999979
0.12656 0.059099048 0.035000026
0.12794286 0.059127621 0.036000013
0.12947048 0.059213333 0.038999975
0.13079238 0.059213333 0.038999975
0.13218859 0.059241906 0.040000021
0.13351239 0.059241906 0.040000021
0.1348362 0.059241906 0.040000021
0.13616002 0.059241906 0.040000021
0.13748382 0.059241906 0.040000021
0.14065143 0.059870478 0.061999977
0.14218858 0.05992762 0.06400001
0.1435581 0.05992762 0.06400001
0.14492762 0.05992762 0.06400001
0.02352 0.061114289 0.058000028
0.025268577 0.060961906 0.052999973
0.026998099 0.060809523 0.047999978
0.028337151 0.060809523 0.047999978
0.029893335 0.060718097 0.045000017
0.031438097 0.060626671 0.041999996
0.032902859 0.060565718 0.040000021
0.034293339 0.060535237 0.038999975
0.035809528 0.060443811 0.036000013
0.037125718 0.060443811 0.036000013
0.038502861 0.060413338 0.035000026
0.039817147 0.060413338 0.035000026
0.041188579 0.060382858 0.033999979
0.042611435 0.060321905 0.032000005
0.043973334 0.060291432 0.031000018
0.045382865 0.060230479 0.028999984
0.046685722 0.060230479 0.028999984
0.048036195 0.060200002 0.027999997
0.049337149 0.060200002 0.027999997
0.050681911 0.060169525 0.02700001
0.051980957 0.060169525 0.02700001
0.053280003 0.060169525 0.02700001
0.054655246 0.060108572 0.024999976
0.055950485 0.060108572 0.024999976
0.057245724 0.060108572 0.024999976
0.058540959 0.060108572 0.024999976
0.059836194 0.060108572 0.024999976
0.061188579 0.060047619 0.023000002
0.062480003 0.060047619 0.023000002
0.063771434 0.060047619 0.023000002
0.065108575 0.05998667 0.021000028
0.066396192 0.05998667 0.021000028
0.067683816 0.05998667 0.021000028
0.068971433 0.05998667 0.021000028
0.07025905 0.05998667 0.021000028
0.071520008 0.060047619 0.023000002
0.072834291 0.05998667 0.021000028
0.074121907 0.05998667 0.021000028
0.075409532 0.05998667 0.021000028
0.076697148 0.05998667 0.021000028
0.07798858 0.059956193 0.019999981
0.079274289 0.059956193 0.019999981
0.080560006 0.059925716 0.018999994
0.081845723 0.059956193 0.019999981
0.083127625 0.059925716 0.018999994
0.084417149 0.059956193 0.019999981
0.085702866 0.059956193 0.019999981
0.086988576 0.059956193 0.019999981
0.088285722 0.05998667 0.021000028
0.089573339 0.05998667 0.021000028
0.090860963 0.05998667 0.021000028
0.09214858 0.05998667 0.021000028
0.093474291 0.060047619 0.023000002
0.094765723 0.060047619 0.023000002
0.096057147 0.060047619 0.023000002
0.097348578 0.060047619 0.023000002
0.09864001 0.060047619 0.023000002
0.099960007 0.060078099 0.023999989
0.10125334 0.060078099 0.023999989
0.10254668 0.060078099 0.023999989
0.10384001 0.060078099 0.023999989
0.10516953 0.060108572 0.024999976
0.10646477 0.060108572 0.024999976
0.10776 0.060108572 0.024999976
0.10913906 0.060169525 0.02700001
0.1104381 0.060169525 0.02700001
0.11178286 0.060200002 0.027999997
0.1130362 0.060169525 0.02700001
0.11438477 0.060200002 0.027999997
0.11568572 0.060200002 0.027999997
0.11704001 0.060230479 0.028999984
0.11834286 0.060230479 0.028999984
0.11976001 0.060291432 0.031000018
0.12106667 0.060291432 0.031000018
0.12243429 0.060321905 0.032000005
0.12374286 0.060321905 0.032000005
0.12518096 0.060382858 0.033999979
0.12656 0.060413338 0.035000026
0.12794286 0.060443811 0.036000013
0.12947048 0.060535237 0.038999975
0.13079238 0.060535237 0.038999975
0.13218859 0.060565718 0.040000021
0.13351239 0.060565718 0.040000021
0.1348362 0.060565718 0.040000021
0.13616002 0.060565718 0.040000021
0.13748382 0.060565718 0.040000021
0.14065143 0.061236192 0.061999977
0.14218858 0.061297145 0.06400001
0.1435581 0.061297145 0.06400001
0.14492762 0.061297145 0.06400001
0.018331431 0.062893331 0.07099998
0.019714292 0.062893331 0.07099998
0.022571433 0.06231048 0.052999973
0.023920007 0.06231048 0.052999973
0.025268577 0.06231048 0.052999973
0.026998099 0.062148571 0.047999978
0.028337151 0.062148571 0.047999978
0.029893335 0.06205143 0.045000017
0.031438097 0.06195429 0.041999996
0.032902859 0.061889526 0.040000021
0.034293339 0.061857145 0.038999975
0.035809528 0.061760001 0.036000013
0.037125718 0.061760001 0.036000013
0.038502861 0.061727621 0.035000026
0.039817147 0.061727621 0.035000026
0.041188579 0.06169524 0.033999979
0.042611435 0.06163048 0.032000005
0.043973334 0.0615981 0.031000018
0.045382865 0.061533336 0.028999984
0.046685722 0.061533336 0.028999984
0.048036195 0.061500952 0.027999997
0.049337149 0.061500952 0.027999997
0.050638102 0.061500952 0.027999997
0.051980957 0.061468575 0.02700001
0.053280003 0.061468575 0.02700001
0.054579049 0.061468575 0.02700001
0.055878099 0.061468575 0.02700001
0.057245724 0.061403811 0.024999976
0.058540959 0.061403811 0.024999976
0.059836194 0.061403811 0.024999976
0.061160006 0.061371431 0.023999989
0.062480003 0.061339051 0.023000002
0.063771434 0.061339051 0.023000002
0.065062866 0.061339051 0.023000002
0.06635429 0.061339051 0.023000002
0.067645721 0.061339051 0.023000002
0.068971433 0.06127429 0.021000028
0.070228577 0.061339051 0.023000002
0.071520008 0.061339051 0.023000002
0.072811432 0.061339051 0.023000002
0.074102864 0.061339051 0.023000002
0.075409532 0.06127429 0.021000028
0.076697148 0.06127429 0.021000028
0.077984765 0.06127429 0.021000028
0.079274289 0.061241906 0.019999981
0.080560006 0.061209526 0.018999994
0.081845723 0.061241906 0.019999981
0.083131433 0.061241906 0.019999981
0.084422864 0.06127429 0.021000028
0.085710481 0.06127429 0.021000028
0.086998105 0.06127429 0.021000028
0.08830858 0.061339051 0.023000002
0.089600004 0.061339051 0.023000002
0.090891436 0.061339051 0.023000002
0.09218286 0.061339051 0.023000002
0.093474291 0.061339051 0.023000002
0.094786674 0.061371431 0.023999989
0.096080005 0.061371431 0.023999989
0.097373337 0.061371431 0.023999989
0.098693341 0.061403811 0.024999976
0.10004573 0.061468575 0.02700001
0.10134477 0.061468575 0.02700001
0.1026762 0.061500952 0.027999997
0.10397715 0.061500952 0.027999997
0.10531429 0.061533336 0.028999984
0.10661715 0.061533336 0.028999984
0.10792001 0.061533336 0.028999984
0.10922286 0.061533336 0.028999984
0.11052572 0.061533336 0.028999984
0.11192001 0.0615981 0.031000018
0.11327429 0.06163048 0.032000005
0.11468191 0.06169524 0.033999979
0.11589144 0.06163048 0.032000005
0.1172 0.06163048 0.032000005
0.11845334 0.0615981 0.031000018
0.11981715 0.06163048 0.032000005
0.12112572 0.06163048 0.032000005
0.12255619 0.06169524 0.033999979
0.12386858 0.06169524 0.033999979
0.12524572 0.061727621 0.035000026
0.12662667 0.061760001 0.036000013
0.12808001 0.061824761 0.037999988
0.12947048 0.061857145 0.038999975
0.13086477 0.061889526 0.040000021
0.13233715 0.06195429 0.041999996
0.13412191 0.062148571 0.047999978
0.13546096 0.062148571 0.047999978
0.13696001 0.062213335 0.050000012
0.13920382 0.062569529 0.06099999
0.14056763 0.062569529 0.06099999
0.14201716 0.062601909 0.061999977
0.1435581 0.062666669 0.06400001
0.14501715 0.06269905 0.064999998
0.14638859 0.06269905 0.064999998
0.011773333 0.064653337 0.082000017
0.013451435 0.064550482 0.078999996
0.015028574 0.064481907 0.077000022
0.016685717 0.064379051 0.074000001
0.018160004 0.064344764 0.073000014
0.019546669 0.064344764 0.073000014
0.020933334 0.064344764 0.073000014
0.023760002 0.063727617 0.055000007
0.025112387 0.063727617 0.055000007
0.026921909 0.063521907 0.049000025
0.028485719 0.063419051 0.046000004
0.02982096 0.063419051 0.046000004
0.031438097 0.063281909 0.041999996
0.032902859 0.063213333 0.040000021
0.034293339 0.063179046 0.038999975
0.035680007 0.063144766 0.037999988
0.037125718 0.063076191 0.036000013
0.038441908 0.063076191 0.036000013
0.039817147 0.063041911 0.035000026
0.041188579 0.063007623 0.033999979
0.042611435 0.062939048 0.032000005
0.043920007 0.062939048 0.032000005
0.045280006 0.06290476 0.031000018
0.046685722 0.062836193 0.028999984
0.047988579 0.062836193 0.028999984
0.049337149 0.062801905 0.027999997
0.050638102 0.062801905 0.027999997
0.051980957 0.062767625 0.02700001
