# .PCD v0.7 - Point Cloud Data file format
VERSION 0.7
FIELDS x y z
SIZE 4 4 4
TYPE F F F
COUNT 1 1 1
WIDTH 1398
HEIGHT 1
VIEWPOINT 0 0 0 0 1 0 0
POINTS 1398
DATA ascii
0.055220954 0.099110477 0.027999997
0.056571431 0.098999999 0.02700001
0.057891428 0.098999999 0.02700001
0.059260953 0.098779052 0.025000036
0.060577147 0.098779052 0.025000036
0.061893336 0.098779052 0.025000036
0.063228577 0.098668583 0.024000049
0.06454286 0.098668583 0.024000049
0.065857142 0.098668583 0.024000049
0.067171432 0.098668583 0.024000049
0.068497144 0.098558098 0.023000002
0.069809526 0.098558098 0.023000002
0.071121909 0.098558098 0.023000002
0.072434291 0.098558098 0.023000002
0.073746666 0.098558098 0.023000002
0.075059049 0.098558098 0.023000002
0.076371431 0.098558098 0.023000002
0.077683814 0.098558098 0.023000002
0.078996196 0.098558098 0.023000002
0.080308571 0.098558098 0.023000002
0.081620954 0.098558098 0.023000002
0.082933336 0.098558098 0.023000002
0.084245719 0.098558098 0.023000002
0.085558102 0.098558098 0.023000002
0.086870477 0.098558098 0.023000002
0.088182859 0.098558098 0.023000002
0.089495242 0.098558098 0.023000002
0.090765715 0.098337144 0.021000028
0.092051432 0.098226674 0.020000041
0.093308575 0.098005719 0.018000007
0.094558097 0.097784773 0.016000032
0.095771432 0.097453333 0.013000011
0.097064763 0.097453333 0.013000011
0.098260954 0.097121909 0.01000005
0.099480003 0.096900955 0.0080000162
0.10069143 0.09668 0.006000042
0.10193334 0.096569523 0.0049999952
0.10317143 0.096459046 0.0040000081
0.10440572 0.096348576 0.003000021
0.10568 0.096348576 0.003000021
0.10686286 0.096127629 0.0010000467
0.10813334 0.096127629 0.0010000467
0.10940382 0.096127629 0.0010000467
0.11067429 0.096127629 0.0010000467
0.11194476 0.096127629 0.0010000467
0.11321525 0.096127629 0.0010000467
0.11448573 0.096127629 0.0010000467
0.1157562 0.096127629 0.0010000467
0.11702667 0.096127629 0.0010000467
0.11829714 0.096127629 0.0010000467
0.11969715 0.096348576 0.003000021
0.12097143 0.096348576 0.003000021
0.12224571 0.096348576 0.003000021
0.12352 0.096348576 0.003000021
0.12479429 0.096348576 0.003000021
0.12896572 0.10065714 0.041999996
0.13046667 0.1008781 0.04400003
0.13189715 0.10098857 0.045000017
0.13341144 0.10120953 0.047000051
0.13509715 0.10165142 0.050999999
0.13646287 0.10165142 0.050999999
0.13782857 0.10165142 0.050999999
0.13919429 0.10165142 0.050999999
0.14154477 0.10286667 0.062000036
0.14302287 0.10297715 0.063000023
0.14441143 0.10297715 0.063000023
0.14608572 0.10330857 0.066000044
0.14767429 0.10352953 0.068000019
0.14907238 0.10352953 0.068000019
0.15016761 0.1031981 0.064999998
0.0020857081 0.10672572 0.084000051
0.0035142824 0.10672572 0.084000051
0.010123812 0.10560191 0.074000001
0.011620954 0.10548953 0.073000014
0.01302857 0.10548953 0.073000014
0.014603809 0.10526477 0.07100004
0.016089521 0.10515239 0.070000052
0.017811429 0.10470287 0.066000044
0.019439999 0.10436572 0.063000023
0.020904761 0.10425334 0.062000036
0.022514287 0.10391619 0.059000015
0.024257146 0.10335429 0.05400002
0.025840003 0.10301714 0.050999999
0.027274288 0.10290476 0.050000012
0.02877143 0.10268001 0.048000038
0.03019619 0.10256763 0.047000051
0.031679999 0.10234286 0.045000017
0.033095241 0.10223048 0.04400003
0.034565717 0.10200571 0.041999996
0.035971429 0.10189334 0.041000009
0.037318099 0.10189334 0.041000009
0.038771428 0.10166857 0.039000034
0.040114287 0.10166857 0.039000034
0.041506667 0.1015562 0.038000047
0.042895239 0.10144381 0.037
0.044325713 0.10121905 0.035000026
0.045704763 0.10110667 0.034000039
0.047038093 0.10110667 0.034000039
0.048451431 0.1008819 0.032000005
0.049819052 0.10076953 0.031000018
0.051146671 0.10076953 0.031000018
0.05247429 0.10076953 0.031000018
0.05389905 0.10043238 0.027999997
0.055220954 0.10043238 0.027999997
0.056571431 0.10032 0.02700001
0.057944763 0.10009524 0.025000036
0.059260953 0.10009524 0.025000036
0.060577147 0.10009524 0.025000036
0.061914288 0.099982865 0.024000049
0.063228577 0.099982865 0.024000049
0.06454286 0.099982865 0.024000049
0.065857142 0.099982865 0.024000049
0.067171432 0.099982865 0.024000049
0.068497144 0.099870481 0.023000002
0.069809526 0.099870481 0.023000002
0.071121909 0.099870481 0.023000002
0.072434291 0.099870481 0.023000002
0.073746666 0.099870481 0.023000002
0.075059049 0.099870481 0.023000002
0.076371431 0.099870481 0.023000002
0.077683814 0.099870481 0.023000002
0.078996196 0.099870481 0.023000002
0.080308571 0.099870481 0.023000002
0.081620954 0.099870481 0.023000002
0.082933336 0.099870481 0.023000002
0.084245719 0.099870481 0.023000002
0.085558102 0.099870481 0.023000002
0.086870477 0.099870481 0.023000002
0.088182859 0.099870481 0.023000002
0.089495242 0.099870481 0.023000002
0.090765715 0.099645719 0.021000028
0.092005715 0.09930858 0.018000007
0.093308575 0.09930858 0.018000007
0.094558097 0.099083818 0.016000032
0.095800005 0.098859049 0.013999999
0.097064763 0.098746672 0.013000011
0.098260954 0.098409526 0.01000005
0.099480003 0.098184764 0.0080000162
0.10069143 0.097960003 0.006000042
0.10193334 0.097847618 0.0049999952
0.10317143 0.097735241 0.0040000081
0.10440572 0.097622856 0.003000021
0.10568 0.097622856 0.003000021
0.10686286 0.097398102 0.0010000467
0.10813334 0.097398102 0.0010000467
0.10940382 0.097398102 0.0010000467
0.11067429 0.097398102 0.0010000467
0.11194476 0.097398102 0.0010000467
0.11321525 0.097398102 0.0010000467
0.11448573 0.097398102 0.0010000467
0.1157562 0.097398102 0.0010000467
0.11702667 0.097398102 0.0010000467
0.11829714 0.097398102 0.0010000467
0.11956763 0.097398102 0.0010000467
0.12097143 0.097622856 0.003000021
0.12210858 0.097398102 0.0010000467
0.12359048 0.097735241 0.0040000081
0.12486667 0.097735241 0.0040000081
0.13054286 0.10234286 0.045000017
0.13189715 0.10234286 0.045000017
0.13341144 0.10256763 0.047000051
0.13485143 0.10268001 0.048000038
0.13637905 0.10290476 0.050000012
0.13782857 0.10301714 0.050999999
0.13919429 0.10301714 0.050999999
0.14154477 0.10425334 0.062000036
0.14293143 0.10425334 0.062000036
0.14441143 0.10436572 0.063000023
0.14608572 0.10470287 0.066000044
0.14748001 0.10470287 0.066000044
0.14887428 0.10470287 0.066000044
0.15026858 0.10470287 0.066000044
0.010123812 0.10701143 0.074000001
0.011533335 0.10701143 0.074000001
0.01302857 0.10689715 0.073000014
0.014436189 0.10689715 0.073000014
0.016089521 0.10655429 0.070000052
0.017491426 0.10655429 0.070000052
0.019283812 0.10598286 0.064999998
0.020904761 0.10564001 0.062000036
0.022440001 0.10541143 0.060000002
0.023895238 0.10529714 0.059000015
0.025699049 0.10461143 0.053000033
0.027205717 0.10438286 0.050999999
0.02877143 0.10404001 0.048000038
0.030131429 0.10404001 0.048000038
0.031554285 0.10392572 0.047000051
0.033095241 0.10358286 0.04400003
0.034565717 0.10335428 0.041999996
0.035971429 0.10324001 0.041000009
0.037428573 0.10301144 0.039000034
0.038771428 0.10301144 0.039000034
0.040165715 0.10289714 0.038000047
0.041556194 0.10278286 0.037
0.042895239 0.10278286 0.037
0.044325713 0.10255429 0.035000026
0.045704763 0.10244001 0.034000039
0.047038093 0.10244001 0.034000039
0.048451431 0.10221143 0.032000005
0.049780957 0.10221143 0.032000005
0.051146671 0.10209715 0.031000018
0.05247429 0.10209715 0.031000018
0.05389905 0.10175429 0.027999997
0.055220954 0.10175429 0.027999997
0.056542858 0.10175429 0.027999997
0.057891428 0.10164 0.02700001
0.059285715 0.10129715 0.024000049
0.060600001 0.10129715 0.024000049
0.061914288 0.10129715 0.024000049
0.063228577 0.10129715 0.024000049
0.06454286 0.10129715 0.024000049
0.065857142 0.10129715 0.024000049
0.067171432 0.10129715 0.024000049
0.068485714 0.10129715 0.024000049
0.069800004 0.10129715 0.024000049
0.071121909 0.10118286 0.023000002
0.072434291 0.10118286 0.023000002
0.073746666 0.10118286 0.023000002
0.075059049 0.10118286 0.023000002
0.076371431 0.10118286 0.023000002
0.077683814 0.10118286 0.023000002
0.078996196 0.10118286 0.023000002
0.080314286 0.10129715 0.024000049
0.081620954 0.10118286 0.023000002
0.082933336 0.10118286 0.023000002
0.084245719 0.10118286 0.023000002
0.085558102 0.10118286 0.023000002
0.086870477 0.10118286 0.023000002
0.088182859 0.10118286 0.023000002
0.089495242 0.10118286 0.023000002
0.090765715 0.10095429 0.021000028
0.092005715 0.10061143 0.018000007
0.093308575 0.10061143 0.018000007
0.094558097 0.10038286 0.016000032
0.095800005 0.10015429 0.013999999
0.097064763 0.10004 0.013000011
0.098260954 0.09969715 0.01000005
0.099480003 0.099468574 0.0080000162
0.10069143 0.099240005 0.006000042
0.10193334 0.099125721 0.0049999952
0.10317143 0.099011429 0.0040000081
0.10440572 0.098897152 0.003000021
0.10568 0.098897152 0.003000021
0.10686286 0.098668583 0.0010000467
0.10813334 0.098668583 0.0010000467
0.10940382 0.098668583 0.0010000467
0.11067429 0.098668583 0.0010000467
0.11194476 0.098668583 0.0010000467
0.11321525 0.098668583 0.0010000467
0.11448573 0.098668583 0.0010000467
0.1157562 0.098668583 0.0010000467
0.11702667 0.098668583 0.0010000467
0.11829714 0.098668583 0.0010000467
0.11956763 0.098668583 0.0010000467
0.12097143 0.098897152 0.003000021
0.12210858 0.098668583 0.0010000467
0.12352 0.098897152 0.003000021
0.12479429 0.098897152 0.003000021
0.12918857 0.10369714 0.045000017
0.13054286 0.10369714 0.045000017
0.13189715 0.10369714 0.045000017
0.13341144 0.10392572 0.047000051
0.13485143 0.10404001 0.048000038
0.13637905 0.10426858 0.050000012
0.13782857 0.10438286 0.050999999
0.13919429 0.10438286 0.050999999
0.14136572 0.10541143 0.060000002
0.14293143 0.10564001 0.062000036
0.14441143 0.10575429 0.063000023
0.14599048 0.10598286 0.064999998
0.14748001 0.10609715 0.066000044
0.14887428 0.10609715 0.066000044
0.15026858 0.10609715 0.066000044
0.010123812 0.10842095 0.074000001
0.011533335 0.10842095 0.074000001
0.01302857 0.10830477 0.073000014
0.014436189 0.10830477 0.073000014
0.016007617 0.10807239 0.07100004
0.017491426 0.1079562 0.070000052
0.019205712 0.10749143 0.066000044
0.020828571 0.10714286 0.063000023
0.022440001 0.10679428 0.060000002
0.023895238 0.1066781 0.059000015
0.02562857 0.10609715 0.05400002
0.027205717 0.10574857 0.050999999
0.028638095 0.10563239 0.050000012
0.030131429 0.10540001 0.048000038
0.031554285 0.10528382 0.047000051
0.033095241 0.10493524 0.04400003
0.034565717 0.10470286 0.041999996
0.035971429 0.10458668 0.041000009
0.037318099 0.10458668 0.041000009
0.038771428 0.10435428 0.039000034
0.040165715 0.1042381 0.038000047
0.041556194 0.1041219 0.037
0.042895239 0.1041219 0.037
0.044325713 0.10388952 0.035000026
0.045660954 0.10388952 0.035000026
0.047038093 0.10377334 0.034000039
0.04837143 0.10377334 0.034000039
0.049780957 0.10354095 0.032000005
0.05111048 0.10354095 0.032000005
0.05247429 0.10342477 0.031000018
0.05386667 0.10319239 0.029000044
0.055220954 0.10307619 0.027999997
0.056542858 0.10307619 0.027999997
0.057891428 0.10296001 0.02700001
0.059260953 0.10272762 0.025000036
0.060600001 0.10261144 0.024000049
0.061914288 0.10261144 0.024000049
0.063228577 0.10261144 0.024000049
0.06454286 0.10261144 0.024000049
0.065857142 0.10261144 0.024000049
0.067184761 0.10249524 0.023000002
0.068485714 0.10261144 0.024000049
0.069800004 0.10261144 0.024000049
0.071114287 0.10261144 0.024000049
0.072434291 0.10249524 0.023000002
0.073746666 0.10249524 0.023000002
0.075059049 0.10249524 0.023000002
0.076371431 0.10249524 0.023000002
0.077683814 0.10249524 0.023000002
0.078996196 0.10249524 0.023000002
0.080308571 0.10249524 0.023000002
0.081620954 0.10249524 0.023000002
0.082933336 0.10249524 0.023000002
0.084245719 0.10249524 0.023000002
0.085558102 0.10249524 0.023000002
0.086870477 0.10249524 0.023000002
0.088182859 0.10249524 0.023000002
0.089457147 0.10226286 0.021000028
0.090765715 0.10226286 0.021000028
0.092005715 0.10191429 0.018000007
0.093308575 0.10191429 0.018000007
0.094558097 0.10168191 0.016000032
0.095771432 0.10133334 0.013000011
0.09703429 0.10121714 0.012000024
0.098228574 0.10086857 0.0090000033
0.099480003 0.10075238 0.0080000162
0.10069143 0.10052001 0.006000042
0.10197143 0.10052001 0.006000042
0.10321143 0.10040381 0.0049999952
0.10444763 0.10028762 0.0040000081
0.10568 0.10017143 0.003000021
0.10695429 0.10017143 0.003000021
0.10813334 0.099939056 0.0010000467
0.10940382 0.099939056 0.0010000467
0.11067429 0.099939056 0.0010000467
0.11194476 0.099939056 0.0010000467
0.11321525 0.099939056 0.0010000467
0.11448573 0.099939056 0.0010000467
0.1157562 0.099939056 0.0010000467
0.11702667 0.099939056 0.0010000467
0.11829714 0.099939056 0.0010000467
0.11956763 0.099939056 0.0010000467
0.1208381 0.099939056 0.0010000467
0.12210858 0.099939056 0.0010000467
0.12337905 0.099939056 0.0010000467
0.12479429 0.10017143 0.003000021
0.1291143 0.10493524 0.04400003
0.13054286 0.10505144 0.045000017
0.13189715 0.10505144 0.045000017
0.13341144 0.10528382 0.047000051
0.13485143 0.10540001 0.048000038
0.13637905 0.10563239 0.050000012
0.13782857 0.10574857 0.050999999
0.13919429 0.10574857 0.050999999
0.1412762 0.1066781 0.059000015
0.14274856 0.10679428 0.060000002
0.1443181 0.10702667 0.062000036
0.14599048 0.10737523 0.064999998
0.14738286 0.10737523 0.064999998
0.14877525 0.10737523 0.064999998
0.010123812 0.10983048 0.074000001
0.011533335 0.10983048 0.074000001
0.012942865 0.10983048 0.074000001
0.014436189 0.10971238 0.073000014
0.016007617 0.1094762 0.07100004
0.017491426 0.1093581 0.070000052
0.019049525 0.10912191 0.068000019
0.020676196 0.10876761 0.064999998
0.022291429 0.10841334 0.062000036
0.023822859 0.10817715 0.060000002
0.025487617 0.10770477 0.056000054
0.026999999 0.10746858 0.05400002
0.028371431 0.10746858 0.05400002
0.030131429 0.10676 0.048000038
0.031554285 0.10664192 0.047000051
0.033034287 0.10640571 0.045000017
0.034565717 0.10605143 0.041999996
0.035914291 0.10605143 0.041999996
0.037318099 0.10593333 0.041000009
0.038771428 0.10569715 0.039000034
0.040114287 0.10569715 0.039000034
0.041506667 0.10557906 0.038000047
0.042895239 0.10546096 0.037
0.044234291 0.10546096 0.037
0.045660954 0.10522477 0.035000026
0.046996191 0.10522477 0.035000026
0.04837143 0.10510667 0.034000039
0.049704764 0.10510667 0.034000039
0.05111048 0.10487048 0.032000005
0.052440003 0.10487048 0.032000005
0.05386667 0.1045162 0.029000044
0.055190478 0.1045162 0.029000044
0.056542858 0.10439809 0.027999997
0.057944763 0.10404382 0.025000036
0.059260953 0.10404382 0.025000036
0.060600001 0.10392572 0.024000049
0.061914288 0.10392572 0.024000049
0.063228577 0.10392572 0.024000049
0.06454286 0.10392572 0.024000049
0.065857142 0.10392572 0.024000049
0.067171432 0.10392572 0.024000049
0.068485714 0.10392572 0.024000049
0.069800004 0.10392572 0.024000049
0.071121909 0.10380762 0.023000002
0.072428577 0.10392572 0.024000049
0.073742859 0.10392572 0.024000049
0.075057149 0.10392572 0.024000049
0.076371431 0.10392572 0.024000049
0.077683814 0.10380762 0.023000002
0.078996196 0.10380762 0.023000002
0.080308571 0.10380762 0.023000002
0.081620954 0.10380762 0.023000002
0.082933336 0.10380762 0.023000002
0.084245719 0.10380762 0.023000002
0.085558102 0.10380762 0.023000002
0.086870477 0.10380762 0.023000002
0.088148579 0.10357143 0.021000028
0.089457147 0.10357143 0.021000028
0.090744764 0.10345334 0.020000041
0.092005715 0.10321715 0.018000007
0.093283817 0.10309905 0.01700002
0.094558097 0.10298096 0.016000032
0.095771432 0.10262667 0.013000011
0.09703429 0.10250857 0.012000024
0.098228574 0.10215429 0.0090000033
0.099480003 0.10203619 0.0080000162
0.10069143 0.1018 0.006000042
0.10197143 0.1018 0.006000042
0.10321143 0.10168191 0.0049999952
0.10444763 0.10156381 0.0040000081
0.10568 0.10144572 0.003000021
0.10695429 0.10144572 0.003000021
0.10813334 0.10120953 0.0010000467
0.10940382 0.10120953 0.0010000467
0.11067429 0.10120953 0.0010000467
0.11194476 0.10120953 0.0010000467
0.11321525 0.10120953 0.0010000467
0.11448573 0.10120953 0.0010000467
0.1157562 0.10120953 0.0010000467
0.11702667 0.10120953 0.0010000467
0.11829714 0.10120953 0.0010000467
0.11956763 0.10120953 0.0010000467
0.1208381 0.10120953 0.0010000467
0.12204 0.10109143 0
0.12330857 0.10109143 0
0.1291143 0.10628763 0.04400003
0.13054286 0.10640571 0.045000017
0.13189715 0.10640571 0.045000017
0.13341144 0.10664192 0.047000051
0.13485143 0.10676 0.048000038
0.13621144 0.10676 0.048000038
0.13782857 0.10711429 0.050999999
0.13972001 0.10782287 0.057000041
0.1412762 0.10805905 0.059000015
0.14274856 0.10817715 0.060000002
0.1443181 0.10841334 0.062000036
0.14570478 0.10841334 0.062000036
0.14738286 0.10876761 0.064999998
0.14877525 0.10876761 0.064999998
0.01135809 0.11148001 0.076000035
0.012771428 0.11148001 0.076000035
0.014352381 0.11124 0.074000001
0.016007617 0.11088001 0.07100004
0.017491426 0.11076001 0.070000052
0.019049525 0.11052001 0.068000019
0.020676196 0.11016 0.064999998
0.022217143 0.10992 0.063000023
0.023678094 0.1098 0.062000036
0.025417145 0.10920001 0.057000041
0.026999999 0.10884 0.05400002
0.028438095 0.10872 0.053000033
0.030001909 0.10836001 0.050000012
0.031491429 0.10812 0.048000038
0.032912381 0.108 0.047000051
0.034447618 0.10764001 0.04400003
0.035914291 0.1074 0.041999996
0.037318099 0.10728 0.041000009
0.038664762 0.10728 0.041000009
0.040114287 0.10704 0.039000034
0.041506667 0.10692001 0.038000047
0.042847618 0.10692001 0.038000047
0.044234291 0.1068 0.037
0.045660954 0.10656001 0.035000026
0.046996191 0.10656001 0.035000026
0.048331432 0.10656001 0.035000026
0.049666669 0.10656001 0.035000026
0.051038094 0.10644001 0.034000039
0.052371431 0.10644001 0.034000039
0.053704765 0.10644001 0.034000039
0.055190478 0.10584 0.029000044
0.056542858 0.10572 0.027999997
0.057891428 0.1056 0.02700001
0.059260953 0.10536 0.025000036
0.060577147 0.10536 0.025000036
0.061893336 0.10536 0.025000036
0.063228577 0.10524001 0.024000049
0.06454286 0.10524001 0.024000049
0.065857142 0.10524001 0.024000049
0.067171432 0.10524001 0.024000049
0.068485714 0.10524001 0.024000049
0.069800004 0.10524001 0.024000049
0.071114287 0.10524001 0.024000049
0.072428577 0.10524001 0.024000049
0.073742859 0.10524001 0.024000049
0.075057149 0.10524001 0.024000049
0.076371431 0.10524001 0.024000049
0.077685714 0.10524001 0.024000049
0.079000004 0.10524001 0.024000049
0.080308571 0.10512 0.023000002
0.081620954 0.10512 0.023000002
0.082933336 0.10512 0.023000002
0.084245719 0.10512 0.023000002
0.085558102 0.10512 0.023000002
0.086870477 0.10512 0.023000002
0.088148579 0.10488001 0.021000028
0.089457147 0.10488001 0.021000028
0.090744764 0.10476001 0.020000041
0.092005715 0.10452001 0.018000007
0.093283817 0.10440001 0.01700002
0.094558097 0.10428001 0.016000032
0.095800005 0.10404 0.013999999
0.097064763 0.10392 0.013000011
0.098260954 0.10356001 0.01000005
0.099480003 0.10332 0.0080000162
0.10076381 0.10332 0.0080000162
0.10197143 0.10308 0.006000042
0.10321143 0.10296 0.0049999952
0.10444763 0.10284001 0.0040000081
0.10572381 0.10284001 0.0040000081
0.10695429 0.10272001 0.003000021
0.10813334 0.10248001 0.0010000467
0.10940382 0.10248001 0.0010000467
0.11067429 0.10248001 0.0010000467
0.11194476 0.10248001 0.0010000467
0.11321525 0.10248001 0.0010000467
0.11448573 0.10248001 0.0010000467
0.1157562 0.10248001 0.0010000467
0.11714858 0.10272001 0.003000021
0.11829714 0.10248001 0.0010000467
0.11956763 0.10248001 0.0010000467
0.1208381 0.10248001 0.0010000467
0.12210858 0.10248001 0.0010000467
0.12337905 0.10248001 0.0010000467
0.12776192 0.10764001 0.04400003
0.1291143 0.10764001 0.04400003
0.13054286 0.10776 0.045000017
0.13189715 0.10776 0.045000017
0.13341144 0.108 0.047000051
0.13485143 0.10812 0.048000038
0.13621144 0.10812 0.048000038
0.13782857 0.10848001 0.050999999
0.13963239 0.10908001 0.056000054
0.1412762 0.10944001 0.059000015
0.14265716 0.10944001 0.059000015
0.14413142 0.10956 0.060000002
0.14551428 0.10956 0.060000002
0.011270478 0.11301524 0.077000022
0.012685716 0.11301524 0.077000022
0.014100954 0.11301524 0.077000022
0.015843812 0.11252762 0.073000014
0.017411426 0.11228382 0.07100004
0.018893331 0.11216191 0.070000052
0.020676196 0.11155238 0.064999998
0.022217143 0.11130857 0.063000023
0.023678094 0.11118668 0.062000036
0.025276192 0.11082096 0.059000015
0.026862856 0.11045524 0.056000054
0.028438095 0.11008953 0.053000033
0.029937144 0.10984571 0.050999999
0.031491429 0.10948001 0.048000038
0.032912381 0.1093581 0.047000051
0.034447618 0.10899238 0.04400003
0.035914291 0.10874857 0.041999996
0.037318099 0.10862667 0.041000009
0.038664762 0.10862667 0.041000009
0.040114287 0.10838287 0.039000034
0.041506667 0.10826096 0.038000047
0.042847618 0.10826096 0.038000047
0.044234291 0.10813905 0.037
0.045573335 0.10813905 0.037
0.046996191 0.10789524 0.035000026
0.048331432 0.10789524 0.035000026
0.049666669 0.10789524 0.035000026
0.051038094 0.10777334 0.034000039
0.052371431 0.10777334 0.034000039
0.053769529 0.10752953 0.032000005
0.055190478 0.10716382 0.029000044
0.056514286 0.10716382 0.029000044
0.057864767 0.1070419 0.027999997
0.059186667 0.1070419 0.027999997
0.060577147 0.1066762 0.025000036
0.061893336 0.1066762 0.025000036
0.063209526 0.1066762 0.025000036
0.064525716 0.1066762 0.025000036
0.065857142 0.10655429 0.024000049
0.067171432 0.10655429 0.024000049
0.068485714 0.10655429 0.024000049
0.069800004 0.10655429 0.024000049
0.071114287 0.10655429 0.024000049
0.072422862 0.1066762 0.025000036
0.073739052 0.1066762 0.025000036
0.075055242 0.1066762 0.025000036
0.076371431 0.10655429 0.024000049
0.077685714 0.10655429 0.024000049
0.079000004 0.10655429 0.024000049
0.080308571 0.10643239 0.023000002
0.081620954 0.10643239 0.023000002
0.082933336 0.10643239 0.023000002
0.084245719 0.10643239 0.023000002
0.085558102 0.10643239 0.023000002
0.086870477 0.10643239 0.023000002
0.088148579 0.10618857 0.021000028
0.089457147 0.10618857 0.021000028
0.090744764 0.10606667 0.020000041
0.092005715 0.10582286 0.018000007
0.093308575 0.10582286 0.018000007
0.094584763 0.10570095 0.01700002
0.095800005 0.10533524 0.013999999
0.097095244 0.10533524 0.013999999
0.098325714 0.10509143 0.012000024
0.099514291 0.10472572 0.0090000033
0.10076381 0.10460381 0.0080000162
0.10197143 0.10436001 0.006000042
0.10325143 0.10436001 0.006000042
0.10448953 0.10423809 0.0049999952
0.10572381 0.10411619 0.0040000081
0.10695429 0.10399429 0.003000021
0.10822858 0.10399429 0.003000021
0.10950287 0.10399429 0.003000021
0.11077715 0.10399429 0.003000021
0.11205143 0.10399429 0.003000021
0.11332572 0.10399429 0.003000021
0.1146 0.10399429 0.003000021
0.11587429 0.10399429 0.003000021
0.11714858 0.10399429 0.003000021
0.11842287 0.10399429 0.003000021
0.11956763 0.10375048 0.0010000467
0.1208381 0.10375048 0.0010000467
0.12210858 0.10375048 0.0010000467
0.12337905 0.10375048 0.0010000467
0.12761715 0.10874857 0.041999996
0.12896572 0.10874857 0.041999996
0.13046667 0.10899238 0.04400003
0.13189715 0.10911429 0.045000017
0.13325143 0.10911429 0.045000017
0.13485143 0.10948001 0.048000038
0.13621144 0.10948001 0.048000038
0.13782857 0.10984571 0.050999999
0.13919429 0.10984571 0.050999999
0.14109716 0.11057715 0.057000041
0.14265716 0.11082096 0.059000015
0.14413142 0.11094286 0.060000002
0.14551428 0.11094286 0.060000002
0.011270478 0.11443048 0.077000022
0.012514286 0.1146781 0.079000056
0.013933331 0.1146781 0.079000056
0.015598096 0.11430667 0.076000035
0.01701143 0.11430667 0.076000035
0.019049525 0.11331619 0.068000019
0.020676196 0.11294476 0.064999998
0.022068575 0.11294476 0.064999998
0.023605715 0.11269715 0.063000023
0.025276192 0.11220191 0.059000015
0.026794285 0.11195429 0.057000041
0.028238095 0.11183049 0.056000054
0.029937144 0.11121143 0.050999999
0.031491429 0.11084001 0.048000038
0.032912381 0.1107162 0.047000051
0.034388576 0.11046857 0.045000017
0.035914291 0.11009715 0.041999996
0.037262861 0.11009715 0.041999996
0.038664762 0.10997333 0.041000009
0.040011432 0.10997333 0.041000009
0.041457143 0.10972572 0.039000034
0.042847618 0.10960191 0.038000047
0.04418857 0.10960191 0.038000047
0.045573335 0.10947809 0.037
0.046912383 0.10947809 0.037
0.048331432 0.10923048 0.035000026
0.049666669 0.10923048 0.035000026
0.051001906 0.10923048 0.035000026
0.052337144 0.10923048 0.035000026
0.053769529 0.10885905 0.032000005
0.055190478 0.10848763 0.029000044
0.056514286 0.10848763 0.029000044
0.057864767 0.10836381 0.027999997
0.059186667 0.10836381 0.027999997
0.060577147 0.10799239 0.025000036
0.061893336 0.10799239 0.025000036
0.063209526 0.10799239 0.025000036
0.064525716 0.10799239 0.025000036
0.065841906 0.10799239 0.025000036
0.067171432 0.10786857 0.024000049
0.068474285 0.10799239 0.025000036
0.069771431 0.10824 0.02700001
0.071106672 0.10799239 0.025000036
0.072422862 0.10799239 0.025000036
0.073739052 0.10799239 0.025000036
0.075055242 0.10799239 0.025000036
0.076371431 0.10799239 0.025000036
0.077685714 0.10786857 0.024000049
0.079000004 0.10786857 0.024000049
0.080314286 0.10786857 0.024000049
0.081628576 0.10786857 0.024000049
0.082942858 0.10786857 0.024000049
0.084257148 0.10786857 0.024000049
0.085571431 0.10786857 0.024000049
0.086870477 0.10774476 0.023000002
0.088182859 0.10774476 0.023000002
0.089495242 0.10774476 0.023000002
0.090765715 0.10749715 0.021000028
0.09207429 0.10749715 0.021000028
0.093358099 0.10737334 0.020000041
0.094611436 0.10712571 0.018000007
0.095885716 0.10700191 0.01700002
0.09718667 0.10700191 0.01700002
0.098358095 0.10650667 0.013000011
0.099617146 0.10638286 0.012000024
0.1008 0.10601143 0.0090000033
0.10204762 0.10588762 0.0080000162
0.10333143 0.10588762 0.0080000162
0.10461524 0.10588762 0.0080000162
0.10581143 0.10564001 0.006000042
0.107 0.10539238 0.0040000081
0.10822858 0.10526858 0.003000021
0.10950287 0.10526858 0.003000021
0.11077715 0.10526858 0.003000021
0.11205143 0.10526858 0.003000021
0.11332572 0.10526858 0.003000021
0.1146 0.10526858 0.003000021
0.11587429 0.10526858 0.003000021
0.11714858 0.10526858 0.003000021
0.11842287 0.10526858 0.003000021
0.11956763 0.10502096 0.0010000467
0.12097143 0.10526858 0.003000021
0.12224571 0.10526858 0.003000021
0.1261981 0.10997333 0.041000009
0.12754476 0.10997333 0.041000009
0.12896572 0.11009715 0.041999996
0.13046667 0.11034477 0.04400003
0.13189715 0.11046857 0.045000017
0.13325143 0.11046857 0.045000017
0.13501525 0.11108762 0.050000012
0.13621144 0.11084001 0.048000038
0.13800001 0.11145905 0.053000033
0.13945715 0.11158286 0.05400002
0.14109716 0.11195429 0.057000041
0.14265716 0.11220191 0.059000015
0.14403811 0.11220191 0.059000015
0.14541905 0.11220191 0.059000015
0.012514286 0.11609715 0.079000056
0.013933331 0.11609715 0.079000056
0.015598096 0.11572001 0.076000035
0.01701143 0.11572001 0.076000035
0.019049525 0.11471429 0.068000019
0.020676196 0.11433715 0.064999998
0.022217143 0.11408572 0.063000023
0.023678094 0.11396001 0.062000036
0.025276192 0.11358286 0.059000015
0.026794285 0.11333143 0.057000041
0.028171428 0.11333143 0.057000041
0.029742859 0.11295429 0.05400002
0.031365719 0.11245143 0.050000012
0.032851428 0.11220001 0.048000038
0.034388576 0.11182287 0.045000017
0.035800003 0.11169714 0.04400003
0.037262861 0.11144572 0.041999996
0.038611434 0.11144572 0.041999996
0.040011432 0.11132 0.041000009
0.041358098 0.11132 0.041000009
0.042799998 0.11106858 0.039000034
0.04418857 0.11094286 0.038000047
0.045573335 0.11081714 0.037
0.046912383 0.11081714 0.037
0.048331432 0.11056572 0.035000026
0.049666669 0.11056572 0.035000026
0.051001906 0.11056572 0.035000026
0.052337144 0.11056572 0.035000026
0.053769529 0.11018857 0.032000005
0.055099048 0.11018857 0.032000005
0.056514286 0.10981143 0.029000044
0.057864767 0.10968572 0.027999997
0.059186667 0.10968572 0.027999997
0.06053143 0.10956001 0.02700001
0.061851431 0.10956001 0.02700001
0.063171431 0.10956001 0.02700001
0.064491428 0.10956001 0.02700001
0.065841906 0.10930858 0.025000036
0.067158096 0.10930858 0.025000036
0.068474285 0.10930858 0.025000036
0.069771431 0.10956001 0.02700001
0.071106672 0.10930858 0.025000036
0.072422862 0.10930858 0.025000036
0.073742859 0.10918286 0.024000049
0.075055242 0.10930858 0.025000036
0.076371431 0.10930858 0.025000036
0.077685714 0.10918286 0.024000049
0.079000004 0.10918286 0.024000049
0.080314286 0.10918286 0.024000049
0.081628576 0.10918286 0.024000049
0.082942858 0.10918286 0.024000049
0.084257148 0.10918286 0.024000049
0.085571431 0.10918286 0.024000049
0.08688572 0.10918286 0.024000049
0.088182859 0.10905714 0.023000002
0.089495242 0.10905714 0.023000002
0.090807624 0.10905714 0.023000002
0.09207429 0.10880572 0.021000028
0.093382865 0.10880572 0.021000028
0.094664767 0.10868001 0.020000041
0.095914289 0.10842858 0.018000007
0.097217143 0.10842858 0.018000007
0.098487623 0.10830286 0.01700002
0.099754289 0.10817715 0.016000032
0.10094476 0.10780001 0.013000011
0.1022 0.10767429 0.012000024
0.10349143 0.10767429 0.012000024
0.10469905 0.10742287 0.01000005
0.10598667 0.10742287 0.01000005
0.10722858 0.10729714 0.0090000033
0.10851429 0.10729714 0.0090000033
0.10955238 0.10666858 0.0040000081
0.11082858 0.10666858 0.0040000081
0.11205143 0.10654286 0.003000021
0.11332572 0.10654286 0.003000021
0.1146 0.10654286 0.003000021
0.11587429 0.10654286 0.003000021
0.11714858 0.10654286 0.003000021
0.11842287 0.10654286 0.003000021
0.11950286 0.10616571 0
0.12077143 0.10616571 0
0.12471429 0.11106858 0.039000034
0.12605715 0.11106858 0.039000034
0.12754476 0.11132 0.041000009
0.12889144 0.11132 0.041000009
0.13031429 0.11144572 0.041999996
0.13181905 0.11169714 0.04400003
0.13317144 0.11169714 0.04400003
0.13476953 0.11207429 0.047000051
0.13621144 0.11220001 0.048000038
0.13800001 0.11282858 0.053000033
0.13963239 0.11320572 0.056000054
0.14100763 0.11320572 0.056000054
0.14265716 0.11358286 0.059000015
0.14403811 0.11358286 0.059000015
0.020676196 0.11572953 0.064999998
0.022217143 0.11547429 0.063000023
0.023605715 0.11547429 0.063000023
0.02520572 0.11509144 0.060000002
0.026657145 0.11496381 0.059000015
0.028171428 0.11470857 0.057000041
0.029742859 0.11432572 0.05400002
0.031177144 0.1141981 0.053000033
0.032729525 0.11381524 0.050000012
0.034211431 0.11356001 0.048000038
0.03574286 0.11317714 0.045000017
0.037152383 0.11304953 0.04400003
0.038611434 0.11279429 0.041999996
0.039960004 0.11279429 0.041999996
0.041358098 0.11266667 0.041000009
0.042799998 0.11241144 0.039000034
0.04418857 0.11228382 0.038000047
0.045573335 0.1121562 0.037
0.046912383 0.1121562 0.037
0.048251431 0.1121562 0.037
0.049666669 0.11190096 0.035000026
0.051001906 0.11190096 0.035000026
0.052337144 0.11190096 0.035000026
0.053704765 0.11177333 0.034000039
0.055099048 0.1115181 0.032000005
0.056514286 0.11113524 0.029000044
0.057864767 0.11100762 0.027999997
0.059186667 0.11100762 0.027999997
0.060508572 0.11100762 0.027999997
0.061851431 0.11088 0.02700001
0.063171431 0.11088 0.02700001
0.064491428 0.11088 0.02700001
0.065811433 0.11088 0.02700001
0.06713143 0.11088 0.02700001
0.068474285 0.11062477 0.025000036
0.069771431 0.11088 0.02700001
0.071106672 0.11062477 0.025000036
0.072422862 0.11062477 0.025000036
0.073742859 0.11049715 0.024000049
0.075055242 0.11062477 0.025000036
0.076371431 0.11062477 0.025000036
0.077685714 0.11049715 0.024000049
0.079000004 0.11049715 0.024000049
0.080314286 0.11049715 0.024000049
0.081628576 0.11049715 0.024000049
0.082942858 0.11049715 0.024000049
0.084257148 0.11049715 0.024000049
0.085571431 0.11049715 0.024000049
0.08688572 0.11049715 0.024000049
0.088200003 0.11049715 0.024000049
0.089495242 0.11036953 0.023000002
0.090807624 0.11036953 0.023000002
0.092119999 0.11036953 0.023000002
0.093382865 0.11011429 0.021000028
0.094691433 0.11011429 0.021000028
0.095971435 0.10998667 0.020000041
0.097278103 0.10998667 0.020000041
0.098520003 0.10973144 0.018000007
0.099822864 0.10973144 0.018000007
0.10108952 0.10960381 0.01700002
0.10235239 0.1094762 0.016000032
0.10365143 0.1094762 0.016000032
0.10486667 0.10922095 0.013999999
0.1061181 0.10909333 0.013000011
0.10741143 0.10909333 0.013000011
0.10865715 0.10896572 0.012000024
0.1098 0.10858286 0.0090000033
0.11082858 0.10794476 0.0040000081
0.11205143 0.10781714 0.003000021
0.11332572 0.10781714 0.003000021
0.11448573 0.10756191 0.0010000467
0.1157562 0.10756191 0.0010000467
0.11702667 0.10756191 0.0010000467
0.11829714 0.10756191 0.0010000467
0.11950286 0.10743429 0
0.12077143 0.10743429 0
0.12457715 0.1121562 0.037
0.12598667 0.11228382 0.038000047
0.12740001 0.11241144 0.039000034
0.12889144 0.11266667 0.041000009
0.13031429 0.11279429 0.041999996
0.13181905 0.11304953 0.04400003
0.13317144 0.11304953 0.04400003
0.13485143 0.11356001 0.048000038
0.13637905 0.11381524 0.050000012
0.13800001 0.1141981 0.053000033
0.13945715 0.11432572 0.05400002
0.14082858 0.11432572 0.05400002
0.14265716 0.11496381 0.059000015
0.14403811 0.11496381 0.059000015
0.023605715 0.11686286 0.063000023
0.025276192 0.11634476 0.059000015
0.026794285 0.11608572 0.057000041
0.028171428 0.11608572 0.057000041
0.029742859 0.11569715 0.05400002
0.031114288 0.11569715 0.05400002
0.032668576 0.11530858 0.050999999
0.034211431 0.11492001 0.048000038
0.03574286 0.11453144 0.045000017
0.037152383 0.11440191 0.04400003
0.038611434 0.11414286 0.041999996
0.039960004 0.11414286 0.041999996
0.041358098 0.11401334 0.041000009
0.042704761 0.11401334 0.041000009
0.044142857 0.11375429 0.039000034
0.045529522 0.11362477 0.038000047
0.046912383 0.11349524 0.037
0.048251431 0.11349524 0.037
0.049590476 0.11349524 0.037
0.051001906 0.1132362 0.035000026
0.052337144 0.1132362 0.035000026
0.053704765 0.11310667 0.034000039
0.055099048 0.11284762 0.032000005
0.056542858 0.11232953 0.027999997
0.057838097 0.11245905 0.029000044
0.059186667 0.11232953 0.027999997
0.060508572 0.11232953 0.027999997
0.06183048 0.11232953 0.027999997
0.063152388 0.11232953 0.027999997
0.064474285 0.11232953 0.027999997
0.065811433 0.1122 0.02700001
0.06713143 0.1122 0.02700001
0.068474285 0.11194096 0.025000036
0.069790483 0.11194096 0.025000036
0.071106672 0.11194096 0.025000036
0.072422862 0.11194096 0.025000036
0.073742859 0.11181144 0.024000049
0.075055242 0.11194096 0.025000036
0.076371431 0.11194096 0.025000036
0.077687621 0.11194096 0.025000036
0.079003811 0.11194096 0.025000036
0.080314286 0.11181144 0.024000049
0.081628576 0.11181144 0.024000049
0.082942858 0.11181144 0.024000049
0.084257148 0.11181144 0.024000049
0.085571431 0.11181144 0.024000049
0.08688572 0.11181144 0.024000049
0.088200003 0.11181144 0.024000049
0.089514285 0.11181144 0.024000049
0.090807624 0.11168191 0.023000002
0.092119999 0.11168191 0.023000002
0.093432382 0.11168191 0.023000002
0.094691433 0.11142287 0.021000028
0.096000001 0.11142287 0.021000028
0.097308576 0.11142287 0.021000028
0.098584764 0.11129334 0.020000041
0.099891432 0.11129334 0.020000041
0.10112572 0.11103429 0.018000007
0.10239048 0.11090476 0.01700002
0.10369143 0.11090476 0.01700002
0.10495048 0.11077525 0.016000032
0.10624953 0.11077525 0.016000032
0.10745715 0.11051619 0.013999999
0.10870476 0.11038667 0.013000011
0.10994858 0.11025715 0.012000024
0.11108571 0.10986857 0.0090000033
0.11210477 0.10922095 0.0040000081
0.11332572 0.10909143 0.003000021
0.1146 0.10909143 0.003000021
0.11587429 0.10909143 0.003000021
0.11848953 0.11194096 0.025000036
0.11980572 0.11194096 0.025000036
0.12112191 0.11194096 0.025000036
0.1230381 0.11310667 0.034000039
0.12437143 0.11310667 0.034000039
0.12591618 0.11349524 0.037
0.12732762 0.11362477 0.038000047
0.12889144 0.11401334 0.041000009
0.1302381 0.11401334 0.041000009
0.13181905 0.11440191 0.04400003
0.13317144 0.11440191 0.04400003
0.13485143 0.11492001 0.048000038
0.13637905 0.11517905 0.050000012
0.13800001 0.11556762 0.053000033
0.13945715 0.11569715 0.05400002
0.14082858 0.11569715 0.05400002
0.023605715 0.11825144 0.063000023
0.02520572 0.11785714 0.060000002
0.026794285 0.11746287 0.057000041
0.028171428 0.11746287 0.057000041
0.029613331 0.11733144 0.056000054
0.031177144 0.11693715 0.053000033
0.032729525 0.11654286 0.050000012
0.034211431 0.11628 0.048000038
0.035628572 0.11614858 0.047000051
0.037097145 0.11588572 0.045000017
0.038504764 0.11575429 0.04400003
0.039960004 0.11549143 0.041999996
0.041308574 0.11549143 0.041999996
0.042704761 0.11536 0.041000009
0.044142857 0.11509715 0.039000034
0.045529522 0.11496572 0.038000047
0.046912383 0.11483429 0.037
0.048251431 0.11483429 0.037
0.049590476 0.11483429 0.037
0.050929524 0.11483429 0.037
0.052337144 0.11457144 0.035000026
0.053704765 0.11444001 0.034000039
0.055099048 0.11417715 0.032000005
0.056514286 0.11378286 0.029000044
0.057838097 0.11378286 0.029000044
0.059161909 0.11378286 0.029000044
0.060508572 0.11365143 0.027999997
0.06183048 0.11365143 0.027999997
0.063152388 0.11365143 0.027999997
0.064474285 0.11365143 0.027999997
0.065811433 0.11352 0.02700001
0.06713143 0.11352 0.02700001
0.068474285 0.11325715 0.025000036
0.069771431 0.11352 0.02700001
0.071106672 0.11325715 0.025000036
0.072422862 0.11325715 0.025000036
0.073739052 0.11325715 0.025000036
0.075055242 0.11325715 0.025000036
0.076371431 0.11325715 0.025000036
0.077687621 0.11325715 0.025000036
0.079000004 0.11312573 0.024000049
0.080314286 0.11312573 0.024000049
0.081628576 0.11312573 0.024000049
0.082942858 0.11312573 0.024000049
0.084257148 0.11312573 0.024000049
0.085571431 0.11312573 0.024000049
0.08688572 0.11312573 0.024000049
0.088200003 0.11312573 0.024000049
0.089514285 0.11312573 0.024000049
0.090807624 0.11299428 0.023000002
0.092142865 0.11312573 0.024000049
0.093432382 0.11299428 0.023000002
0.094744764 0.11299428 0.023000002
0.096000001 0.11273143 0.021000028
0.097308576 0.11273143 0.021000028
0.098584764 0.11260001 0.020000041
0.099891432 0.11260001 0.020000041
0.1011981 0.11260001 0.020000041
0.10242857 0.11233714 0.018000007
0.10373143 0.11233714 0.018000007
0.10499239 0.11220572 0.01700002
0.10629334 0.11220572 0.01700002
0.10754857 0.11207429 0.016000032
0.10875238 0.11181143 0.013999999
0.1099981 0.11168 0.013000011
0.11129143 0.11168 0.013000011
0.1126381 0.11181143 0.013999999
0.11393334 0.11181143 0.013999999
0.11574286 0.11299428 0.023000002
0.11711429 0.11312573 0.024000049
0.11842857 0.11312573 0.024000049
0.11980572 0.11325715 0.025000036
0.12131619 0.11365143 0.027999997
0.12283809 0.11404572 0.031000018
0.12437143 0.11444001 0.034000039
0.12577525 0.11457144 0.035000026
0.12725525 0.11483429 0.037
0.12874286 0.11509715 0.039000034
0.1302381 0.11536 0.041000009
0.13166286 0.11549143 0.041999996
0.13301143 0.11549143 0.041999996
0.13501525 0.11654286 0.050000012
0.13637905 0.11654286 0.050000012
0.13800001 0.11693715 0.053000033
0.13936952 0.11693715 0.053000033
0.14082858 0.11706857 0.05400002
0.023605715 0.11964001 0.063000023
0.02520572 0.11924 0.060000002
0.026657145 0.11910667 0.059000015
0.028171428 0.11884001 0.057000041
0.029613331 0.11870667 0.056000054
0.031114288 0.11844 0.05400002
0.032668576 0.11804 0.050999999
0.034093335 0.11790667 0.050000012
0.035628572 0.11750668 0.047000051
0.037097145 0.11724 0.045000017
0.038504764 0.11710668 0.04400003
0.039857142 0.11710668 0.04400003
0.041308574 0.11684 0.041999996
0.042704761 0.11670667 0.041000009
0.044051431 0.11670667 0.041000009
0.045485716 0.11644001 0.039000034
0.046870477 0.11630667 0.038000047
0.048251431 0.11617333 0.037
0.049590476 0.11617333 0.037
0.050929524 0.11617333 0.037
0.052337144 0.11590667 0.035000026
0.053704765 0.11577334 0.034000039
0.055099048 0.11550667 0.032000005
0.056514286 0.11510668 0.029000044
0.057838097 0.11510668 0.029000044
0.059161909 0.11510668 0.029000044
0.060508572 0.11497334 0.027999997
0.06183048 0.11497334 0.027999997
0.063152388 0.11497334 0.027999997
0.064474285 0.11497334 0.027999997
0.065811433 0.11484 0.02700001
0.06713143 0.11484 0.02700001
0.068474285 0.11457334 0.025000036
0.069771431 0.11484 0.02700001
0.071106672 0.11457334 0.025000036
0.072422862 0.11457334 0.025000036
0.073739052 0.11457334 0.025000036
0.075055242 0.11457334 0.025000036
0.076371431 0.11457334 0.025000036
0.077687621 0.11457334 0.025000036
0.079003811 0.11457334 0.025000036
0.080314286 0.11444001 0.024000049
0.081628576 0.11444001 0.024000049
0.082942858 0.11444001 0.024000049
0.084257148 0.11444001 0.024000049
0.085571431 0.11444001 0.024000049
0.08688572 0.11444001 0.024000049
0.088200003 0.11444001 0.024000049
0.089514285 0.11444001 0.024000049
0.090807624 0.11430667 0.023000002
0.092119999 0.11430667 0.023000002
0.093432382 0.11430667 0.023000002
0.094744764 0.11430667 0.023000002
0.096057147 0.11430667 0.023000002
0.097308576 0.11404001 0.021000028
0.098584764 0.11390667 0.020000041
0.099891432 0.11390667 0.020000041
0.1011981 0.11390667 0.020000041
0.10242857 0.11364 0.018000007
0.10373143 0.11364 0.018000007
0.10499239 0.11350667 0.01700002
0.10629334 0.11350667 0.01700002
0.10754857 0.11337334 0.016000032
0.10884762 0.11337334 0.016000032
0.11014667 0.11337334 0.016000032
0.11134286 0.11310667 0.013999999
0.11279809 0.11350667 0.01700002
0.11432 0.11404001 0.021000028
0.11574286 0.11430667 0.023000002
0.11711429 0.11444001 0.024000049
0.11842857 0.11444001 0.024000049
0.11980572 0.11457334 0.025000036
0.12131619 0.11497334 0.027999997
0.12283809 0.11537334 0.031000018
0.12423429 0.11550667 0.032000005
0.12570477 0.11577334 0.034000039
0.12711048 0.11590667 0.035000026
0.12866858 0.11630667 0.038000047
0.13008572 0.11644001 0.039000034
0.13158476 0.11670667 0.041000009
0.13301143 0.11684 0.041999996
0.13460572 0.11724 0.045000017
0.13621144 0.11764 0.048000038
0.13757142 0.11764 0.048000038
0.13936952 0.11830667 0.053000033
0.023822859 0.12062286 0.060000002
0.02520572 0.12062286 0.060000002
0.026657145 0.12048762 0.059000015
0.028038099 0.12048762 0.059000015
0.029548574 0.12021715 0.057000041
0.03098857 0.12008192 0.056000054
0.032546669 0.1196762 0.053000033
0.034211431 0.11900001 0.048000038
0.035571426 0.11900001 0.048000038
0.036986668 0.11886477 0.047000051
0.038504764 0.11845905 0.04400003
0.039857142 0.11845905 0.04400003
0.041308574 0.11818857 0.041999996
0.042704761 0.11805334 0.041000009
0.044051431 0.11805334 0.041000009
0.045485716 0.11778287 0.039000034
0.046828572 0.11778287 0.039000034
0.048211429 0.11764763 0.038000047
0.049590476 0.11751238 0.037
0.050929524 0.11751238 0.037
0.052337144 0.11724191 0.035000026
0.053704765 0.11710668 0.034000039
0.055099048 0.1168362 0.032000005
0.056514286 0.11643048 0.029000044
0.057838097 0.11643048 0.029000044
0.059161909 0.11643048 0.029000044
0.060508572 0.11629524 0.027999997
0.06183048 0.11629524 0.027999997
0.063152388 0.11629524 0.027999997
0.064474285 0.11629524 0.027999997
0.065796196 0.11629524 0.027999997
0.067118101 0.11629524 0.027999997
0.068474285 0.11588953 0.025000036
0.069790483 0.11588953 0.025000036
0.071091428 0.11616001 0.02700001
0.072422862 0.11588953 0.025000036
0.073739052 0.11588953 0.025000036
0.075051434 0.11616001 0.02700001
0.076371431 0.11616001 0.02700001
0.077691428 0.11616001 0.02700001
0.079003811 0.11588953 0.025000036
0.080320001 0.11588953 0.025000036
0.08163619 0.11588953 0.025000036
0.082942858 0.1157543 0.024000049
0.084257148 0.1157543 0.024000049
0.085571431 0.1157543 0.024000049
0.08688572 0.1157543 0.024000049
0.088200003 0.1157543 0.024000049
0.089495242 0.11561906 0.023000002
0.090807624 0.11561906 0.023000002
0.092119999 0.11561906 0.023000002
0.093432382 0.11561906 0.023000002
0.094744764 0.11561906 0.023000002
0.096000001 0.11534858 0.021000028
0.097308576 0.11534858 0.021000028
0.098584764 0.11521334 0.020000041
0.099891432 0.11521334 0.020000041
0.1011981 0.11521334 0.020000041
0.10242857 0.11494286 0.018000007
0.10369143 0.11480763 0.01700002
0.10499239 0.11480763 0.01700002
0.10629334 0.11480763 0.01700002
0.10759429 0.11480763 0.01700002
0.10889524 0.11480763 0.01700002
0.1101962 0.11480763 0.01700002
0.11149715 0.11480763 0.01700002
0.11285143 0.11494286 0.018000007
0.11432 0.11534858 0.021000028
0.11574286 0.11561906 0.023000002
0.11711429 0.1157543 0.024000049
0.11842857 0.1157543 0.024000049
0.11980572 0.11588953 0.025000036
0.12131619 0.11629524 0.027999997
0.12270477 0.11643048 0.029000044
0.12423429 0.1168362 0.032000005
0.12556382 0.1168362 0.032000005
0.12711048 0.11724191 0.035000026
0.12859428 0.11751238 0.037
0.13008572 0.11778287 0.039000034
0.13158476 0.11805334 0.041000009
0.13301143 0.11818857 0.041999996
0.13460572 0.11859429 0.045000017
0.13612762 0.11886477 0.047000051
0.13748571 0.11886477 0.047000051
0.13884382 0.11886477 0.047000051
0.023822859 0.12200572 0.060000002
0.02520572 0.12200572 0.060000002
0.026657145 0.12186857 0.059000015
0.028038099 0.12186857 0.059000015
0.02941905 0.12186857 0.059000015
0.030925717 0.12159429 0.057000041
0.03236381 0.12145715 0.056000054
0.033857144 0.12118287 0.05400002
0.035228573 0.12118287 0.05400002
0.036986668 0.12022287 0.047000051
0.038451429 0.11994857 0.045000017
0.039805718 0.11994857 0.045000017
0.041209526 0.11981143 0.04400003
0.042657144 0.11953714 0.041999996
0.044005718 0.11953714 0.041999996
0.045398101 0.1194 0.041000009
0.046828572 0.11912572 0.039000034
0.048211429 0.11898858 0.038000047
0.049552381 0.11898858 0.038000047
0.050929524 0.11885143 0.037
0.052268572 0.11885143 0.037
0.053704765 0.11844 0.034000039
0.055099048 0.11816572 0.032000005
0.056457147 0.11802857 0.031000018
0.057838097 0.1177543 0.029000044
0.059161909 0.1177543 0.029000044
0.060485717 0.1177543 0.029000044
0.06183048 0.11761715 0.027999997
0.063133337 0.1177543 0.029000044
0.064457148 0.1177543 0.029000044
0.065796196 0.11761715 0.027999997
0.067118101 0.11761715 0.027999997
0.068451434 0.11748 0.02700001
0.06976191 0.11761715 0.027999997
0.071091428 0.11748 0.02700001
0.072422862 0.11720572 0.025000036
0.07373143 0.11748 0.02700001
0.075051434 0.11748 0.02700001
0.076371431 0.11748 0.02700001
0.077691428 0.11748 0.02700001
0.079003811 0.11720572 0.025000036
0.080320001 0.11720572 0.025000036
0.08163619 0.11720572 0.025000036
0.08295238 0.11720572 0.025000036
0.084257148 0.11706858 0.024000049
0.085571431 0.11706858 0.024000049
0.08688572 0.11706858 0.024000049
0.088200003 0.11706858 0.024000049
0.089495242 0.11693143 0.023000002
0.090807624 0.11693143 0.023000002
0.092119999 0.11693143 0.023000002
0.093382865 0.11665715 0.021000028
0.094691433 0.11665715 0.021000028
0.096000001 0.11665715 0.021000028
0.097278103 0.11652 0.020000041
0.098584764 0.11652 0.020000041
0.099891432 0.11652 0.020000041
0.10112572 0.11624572 0.018000007
0.10242857 0.11624572 0.018000007
0.10373143 0.11624572 0.018000007
0.10503429 0.11624572 0.018000007
0.10633714 0.11624572 0.018000007
0.10759429 0.11610857 0.01700002
0.10889524 0.11610857 0.01700002
0.11024572 0.11624572 0.018000007
0.11154857 0.11624572 0.018000007
0.1129581 0.11652 0.020000041
0.11443048 0.11693143 0.023000002
0.11574286 0.11693143 0.023000002
0.11711429 0.11706858 0.024000049
0.11842857 0.11706858 0.024000049
0.11980572 0.11720572 0.025000036
0.12125143 0.11748 0.02700001
0.12270477 0.1177543 0.029000044
0.12416571 0.11802857 0.031000018
0.12556382 0.11816572 0.032000005
0.12711048 0.11857715 0.035000026
0.12859428 0.11885143 0.037
0.13008572 0.11912572 0.039000034
0.13158476 0.1194 0.041000009
0.13301143 0.11953714 0.041999996
0.13460572 0.11994857 0.045000017
0.13596 0.11994857 0.045000017
0.13731429 0.11994857 0.045000017
0.13884382 0.12022287 0.047000051
0.02520572 0.12338857 0.060000002
0.026657145 0.12324953 0.059000015
0.028038099 0.12324953 0.059000015
0.02941905 0.12324953 0.059000015
0.030925717 0.12297144 0.057000041
0.032302856 0.12297144 0.057000041
0.033739049 0.12283239 0.056000054
0.035285715 0.12241524 0.053000033
0.036931429 0.12172 0.048000038
0.038344763 0.12158096 0.047000051
0.039805718 0.12130287 0.045000017
0.041209526 0.12116382 0.04400003
0.042657144 0.12088571 0.041999996
0.044005718 0.12088571 0.041999996
0.045398101 0.12074666 0.041000009
0.046744764 0.12074666 0.041000009
0.048171431 0.12046858 0.039000034
0.049514286 0.12046858 0.039000034
0.050893337 0.12032954 0.038000047
0.052234285 0.12032954 0.038000047
0.053672381 0.11991239 0.035000026
0.055038095 0.11977334 0.034000039
0.056428574 0.11949524 0.032000005
