# .PCD v0.7 - Point Cloud Data file format
VERSION 0.7
FIELDS x y z
SIZE 4 4 4
TYPE F F F
COUNT 1 1 1
WIDTH 1394
HEIGHT 1
VIEWPOINT 0 0 0 0 1 0 0
POINTS 1394
DATA ascii
0.082590483 0.10049524 0.010999978
0.083885722 0.10049524 0.010999978
0.085135244 0.10056953 0.013999999
0.086436197 0.10056953 0.013999999
0.087702863 0.10064381 0.01700002
0.089009531 0.10064381 0.01700002
0.090278104 0.10076763 0.022000015
0.09157715 0.10084191 0.024999976
0.092899054 0.10084191 0.024999976
0.094220959 0.10084191 0.024999976
0.095542863 0.10086667 0.026000023
0.096866675 0.10086667 0.026000023
0.098198101 0.10091619 0.027999997
0.099514291 0.10086667 0.026000023
0.1008381 0.10086667 0.026000023
0.10216191 0.10086667 0.026000023
0.10348572 0.10086667 0.026000023
0.1048362 0.10091619 0.027999997
0.10617905 0.10094096 0.028999984
0.10754286 0.10099048 0.031000018
0.1088762 0.10099048 0.031000018
0.11020953 0.10099048 0.031000018
0.11154287 0.10099048 0.031000018
0.11290096 0.10101524 0.032000005
0.1142362 0.10101524 0.032000005
0.11557144 0.10101524 0.032000005
0.11696763 0.10106476 0.033999979
0.11833905 0.10108953 0.035000026
0.11971429 0.10111429 0.036000013
0.12105715 0.10111429 0.036000013
0.1224762 0.10116381 0.037999988
0.12386286 0.10118857 0.038999975
0.12529525 0.1012381 0.041000009
0.12656 0.10118857 0.038999975
0.12800001 0.1012381 0.041000009
0.12940001 0.10126286 0.041999996
0.13075429 0.10126286 0.041999996
0.13226287 0.10133715 0.045000017
0.13372953 0.10138667 0.046999991
0.13514857 0.10141143 0.047999978
0.13662858 0.10146096 0.050000012
0.1379981 0.10146096 0.050000012
0.13955048 0.10153525 0.053000033
0.14098857 0.10156 0.05400002
0.14249524 0.10160953 0.055999994
0.14434287 0.10178286 0.063000023
0.14573714 0.10178286 0.063000023
0.14741334 0.10188191 0.067000031
0.14881524 0.10188191 0.067000031
0.15029144 0.10190667 0.068000019
0.15184763 0.1019562 0.069999993
0.15325525 0.1019562 0.069999993
0.020939052 0.10336381 0.069999993
0.022247627 0.10339048 0.07099998
0.023754284 0.10336381 0.069999993
0.025638103 0.10323048 0.064999998
0.027316198 0.10315048 0.061999977
0.028891437 0.10309715 0.060000002
0.03036952 0.10307048 0.059000015
0.031931438 0.10301714 0.056999981
0.03357143 0.10293715 0.05400002
0.035200007 0.10285714 0.050999999
0.036571432 0.10285714 0.050999999
0.038182862 0.10277715 0.047999978
0.039626673 0.10275048 0.046999991
0.041142862 0.10269715 0.045000017
0.042502858 0.10269715 0.045000017
0.043935239 0.10267048 0.04400003
0.045434289 0.10261714 0.041999996
0.046788577 0.10261714 0.041999996
0.048209526 0.10259048 0.041000009
0.049691435 0.10253714 0.038999975
0.051040005 0.10253714 0.038999975
0.052449528 0.10251048 0.037999988
0.053796198 0.10251048 0.037999988
0.055085722 0.10253714 0.038999975
0.058422863 0.10157715 0.003000021
0.059702858 0.10157715 0.003000021
0.060982861 0.10157715 0.003000021
0.062312391 0.10155047 0.0019999743
0.063590482 0.10155047 0.0019999743
0.064914294 0.10152382 0.00099998713
0.066190481 0.10152382 0.00099998713
0.067466669 0.10152382 0.00099998713
0.068742864 0.10152382 0.00099998713
0.070019051 0.10152382 0.00099998713
0.071331434 0.10149714 0
0.072571434 0.10152382 0.00099998713
0.073847622 0.10152382 0.00099998713
0.075093344 0.10155047 0.0019999743
0.076371431 0.10155047 0.0019999743
0.077622861 0.10157715 0.003000021
0.078902863 0.10157715 0.003000021
0.080091432 0.10168381 0.0070000291
0.081316195 0.10176381 0.0099999905
0.082590483 0.10179048 0.010999978
0.083851434 0.10184381 0.013000011
0.085135244 0.10187048 0.013999999
0.086436197 0.10187048 0.013999999
0.08773715 0.10187048 0.013999999
0.088980958 0.10203048 0.019999981
0.09026286 0.10213715 0.023999989
0.091582865 0.10213715 0.023999989
0.092899054 0.10216381 0.024999976
0.094220959 0.10216381 0.024999976
0.095542863 0.10219048 0.026000023
0.096864767 0.10216381 0.024999976
0.098186672 0.10216381 0.024999976
0.099508576 0.10216381 0.024999976
0.10085334 0.10224381 0.027999997
0.10218096 0.10224381 0.027999997
0.10350858 0.10224381 0.027999997
0.1048362 0.10224381 0.027999997
0.10617905 0.10227048 0.028999984
0.10750858 0.10227048 0.028999984
0.1088762 0.10232382 0.031000018
0.11020953 0.10232382 0.031000018
0.11154287 0.10232382 0.031000018
0.1128762 0.10232382 0.031000018
0.1142362 0.10235048 0.032000005
0.11557144 0.10235048 0.032000005
0.11696763 0.10240381 0.033999979
0.11830667 0.10240381 0.033999979
0.11964572 0.10240381 0.033999979
0.12102096 0.10243048 0.035000026
0.12240001 0.10245715 0.036000013
0.12382286 0.10251048 0.037999988
0.12521143 0.10253714 0.038999975
0.12656 0.10253714 0.038999975
0.12800001 0.10259048 0.041000009
0.12935239 0.10259048 0.041000009
0.13075429 0.10261714 0.041999996
0.13221143 0.10267048 0.04400003
0.13372953 0.10275048 0.046999991
0.13514857 0.10277715 0.047999978
0.13662858 0.10283048 0.050000012
0.13805714 0.10285714 0.050999999
0.13955048 0.10291048 0.053000033
0.14098857 0.10293715 0.05400002
0.14249524 0.10299048 0.055999994
0.1442762 0.10315048 0.061999977
0.14573714 0.10317715 0.063000023
0.14727239 0.10323048 0.064999998
0.14881524 0.10328382 0.067000031
0.15029144 0.10331048 0.068000019
0.15169525 0.10331048 0.068000019
0.15325525 0.10336381 0.069999993
0.022247627 0.1048 0.07099998
0.023754284 0.10477144 0.069999993
0.02582857 0.10457143 0.063000023
0.027316198 0.10454286 0.061999977
0.028982863 0.10445715 0.059000015
0.03036952 0.10445715 0.059000015
0.031931438 0.1044 0.056999981
0.03357143 0.10431429 0.05400002
0.035200007 0.10422857 0.050999999
0.036653336 0.10420001 0.050000012
0.038182862 0.10414286 0.047999978
0.039626673 0.10411429 0.046999991
0.041142862 0.10405715 0.045000017
0.042502858 0.10405715 0.045000017
0.043935239 0.10402858 0.04400003
0.045434289 0.10397143 0.041999996
0.046788577 0.10397143 0.041999996
0.048209526 0.10394286 0.041000009
0.04956191 0.10394286 0.041000009
0.051040005 0.10388572 0.038999975
0.052388579 0.10388572 0.038999975
0.053619049 0.10394286 0.041000009
0.054971434 0.10394286 0.041000009
0.058422863 0.10285714 0.003000021
0.059702858 0.10285714 0.003000021
0.060880005 0.10291429 0.0049999952
0.062262859 0.10285714 0.003000021
0.063542858 0.10285714 0.003000021
0.064868577 0.10282858 0.0019999743
0.066146672 0.10282858 0.0019999743
0.067424767 0.10282858 0.0019999743
0.068742864 0.1028 0.00099998713
0.069980957 0.10282858 0.0019999743
0.071295246 0.1028 0.00099998713
0.072537147 0.10282858 0.0019999743
0.073815241 0.10282858 0.0019999743
0.075062864 0.10285714 0.003000021
0.07628572 0.10291429 0.0049999952
0.077569529 0.10291429 0.0049999952
0.078853339 0.10291429 0.0049999952
0.080022864 0.10305715 0.0099999905
0.081316195 0.10305715 0.0099999905
0.082552388 0.10314286 0.013000011
0.083834291 0.10317143 0.013999999
0.085135244 0.10317143 0.013999999
0.086422861 0.1032 0.014999986
0.087725721 0.1032 0.014999986
0.088971436 0.10337143 0.021000028
0.090278104 0.10340001 0.022000015
0.091594294 0.10340001 0.022000015
0.092902862 0.10345715 0.023999989
0.094222866 0.10345715 0.023999989
0.095542863 0.10351429 0.026000023
0.096866675 0.10351429 0.026000023
0.098190479 0.10351429 0.026000023
0.099514291 0.10351429 0.026000023
0.10085334 0.10357143 0.027999997
0.10218096 0.10357143 0.027999997
0.10350858 0.10357143 0.027999997
0.1048362 0.10357143 0.027999997
0.10616381 0.10357143 0.027999997
0.10750858 0.1036 0.028999984
0.1088762 0.10365715 0.031000018
0.11020953 0.10365715 0.031000018
0.11154287 0.10365715 0.031000018
0.1128762 0.10365715 0.031000018
0.1142362 0.10368572 0.032000005
0.11557144 0.10368572 0.032000005
0.11696763 0.10374286 0.033999979
0.11830667 0.10374286 0.033999979
0.11968001 0.10377143 0.035000026
0.12102096 0.10377143 0.035000026
0.12240001 0.10380001 0.036000013
0.12382286 0.10385714 0.037999988
0.12521143 0.10388572 0.038999975
0.12656 0.10388572 0.038999975
0.12804572 0.10397143 0.041999996
0.12940001 0.10397143 0.041999996
0.13085334 0.10402858 0.04400003
0.13226287 0.10405715 0.045000017
0.13372953 0.10411429 0.046999991
0.13514857 0.10414286 0.047999978
0.13662858 0.10420001 0.050000012
0.13805714 0.10422857 0.050999999
0.13942859 0.10422857 0.050999999
0.14098857 0.10431429 0.05400002
0.14249524 0.10437143 0.055999994
0.14414287 0.10448572 0.060000002
0.14566858 0.10454286 0.061999977
0.14727239 0.10462858 0.064999998
0.14881524 0.10468572 0.067000031
0.15029144 0.10471429 0.068000019
0.15169525 0.10471429 0.068000019
0.023754284 0.10617905 0.069999993
0.025923818 0.10593524 0.061999977
0.027316198 0.10593524 0.061999977
0.028982863 0.10584381 0.059000015
0.03036952 0.10584381 0.059000015
0.031931438 0.10578286 0.056999981
0.03357143 0.10569143 0.05400002
0.03503238 0.10566096 0.053000033
0.036653336 0.10556953 0.050000012
0.038182862 0.10550857 0.047999978
0.039626673 0.1054781 0.046999991
0.041142862 0.10541715 0.045000017
0.042502858 0.10541715 0.045000017
0.043935239 0.10538667 0.04400003
0.045434289 0.10532571 0.041999996
0.046788577 0.10532571 0.041999996
0.048209526 0.10529524 0.041000009
0.04956191 0.10529524 0.041000009
0.051040005 0.10523429 0.038999975
0.052388579 0.10523429 0.038999975
0.053737149 0.10523429 0.038999975
0.055142861 0.10520381 0.037999988
0.056489531 0.10520381 0.037999988
0.059596192 0.1041981 0.0049999952
0.060880005 0.1041981 0.0049999952
0.062262859 0.10413714 0.003000021
0.063542858 0.10413714 0.003000021
0.06482286 0.10413714 0.003000021
0.066102862 0.10413714 0.003000021
0.067424767 0.10410666 0.0019999743
0.068702862 0.10410666 0.0019999743
0.069980957 0.10410666 0.0019999743
0.071259052 0.10410666 0.0019999743
0.072502866 0.10413714 0.003000021
0.073782861 0.10413714 0.003000021
0.075062864 0.10413714 0.003000021
0.076342866 0.10413714 0.003000021
0.077329531 0.10447238 0.013999999
0.078655243 0.10444191 0.013000011
0.079931438 0.10447238 0.013999999
0.081211433 0.10450286 0.014999986
0.082514293 0.10450286 0.014999986
0.083817147 0.10450286 0.014999986
0.085089527 0.10456382 0.01700002
0.086356193 0.10465524 0.019999981
0.087668575 0.10465524 0.019999981
0.088971436 0.10468572 0.021000028
0.09026286 0.10477714 0.023999989
0.091582865 0.10477714 0.023999989
0.092902862 0.10477714 0.023999989
0.094219051 0.1048381 0.026000023
0.095542863 0.1048381 0.026000023
0.096866675 0.1048381 0.026000023
0.098190479 0.1048381 0.026000023
0.09952572 0.10489905 0.027999997
0.10085334 0.10489905 0.027999997
0.10218096 0.10489905 0.027999997
0.10350858 0.10489905 0.027999997
0.1048362 0.10489905 0.027999997
0.10616381 0.10489905 0.027999997
0.10750858 0.10492953 0.028999984
0.1088381 0.10492953 0.028999984
0.11020953 0.10499048 0.031000018
0.11154287 0.10499048 0.031000018
0.1128762 0.10499048 0.031000018
0.1142362 0.10502096 0.032000005
0.11557144 0.10502096 0.032000005
0.11690667 0.10502096 0.032000005
0.11830667 0.10508191 0.033999979
0.11964572 0.10508191 0.033999979
0.12102096 0.10511239 0.035000026
0.12240001 0.10514286 0.036000013
0.12382286 0.10520381 0.037999988
0.12516953 0.10520381 0.037999988
0.12656 0.10523429 0.038999975
0.12790857 0.10523429 0.038999975
0.12940001 0.10532571 0.041999996
0.13085334 0.10538667 0.04400003
0.13236572 0.1054781 0.046999991
0.13378286 0.10550857 0.047999978
0.13514857 0.10550857 0.047999978
0.13662858 0.10556953 0.050000012
0.13805714 0.1056 0.050999999
0.13942859 0.1056 0.050999999
0.14098857 0.10569143 0.05400002
0.14256001 0.10578286 0.056999981
0.14414287 0.10587429 0.060000002
0.14566858 0.10593524 0.061999977
0.14713144 0.10596572 0.063000023
0.14867048 0.10602667 0.064999998
0.15029144 0.1061181 0.068000019
0.15169525 0.1061181 0.068000019
0.025923818 0.10732763 0.061999977
0.027316198 0.10732763 0.061999977
0.028982863 0.10723048 0.059000015
0.03036952 0.10723048 0.059000015
0.031931438 0.10716572 0.056999981
0.03357143 0.10706858 0.05400002
0.035200007 0.10697143 0.050999999
0.036653336 0.10693905 0.050000012
0.038182862 0.10687429 0.047999978
0.039626673 0.10684191 0.046999991
0.041142862 0.10677715 0.045000017
0.042577144 0.10674477 0.04400003
0.044080004 0.10668001 0.041999996
0.045434289 0.10668001 0.041999996
0.046788577 0.10668001 0.041999996
0.048209526 0.10664763 0.041000009
0.049691435 0.10658286 0.038999975
0.051040005 0.10658286 0.038999975
0.052388579 0.10658286 0.038999975
0.053737149 0.10658286 0.038999975
0.055142861 0.10655048 0.037999988
0.056489531 0.10655048 0.037999988
0.059596192 0.10548191 0.0049999952
0.060880005 0.10548191 0.0049999952
0.062262859 0.10541715 0.003000021
0.063542858 0.10541715 0.003000021
0.06482286 0.10541715 0.003000021
0.066102862 0.10541715 0.003000021
0.067382857 0.10541715 0.003000021
0.068702862 0.10538477 0.0019999743
0.069942862 0.10541715 0.003000021
0.071259052 0.10538477 0.0019999743
0.072502866 0.10541715 0.003000021
0.073718101 0.10548191 0.0049999952
0.07500191 0.10548191 0.0049999952
0.076028578 0.10577334 0.013999999
0.077329531 0.10577334 0.013999999
0.078630477 0.10577334 0.013999999
0.079931438 0.10577334 0.013999999
0.081211433 0.10580572 0.014999986
0.082514293 0.10580572 0.014999986
0.083817147 0.10580572 0.014999986
0.085043818 0.10596763 0.019999981
0.086356193 0.10596763 0.019999981
0.087657146 0.10600001 0.021000028
0.088961914 0.10603239 0.022000015
0.09026286 0.10609715 0.023999989
0.091582865 0.10609715 0.023999989
0.092902862 0.10609715 0.023999989
0.094219051 0.10616191 0.026000023
0.095542863 0.10616191 0.026000023
0.096866675 0.10616191 0.026000023
0.098198101 0.10622667 0.027999997
0.09952572 0.10622667 0.027999997
0.10085334 0.10622667 0.027999997
0.10218096 0.10622667 0.027999997
0.10350858 0.10622667 0.027999997
0.1048362 0.10622667 0.027999997
0.10617905 0.10625905 0.028999984
0.10754286 0.10632381 0.031000018
0.1088762 0.10632381 0.031000018
0.11020953 0.10632381 0.031000018
0.11154287 0.10632381 0.031000018
0.1128762 0.10632381 0.031000018
0.1142362 0.1063562 0.032000005
0.11557144 0.1063562 0.032000005
0.11696763 0.10642096 0.033999979
0.11830667 0.10642096 0.033999979
0.11964572 0.10642096 0.033999979
0.12102096 0.10645334 0.035000026
0.12240001 0.10648572 0.036000013
0.12382286 0.10655048 0.037999988
0.12521143 0.10658286 0.038999975
0.12664762 0.10664763 0.041000009
0.12804572 0.10668001 0.041999996
0.12940001 0.10668001 0.041999996
0.13085334 0.10674477 0.04400003
0.13236572 0.10684191 0.046999991
0.13378286 0.10687429 0.047999978
0.13514857 0.10687429 0.047999978
0.13662858 0.10693905 0.050000012
0.1379981 0.10693905 0.050000012
0.13955048 0.1070362 0.053000033
0.14098857 0.10706858 0.05400002
0.14249524 0.10713334 0.055999994
0.1442762 0.10732763 0.061999977
0.14566858 0.10732763 0.061999977
0.14713144 0.10736001 0.063000023
0.14867048 0.10742477 0.064999998
0.15006858 0.10742477 0.064999998
0.15169525 0.10752191 0.068000019
0.025923818 0.10872 0.061999977
0.027316198 0.10872 0.061999977
0.028982863 0.10861715 0.059000015
0.030548573 0.10854857 0.056999981
0.031931438 0.10854857 0.056999981
0.03357143 0.10844572 0.05400002
0.035200007 0.10834286 0.050999999
0.036653336 0.10830858 0.050000012
0.038182862 0.10824 0.047999978
0.039626673 0.10820572 0.046999991
0.041142862 0.10813715 0.045000017
0.042577144 0.10810286 0.04400003
0.044080004 0.10803429 0.041999996
0.045434289 0.10803429 0.041999996
0.046788577 0.10803429 0.041999996
0.048209526 0.108 0.041000009
0.049691435 0.10793144 0.038999975
0.051040005 0.10793144 0.038999975
0.052388579 0.10793144 0.038999975
0.053737149 0.10793144 0.038999975
0.055085722 0.10793144 0.038999975
0.056489531 0.10789715 0.037999988
0.057836194 0.10789715 0.037999988
0.063447624 0.10676572 0.0049999952
0.064731434 0.10676572 0.0049999952
0.066015244 0.10676572 0.0049999952
0.067382857 0.10669714 0.003000021
0.068662859 0.10669714 0.003000021
0.069942862 0.10669714 0.003000021
0.071259052 0.10666286 0.0019999743
0.072434291 0.10676572 0.0049999952
0.073718101 0.10676572 0.0049999952
0.074697152 0.10710858 0.014999986
0.076000005 0.10710858 0.014999986
0.077302858 0.10710858 0.014999986
0.078605719 0.10710858 0.014999986
0.07990858 0.10710858 0.014999986
0.08114858 0.10721143 0.018000007
0.082476199 0.10717715 0.01700002
0.083731435 0.10728 0.019999981
0.085043818 0.10728 0.019999981
0.086356193 0.10728 0.019999981
0.087657146 0.10731429 0.021000028
0.088971436 0.10731429 0.021000028
0.090278104 0.10734858 0.022000015
0.091582865 0.10741714 0.023999989
0.092902862 0.10741714 0.023999989
0.094219051 0.10748572 0.026000023
0.095542863 0.10748572 0.026000023
0.096866675 0.10748572 0.026000023
0.098190479 0.10748572 0.026000023
0.09952572 0.10755429 0.027999997
0.10085334 0.10755429 0.027999997
0.10218096 0.10755429 0.027999997
0.10350858 0.10755429 0.027999997
0.1048362 0.10755429 0.027999997
0.10617905 0.10758857 0.028999984
0.10754286 0.10765715 0.031000018
0.1088762 0.10765715 0.031000018
0.11020953 0.10765715 0.031000018
0.11154287 0.10765715 0.031000018
0.1128762 0.10765715 0.031000018
0.1142362 0.10769144 0.032000005
0.11557144 0.10769144 0.032000005
0.11696763 0.10776 0.033999979
0.11830667 0.10776 0.033999979
0.11964572 0.10776 0.033999979
0.12102096 0.10779429 0.035000026
0.12240001 0.10782857 0.036000013
0.12382286 0.10789715 0.037999988
0.12521143 0.10793144 0.038999975
0.12656 0.10793144 0.038999975
0.12804572 0.10803429 0.041999996
0.12940001 0.10803429 0.041999996
0.13085334 0.10810286 0.04400003
0.13236572 0.10820572 0.046999991
0.13378286 0.10824 0.047999978
0.13525906 0.10830858 0.050000012
0.13668573 0.10834286 0.050999999
0.13805714 0.10834286 0.050999999
0.13955048 0.10841143 0.053000033
0.14111429 0.10851429 0.055999994
0.14256001 0.10854857 0.056999981
0.1442762 0.10872 0.061999977
0.14573714 0.10875429 0.063000023
0.14727239 0.10882286 0.064999998
0.14867048 0.10882286 0.064999998
0.15006858 0.10882286 0.064999998
0.15169525 0.10892572 0.068000019
0.020535238 0.11054667 0.074000001
0.022049524 0.11051048 0.073000014
0.024434283 0.11014858 0.063000023
0.025923818 0.11011238 0.061999977
0.027316198 0.11011238 0.061999977
0.028982863 0.11000381 0.059000015
0.030548573 0.10993143 0.056999981
0.031931438 0.10993143 0.056999981
0.03357143 0.10982286 0.05400002
0.03503238 0.10978667 0.053000033
0.036653336 0.1096781 0.050000012
0.038182862 0.10960571 0.047999978
0.03954858 0.10960571 0.047999978
0.041142862 0.10949714 0.045000017
0.042502858 0.10949714 0.045000017
0.043935239 0.10946096 0.04400003
0.045434289 0.10938857 0.041999996
0.046788577 0.10938857 0.041999996
0.048209526 0.10935239 0.041000009
0.04956191 0.10935239 0.041000009
0.051040005 0.10928001 0.038999975
0.052388579 0.10928001 0.038999975
0.053737149 0.10928001 0.038999975
0.055142861 0.10924381 0.037999988
0.056489531 0.10924381 0.037999988
0.058156196 0.10902667 0.032000005
0.059491433 0.10902667 0.032000005
0.063447624 0.10804953 0.0049999952
0.063954294 0.10866477 0.022000015
0.065971434 0.10808571 0.0059999824
0.067257151 0.10808571 0.0059999824
0.06854286 0.10808571 0.0059999824
0.069866672 0.10804953 0.0049999952
0.071150482 0.10804953 0.0049999952
0.072262861 0.10823048 0.0099999905
0.073426671 0.10837524 0.013999999
0.074697152 0.10841143 0.014999986
0.076000005 0.10841143 0.014999986
0.077302858 0.10841143 0.014999986
0.078605719 0.10841143 0.014999986
0.079862863 0.10848381 0.01700002
0.08110667 0.10859238 0.019999981
0.082419053 0.10859238 0.019999981
0.083731435 0.10859238 0.019999981
0.085043818 0.10859238 0.019999981
0.086342864 0.10862857 0.021000028
0.087657146 0.10862857 0.021000028
0.088971436 0.10862857 0.021000028
0.090278104 0.10866477 0.022000015
0.091582865 0.10873715 0.023999989
0.092899054 0.10877334 0.024999976
0.094220959 0.10877334 0.024999976
0.095542863 0.10880953 0.026000023
0.096866675 0.10880953 0.026000023
0.098190479 0.10880953 0.026000023
0.09952572 0.10888191 0.027999997
0.10085334 0.10888191 0.027999997
0.10218096 0.10888191 0.027999997
0.10350858 0.10888191 0.027999997
0.1048362 0.10888191 0.027999997
0.10617905 0.1089181 0.028999984
0.10754286 0.10899048 0.031000018
0.1088762 0.10899048 0.031000018
0.11020953 0.10899048 0.031000018
0.11156572 0.10902667 0.032000005
0.11290096 0.10902667 0.032000005
0.11420953 0.10899048 0.031000018
0.11557144 0.10902667 0.032000005
0.11696763 0.10909905 0.033999979
0.11830667 0.10909905 0.033999979
0.11964572 0.10909905 0.033999979
0.12102096 0.10913524 0.035000026
0.12240001 0.10917144 0.036000013
0.12382286 0.10924381 0.037999988
0.12521143 0.10928001 0.038999975
0.12664762 0.10935239 0.041000009
0.12804572 0.10938857 0.041999996
0.12940001 0.10938857 0.041999996
0.13085334 0.10946096 0.04400003
0.13226287 0.10949714 0.045000017
0.13372953 0.10956953 0.046999991
0.13525906 0.1096781 0.050000012
0.13668573 0.10971428 0.050999999
0.13817525 0.10978667 0.053000033
0.13961144 0.10982286 0.05400002
0.14111429 0.10989524 0.055999994
0.14256001 0.10993143 0.056999981
0.1442762 0.11011238 0.061999977
0.14587429 0.11022095 0.064999998
0.14741334 0.11029334 0.067000031
0.14881524 0.11029334 0.067000031
0.15021715 0.11029334 0.067000031
0.017495237 0.1120381 0.076000035
0.01912 0.11196191 0.074000001
0.020535238 0.11196191 0.074000001
0.022049524 0.11192381 0.073000014
0.024434283 0.11154287 0.063000023
0.02582857 0.11154287 0.063000023
0.027502865 0.11142857 0.060000002
0.028982863 0.11139048 0.059000015
0.030548573 0.11131429 0.056999981
0.031931438 0.11131429 0.056999981
0.03357143 0.1112 0.05400002
0.035200007 0.11108572 0.050999999
0.036571432 0.11108572 0.050999999
0.038022861 0.11104763 0.050000012
0.03954858 0.11097143 0.047999978
0.040990479 0.11093333 0.046999991
0.042502858 0.11085714 0.045000017
0.043935239 0.11081906 0.04400003
0.045434289 0.11074286 0.041999996
0.046857148 0.11070476 0.041000009
0.048209526 0.11070476 0.041000009
0.04956191 0.11070476 0.041000009
0.051040005 0.11062858 0.038999975
0.052388579 0.11062858 0.038999975
0.053737149 0.11062858 0.038999975
0.055142861 0.11059048 0.037999988
0.056600004 0.11051429 0.036000013
0.058156196 0.1103619 0.032000005
0.059491433 0.1103619 0.032000005
0.061222862 0.11005715 0.023999989
0.062638104 0.10998096 0.022000015
0.063954294 0.10998096 0.022000015
0.065971434 0.10937143 0.0059999824
0.066670485 0.10990477 0.019999981
0.068182863 0.10971428 0.014999986
0.069485724 0.10971428 0.014999986
0.070969529 0.10952381 0.0099999905
0.072262861 0.10952381 0.0099999905
0.073426671 0.1096762 0.013999999
0.074727625 0.1096762 0.013999999
0.076000005 0.10971428 0.014999986
0.077302858 0.10971428 0.014999986
0.078605719 0.10971428 0.014999986
0.079840004 0.10982858 0.018000007
0.08110667 0.10990477 0.019999981
0.082419053 0.10990477 0.019999981
0.083731435 0.10990477 0.019999981
0.085043818 0.10990477 0.019999981
0.086342864 0.10994286 0.021000028
0.087657146 0.10994286 0.021000028
0.088971436 0.10994286 0.021000028
0.090278104 0.10998096 0.022000015
0.091582865 0.11005715 0.023999989
0.092902862 0.11005715 0.023999989
0.094220959 0.11009524 0.024999976
0.095542863 0.11009524 0.024999976
0.096866675 0.11013333 0.026000023
0.098190479 0.11013333 0.026000023
0.099514291 0.11013333 0.026000023
0.1008381 0.11013333 0.026000023
0.10218096 0.11020952 0.027999997
0.10350858 0.11020952 0.027999997
0.1048362 0.11020952 0.027999997
0.10617905 0.11024762 0.028999984
0.10754286 0.11032382 0.031000018
0.1088762 0.11032382 0.031000018
0.11020953 0.11032382 0.031000018
0.11154287 0.11032382 0.031000018
0.11290096 0.1103619 0.032000005
0.1142362 0.1103619 0.032000005
0.11557144 0.1103619 0.032000005
0.11696763 0.1104381 0.033999979
0.11830667 0.1104381 0.033999979
0.11964572 0.1104381 0.033999979
0.12102096 0.1104762 0.035000026
0.12240001 0.11051429 0.036000013
0.12382286 0.11059048 0.037999988
0.12521143 0.11062858 0.038999975
0.12664762 0.11070476 0.041000009
0.12804572 0.11074286 0.041999996
0.12949525 0.11081906 0.04400003
0.13085334 0.11081906 0.04400003
0.13236572 0.11093333 0.046999991
0.13378286 0.11097143 0.047999978
0.13525906 0.11104763 0.050000012
0.13668573 0.11108572 0.050999999
0.13817525 0.11116191 0.053000033
0.13961144 0.1112 0.05400002
0.14111429 0.11127619 0.055999994
0.14268953 0.11139048 0.059000015
0.1442762 0.11150476 0.061999977
0.14587429 0.11161905 0.064999998
0.14741334 0.11169524 0.067000031
0.14888763 0.11173334 0.068000019
0.15066287 0.11192381 0.073000014
0.1520762 0.11192381 0.073000014
0.15356763 0.11196191 0.074000001
0.15498286 0.11196191 0.074000001
0.017495237 0.11345714 0.076000035
0.01912 0.11337715 0.074000001
0.020535238 0.11337715 0.074000001
0.021950483 0.11337715 0.074000001
0.024434283 0.11293714 0.063000023
0.02582857 0.11293714 0.063000023
0.027502865 0.11281715 0.060000002
0.028982863 0.11277714 0.059000015
0.030548573 0.11269715 0.056999981
0.031931438 0.11269715 0.056999981
0.03357143 0.11257715 0.05400002
0.03503238 0.11253715 0.053000033
0.036571432 0.11245715 0.050999999
0.038022861 0.11241715 0.050000012
0.03954858 0.11233714 0.047999978
0.040990479 0.11229715 0.046999991
0.042502858 0.11221715 0.045000017
0.043935239 0.11217715 0.04400003
0.045434289 0.11209714 0.041999996
0.046857148 0.11205715 0.041000009
0.048209526 0.11205715 0.041000009
0.049691435 0.11197715 0.038999975
0.051040005 0.11197715 0.038999975
0.052388579 0.11197715 0.038999975
0.053796198 0.11193714 0.037999988
0.055257145 0.11185715 0.036000013
0.056655239 0.11181715 0.035000026
0.058156196 0.11169714 0.032000005
0.059542861 0.11165714 0.031000018
0.061173338 0.11141714 0.024999976
0.062638104 0.11129715 0.022000015
0.064000003 0.11125715 0.021000028
0.065358102 0.11121714 0.019999981
0.066670485 0.11121714 0.019999981
0.068182863 0.11101715 0.014999986
0.069485724 0.11101715 0.014999986
0.070969529 0.11081715 0.0099999905
0.072262861 0.11081715 0.0099999905
0.073426671 0.11097714 0.013999999
0.074697152 0.11101715 0.014999986
0.076000005 0.11101715 0.014999986
0.077302858 0.11101715 0.014999986
0.078605719 0.11101715 0.014999986
0.079840004 0.11113715 0.018000007
0.08110667 0.11121714 0.019999981
0.082419053 0.11121714 0.019999981
0.083731435 0.11121714 0.019999981
0.085043818 0.11121714 0.019999981
0.086342864 0.11125715 0.021000028
0.087657146 0.11125715 0.021000028
0.088971436 0.11125715 0.021000028
0.090278104 0.11129715 0.022000015
0.091582865 0.11137715 0.023999989
0.092902862 0.11137715 0.023999989
0.094220959 0.11141714 0.024999976
0.095542863 0.11141714 0.024999976
0.096866675 0.11145715 0.026000023
0.098190479 0.11145715 0.026000023
0.099514291 0.11145715 0.026000023
0.1008381 0.11145715 0.026000023
0.10216191 0.11145715 0.026000023
0.10350858 0.11153714 0.027999997
0.1048362 0.11153714 0.027999997
0.10617905 0.11157715 0.028999984
0.10754286 0.11165714 0.031000018
0.1088762 0.11165714 0.031000018
0.11020953 0.11165714 0.031000018
0.11156572 0.11169714 0.032000005
0.11290096 0.11169714 0.032000005
0.1142362 0.11169714 0.032000005
0.11557144 0.11169714 0.032000005
0.11696763 0.11177714 0.033999979
0.11830667 0.11177714 0.033999979
0.11964572 0.11177714 0.033999979
0.12102096 0.11181715 0.035000026
0.12240001 0.11185715 0.036000013
0.12382286 0.11193714 0.037999988
0.12529525 0.11205715 0.041000009
0.12669143 0.11209714 0.041999996
0.12813716 0.11217715 0.04400003
0.12949525 0.11217715 0.04400003
0.13090286 0.11221715 0.045000017
0.13236572 0.11229715 0.046999991
0.13378286 0.11233714 0.047999978
0.13525906 0.11241715 0.050000012
0.13668573 0.11245715 0.050999999
0.13817525 0.11253715 0.053000033
0.13973334 0.11265714 0.055999994
0.14111429 0.11265714 0.055999994
0.14268953 0.11277714 0.059000015
0.14434287 0.11293714 0.063000023
0.14601144 0.11309715 0.067000031
0.14748383 0.11313715 0.068000019
0.14924952 0.11333714 0.073000014
0.15073715 0.11337715 0.074000001
0.15215239 0.11337715 0.074000001
0.15356763 0.11337715 0.074000001
0.15498286 0.11337715 0.074000001
0.020535238 0.11479238 0.074000001
0.022049524 0.11475048 0.073000014
0.023754284 0.11462477 0.069999993
0.025447622 0.11449905 0.067000031
0.027316198 0.11428953 0.061999977
0.028982863 0.11416382 0.059000015
0.03036952 0.11416382 0.059000015
0.031931438 0.11408 0.056999981
0.03357143 0.11395429 0.05400002
0.03503238 0.11391239 0.053000033
0.036653336 0.11378667 0.050000012
0.038182862 0.11370286 0.047999978
0.03954858 0.11370286 0.047999978
0.040990479 0.11366095 0.046999991
0.042502858 0.11357715 0.045000017
0.043935239 0.11353524 0.04400003
0.045293335 0.11353524 0.04400003
0.046788577 0.11345143 0.041999996
0.048209526 0.11340953 0.041000009
0.049691435 0.11332572 0.038999975
0.051040005 0.11332572 0.038999975
0.052388579 0.11332572 0.038999975
0.053796198 0.11328381 0.037999988
0.055257145 0.11320001 0.036000013
0.056655239 0.1131581 0.035000026
0.058156196 0.11303239 0.032000005
0.05964572 0.11290666 0.028999984
0.061173338 0.11273905 0.024999976
0.062638104 0.11261334 0.022000015
0.064000003 0.11257143 0.021000028
0.065358102 0.11252952 0.019999981
0.066670485 0.11252952 0.019999981
0.068182863 0.11232001 0.014999986
0.069485724 0.11232001 0.014999986
0.070788577 0.11232001 0.014999986
0.072160006 0.11223619 0.013000011
0.073426671 0.1122781 0.013999999
0.074697152 0.11232001 0.014999986
0.076000005 0.11232001 0.014999986
0.077302858 0.11232001 0.014999986
0.078605719 0.11232001 0.014999986
0.079840004 0.11244572 0.018000007
0.08110667 0.11252952 0.019999981
0.082419053 0.11252952 0.019999981
0.083731435 0.11252952 0.019999981
0.085043818 0.11252952 0.019999981
0.086342864 0.11257143 0.021000028
0.087657146 0.11257143 0.021000028
0.088971436 0.11257143 0.021000028
0.090285718 0.11257143 0.021000028
0.091582865 0.11269715 0.023999989
0.092902862 0.11269715 0.023999989
0.094222866 0.11269715 0.023999989
0.095542863 0.11273905 0.024999976
0.096864767 0.11273905 0.024999976
0.098186672 0.11273905 0.024999976
0.099514291 0.11278096 0.026000023
0.1008381 0.11278096 0.026000023
0.10216191 0.11278096 0.026000023
0.10348572 0.11278096 0.026000023
0.1048362 0.11286476 0.027999997
0.10617905 0.11290666 0.028999984
0.10754286 0.11299048 0.031000018
0.1088762 0.11299048 0.031000018
0.11020953 0.11299048 0.031000018
0.11154287 0.11299048 0.031000018
0.11290096 0.11303239 0.032000005
0.1142362 0.11303239 0.032000005
0.11557144 0.11303239 0.032000005
0.11690667 0.11303239 0.032000005
0.11830667 0.11311619 0.033999979
0.11968001 0.1131581 0.035000026
0.12102096 0.1131581 0.035000026
0.12240001 0.11320001 0.036000013
0.12382286 0.11328381 0.037999988
0.12529525 0.11340953 0.041000009
0.12664762 0.11340953 0.041000009
0.12804572 0.11345143 0.041999996
0.12949525 0.11353524 0.04400003
0.13090286 0.11357715 0.045000017
0.13236572 0.11366095 0.046999991
0.13378286 0.11370286 0.047999978
0.13525906 0.11378667 0.050000012
0.13668573 0.11382857 0.050999999
0.13817525 0.11391239 0.053000033
0.13973334 0.11403809 0.055999994
0.14111429 0.11403809 0.055999994
0.14256001 0.11408 0.056999981
0.14434287 0.11433144 0.063000023
0.14608002 0.11454096 0.068000019
0.14762476 0.11462477 0.069999993
0.14924952 0.11475048 0.073000014
0.15073715 0.11479238 0.074000001
0.15215239 0.11479238 0.074000001
0.15356763 0.11479238 0.074000001
0.15498286 0.11479238 0.074000001
0.018914282 0.11629525 0.076000035
0.020535238 0.11620762 0.074000001
0.022049524 0.11616382 0.073000014
0.023948573 0.11594477 0.068000019
0.025352381 0.11594477 0.068000019
0.027222857 0.11572572 0.063000023
0.028708577 0.1156819 0.061999977
0.03036952 0.11555048 0.059000015
0.031931438 0.11546285 0.056999981
0.03357143 0.11533143 0.05400002
0.034948573 0.11533143 0.05400002
0.036653336 0.11515619 0.050000012
0.038022861 0.11515619 0.050000012
0.03954858 0.11506858 0.047999978
0.040990479 0.11502476 0.046999991
0.042502858 0.11493714 0.045000017
0.044080004 0.11480571 0.041999996
0.045434289 0.11480571 0.041999996
0.046857148 0.11476191 0.041000009
0.048209526 0.11476191 0.041000009
0.049691435 0.11467429 0.038999975
0.051040005 0.11467429 0.038999975
0.052449528 0.11463048 0.037999988
0.053796198 0.11463048 0.037999988
0.055314291 0.11449905 0.035000026
0.056710482 0.11445524 0.033999979
0.058156196 0.11436762 0.032000005
0.05964572 0.11423619 0.028999984
0.061123814 0.11410476 0.026000023
0.062638104 0.11392953 0.022000015
0.064000003 0.11388572 0.021000028
0.065358102 0.11384191 0.019999981
0.066670485 0.11384191 0.019999981
0.068062857 0.11375429 0.018000007
0.069409527 0.11371048 0.01700002
0.070788577 0.11362286 0.014999986
0.072125718 0.11357905 0.013999999
0.073426671 0.11357905 0.013999999
0.074697152 0.11362286 0.014999986
0.076000005 0.11362286 0.014999986
0.077302858 0.11362286 0.014999986
0.078605719 0.11362286 0.014999986
0.07990858 0.11362286 0.014999986
0.08114858 0.11375429 0.018000007
0.082419053 0.11384191 0.019999981
0.083731435 0.11384191 0.019999981
0.085043818 0.11384191 0.019999981
0.086356193 0.11384191 0.019999981
0.087668575 0.11384191 0.019999981
0.088980958 0.11384191 0.019999981
0.090285718 0.11388572 0.021000028
0.091600008 0.11388572 0.021000028
0.092910483 0.11392953 0.022000015
0.094222866 0.11401714 0.023999989
0.095542863 0.11406095 0.024999976
0.096864767 0.11406095 0.024999976
0.098190479 0.11410476 0.026000023
0.099514291 0.11410476 0.026000023
0.1008381 0.11410476 0.026000023
0.10216191 0.11410476 0.026000023
0.10348572 0.11410476 0.026000023
0.1048362 0.11419238 0.027999997
0.10617905 0.11423619 0.028999984
0.10754286 0.11432381 0.031000018
0.1088762 0.11432381 0.031000018
0.11020953 0.11432381 0.031000018
0.11156572 0.11436762 0.032000005
0.11290096 0.11436762 0.032000005
0.1142362 0.11436762 0.032000005
0.11557144 0.11436762 0.032000005
0.11690667 0.11436762 0.032000005
0.11830667 0.11445524 0.033999979
0.11968001 0.11449905 0.035000026
0.12102096 0.11449905 0.035000026
0.12240001 0.11454286 0.036000013
0.12386286 0.11467429 0.038999975
0.12529525 0.11476191 0.041000009
0.12669143 0.11480571 0.041999996
0.12804572 0.11480571 0.041999996
0.12949525 0.11489334 0.04400003
0.13090286 0.11493714 0.045000017
0.13236572 0.11502476 0.046999991
0.13378286 0.11506858 0.047999978
0.13531429 0.11520001 0.050999999
0.13680001 0.11528762 0.053000033
0.13823429 0.11533143 0.05400002
0.13973334 0.11541905 0.055999994
0.14111429 0.11541905 0.055999994
0.14256001 0.11546285 0.056999981
0.14394286 0.11546285 0.056999981
0.14608002 0.11594477 0.068000019
0.14762476 0.11603238 0.069999993
0.14924952 0.11616382 0.073000014
0.15066287 0.11616382 0.073000014
0.15215239 0.11620762 0.074000001
0.15356763 0.11620762 0.074000001
0.15498286 0.11620762 0.074000001
0.018914282 0.11771429 0.076000035
0.020535238 0.11762286 0.074000001
0.021950483 0.11762286 0.074000001
0.023948573 0.11734858 0.068000019
0.025352381 0.11734858 0.068000019
0.027036197 0.11721143 0.064999998
0.028708577 0.11707429 0.061999977
0.030280009 0.11698286 0.060000002
0.031931438 0.11684571 0.056999981
0.03357143 0.11670858 0.05400002
0.03503238 0.11666286 0.053000033
0.036653336 0.11652572 0.050000012
0.038022861 0.11652572 0.050000012
0.03954858 0.11643429 0.047999978
0.040990479 0.11638857 0.046999991
0.042502858 0.11629715 0.045000017
0.043935239 0.11625144 0.04400003
0.045434289 0.11616001 0.041999996
0.046857148 0.11611429 0.041000009
0.048342861 0.11602286 0.038999975
0.049691435 0.11602286 0.038999975
0.051102862 0.11597715 0.037999988
0.052449528 0.11597715 0.037999988
0.05391429 0.11588572 0.036000013
0.055314291 0.11584 0.035000026
0.056710482 0.11579429 0.033999979
0.058156196 0.11570287 0.032000005
0.059542861 0.11565715 0.031000018
0.061024766 0.11552 0.027999997
0.062352385 0.11552 0.027999997
0.063954294 0.11524571 0.022000015
0.065314293 0.11520001 0.021000028
0.066670485 0.11515428 0.019999981
0.067982867 0.11515428 0.019999981
0.069409527 0.11501715 0.01700002
0.070716195 0.11501715 0.01700002
0.072125718 0.11488 0.013999999
0.073426671 0.11488 0.013999999
0.074727625 0.11488 0.013999999
0.076028578 0.11488 0.013999999
0.077302858 0.11492571 0.014999986
0.078605719 0.11492571 0.014999986
0.07990858 0.11492571 0.014999986
0.081169531 0.11501715 0.01700002
0.082476199 0.11501715 0.01700002
0.083782867 0.11501715 0.01700002
0.085074291 0.11506286 0.018000007
0.086382866 0.11506286 0.018000007
0.087691434 0.11506286 0.018000007
0.089000009 0.11506286 0.018000007
0.09029334 0.11515428 0.019999981
0.091600008 0.11520001 0.021000028
0.092910483 0.11524571 0.022000015
0.094226673 0.11524571 0.022000015
0.095542863 0.11533715 0.023999989
0.096864767 0.11538287 0.024999976
0.098186672 0.11538287 0.024999976
0.099508576 0.11538287 0.024999976
0.10083048 0.11538287 0.024999976
0.10216191 0.11542857 0.026000023
0.10348572 0.11542857 0.026000023
0.1048362 0.11552 0.027999997
0.10616381 0.11552 0.027999997
0.10750858 0.11556572 0.028999984
0.1088381 0.11556572 0.028999984
0.11020953 0.11565715 0.031000018
0.11154287 0.11565715 0.031000018
0.1128762 0.11565715 0.031000018
0.1142362 0.11570287 0.032000005
0.11557144 0.11570287 0.032000005
0.11690667 0.11570287 0.032000005
0.11830667 0.11579429 0.033999979
0.11968001 0.11584 0.035000026
0.12105715 0.11588572 0.036000013
0.12240001 0.11588572 0.036000013
0.12386286 0.11602286 0.038999975
0.12529525 0.11611429 0.041000009
0.12669143 0.11616001 0.041999996
0.12813716 0.11625144 0.04400003
0.12949525 0.11625144 0.04400003
0.13090286 0.11629715 0.045000017
0.13236572 0.11638857 0.046999991
0.13378286 0.11643429 0.047999978
0.13531429 0.11657143 0.050999999
0.13680001 0.11666286 0.053000033
0.13823429 0.11670858 0.05400002
0.13973334 0.11680001 0.055999994
0.14117715 0.11684571 0.056999981
0.14256001 0.11684571 0.056999981
0.1440762 0.11693715 0.059000015
0.14601144 0.11730286 0.067000031
0.14762476 0.11744 0.069999993
0.14924952 0.11757715 0.073000014
0.15066287 0.11757715 0.073000014
0.15215239 0.11762286 0.074000001
0.15356763 0.11762286 0.074000001
0.15498286 0.11762286 0.074000001
0.018914282 0.11913334 0.076000035
0.020535238 0.1190381 0.074000001
0.021950483 0.1190381 0.074000001
0.023462862 0.11899048 0.073000014
0.025352381 0.11875239 0.068000019
0.027036197 0.11860953 0.064999998
0.028708577 0.11846667 0.061999977
0.030280009 0.11837143 0.060000002
0.031931438 0.11822857 0.056999981
0.03357143 0.11808572 0.05400002
0.034948573 0.11808572 0.05400002
0.036571432 0.11794285 0.050999999
0.038182862 0.1178 0.047999978
0.03954858 0.1178 0.047999978
0.040990479 0.11775238 0.046999991
0.042502858 0.11765715 0.045000017
0.043935239 0.11760953 0.04400003
0.045434289 0.11751429 0.041999996
0.046857148 0.11746667 0.041000009
0.048342861 0.11737143 0.038999975
0.049691435 0.11737143 0.038999975
0.051102862 0.11732382 0.037999988
0.052449528 0.11732382 0.037999988
0.053973336 0.11718096 0.035000026
0.055371433 0.11713333 0.033999979
0.056820959 0.1170381 0.032000005
0.058156196 0.1170381 0.032000005
0.05964572 0.11689524 0.028999984
0.061024766 0.11684762 0.027999997
0.062495243 0.11670476 0.024999976
0.063954294 0.1165619 0.022000015
0.065314293 0.1165143 0.021000028
0.066670485 0.11646667 0.019999981
0.068062857 0.11637144 0.018000007
0.069371432 0.11637144 0.018000007
0.070716195 0.11632381 0.01700002
0.07209143 0.11622857 0.014999986
0.073426671 0.11618096 0.013999999
0.074727625 0.11618096 0.013999999
0.076000005 0.11622857 0.014999986
0.077302858 0.11622857 0.014999986
0.078605719 0.11622857 0.014999986
0.07990858 0.11622857 0.014999986
0.081211433 0.11622857 0.014999986
0.082476199 0.11632381 0.01700002
0.083782867 0.11632381 0.01700002
0.085089527 0.11632381 0.01700002
0.086396195 0.11632381 0.01700002
0.087702863 0.11632381 0.01700002
0.089000009 0.11637144 0.018000007
0.090308577 0.11637144 0.018000007
0.091605723 0.11646667 0.019999981
0.092918098 0.11646667 0.019999981
0.094228581 0.1165143 0.021000028
0.095542863 0.1165143 0.021000028
0.09686286 0.11665715 0.023999989
0.098182864 0.11665715 0.023999989
0.099508576 0.11670476 0.024999976
0.10083048 0.11670476 0.024999976
0.10215238 0.11670476 0.024999976
0.10347429 0.11670476 0.024999976
0.10480953 0.11675239 0.026000023
0.10613334 0.11675239 0.026000023
0.10749143 0.11684762 0.027999997
0.10881905 0.11684762 0.027999997
0.11020953 0.11699048 0.031000018
0.11154287 0.11699048 0.031000018
0.1128762 0.11699048 0.031000018
0.11420953 0.11699048 0.031000018
0.11557144 0.1170381 0.032000005
0.11696763 0.11713333 0.033999979
0.11830667 0.11713333 0.033999979
0.11968001 0.11718096 0.035000026
0.12105715 0.11722858 0.036000013
0.12240001 0.11722858 0.036000013
0.12386286 0.11737143 0.038999975
0.12529525 0.11746667 0.041000009
0.12669143 0.11751429 0.041999996
0.12813716 0.11760953 0.04400003
0.12954286 0.11765715 0.045000017
0.13100192 0.11775238 0.046999991
0.13241714 0.1178 0.047999978
0.13388953 0.11789525 0.050000012
0.13531429 0.11794285 0.050999999
0.13680001 0.1180381 0.053000033
0.13823429 0.11808572 0.05400002
0.13973334 0.11818095 0.055999994
0.14130287 0.11832382 0.059000015
0.14256001 0.11822857 0.056999981
0.14414287 0.11837143 0.060000002
0.14601144 0.11870477 0.067000031
0.14762476 0.11884762 0.069999993
0.14924952 0.11899048 0.073000014
0.15073715 0.1190381 0.074000001
0.15215239 0.1190381 0.074000001
0.15356763 0.1190381 0.074000001
0.15498286 0.1190381 0.074000001
0.018914282 0.12055238 0.076000035
0.020333335 0.12055238 0.076000035
0.021950483 0.12045334 0.074000001
0.023754284 0.12025525 0.069999993
0.025447622 0.12010667 0.067000031
0.027222857 0.11990857 0.063000023
0.028708577 0.11985905 0.061999977
0.030280009 0.11976001 0.060000002
0.031756192 0.11971048 0.059000015
0.033314288 0.11961143 0.056999981
0.034948573 0.11946286 0.05400002
0.036571432 0.11931429 0.050999999
0.038182862 0.11916572 0.047999978
0.03954858 0.11916572 0.047999978
0.040990479 0.11911619 0.046999991
0.042502858 0.11901715 0.045000017
0.043935239 0.11896762 0.04400003
0.045434289 0.11886857 0.041999996
0.046857148 0.11881905 0.041000009
0.048342861 0.11872 0.038999975
0.049691435 0.11872 0.038999975
0.051102862 0.11867048 0.037999988
0.052571431 0.11857143 0.036000013
0.054032385 0.11847238 0.033999979
0.055371433 0.11847238 0.033999979
0.056820959 0.11837333 0.032000005
0.058209527 0.11832382 0.031000018
0.05964572 0.11822477 0.028999984
0.061123814 0.11807619 0.026000023
0.062495243 0.11802667 0.024999976
0.063954294 0.1178781 0.022000015
0.065314293 0.11782858 0.021000028
0.066670485 0.11777905 0.019999981
0.068062857 0.11768001 0.018000007
0.069371432 0.11768001 0.018000007
0.070716195 0.11763048 0.01700002
0.07209143 0.11753143 0.014999986
0.073394291 0.11753143 0.014999986
0.074697152 0.11753143 0.014999986
0.076000005 0.11753143 0.014999986
0.077302858 0.11753143 0.014999986
0.078605719 0.11753143 0.014999986
0.07990858 0.11753143 0.014999986
0.081169531 0.11763048 0.01700002
0.082476199 0.11763048 0.01700002
0.083782867 0.11763048 0.01700002
0.085089527 0.11763048 0.01700002
0.086396195 0.11763048 0.01700002
0.087691434 0.11768001 0.018000007
0.089000009 0.11768001 0.018000007
0.090308577 0.11768001 0.018000007
0.091605723 0.11777905 0.019999981
0.092914291 0.11782858 0.021000028
0.094228581 0.11782858 0.021000028
0.095542863 0.1178781 0.022000015
0.09686286 0.11797714 0.023999989
0.098186672 0.11802667 0.024999976
0.099508576 0.11802667 0.024999976
0.10083048 0.11802667 0.024999976
0.10215238 0.11802667 0.024999976
0.10347429 0.11802667 0.024999976
0.10480953 0.11807619 0.026000023
0.10613334 0.11807619 0.026000023
0.10749143 0.11817524 0.027999997
0.1088381 0.11822477 0.028999984
0.11020953 0.11832382 0.031000018
0.11154287 0.11832382 0.031000018
0.1128762 0.11832382 0.031000018
0.1142362 0.11837333 0.032000005
0.11557144 0.11837333 0.032000005
0.11696763 0.11847238 0.033999979
0.11830667 0.11847238 0.033999979
0.11968001 0.11852191 0.035000026
0.12105715 0.11857143 0.036000013
0.1224762 0.11867048 0.037999988
0.12394287 0.11881905 0.041000009
0.12533715 0.11886857 0.041999996
0.12669143 0.11886857 0.041999996
0.12813716 0.11896762 0.04400003
0.12954286 0.11901715 0.045000017
0.13100192 0.11911619 0.046999991
0.13241714 0.11916572 0.047999978
0.13378286 0.11916572 0.047999978
0.13542476 0.11941334 0.053000033
0.13685715 0.11946286 0.05400002
0.13835239 0.11956191 0.055999994
0.13979429 0.11961143 0.056999981
0.14117715 0.11961143 0.056999981
0.14256001 0.11961143 0.056999981
0.14394286 0.11961143 0.056999981
0.14532572 0.11961143 0.056999981
0.14762476 0.12025525 0.069999993
0.14924952 0.12040381 0.073000014
0.15066287 0.12040381 0.073000014
0.15215239 0.12045334 0.074000001
0.15356763 0.12045334 0.074000001
0.15498286 0.12045334 0.074000001
0.020333335 0.12197144 0.076000035
0.021950483 0.12186858 0.074000001
0.023948573 0.12156001 0.068000019
0.025352381 0.12156001 0.068000019
0.027036197 0.12140572 0.064999998
0.028617144 0.12130286 0.063000023
0.030280009 0.12114857 0.060000002
0.031756192 0.12109715 0.059000015
0.033400007 0.12094286 0.055999994
0.034948573 0.12084001 0.05400002
0.036571432 0.12068572 0.050999999
0.038182862 0.12053143 0.047999978
0.039626673 0.12048 0.046999991
0.041142862 0.12037715 0.045000017
0.042502858 0.12037715 0.045000017
0.043935239 0.12032571 0.04400003
0.045434289 0.12022286 0.041999996
0.046857148 0.12017144 0.041000009
0.048342861 0.12006857 0.038999975
0.049756195 0.12001714 0.037999988
0.051102862 0.12001714 0.037999988
0.052571431 0.11991429 0.036000013
0.054032385 0.11981143 0.033999979
0.055485718 0.11970858 0.032000005
0.056876194 0.11965714 0.031000018
0.058316197 0.11955429 0.028999984
0.059697147 0.11950286 0.027999997
0.061123814 0.11940001 0.026000023
0.062638104 0.11919429 0.022000015
0.064000003 0.11914286 0.021000028
0.065314293 0.11914286 0.021000028
0.066670485 0.11909144 0.019999981
0.067982867 0.11909144 0.019999981
0.069371432 0.11898857 0.018000007
0.070716195 0.11893715 0.01700002
0.07209143 0.11883429 0.014999986
0.073394291 0.11883429 0.014999986
0.074697152 0.11883429 0.014999986
0.076000005 0.11883429 0.014999986
0.077302858 0.11883429 0.014999986
0.078605719 0.11883429 0.014999986
0.07990858 0.11883429 0.014999986
0.081169531 0.11893715 0.01700002
0.082476199 0.11893715 0.01700002
0.083782867 0.11893715 0.01700002
0.085089527 0.11893715 0.01700002
0.086396195 0.11893715 0.01700002
0.087691434 0.11898857 0.018000007
0.089000009 0.11898857 0.018000007
0.090308577 0.11898857 0.018000007
0.091605723 0.11909144 0.019999981
0.092918098 0.11909144 0.019999981
0.094228581 0.11914286 0.021000028
0.095542863 0.11914286 0.021000028
0.09686286 0.11929715 0.023999989
0.098186672 0.11934857 0.024999976
0.099508576 0.11934857 0.024999976
0.10083048 0.11934857 0.024999976
0.10215238 0.11934857 0.024999976
0.10347429 0.11934857 0.024999976
0.10480953 0.11940001 0.026000023
0.10613334 0.11940001 0.026000023
0.10745715 0.11940001 0.026000023
0.1088762 0.11965714 0.031000018
0.11020953 0.11965714 0.031000018
0.11154287 0.11965714 0.031000018
0.1128762 0.11965714 0.031000018
0.1142362 0.11970858 0.032000005
0.11557144 0.11970858 0.032000005
0.11696763 0.11981143 0.033999979
0.11833905 0.11986286 0.035000026
0.11971429 0.11991429 0.036000013
0.12105715 0.11991429 0.036000013
0.1224762 0.12001714 0.037999988
0.12394287 0.12017144 0.041000009
0.12533715 0.12022286 0.041999996
0.12677905 0.12032571 0.04400003
0.12818286 0.12037715 0.045000017
0.12954286 0.12037715 0.045000017
0.13100192 0.12048 0.046999991
0.13252001 0.12063429 0.050000012
0.13394286 0.12068572 0.050999999
0.13548002 0.12084001 0.05400002
0.13685715 0.12084001 0.05400002
0.13835239 0.12094286 0.055999994
0.13979429 0.12099428 0.056999981
0.14130287 0.12109715 0.059000015
0.14256001 0.12099428 0.056999981
0.14394286 0.12099428 0.056999981
0.14608002 0.12156001 0.068000019
0.14769524 0.12171429 0.07099998
0.14910477 0.12171429 0.07099998
0.15066287 0.12181714 0.073000014
0.1520762 0.12181714 0.073000014
0.15348953 0.12181714 0.073000014
0.020333335 0.12339048 0.076000035
0.021950483 0.12328382 0.074000001
0.023462862 0.12323048 0.073000014
0.025352381 0.12296382 0.068000019
0.027036197 0.12280381 0.064999998
0.028617144 0.12269714 0.063000023
0.030280009 0.12253715 0.060000002
0.031756192 0.12248381 0.059000015
0.033400007 0.12232381 0.055999994
0.034948573 0.12221715 0.05400002
0.036571432 0.12205714 0.050999999
0.038022861 0.12200382 0.050000012
0.03954858 0.12189715 0.047999978
0.040990479 0.12184381 0.046999991
0.042502858 0.12173714 0.045000017
