# .PCD v0.7 - Point Cloud Data file format
VERSION 0.7
FIELDS x y z
SIZE 4 4 4
TYPE F F F
COUNT 1 1 1
WIDTH 1377
HEIGHT 1
VIEWPOINT 0 0 0 0 1 0 0
POINTS 1377
DATA ascii
0.10464953 0.068420954 0.037
0.10597715 0.068420954 0.037
0.10730477 0.068420954 0.037
0.1085562 0.068356186 0.035000026
0.10996 0.068420954 0.037
0.11120382 0.068356186 0.035000026
0.11265905 0.068453334 0.037999988
0.11398858 0.068453334 0.037999988
0.1153181 0.068453334 0.037999988
0.11674668 0.068518095 0.040000021
0.11808001 0.068518095 0.040000021
0.11941335 0.068518095 0.040000021
0.12080191 0.068550475 0.041000009
0.12213715 0.068550475 0.041000009
0.12359048 0.068615235 0.042999983
0.12505144 0.068680003 0.045000017
0.1263943 0.068680003 0.045000017
0.12793143 0.068777144 0.047999978
0.12941334 0.068841904 0.050000012
0.13076572 0.068841904 0.050000012
0.13218859 0.068874285 0.050999999
0.13368763 0.068939045 0.053000033
0.13504572 0.068939045 0.053000033
0.13663238 0.069036186 0.055999994
0.13807429 0.069068573 0.056999981
0.13960001 0.069133334 0.059000015
0.14096953 0.069133334 0.059000015
0.14292572 0.069360003 0.065999985
0.14448 0.069424763 0.068000019
0.14621715 0.069554284 0.072000027
0.14761144 0.069554284 0.072000027
0.14992002 0.069878094 0.082000017
0.15142667 0.069910474 0.083000004
0.15284191 0.069910474 0.083000004
0.15425715 0.069910474 0.083000004
0.15567239 0.069910474 0.083000004
0.15749145 0.070040002 0.087000012
0.1589143 0.070040002 0.087000012
0.16033715 0.070040002 0.087000012
0.0075961947 0.071634285 0.092000008
0.0092228577 0.071565717 0.090000033
0.010651432 0.071565717 0.090000033
0.018205717 0.070845716 0.069000006
0.019594293 0.070845716 0.069000006
0.025200006 0.070228569 0.050999999
0.02655429 0.070228569 0.050999999
0.027984764 0.070194289 0.050000012
0.029560007 0.070091426 0.046999991
0.031051435 0.070022859 0.045000017
0.032535248 0.069954284 0.042999983
0.034011431 0.069885716 0.041000009
0.035413336 0.069851428 0.040000021
0.036876198 0.069782853 0.037999988
0.03820572 0.069782853 0.037999988
0.039718099 0.069680005 0.035000026
0.041041907 0.069680005 0.035000026
0.042422865 0.069645718 0.033999979
0.043744769 0.069645718 0.033999979
0.045013338 0.069680005 0.035000026
0.046337146 0.069680005 0.035000026
0.047660958 0.069680005 0.035000026
0.048984766 0.069680005 0.035000026
0.050217148 0.069748573 0.037
0.051632386 0.069680005 0.035000026
0.052956194 0.069680005 0.035000026
0.054200005 0.069748573 0.037
0.055527627 0.069748573 0.037
0.056855246 0.069748573 0.037
0.058148578 0.069782853 0.037999988
0.059478104 0.069782853 0.037999988
0.060716197 0.069885716 0.041000009
0.062051434 0.069885716 0.041000009
0.063413337 0.069851428 0.040000021
0.06482096 0.069748573 0.037
0.066148579 0.069748573 0.037
0.067706674 0.069371432 0.026000023
0.069013342 0.069371432 0.026000023
0.07032001 0.069371432 0.026000023
0.071657151 0.069302857 0.023999989
0.072973341 0.069268569 0.023000002
0.074285723 0.069234289 0.022000015
0.075584769 0.069234289 0.022000015
0.076899052 0.069165714 0.019999981
0.078200005 0.069131427 0.018999994
0.079493336 0.069131427 0.018999994
0.080786675 0.069131427 0.018999994
0.082080007 0.069131427 0.018999994
0.083373338 0.069131427 0.018999994
0.084670484 0.069165714 0.019999981
0.085988581 0.069302857 0.023999989
0.087291434 0.069302857 0.023999989
0.088651434 0.069508575 0.030000031
0.090000004 0.06961143 0.032999992
0.091333337 0.069645718 0.033999979
0.092700958 0.069748573 0.037
0.094028577 0.069748573 0.037
0.095375247 0.069782853 0.037999988
0.096704766 0.069782853 0.037999988
0.098034292 0.069782853 0.037999988
0.099413343 0.069851428 0.040000021
0.10069334 0.069782853 0.037999988
0.10202286 0.069782853 0.037999988
0.10332191 0.069748573 0.037
0.10464953 0.069748573 0.037
0.10597715 0.069748573 0.037
0.10730477 0.069748573 0.037
0.1085562 0.069680005 0.035000026
0.10996 0.069748573 0.037
0.11132953 0.069782853 0.037999988
0.11265905 0.069782853 0.037999988
0.11398858 0.069782853 0.037999988
0.11541334 0.069851428 0.040000021
0.11674668 0.069851428 0.040000021
0.11808001 0.069851428 0.040000021
0.11946668 0.069885716 0.041000009
0.12080191 0.069885716 0.041000009
0.12236573 0.070022859 0.045000017
0.12370858 0.070022859 0.045000017
0.12517335 0.070091426 0.046999991
0.12658286 0.070125714 0.047999978
0.12793143 0.070125714 0.047999978
0.12948 0.070228569 0.050999999
0.13097143 0.070297144 0.053000033
0.13232954 0.070297144 0.053000033
0.13368763 0.070297144 0.053000033
0.13512 0.070331432 0.05400002
0.13670857 0.070434287 0.056999981
0.13807429 0.070434287 0.056999981
0.13960001 0.070502855 0.059000015
0.14121525 0.070605718 0.062000036
0.14259049 0.070605718 0.062000036
0.14482287 0.070948571 0.072000027
0.14621715 0.070948571 0.072000027
0.14832762 0.071222857 0.079999983
0.14992002 0.071291432 0.082000017
0.15142667 0.071325712 0.083000004
0.15284191 0.071325712 0.083000004
0.15425715 0.071325712 0.083000004
0.15587048 0.071394287 0.085000038
0.15728953 0.071394287 0.085000038
0.1589143 0.071462855 0.087000012
0.16033715 0.071462855 0.087000012
0.0075961947 0.073066667 0.092000008
0.0092228577 0.072994284 0.090000033
0.010651432 0.072994284 0.090000033
0.013106667 0.072596192 0.078999996
0.01451429 0.072596192 0.078999996
0.016548574 0.072342858 0.072000027
0.018030487 0.072306663 0.07099998
0.019680005 0.072198093 0.068000019
0.021234293 0.072125718 0.065999985
0.023108575 0.071908571 0.060000002
0.024720006 0.071800001 0.056999981
0.026320003 0.071691431 0.05400002
0.028137151 0.071474284 0.047999978
0.029560007 0.071438096 0.046999991
0.031051435 0.071365714 0.045000017
0.032535248 0.071293332 0.042999983
0.034011431 0.071220949 0.041000009
0.035346672 0.071220949 0.041000009
0.036746673 0.071184762 0.040000021
0.038080003 0.071184762 0.040000021
0.039596196 0.071076192 0.037
0.040923815 0.071076192 0.037
0.042251434 0.071076192 0.037
0.043579053 0.071076192 0.037
0.044906672 0.071076192 0.037
0.046234291 0.071076192 0.037
0.04756191 0.071076192 0.037
0.048889529 0.071076192 0.037
0.050217148 0.071076192 0.037
0.051544771 0.071076192 0.037
0.052872386 0.071076192 0.037
0.054160006 0.071112379 0.037999988
0.055489533 0.071112379 0.037999988
0.056746669 0.071184762 0.040000021
0.058045719 0.071220949 0.041000009
0.059380956 0.071220949 0.041000009
0.060655244 0.071293332 0.042999983
0.061994292 0.071293332 0.042999983
0.063386671 0.071220949 0.041000009
0.06474667 0.071184762 0.040000021
0.066080004 0.071184762 0.040000021
0.067769527 0.070569523 0.023000002
0.069070481 0.070569523 0.023000002
0.070371434 0.070569523 0.023000002
0.071672387 0.070569523 0.023000002
0.07298667 0.070533335 0.022000015
0.074308582 0.070460953 0.019999981
0.075603813 0.070460953 0.019999981
0.076906674 0.070424765 0.018999994
0.078200005 0.070424765 0.018999994
0.079493336 0.070424765 0.018999994
0.080788575 0.07038857 0.018000007
0.082080007 0.07038857 0.018000007
0.083373338 0.070424765 0.018999994
0.084666677 0.070424765 0.018999994
0.085965723 0.070460953 0.019999981
0.087260962 0.070460953 0.019999981
0.0885562 0.070460953 0.019999981
0.090000004 0.070931427 0.032999992
0.091346674 0.07100381 0.035000026
0.092700958 0.071076192 0.037
0.094045721 0.071112379 0.037999988
0.095375247 0.071112379 0.037999988
0.096704766 0.071112379 0.037999988
0.098034292 0.071112379 0.037999988
0.099413343 0.071184762 0.040000021
0.10069334 0.071112379 0.037999988
0.10202286 0.071112379 0.037999988
0.10335239 0.071112379 0.037999988
0.10468191 0.071112379 0.037999988
0.10601144 0.071112379 0.037999988
0.10734096 0.071112379 0.037999988
0.10863239 0.071076192 0.037
0.10996 0.071076192 0.037
0.11132953 0.071112379 0.037999988
0.11265905 0.071112379 0.037999988
0.11398858 0.071112379 0.037999988
0.11541334 0.071184762 0.040000021
0.11674668 0.071184762 0.040000021
0.11808001 0.071184762 0.040000021
0.11946668 0.071220949 0.041000009
0.12080191 0.071220949 0.041000009
0.12236573 0.071365714 0.045000017
0.12370858 0.071365714 0.045000017
0.12517335 0.071438096 0.046999991
0.12658286 0.071474284 0.047999978
0.12806097 0.071546666 0.050000012
0.12948 0.071582854 0.050999999
0.13097143 0.071655244 0.053000033
0.13240001 0.071691431 0.05400002
0.13368763 0.071655244 0.053000033
0.13512 0.071691431 0.05400002
0.13663238 0.071763813 0.055999994
0.13807429 0.071800001 0.056999981
0.13944 0.071800001 0.056999981
0.14105144 0.071908571 0.060000002
0.1426743 0.072017148 0.063000023
0.14422286 0.072089523 0.064999998
0.14560382 0.072089523 0.064999998
0.14850667 0.072704762 0.082000017
0.14992002 0.072704762 0.082000017
0.15142667 0.072740957 0.083000004
0.15303239 0.072813332 0.085000038
0.15445143 0.072813332 0.085000038
0.15587048 0.072813332 0.085000038
0.15728953 0.072813332 0.085000038
0.1589143 0.072885714 0.087000012
0.16033715 0.072885714 0.087000012
0.0075961947 0.074499048 0.092000008
0.0092228577 0.074422859 0.090000033
0.010841906 0.074346669 0.088
0.013106667 0.074003808 0.078999996
0.014788575 0.073889524 0.076000035
0.016548574 0.073737144 0.072000027
0.018030487 0.073699042 0.07099998
0.019680005 0.073584765 0.068000019
0.0213181 0.073470473 0.064999998
0.022944763 0.073356196 0.062000036
0.024480004 0.073279999 0.060000002
0.026085723 0.073165715 0.056999981
0.027680006 0.07305143 0.05400002
0.029262863 0.072937146 0.050999999
0.030906674 0.072784759 0.046999991
0.03239429 0.072708569 0.045000017
0.033874292 0.07263238 0.042999983
0.035346672 0.07255619 0.041000009
0.036681909 0.07255619 0.041000009
0.038017146 0.07255619 0.041000009
0.039413337 0.072518095 0.040000021
0.040746674 0.072518095 0.040000021
0.042194292 0.072441906 0.037999988
0.043358102 0.07255619 0.041000009
0.04469334 0.07255619 0.041000009
0.046080004 0.072518095 0.040000021
0.047512386 0.072441906 0.037999988
0.048841909 0.072441906 0.037999988
0.050171435 0.072441906 0.037999988
0.051500957 0.072441906 0.037999988
0.052830484 0.072441906 0.037999988
0.054080006 0.072518095 0.040000021
0.055375244 0.07255619 0.041000009
0.056710482 0.07255619 0.041000009
0.058045719 0.07255619 0.041000009
0.059316196 0.07263238 0.042999983
0.060655244 0.07263238 0.042999983
0.061994292 0.07263238 0.042999983
0.063386671 0.07255619 0.041000009
0.06474667 0.072518095 0.040000021
0.066080004 0.072518095 0.040000021
0.067413338 0.072518095 0.040000021
0.069070481 0.071870476 0.023000002
0.070371434 0.071870476 0.023000002
0.071687624 0.071832381 0.022000015
0.073013335 0.071756192 0.019999981
0.074308582 0.071756192 0.019999981
0.075613342 0.071718097 0.018999994
0.076906674 0.071718097 0.018999994
0.078200005 0.071718097 0.018999994
0.079493336 0.071718097 0.018999994
0.080788575 0.071680002 0.018000007
0.082080007 0.071680002 0.018000007
0.083371438 0.071680002 0.018000007
0.084666677 0.071718097 0.018999994
0.085965723 0.071756192 0.019999981
0.087260962 0.071756192 0.019999981
0.0885562 0.071756192 0.019999981
0.090000004 0.072251432 0.032999992
0.091346674 0.072327621 0.035000026
0.092700958 0.072403811 0.037
0.094028577 0.072403811 0.037
0.095356196 0.072403811 0.037
0.096704766 0.072441906 0.037999988
0.098034292 0.072441906 0.037999988
0.099413343 0.072518095 0.040000021
0.10069334 0.072441906 0.037999988
0.10202286 0.072441906 0.037999988
0.10335239 0.072441906 0.037999988
0.10468191 0.072441906 0.037999988
0.10601144 0.072441906 0.037999988
0.10730477 0.072403811 0.037
0.10863239 0.072403811 0.037
0.10996 0.072403811 0.037
0.11128762 0.072403811 0.037
0.11265905 0.072441906 0.037999988
0.11398858 0.072441906 0.037999988
0.11541334 0.072518095 0.040000021
0.11664763 0.072441906 0.037999988
0.11808001 0.072518095 0.040000021
0.11941335 0.072518095 0.040000021
0.12080191 0.07255619 0.041000009
0.12230858 0.072670475 0.04400003
0.12370858 0.072708569 0.045000017
0.12517335 0.072784759 0.046999991
0.12658286 0.072822854 0.047999978
0.12806097 0.072899051 0.050000012
0.12948 0.072937146 0.050999999
0.13097143 0.073013335 0.053000033
0.13240001 0.07305143 0.05400002
0.13376001 0.07305143 0.05400002
0.13526858 0.07312762 0.055999994
0.13663238 0.07312762 0.055999994
0.13807429 0.073165715 0.056999981
0.13960001 0.073241904 0.059000015
0.14105144 0.073279999 0.060000002
0.14259049 0.073356196 0.062000036
0.14422286 0.073470473 0.064999998
0.14586668 0.073584765 0.068000019
0.14725335 0.073584765 0.068000019
0.14992002 0.074118093 0.082000017
0.15142667 0.074156195 0.083000004
0.15322286 0.074308574 0.087000012
0.15445143 0.074232385 0.085000038
0.15587048 0.074232385 0.085000038
0.15728953 0.074232385 0.085000038
0.0061638132 0.07593143 0.092000008
0.0075961947 0.07593143 0.092000008
0.0092228577 0.075851426 0.090000033
0.010841906 0.075771429 0.088
0.013106667 0.075411424 0.078999996
0.014788575 0.075291432 0.076000035
0.016548574 0.075131431 0.072000027
0.018205717 0.075011432 0.069000006
0.019680005 0.07497143 0.068000019
0.021485716 0.074771427 0.063000023
0.022944763 0.074731432 0.062000036
0.024480004 0.074651428 0.060000002
0.025929525 0.074611425 0.059000015
0.027527623 0.074491426 0.055999994
0.029114287 0.074371427 0.053000033
0.030834295 0.074171424 0.047999978
0.03225334 0.074131429 0.046999991
0.033874292 0.073971428 0.042999983
0.03521334 0.073971428 0.042999983
0.036552388 0.073971428 0.042999983
0.038017146 0.073891431 0.041000009
0.039352387 0.073891431 0.041000009
0.040687624 0.073891431 0.041000009
0.042022862 0.073891431 0.041000009
0.043247625 0.073971428 0.042999983
0.04469334 0.073891431 0.041000009
0.046028577 0.073891431 0.041000009
0.047363814 0.073891431 0.041000009
0.048746672 0.073851429 0.040000021
0.050080005 0.073851429 0.040000021
0.051413339 0.073851429 0.040000021
0.052704766 0.073891431 0.041000009
0.054040007 0.073891431 0.041000009
0.055375244 0.073891431 0.041000009
0.056638099 0.073971428 0.042999983
0.057977147 0.073971428 0.042999983
0.059316196 0.073971428 0.042999983
0.060655244 0.073971428 0.042999983
0.061994292 0.073971428 0.042999983
0.063386671 0.073891431 0.041000009
0.064721912 0.073891431 0.041000009
0.066080004 0.073851429 0.040000021
0.067413338 0.073851429 0.040000021
0.069089532 0.073131427 0.022000015
0.070388578 0.073131427 0.022000015
0.071687624 0.073131427 0.022000015
0.073013335 0.073051423 0.019999981
0.074320003 0.073011428 0.018999994
0.075613342 0.073011428 0.018999994
0.076914296 0.072971433 0.018000007
0.07820572 0.072971433 0.018000007
0.079497151 0.072971433 0.018000007
0.080788575 0.072971433 0.018000007
0.082080007 0.072971433 0.018000007
0.083371438 0.072971433 0.018000007
0.084666677 0.073011428 0.018999994
0.085960008 0.073011428 0.018999994
0.087260962 0.073051423 0.019999981
0.0885562 0.073051423 0.019999981
0.090000004 0.073571429 0.032999992
0.091346674 0.073651433 0.035000026
0.092700958 0.07373143 0.037
0.094028577 0.07373143 0.037
0.095356196 0.07373143 0.037
0.096704766 0.073771432 0.037999988
0.098034292 0.073771432 0.037999988
0.099363819 0.073771432 0.037999988
0.10069334 0.073771432 0.037999988
0.10199429 0.07373143 0.037
0.10332191 0.07373143 0.037
0.10464953 0.07373143 0.037
0.10597715 0.07373143 0.037
0.10730477 0.07373143 0.037
0.10863239 0.07373143 0.037
0.10996 0.07373143 0.037
0.11128762 0.07373143 0.037
0.11265905 0.073771432 0.037999988
0.11398858 0.073771432 0.037999988
0.11541334 0.073851429 0.040000021
0.11674668 0.073851429 0.040000021
0.11808001 0.073851429 0.040000021
0.11941335 0.073851429 0.040000021
0.12080191 0.073891431 0.041000009
0.12236573 0.074051432 0.045000017
0.12370858 0.074051432 0.045000017
0.12517335 0.074131429 0.046999991
0.12658286 0.074171424 0.047999978
0.12793143 0.074171424 0.047999978
0.12948 0.07429143 0.050999999
0.13097143 0.074371427 0.053000033
0.13240001 0.074411429 0.05400002
0.13376001 0.074411429 0.05400002
0.13526858 0.074491426 0.055999994
0.13670857 0.074531429 0.056999981
0.13807429 0.074531429 0.056999981
0.13960001 0.074611425 0.059000015
0.14105144 0.074651428 0.060000002
0.14259049 0.074731432 0.062000036
0.14422286 0.074851431 0.064999998
0.14586668 0.07497143 0.068000019
0.14725335 0.07497143 0.068000019
0.15001144 0.075571433 0.083000004
0.15142667 0.075571433 0.083000004
0.15303239 0.07565143 0.085000038
0.15445143 0.07565143 0.085000038
0.15587048 0.07565143 0.085000038
0.15728953 0.07565143 0.085000038
0.0046285763 0.077405713 0.092999995
0.0061638132 0.077363811 0.092000008
0.0075961947 0.077363811 0.092000008
0.0092228577 0.07728 0.090000033
0.010937147 0.077154286 0.087000012
0.013106667 0.076819047 0.078999996
0.014788575 0.076693334 0.076000035
0.016548574 0.076525718 0.072000027
0.018205717 0.076399997 0.069000006
0.019680005 0.076358095 0.068000019
0.0213181 0.076232381 0.064999998
0.022944763 0.076106668 0.062000036
0.024480004 0.076022856 0.060000002
0.025929525 0.075980954 0.059000015
0.027451437 0.075897142 0.056999981
0.029040001 0.075771429 0.05400002
0.030689526 0.075603813 0.050000012
0.032182861 0.075520001 0.047999978
0.033600006 0.075478092 0.046999991
0.034946673 0.075478092 0.046999991
0.036422864 0.075394288 0.045000017
0.037891436 0.075310476 0.042999983
0.039230485 0.075310476 0.042999983
0.040569529 0.075310476 0.042999983
0.041908577 0.075310476 0.042999983
0.043247625 0.075310476 0.042999983
0.044586673 0.075310476 0.042999983
0.045925718 0.075310476 0.042999983
0.04726477 0.075310476 0.042999983
0.048699051 0.075226665 0.041000009
0.050034288 0.075226665 0.041000009
0.051369529 0.075226665 0.041000009
0.052704766 0.075226665 0.041000009
0.054040007 0.075226665 0.041000009
0.055375244 0.075226665 0.041000009
0.056638099 0.075310476 0.042999983
0.057977147 0.075310476 0.042999983
0.059316196 0.075310476 0.042999983
0.060655244 0.075310476 0.042999983
0.061994292 0.075310476 0.042999983
0.063386671 0.075226665 0.041000009
0.064721912 0.075226665 0.041000009
0.066080004 0.075184762 0.040000021
0.067790478 0.074430481 0.022000015
0.069089532 0.074430481 0.022000015
0.070388578 0.074430481 0.022000015
0.071718104 0.074346662 0.019999981
0.073013335 0.074346662 0.019999981
0.074320003 0.07430476 0.018999994
0.075613342 0.07430476 0.018999994
0.076914296 0.074262857 0.018000007
0.07820572 0.074262857 0.018000007
0.079504766 0.074179053 0.016000032
0.08079239 0.074179053 0.016000032
0.082080007 0.074179053 0.016000032
0.083371438 0.074262857 0.018000007
0.084662862 0.074262857 0.018000007
0.085960008 0.07430476 0.018999994
0.08725334 0.07430476 0.018999994
0.088546671 0.07430476 0.018999994
0.089977153 0.074807622 0.031000018
0.091320008 0.074891426 0.032999992
0.092670485 0.074975237 0.035000026
0.09399429 0.074975237 0.035000026
0.095356196 0.075059049 0.037
0.096683815 0.075059049 0.037
0.098034292 0.075100951 0.037999988
0.099363819 0.075100951 0.037999988
0.10069334 0.075100951 0.037999988
0.10199429 0.075059049 0.037
0.10332191 0.075059049 0.037
0.10464953 0.075059049 0.037
0.10597715 0.075059049 0.037
0.10730477 0.075059049 0.037
0.10863239 0.075059049 0.037
0.10996 0.075059049 0.037
0.11128762 0.075059049 0.037
0.11265905 0.075100951 0.037999988
0.11398858 0.075100951 0.037999988
0.11541334 0.075184762 0.040000021
0.11674668 0.075184762 0.040000021
0.11813144 0.075226665 0.041000009
0.11946668 0.075226665 0.041000009
0.12080191 0.075226665 0.041000009
0.12230858 0.075352386 0.04400003
0.12370858 0.075394288 0.045000017
0.12517335 0.075478092 0.046999991
0.12652001 0.075478092 0.046999991
0.12793143 0.075520001 0.047999978
0.12928 0.075520001 0.047999978
0.13097143 0.075729527 0.053000033
0.13240001 0.075771429 0.05400002
0.13376001 0.075771429 0.05400002
0.13512 0.075771429 0.05400002
0.13670857 0.075897142 0.056999981
0.13807429 0.075897142 0.056999981
0.13960001 0.075980954 0.059000015
0.14105144 0.076022856 0.060000002
0.14259049 0.076106668 0.062000036
0.14405143 0.07614857 0.063000023
0.14569142 0.076274283 0.065999985
0.14734286 0.076399997 0.069000006
0.14873144 0.076399997 0.069000006
0.15180001 0.077154286 0.087000012
0.15322286 0.077154286 0.087000012
0.15445143 0.077070475 0.085000038
0.15606858 0.077154286 0.087000012
0.15749145 0.077154286 0.087000012
0.0026704818 0.079059049 0.09799999
0.0043200031 0.078971431 0.096000016
0.0061638132 0.078796193 0.092000008
0.0075961947 0.078796193 0.092000008
0.0092228577 0.078708574 0.090000033
0.010841906 0.078620955 0.088
0.013013333 0.07827048 0.079999983
0.01451429 0.078226671 0.078999996
0.015921906 0.078226671 0.078999996
0.018030487 0.077876188 0.07099998
0.019594293 0.077788576 0.069000006
0.020982865 0.077788576 0.069000006
0.022862859 0.07752572 0.063000023
0.024320003 0.077481911 0.062000036
0.025851436 0.077394292 0.060000002
0.02729905 0.077350475 0.059000015
0.028817147 0.077262864 0.056999981
0.030617148 0.077 0.050999999
0.032041911 0.076956198 0.050000012
0.033600006 0.076824762 0.046999991
0.034946673 0.076824762 0.046999991
0.036293339 0.076824762 0.046999991
0.037640005 0.076824762 0.046999991
0.039108574 0.076737143 0.045000017
0.040510479 0.076693334 0.04400003
0.041851435 0.076693334 0.04400003
0.043192383 0.076693334 0.04400003
0.044586673 0.076649524 0.042999983
0.045925718 0.076649524 0.042999983
0.04726477 0.076649524 0.042999983
0.048603814 0.076649524 0.042999983
0.049942866 0.076649524 0.042999983
0.051369529 0.076561905 0.041000009
0.052620959 0.076649524 0.042999983
0.054040007 0.076561905 0.041000009
0.055375244 0.076561905 0.041000009
0.056638099 0.076649524 0.042999983
0.058045719 0.076561905 0.041000009
0.059316196 0.076649524 0.042999983
0.060655244 0.076649524 0.042999983
0.061994292 0.076649524 0.042999983
0.063386671 0.076561905 0.041000009
0.06474667 0.076518096 0.040000021
0.066080004 0.076518096 0.040000021
0.067790478 0.075729527 0.022000015
0.069089532 0.075729527 0.022000015
0.070388578 0.075729527 0.022000015
0.071733341 0.075598091 0.018999994
0.073026672 0.075598091 0.018999994
0.074320003 0.075598091 0.018999994
0.075622864 0.075554289 0.018000007
0.076929532 0.07546667 0.016000032
0.078217149 0.07546667 0.016000032
0.079504766 0.07546667 0.016000032
0.08079239 0.07546667 0.016000032
0.082080007 0.07546667 0.016000032
0.083371438 0.075554289 0.018000007
0.084662862 0.075554289 0.018000007
0.085960008 0.075598091 0.018999994
0.08725334 0.075598091 0.018999994
0.088546671 0.075598091 0.018999994
0.089931436 0.075948574 0.02700001
0.091280006 0.076080002 0.030000031
0.092640005 0.07621143 0.032999992
0.09399429 0.076299049 0.035000026
0.095318101 0.076299049 0.035000026
0.096683815 0.076386668 0.037
0.098011434 0.076386668 0.037
0.099363819 0.076430477 0.037999988
0.10066667 0.076386668 0.037
0.10199429 0.076386668 0.037
0.10332191 0.076386668 0.037
0.10464953 0.076386668 0.037
0.10597715 0.076386668 0.037
0.10730477 0.076386668 0.037
0.10863239 0.076386668 0.037
0.11000001 0.076430477 0.037999988
0.11132953 0.076430477 0.037999988
0.11265905 0.076430477 0.037999988
0.11398858 0.076430477 0.037999988
0.11541334 0.076518096 0.040000021
0.11674668 0.076518096 0.040000021
0.11813144 0.076561905 0.041000009
0.11946668 0.076561905 0.041000009
0.12096763 0.076693334 0.04400003
0.12230858 0.076693334 0.04400003
0.12370858 0.076737143 0.045000017
0.12505144 0.076737143 0.045000017
0.12652001 0.076824762 0.046999991
0.12786667 0.076824762 0.046999991
0.12928 0.076868571 0.047999978
0.1308343 0.077 0.050999999
0.13232954 0.077087626 0.053000033
0.13368763 0.077087626 0.053000033
0.13526858 0.077219047 0.055999994
0.13670857 0.077262864 0.056999981
0.13807429 0.077262864 0.056999981
0.13960001 0.077350475 0.059000015
0.14105144 0.077394292 0.060000002
0.14242285 0.077394292 0.060000002
0.14405143 0.07752572 0.063000023
0.14569142 0.077657141 0.065999985
0.14734286 0.077788576 0.069000006
0.14873144 0.077788576 0.069000006
0.15161335 0.078489527 0.085000038
0.15303239 0.078489527 0.085000038
0.15445143 0.078489527 0.085000038
0.15587048 0.078489527 0.085000038
0.15749145 0.078577146 0.087000012
0.0026704818 0.08050286 0.09799999
0.0043200031 0.080411434 0.096000016
0.0063657165 0.080137148 0.090000033
0.0077942833 0.080137148 0.090000033
0.0094171464 0.080045715 0.088
0.011127621 0.079908572 0.085000038
0.013013333 0.079679996 0.079999983
0.01451429 0.079634286 0.078999996
0.016100951 0.07954286 0.077000022
0.017942861 0.079314291 0.072000027
0.019422866 0.079268575 0.07099998
0.021234293 0.079039998 0.065999985
0.022699054 0.078994289 0.064999998
0.024240006 0.078902856 0.063000023
0.025695238 0.078857139 0.062000036
0.027222861 0.07876572 0.060000002
0.028817147 0.07862857 0.056999981
0.030182865 0.07862857 0.056999981
0.031830478 0.078445718 0.053000033
0.033325721 0.078354284 0.050999999
0.034746669 0.078308567 0.050000012
0.036228579 0.078217141 0.047999978
0.037577149 0.078217141 0.047999978
0.038986672 0.078171432 0.046999991
0.040333342 0.078171432 0.046999991
0.041851435 0.078034289 0.04400003
0.043192383 0.078034289 0.04400003
0.044533338 0.078034289 0.04400003
0.04587429 0.078034289 0.04400003
0.04726477 0.077988565 0.042999983
0.048603814 0.077988565 0.042999983
0.049942866 0.077988565 0.042999983
0.051369529 0.077897146 0.041000009
0.052704766 0.077897146 0.041000009
0.054040007 0.077897146 0.041000009
0.055413339 0.07785143 0.040000021
0.056746669 0.07785143 0.040000021
0.058045719 0.077897146 0.041000009
0.059380956 0.077897146 0.041000009
0.060716197 0.077897146 0.041000009
0.062051434 0.077897146 0.041000009
0.063413337 0.07785143 0.040000021
0.064796194 0.077759996 0.037999988
0.066125721 0.077759996 0.037999988
0.067769527 0.077074289 0.023000002
0.069070481 0.077074289 0.023000002
0.070388578 0.077028573 0.022000015
0.071733341 0.07689143 0.018999994
0.073026672 0.07689143 0.018999994
0.074331433 0.07684572 0.018000007
0.075622864 0.07684572 0.018000007
0.076937146 0.07670857 0.014999986
0.078217149 0.076754287 0.016000032
0.079504766 0.076754287 0.016000032
0.08079429 0.07670857 0.014999986
0.082080007 0.07670857 0.014999986
0.083367623 0.076754287 0.016000032
0.084662862 0.07684572 0.018000007
0.085954294 0.07684572 0.018000007
0.087245718 0.07684572 0.018000007
0.0885562 0.076937139 0.019999981
0.089920007 0.077211425 0.026000023
0.091280006 0.077394292 0.030000031
0.092640005 0.077531427 0.032999992
0.09399429 0.077622861 0.035000026
0.095318101 0.077622861 0.035000026
0.096641913 0.077622861 0.035000026
0.098011434 0.077714287 0.037
0.099339053 0.077714287 0.037
0.10066667 0.077714287 0.037
0.10199429 0.077714287 0.037
0.10332191 0.077714287 0.037
0.10464953 0.077714287 0.037
0.10597715 0.077714287 0.037
0.10730477 0.077714287 0.037
0.10863239 0.077714287 0.037
0.11000001 0.077759996 0.037999988
0.11132953 0.077759996 0.037999988
0.11265905 0.077759996 0.037999988
0.11398858 0.077759996 0.037999988
0.1153181 0.077759996 0.037999988
0.11664763 0.077759996 0.037999988
0.11808001 0.07785143 0.040000021
0.11941335 0.07785143 0.040000021
0.12096763 0.078034289 0.04400003
0.12230858 0.078034289 0.04400003
0.12370858 0.078079998 0.045000017
0.12505144 0.078079998 0.045000017
0.1263943 0.078079998 0.045000017
0.12786667 0.078171432 0.046999991
0.12921333 0.078171432 0.046999991
0.13056001 0.078171432 0.046999991
0.13232954 0.078445718 0.053000033
0.13368763 0.078445718 0.053000033
0.13512 0.078491434 0.05400002
0.13670857 0.07862857 0.056999981
0.13807429 0.07862857 0.056999981
0.13944 0.07862857 0.056999981
0.14096953 0.078720003 0.059000015
0.14242285 0.07876572 0.060000002
0.14396572 0.078857139 0.062000036
0.14560382 0.078994289 0.064999998
0.14698477 0.078994289 0.064999998
0.14836574 0.078994289 0.064999998
0.15161335 0.079908572 0.085000038
0.15303239 0.079908572 0.085000038
0.15445143 0.079908572 0.085000038
0.15587048 0.079908572 0.085000038
0.0063657165 0.081565715 0.090000033
0.0079923868 0.081470475 0.088
0.0097085759 0.081327617 0.085000038
0.011413336 0.08118476 0.082000017
0.013013333 0.081089526 0.079999983
0.01451429 0.081041902 0.078999996
0.016100951 0.080946669 0.077000022
0.017942861 0.080708578 0.072000027
0.019422866 0.080660954 0.07099998
0.021234293 0.080422856 0.065999985
0.022862859 0.080280006 0.063000023
0.024320003 0.080232382 0.062000036
0.025695238 0.080232382 0.062000036
0.027222861 0.080137141 0.060000002
0.028668575 0.080089524 0.059000015
0.030182865 0.079994284 0.056999981
0.031830478 0.07980381 0.053000033
0.033325721 0.079708576 0.050999999
0.034746669 0.079660952 0.050000012
0.036228579 0.079565719 0.047999978
0.037577149 0.079565719 0.047999978
0.038986672 0.079518095 0.046999991
0.040333342 0.079518095 0.046999991
0.041851435 0.079375237 0.04400003
0.043192383 0.079375237 0.04400003
0.044533338 0.079375237 0.04400003
0.04587429 0.079375237 0.04400003
0.04726477 0.079327621 0.042999983
0.048603814 0.079327621 0.042999983
0.049942866 0.079327621 0.042999983
0.051369529 0.07923238 0.041000009
0.052704766 0.07923238 0.041000009
0.054040007 0.07923238 0.041000009
0.055413339 0.079184763 0.040000021
0.056710482 0.07923238 0.041000009
0.058080006 0.079184763 0.040000021
0.05941334 0.079184763 0.040000021
0.060716197 0.07923238 0.041000009
0.062051434 0.07923238 0.041000009
0.063413337 0.079184763 0.040000021
0.064796194 0.079089522 0.037999988
0.066468582 0.078375235 0.023000002
0.067769527 0.078375235 0.023000002
0.069089532 0.078327619 0.022000015
0.070440009 0.078184761 0.018999994
0.071733341 0.078184761 0.018999994
0.073026672 0.078184761 0.018999994
0.074331433 0.078137144 0.018000007
0.075641908 0.078041911 0.016000032
0.076937146 0.077994287 0.014999986
0.078222863 0.077994287 0.014999986
0.079512388 0.077946663 0.013999999
0.080796197 0.077946663 0.013999999
0.082080007 0.077946663 0.013999999
0.083367623 0.078041911 0.016000032
0.084662862 0.078137144 0.018000007
0.085954294 0.078137144 0.018000007
0.08725334 0.078184761 0.018999994
0.088584766 0.078375235 0.023000002
0.089897148 0.078422859 0.023999989
0.091226675 0.078518093 0.026000023
0.092548579 0.078565717 0.02700001
0.09396001 0.078851432 0.032999992
0.09529905 0.078899048 0.033999979
0.096620962 0.078899048 0.033999979
0.097965717 0.078946665 0.035000026
0.099289529 0.078946665 0.035000026
0.10066667 0.079041906 0.037
0.10199429 0.079041906 0.037
0.10332191 0.079041906 0.037
0.10464953 0.079041906 0.037
0.10597715 0.079041906 0.037
0.10730477 0.079041906 0.037
0.10863239 0.079041906 0.037
0.11000001 0.079089522 0.037999988
0.11132953 0.079089522 0.037999988
0.11265905 0.079089522 0.037999988
0.11398858 0.079089522 0.037999988
0.11541334 0.079184763 0.040000021
0.11674668 0.079184763 0.040000021
0.11808001 0.079184763 0.040000021
0.11946668 0.07923238 0.041000009
0.12091239 0.079327621 0.042999983
0.12230858 0.079375237 0.04400003
0.12364954 0.079375237 0.04400003
0.12505144 0.079422861 0.045000017
0.1263943 0.079422861 0.045000017
0.12773715 0.079422861 0.045000017
0.12921333 0.079518095 0.046999991
0.13062859 0.079565719 0.047999978
0.13218859 0.079708576 0.050999999
0.13368763 0.07980381 0.053000033
0.13504572 0.07980381 0.053000033
0.13648 0.079851434 0.05400002
0.1379962 0.079946667 0.055999994
0.13944 0.079994284 0.056999981
0.14096953 0.080089524 0.059000015
0.14242285 0.080137141 0.060000002
0.14396572 0.080232382 0.062000036
0.14560382 0.080375239 0.064999998
0.14698477 0.080375239 0.064999998
0.14836574 0.080375239 0.064999998
0.15189335 0.081470475 0.088
0.15331811 0.081470475 0.088
0.15474287 0.081470475 0.088
0.15636572 0.081565715 0.090000033
0.1577943 0.081565715 0.090000033
0.15922287 0.081565715 0.090000033
0.0079923868 0.082895234 0.088
0.0097085759 0.08274667 0.085000038
0.011603817 0.082499042 0.079999983
0.013106667 0.082449526 0.078999996
0.014697142 0.082350478 0.077000022
0.016100951 0.082350478 0.077000022
0.017942861 0.082102858 0.072000027
0.019422866 0.082053334 0.07099998
0.021234293 0.081805713 0.065999985
0.022862859 0.081657141 0.063000023
0.024320003 0.081607625 0.062000036
0.025851436 0.081508577 0.060000002
0.027222861 0.081508577 0.060000002
0.028668575 0.081459045 0.059000015
0.030182865 0.081359997 0.056999981
0.031830478 0.081161909 0.053000033
0.033325721 0.081062853 0.050999999
0.034746669 0.081013337 0.050000012
0.036228579 0.080914289 0.047999978
0.037577149 0.080914289 0.047999978
0.038986672 0.080864757 0.046999991
0.040333342 0.080864757 0.046999991
0.041794289 0.080765717 0.045000017
0.043192383 0.080716193 0.04400003
0.044533338 0.080716193 0.04400003
0.04587429 0.080716193 0.04400003
0.04726477 0.080666661 0.042999983
0.048603814 0.080666661 0.042999983
0.049942866 0.080666661 0.042999983
0.051369529 0.080567621 0.041000009
0.052704766 0.080567621 0.041000009
0.054040007 0.080567621 0.041000009
0.055413339 0.080518097 0.040000021
0.056746669 0.080518097 0.040000021
0.058080006 0.080518097 0.040000021
0.059478104 0.080419049 0.037999988
0.060807623 0.080419049 0.037999988
0.062080003 0.080518097 0.040000021
0.063493341 0.080369525 0.037
0.06482096 0.080369525 0.037
0.066445723 0.079725713 0.023999989
0.067748576 0.079725713 0.023999989
0.069070481 0.079676196 0.023000002
0.070440009 0.0794781 0.018999994
0.071733341 0.0794781 0.018999994
0.073026672 0.0794781 0.018999994
0.074331433 0.079428568 0.018000007
0.075641908 0.079329528 0.016000032
0.076944768 0.079230472 0.013999999
0.078228578 0.079230472 0.013999999
0.079512388 0.079230472 0.013999999
0.080800004 0.079131432 0.012000024
0.082080007 0.079230472 0.013999999
0.083365723 0.079280004 0.014999986
0.084662862 0.079428568 0.018000007
0.085960008 0.0794781 0.018999994
0.08725334 0.0794781 0.018999994
0.088594295 0.079725713 0.023999989
0.089920007 0.079824761 0.026000023
0.091226675 0.079824761 0.026000023
0.092548579 0.079874292 0.02700001
0.093925722 0.080072388 0.031000018
0.095280007 0.080171429 0.032999992
0.096620962 0.080220953 0.033999979
0.097965717 0.080270477 0.035000026
0.099339053 0.080369525 0.037
0.10066667 0.080369525 0.037
0.10199429 0.080369525 0.037
0.10332191 0.080369525 0.037
0.10464953 0.080369525 0.037
0.10597715 0.080369525 0.037
0.10730477 0.080369525 0.037
0.10863239 0.080369525 0.037
0.10996 0.080369525 0.037
0.11132953 0.080419049 0.037999988
0.11265905 0.080419049 0.037999988
0.11398858 0.080419049 0.037999988
0.11541334 0.080518097 0.040000021
0.11674668 0.080518097 0.040000021
0.11808001 0.080518097 0.040000021
0.11946668 0.080567621 0.041000009
0.12091239 0.080666661 0.042999983
0.12225144 0.080666661 0.042999983
0.12364954 0.080716193 0.04400003
0.12499049 0.080716193 0.04400003
0.1263943 0.080765717 0.045000017
0.12773715 0.080765717 0.045000017
0.12908001 0.080765717 0.045000017
0.13056001 0.080864757 0.046999991
0.13211811 0.081013337 0.050000012
0.13354287 0.081062853 0.050999999
0.13504572 0.081161909 0.053000033
0.13640383 0.081161909 0.053000033
0.13784 0.081211433 0.05400002
0.13936001 0.081310481 0.055999994
0.14096953 0.081459045 0.059000015
0.14259049 0.081607625 0.062000036
0.14405143 0.081657141 0.063000023
0.14542858 0.081657141 0.063000023
0.14680573 0.081657141 0.063000023
0.15189335 0.082895234 0.088
0.15331811 0.082895234 0.088
0.15493715 0.08299429 0.090000033
0.15636572 0.08299429 0.090000033
0.1577943 0.08299429 0.090000033
0.15922287 0.08299429 0.090000033
0.0097085759 0.084165722 0.085000038
0.011603817 0.083908573 0.079999983
0.013293333 0.083754286 0.077000022
0.014788575 0.083702862 0.076000035
0.016369529 0.0836 0.074000001
0.018030487 0.083445713 0.07099998
0.019422866 0.083445713 0.07099998
0.021234293 0.083188571 0.065999985
0.022699054 0.08313714 0.064999998
0.024320003 0.082982861 0.062000036
0.025851436 0.082880005 0.060000002
0.027222861 0.082880005 0.060000002
0.028668575 0.082828574 0.059000015
0.030400004 0.082571432 0.05400002
0.031830478 0.082520001 0.053000033
0.033188574 0.082520001 0.053000033
0.034680005 0.082417145 0.050999999
0.036099054 0.082365721 0.050000012
0.037451435 0.082365721 0.050000012
0.038925722 0.082262859 0.047999978
0.040274292 0.082262859 0.047999978
0.041794289 0.082108572 0.045000017
0.043192383 0.082057148 0.04400003
0.044533338 0.082057148 0.04400003
0.04587429 0.082057148 0.04400003
0.04726477 0.082005717 0.042999983
0.048603814 0.082005717 0.042999983
0.050034288 0.081902862 0.041000009
0.051369529 0.081902862 0.041000009
0.052704766 0.081902862 0.041000009
0.054080006 0.08185143 0.040000021
0.055489533 0.081748575 0.037999988
0.056746669 0.08185143 0.040000021
0.058080006 0.08185143 0.040000021
0.059478104 0.081748575 0.037999988
0.060807623 0.081748575 0.037999988
0.062137149 0.081748575 0.037999988
0.063546672 0.081594288 0.035000026
0.064895242 0.081542857 0.033999979
0.066217147 0.081542857 0.033999979
0.067685723 0.08118286 0.02700001
0.069070481 0.080977142 0.023000002
0.070440009 0.080771431 0.018999994
0.071748577 0.080720007 0.018000007
0.073026672 0.080771431 0.018999994
0.074354291 0.080617145 0.016000032
0.075660959 0.080514282 0.013999999
0.076960005 0.080411434 0.012000024
0.078240007 0.080411434 0.012000024
0.079520009 0.080411434 0.012000024
0.080801912 0.080359995 0.010999978
0.082080007 0.080411434 0.012000024
0.083363816 0.080514282 0.013999999
0.084655248 0.080617145 0.016000032
0.085960008 0.080771431 0.018999994
0.087260962 0.080822855 0.019999981
0.088594295 0.081028566 0.023999989
0.089897148 0.081028566 0.023999989
0.091226675 0.081131428 0.026000023
0.092533343 0.081131428 0.026000023
0.093891434 0.081285715 0.028999984
0.095280007 0.081491426 0.032999992
0.096620962 0.081542857 0.033999979
0.097965717 0.081594288 0.035000026
0.099339053 0.081697144 0.037
0.10066667 0.081697144 0.037
0.10199429 0.081697144 0.037
0.10332191 0.081697144 0.037
0.10464953 0.081697144 0.037
0.10601144 0.081748575 0.037999988
0.10730477 0.081697144 0.037
0.10863239 0.081697144 0.037
0.11000001 0.081748575 0.037999988
0.11132953 0.081748575 0.037999988
0.11274667 0.08185143 0.040000021
0.11408001 0.08185143 0.040000021
0.11541334 0.08185143 0.040000021
0.1167962 0.081902862 0.041000009
0.11813144 0.081902862 0.041000009
0.11946668 0.081902862 0.041000009
0.12091239 0.082005717 0.042999983
0.12230858 0.082057148 0.04400003
0.12364954 0.082057148 0.04400003
0.12505144 0.082108572 0.045000017
0.1263943 0.082108572 0.045000017
0.12773715 0.082108572 0.045000017
0.12908001 0.082108572 0.045000017
0.13056001 0.082211427 0.046999991
0.13190667 0.082211427 0.046999991
0.13332573 0.082262859 0.047999978
0.1346743 0.082262859 0.047999978
0.13625143 0.082417145 0.050999999
0.13776192 0.082520001 0.053000033
0.13920002 0.082571432 0.05400002
0.14096953 0.082828574 0.059000015
0.14259049 0.082982861 0.062000036
0.14396572 0.082982861 0.062000036
0.14542858 0.083034292 0.063000023
0.14680573 0.083034292 0.063000023
0.14818287 0.083034292 0.063000023
0.15331811 0.084320001 0.088
0.15493715 0.084422857 0.090000033
0.15616763 0.084320001 0.088
0.1577943 0.084422857 0.090000033
0.15942858 0.084525719 0.092000008
0.16086096 0.084525719 0.092000008
0.011603817 0.085318096 0.079999983
0.013293333 0.085158095 0.077000022
0.014971435 0.084998094 0.074000001
0.016548574 0.084891431 0.072000027
0.018030487 0.084838092 0.07099998
0.019594293 0.08473143 0.069000006
0.021234293 0.084571429 0.065999985
0.022699054 0.084518097 0.064999998
0.024240006 0.084411427 0.063000023
0.025851436 0.084251426 0.060000002
0.027222861 0.084251426 0.060000002
0.028668575 0.084198102 0.059000015
0.030400004 0.083931431 0.05400002
0.031830478 0.0838781 0.053000033
0.033188574 0.0838781 0.053000033
0.034680005 0.08377143 0.050999999
0.036099054 0.083718091 0.050000012
0.037451435 0.083718091 0.050000012
0.038925722 0.083611429 0.047999978
0.040274292 0.083611429 0.047999978
0.041794289 0.083451435 0.045000017
0.043192383 0.083398096 0.04400003
0.044533338 0.083398096 0.04400003
0.045925718 0.083344758 0.042999983
0.04726477 0.083344758 0.042999983
0.048603814 0.083344758 0.042999983
0.050034288 0.083238095 0.041000009
0.051369529 0.083238095 0.041000009
0.052746668 0.083184764 0.040000021
0.054080006 0.083184764 0.040000021
0.055489533 0.083078094 0.037999988
0.056746669 0.083184764 0.040000021
0.058080006 0.083184764 0.040000021
0.059478104 0.083078094 0.037999988
0.060807623 0.083078094 0.037999988
0.062165722 0.083024763 0.037
0.063546672 0.082918093 0.035000026
0.064969525 0.082704768 0.031000018
0.066285722 0.082704768 0.031000018
0.067685723 0.082491428 0.02700001
0.069089532 0.082224764 0.022000015
0.070440009 0.082064763 0.018999994
0.071748577 0.082011431 0.018000007
0.073040009 0.082011431 0.018000007
0.074354291 0.081904769 0.016000032
0.075651437 0.081851423 0.014999986
0.076960005 0.081691429 0.012000024
0.078240007 0.081691429 0.012000024
0.079523817 0.081638098 0.010999978
0.080801912 0.081638098 0.010999978
0.082080007 0.081691429 0.012000024
0.083363816 0.081798099 0.013999999
0.084655248 0.081904769 0.016000032
0.085954294 0.082011431 0.018000007
0.08725334 0.082064763 0.018999994
0.088584766 0.082278095 0.023000002
0.089897148 0.082331434 0.023999989
0.091200009 0.082331434 0.023999989
0.092533343 0.082438096 0.026000023
0.093857154 0.082491428 0.02700001
0.095241912 0.082704768 0.031000018
0.096600004 0.08281143 0.032999992
0.097965717 0.082918093 0.035000026
0.099289529 0.082918093 0.035000026
0.10066667 0.083024763 0.037
0.10199429 0.083024763 0.037
0.10332191 0.083024763 0.037
0.10464953 0.083024763 0.037
0.10597715 0.083024763 0.037
0.10730477 0.083024763 0.037
0.10863239 0.083024763 0.037
0.11000001 0.083078094 0.037999988
0.11141334 0.083184764 0.040000021
0.11274667 0.083184764 0.040000021
0.11408001 0.083184764 0.040000021
0.11541334 0.083184764 0.040000021
0.1167962 0.083238095 0.041000009
0.11813144 0.083238095 0.041000009
0.11946668 0.083238095 0.041000009
0.12091239 0.083344758 0.042999983
0.12225144 0.083344758 0.042999983
0.12364954 0.083398096 0.04400003
0.12505144 0.083451435 0.045000017
0.1263943 0.083451435 0.045000017
0.12773715 0.083451435 0.045000017
0.12921333 0.083558097 0.046999991
0.13056001 0.083558097 0.046999991
0.13197716 0.083611429 0.047999978
0.13332573 0.083611429 0.047999978
0.13482288 0.083718091 0.050000012
0.13625143 0.08377143 0.050999999
0.13760573 0.08377143 0.050999999
0.13912001 0.0838781 0.053000033
0.14080572 0.084091425 0.056999981
0.14242285 0.084251426 0.060000002
0.14396572 0.084358096 0.062000036
0.14560382 0.084518097 0.064999998
0.14698477 0.084518097 0.064999998
0.14836574 0.084518097 0.064999998
0.15616763 0.085744761 0.088
0.1577943 0.085851431 0.090000033
0.15942858 0.085958093 0.092000008
0.16086096 0.085958093 0.092000008
0.013293333 0.086561903 0.077000022
0.014971435 0.086396188 0.074000001
0.016369529 0.086396188 0.074000001
0.017942861 0.08628571 0.072000027
0.019851431 0.085954286 0.065999985
0.0213181 0.085899055 0.064999998
0.022699054 0.085899055 0.064999998
0.024240006 0.085788578 0.063000023
0.025851436 0.085622862 0.060000002
0.027222861 0.085622862 0.060000002
0.028668575 0.085567623 0.059000015
0.030400004 0.08529143 0.05400002
0.031830478 0.085236192 0.053000033
0.033188574 0.085236192 0.053000033
0.03454667 0.085236192 0.053000033
0.03603429 0.085125715 0.050999999
0.037451435 0.085070476 0.050000012
0.038925722 0.084959999 0.047999978
0.040274292 0.084959999 0.047999978
0.041680004 0.08490476 0.046999991
0.043137148 0.084794283 0.045000017
0.044533338 0.084739052 0.04400003
0.045925718 0.084683806 0.042999983
0.04726477 0.084683806 0.042999983
0.048603814 0.084683806 0.042999983
0.050034288 0.084573328 0.041000009
0.051369529 0.084573328 0.041000009
0.052746668 0.084518097 0.040000021
0.054080006 0.084518097 0.040000021
0.055489533 0.08440762 0.037999988
0.056746669 0.084518097 0.040000021
0.058080006 0.084518097 0.040000021
0.059478104 0.08440762 0.037999988
0.060838103 0.084352382 0.037
0.062165722 0.084352382 0.037
0.063573346 0.084186666 0.033999979
0.064969525 0.084020957 0.031000018
0.066331439 0.08391048 0.028999984
0.067685723 0.083800003 0.02700001
0.069070481 0.083579049 0.023000002
0.070440009 0.083358094 0.018999994
0.071733341 0.083358094 0.018999994
0.073040009 0.083302855 0.018000007
0.074354291 0.083192378 0.016000032
0.075660959 0.083081901 0.013999999
0.076960005 0.082971424 0.012000024
0.078251436 0.082860947 0.0099999905
0.079531439 0.082805716 0.0090000033
0.080805719 0.082805716 0.0090000033
0.082080007 0.082916185 0.010999978
0.083360009 0.082971424 0.012000024
0.084655248 0.083192378 0.016000032
0.085954294 0.083302855 0.018000007
0.087260962 0.083413333 0.019999981
0.088575244 0.08352381 0.022000015
0.089885719 0.083579049 0.023000002
0.091200009 0.083634287 0.023999989
0.092502862 0.083634287 0.023999989
0.093840003 0.083744764 0.026000023
0.095222861 0.083965719 0.030000031
0.096558101 0.084020957 0.031000018
0.097965717 0.084241904 0.035000026
0.099289529 0.084241904 0.035000026
0.10066667 0.084352382 0.037
0.10199429 0.084352382 0.037
0.10332191 0.084352382 0.037
0.10464953 0.084352382 0.037
0.10601144 0.08440762 0.037999988
0.10730477 0.084352382 0.037
0.10863239 0.084352382 0.037
0.11000001 0.08440762 0.037999988
0.11132953 0.08440762 0.037999988
0.11274667 0.084518097 0.040000021
0.11408001 0.084518097 0.040000021
0.11546096 0.084573328 0.041000009
0.1167962 0.084573328 0.041000009
0.11813144 0.084573328 0.041000009
0.11946668 0.084573328 0.041000009
0.12091239 0.084683806 0.042999983
0.12230858 0.084739052 0.04400003
0.12364954 0.084739052 0.04400003
0.12505144 0.084794283 0.045000017
0.1263943 0.084794283 0.045000017
0.12773715 0.084794283 0.045000017
0.12921333 0.08490476 0.046999991
0.13056001 0.08490476 0.046999991
0.13197716 0.084959999 0.047999978
0.13332573 0.084959999 0.047999978
0.1346743 0.084959999 0.047999978
0.13625143 0.085125715 0.050999999
0.13760573 0.085125715 0.050999999
0.13920002 0.08529143 0.05400002
0.14080572 0.085457139 0.056999981
0.14217144 0.085457139 0.056999981
0.14396572 0.085733339 0.062000036
0.14534096 0.085733339 0.062000036
0.14698477 0.085899055 0.064999998
0.14836574 0.085899055 0.064999998
0.013293333 0.087965712 0.077000022
0.014788575 0.087908573 0.076000035
0.016369529 0.087794289 0.074000001
0.017942861 0.087679997 0.072000027
0.019422866 0.087622859 0.07099998
0.021234293 0.087337144 0.065999985
0.022862859 0.087165713 0.063000023
0.024320003 0.087108575 0.062000036
0.025851436 0.08699429 0.060000002
0.027222861 0.08699429 0.060000002
0.028668575 0.086937144 0.059000015
0.030400004 0.08665143 0.05400002
0.031830478 0.086594284 0.053000033
0.033188574 0.086594284 0.053000033
0.03454667 0.086594284 0.053000033
0.036099054 0.086422861 0.050000012
0.037451435 0.086422861 0.050000012
0.038803816 0.086422861 0.050000012
0.040274292 0.086308569 0.047999978
0.041794289 0.086137146 0.045000017
0.043192383 0.08608 0.04400003
0.044533338 0.08608 0.04400003
0.045925718 0.086022854 0.042999983
0.04726477 0.086022854 0.042999983
0.048603814 0.086022854 0.042999983
0.049942866 0.086022854 0.042999983
0.051369529 0.085908577 0.041000009
0.052704766 0.085908577 0.041000009
0.054080006 0.085851431 0.040000021
0.055413339 0.085851431 0.040000021
0.056746669 0.085851431 0.040000021
0.058080006 0.085851431 0.040000021
0.059478104 0.085737139 0.037999988
0.060838103 0.08568 0.037
0.062165722 0.08568 0.037
0.063573346 0.08550857 0.033999979
0.064969525 0.085337147 0.031000018
0.066285722 0.085337147 0.031000018
0.067601912 0.085337147 0.031000018
0.06914667 0.084651425 0.018999994
0.070440009 0.084651425 0.018999994
0.071733341 0.084651425 0.018999994
0.073040009 0.08459428 0.018000007
0.07436572 0.084422857 0.014999986
0.075660959 0.084365711 0.013999999
0.076975241 0.084137142 0.0099999905
0.078257151 0.084080003 0.0090000033
0.079539053 0.083965719 0.0070000291
0.080805719 0.084080003 0.0090000033
0.082080007 0.083965719 0.0070000291
0.083356194 0.084137142 0.0099999905
0.084632389 0.084137142 0.0099999905
0.085954294 0.08459428 0.018000007
0.08725334 0.084651425 0.018999994
0.088575244 0.084822863 0.022000015
0.089885719 0.084880002 0.023000002
0.091200009 0.08493714 0.023999989
0.092502862 0.08493714 0.023999989
0.093840003 0.085051432 0.026000023
0.095222861 0.085280001 0.030000031
0.09653715 0.085280001 0.030000031
0.097965717 0.085565716 0.035000026
0.099289529 0.085565716 0.035000026
0.10066667 0.08568 0.037
0.10199429 0.08568 0.037
0.10332191 0.08568 0.037
0.10464953 0.08568 0.037
0.10601144 0.085737139 0.037999988
