# .PCD v0.7 - Point Cloud Data file format
VERSION 0.7
FIELDS x y z
SIZE 4 4 4
TYPE F F F
COUNT 1 1 1
WIDTH 1341
HEIGHT 1
VIEWPOINT 0 0 0 0 1 0 0
POINTS 1341
DATA ascii
0.030125707 0.028794289 0.030000031
0.031598091 0.02884762 0.029000044
0.033177145 0.028954286 0.02700001
0.034531429 0.028954286 0.02700001
0.036205724 0.029114291 0.023999989
0.037659049 0.029167619 0.023000002
0.039314285 0.02932762 0.020000041
0.040756196 0.029380955 0.018999994
0.042293333 0.029487621 0.01700002
0.043628566 0.029487621 0.01700002
0.044963807 0.029487621 0.01700002
0.046579055 0.029647622 0.013999999
0.047908574 0.029647622 0.013999999
0.049238101 0.029647622 0.013999999
0.050655242 0.029700954 0.013000011
0.051982857 0.029700954 0.013000011
0.053310476 0.029700954 0.013000011
0.054801904 0.02980762 0.011000037
0.056125715 0.02980762 0.011000037
0.057527624 0.029860958 0.0099999905
0.058849528 0.029860958 0.0099999905
0.060245719 0.029914286 0.0090000033
0.061710477 0.030020952 0.0070000291
0.062885717 0.029914286 0.0090000033
0.064205721 0.029914286 0.0090000033
0.065659046 0.030020952 0.0070000291
0.066975236 0.030020952 0.0070000291
0.068291426 0.030020952 0.0070000291
0.069607615 0.030020952 0.0070000291
0.070923805 0.030020952 0.0070000291
0.072240002 0.030020952 0.0070000291
0.073556192 0.030020952 0.0070000291
0.074872382 0.030020952 0.0070000291
0.076240003 0.030074287 0.006000042
0.077554286 0.030074287 0.006000042
0.078868568 0.030074287 0.006000042
0.080182858 0.030074287 0.006000042
0.081497148 0.030074287 0.006000042
0.08281143 0.030074287 0.006000042
0.084125713 0.030074287 0.006000042
0.085401908 0.030020952 0.0070000291
0.086718097 0.030020952 0.0070000291
0.088034287 0.030020952 0.0070000291
0.089382857 0.030074287 0.006000042
0.090697147 0.030074287 0.006000042
0.092011429 0.030074287 0.006000042
0.093325719 0.030074287 0.006000042
0.094640002 0.030074287 0.006000042
0.095954284 0.030074287 0.006000042
0.097268574 0.030074287 0.006000042
0.098582864 0.030074287 0.006000042
0.099897146 0.030074287 0.006000042
0.10119619 0.030020952 0.0070000291
0.10251238 0.030020952 0.0070000291
0.10382857 0.030020952 0.0070000291
0.10514477 0.030020952 0.0070000291
0.10646096 0.030020952 0.0070000291
0.10776 0.029860958 0.0099999905
0.1090781 0.02980762 0.011000037
0.11040191 0.02980762 0.011000037
0.11172572 0.029700954 0.013000011
0.11305334 0.029700954 0.013000011
0.11438476 0.029647622 0.013999999
0.11571429 0.029647622 0.013999999
0.11705905 0.029540952 0.016000032
0.11839239 0.029540952 0.016000032
0.11973715 0.029487621 0.01700002
0.12107238 0.029487621 0.01700002
0.1224381 0.029380955 0.018999994
0.12377714 0.029380955 0.018999994
0.12513524 0.02932762 0.020000041
0.12649715 0.029274285 0.021000028
0.12784001 0.029274285 0.021000028
0.12925714 0.029114291 0.023999989
0.13065904 0.029007621 0.026000023
0.13209715 0.02884762 0.029000044
0.13348572 0.028794289 0.030000031
0.13491048 0.028687622 0.032000005
0.13637714 0.028527617 0.035000026
0.13785525 0.02836762 0.038000047
0.13926858 0.028314285 0.039000034
0.14072572 0.028207619 0.041000009
0.14214857 0.028154287 0.041999996
0.14375047 0.02788762 0.046999991
0.14518857 0.027834285 0.048000038
0.1469638 0.02740762 0.055999994
0.14847238 0.027300954 0.058000028
0.14993715 0.027247619 0.059000015
0.15135239 0.027247619 0.059000015
0.15276763 0.027247619 0.059000015
0.0052971393 0.028559998 0.061000049
0.0067161843 0.028559998 0.061000049
0.0084133372 0.028662857 0.059000015
0.009828575 0.028662857 0.059000015
0.011379048 0.028714288 0.058000028
0.013192378 0.028868571 0.055000007
0.014994279 0.029022858 0.052000046
0.016655236 0.029125717 0.050000012
0.018308572 0.029228572 0.048000038
0.02008 0.029382858 0.045000017
0.021839999 0.029537145 0.041999996
0.023222864 0.029537145 0.041999996
0.025445715 0.029897142 0.035000026
0.027169526 0.030051429 0.032000005
0.028765708 0.030154284 0.030000031
0.030125707 0.030154284 0.030000031
0.031598091 0.030205715 0.029000044
0.033177145 0.030308574 0.02700001
0.034639999 0.030359998 0.026000023
0.036312379 0.030514289 0.023000002
0.037659049 0.030514289 0.023000002
0.039314285 0.030668572 0.020000041
0.040756196 0.030719999 0.018999994
0.042095244 0.030719999 0.018999994
0.043628566 0.030822858 0.01700002
0.044963807 0.030822858 0.01700002
0.046392381 0.030874286 0.016000032
0.047908574 0.030977145 0.013999999
0.049238101 0.030977145 0.013999999
0.050655242 0.031028572 0.013000011
0.051982857 0.031028572 0.013000011
0.053310476 0.031028572 0.013000011
0.054801904 0.031131428 0.011000037
0.056125715 0.031131428 0.011000037
0.057527624 0.031182859 0.0099999905
0.058849528 0.031182859 0.0099999905
0.060171433 0.031182859 0.0099999905
0.061565716 0.031234287 0.0090000033
0.062885717 0.031234287 0.0090000033
0.064205721 0.031234287 0.0090000033
0.065659046 0.031337142 0.0070000291
0.066975236 0.031337142 0.0070000291
0.068291426 0.031337142 0.0070000291
0.069607615 0.031337142 0.0070000291
0.070923805 0.031337142 0.0070000291
0.072240002 0.031337142 0.0070000291
0.073556192 0.031337142 0.0070000291
0.074872382 0.031337142 0.0070000291
0.076188572 0.031337142 0.0070000291
0.077504762 0.031337142 0.0070000291
0.078868568 0.031388573 0.006000042
0.080182858 0.031388573 0.006000042
0.081497148 0.031388573 0.006000042
0.082769528 0.031337142 0.0070000291
0.084085718 0.031337142 0.0070000291
0.085401908 0.031337142 0.0070000291
0.086718097 0.031337142 0.0070000291
0.088034287 0.031337142 0.0070000291
0.089382857 0.031388573 0.006000042
0.090697147 0.031388573 0.006000042
0.092011429 0.031388573 0.006000042
0.093325719 0.031388573 0.006000042
0.094640002 0.031388573 0.006000042
0.095954284 0.031388573 0.006000042
0.097268574 0.031388573 0.006000042
0.098582864 0.031388573 0.006000042
0.099880002 0.031337142 0.0070000291
0.10119619 0.031337142 0.0070000291
0.10251238 0.031337142 0.0070000291
0.10382857 0.031337142 0.0070000291
0.10512572 0.031234287 0.0090000033
0.10644571 0.031234287 0.0090000033
0.10776 0.031182859 0.0099999905
0.1090781 0.031131428 0.011000037
0.11040191 0.031131428 0.011000037
0.11172572 0.031131428 0.011000037
0.11305334 0.031028572 0.013000011
0.11438476 0.030977145 0.013999999
0.11571429 0.030977145 0.013999999
0.11705905 0.030874286 0.016000032
0.11839239 0.030874286 0.016000032
0.11973715 0.030822858 0.01700002
0.12107238 0.030822858 0.01700002
0.12240762 0.030822858 0.01700002
0.12377714 0.030719999 0.018999994
0.12513524 0.030668572 0.020000041
0.12649715 0.030617144 0.021000028
0.12784001 0.030617144 0.021000028
0.12923238 0.030514289 0.023000002
0.13065904 0.030359998 0.026000023
0.13209715 0.030205715 0.029000044
0.13345525 0.030205715 0.029000044
0.13494286 0.030000001 0.032999992
0.13648 0.029742856 0.038000047
0.13789144 0.029691428 0.039000034
0.13934477 0.029588573 0.041000009
0.14072572 0.029588573 0.041000009
0.14214857 0.029537145 0.041999996
0.14375047 0.029280003 0.046999991
0.14514285 0.029280003 0.046999991
0.1469162 0.028868571 0.055000007
0.14832382 0.028868571 0.055000007
0.15004 0.028559998 0.061000049
0.15145905 0.028559998 0.061000049
0.15287811 0.028559998 0.061000049
0.0067161843 0.02997905 0.061000049
0.0081352293 0.02997905 0.061000049
0.009828575 0.030078098 0.059000015
0.011379048 0.030127618 0.058000028
0.013192378 0.03027619 0.055000007
0.014994279 0.030424763 0.052000046
0.016655236 0.030523811 0.050000012
0.018308572 0.030622859 0.048000038
0.02008 0.030771431 0.045000017
0.021839999 0.030920003 0.041999996
0.023344763 0.030969527 0.041000009
0.024965711 0.031068575 0.039000034
0.026815236 0.031266671 0.035000026
0.028533332 0.031415239 0.032000005
0.030125707 0.031514287 0.030000031
0.031485714 0.031514287 0.030000031
0.033177145 0.031662859 0.02700001
0.034857146 0.031811431 0.023999989
0.036312379 0.031860955 0.023000002
0.037659049 0.031860955 0.023000002
0.03921143 0.031959999 0.021000028
0.040756196 0.032059051 0.018999994
0.042293333 0.032158095 0.01700002
0.043628566 0.032158095 0.01700002
0.044963807 0.032158095 0.01700002
0.046392381 0.032207619 0.016000032
0.047725715 0.032207619 0.016000032
0.049327619 0.032356191 0.013000011
0.050655242 0.032356191 0.013000011
0.051982857 0.032356191 0.013000011
0.053310476 0.032356191 0.013000011
0.054801904 0.032455239 0.011000037
0.056125715 0.032455239 0.011000037
0.057449523 0.032455239 0.011000037
0.058849528 0.032504763 0.0099999905
0.060245719 0.032554287 0.0090000033
0.061565716 0.032554287 0.0090000033
0.062885717 0.032554287 0.0090000033
0.064205721 0.032554287 0.0090000033
0.065659046 0.032653332 0.0070000291
0.066975236 0.032653332 0.0070000291
0.068291426 0.032653332 0.0070000291
0.069607615 0.032653332 0.0070000291
0.070923805 0.032653332 0.0070000291
0.072240002 0.032653332 0.0070000291
0.073556192 0.032653332 0.0070000291
0.074872382 0.032653332 0.0070000291
0.076188572 0.032653332 0.0070000291
0.077504762 0.032653332 0.0070000291
0.078868568 0.032702856 0.006000042
0.080182858 0.032702856 0.006000042
0.081453338 0.032653332 0.0070000291
0.082769528 0.032653332 0.0070000291
0.084085718 0.032653332 0.0070000291
0.085401908 0.032653332 0.0070000291
0.086718097 0.032653332 0.0070000291
0.088034287 0.032653332 0.0070000291
0.089382857 0.032702856 0.006000042
0.090697147 0.032702856 0.006000042
0.092011429 0.032702856 0.006000042
0.093325719 0.032702856 0.006000042
0.094640002 0.032702856 0.006000042
0.095954284 0.032702856 0.006000042
0.097268574 0.032702856 0.006000042
0.098582864 0.032702856 0.006000042
0.099880002 0.032653332 0.0070000291
0.10119619 0.032653332 0.0070000291
0.10251238 0.032653332 0.0070000291
0.10382857 0.032653332 0.0070000291
0.10512572 0.032554287 0.0090000033
0.1064381 0.032504763 0.0099999905
0.10776 0.032504763 0.0099999905
0.1090781 0.032455239 0.011000037
0.11040191 0.032455239 0.011000037
0.11172572 0.032455239 0.011000037
0.11305334 0.032356191 0.013000011
0.11438476 0.032306667 0.013999999
0.11571429 0.032306667 0.013999999
0.11705905 0.032207619 0.016000032
0.11839239 0.032207619 0.016000032
0.11973715 0.032158095 0.01700002
0.12107238 0.032158095 0.01700002
0.1224381 0.032059051 0.018999994
0.12377714 0.032059051 0.018999994
0.12515429 0.031959999 0.021000028
0.12649715 0.031959999 0.021000028
0.12784001 0.031959999 0.021000028
0.12923238 0.031860955 0.023000002
0.13065904 0.031712383 0.026000023
0.13204001 0.031662859 0.02700001
0.13345525 0.031563807 0.029000044
0.13491048 0.031415239 0.032000005
0.13648 0.031118095 0.038000047
0.13789144 0.031068575 0.039000034
0.13934477 0.030969527 0.041000009
0.14072572 0.030969527 0.041000009
0.14214857 0.030920003 0.041999996
0.14366287 0.030771431 0.045000017
0.14514285 0.030672383 0.046999991
0.14653525 0.030672383 0.046999991
0.14822477 0.030375239 0.053000033
0.1505543 0.02948381 0.07100004
0.15204573 0.029434286 0.072000027
0.15348572 0.029434286 0.072000027
0.15492572 0.029434286 0.072000027
0.15648381 0.029335242 0.074000001
0.15792763 0.029335242 0.074000001
0.0064342842 0.031302858 0.063000023
0.0081352293 0.031398095 0.061000049
0.009828575 0.031493336 0.059000015
0.011243813 0.031493336 0.059000015
0.013059057 0.031636193 0.055999994
0.014600001 0.03168381 0.055000007
0.016396187 0.031826667 0.052000046
0.018308572 0.032017142 0.048000038
0.02008 0.032160003 0.045000017
0.021839999 0.03230286 0.041999996
0.023344763 0.032350481 0.041000009
0.024965711 0.032445714 0.039000034
0.026815236 0.032636192 0.035000026
0.028765708 0.032874286 0.030000031
0.030239999 0.032921907 0.029000044
0.031598091 0.032921907 0.029000044
0.033177145 0.033017144 0.02700001
0.034857146 0.033160001 0.023999989
0.036312379 0.033207618 0.023000002
0.037868574 0.033302855 0.021000028
0.03921143 0.033302855 0.021000028
0.040756196 0.033398096 0.018999994
0.042095244 0.033398096 0.018999994
0.043628566 0.033493333 0.01700002
0.044963807 0.033493333 0.01700002
0.046392381 0.033540953 0.016000032
0.047725715 0.033540953 0.016000032
0.049238101 0.03363619 0.013999999
0.050655242 0.03368381 0.013000011
0.051982857 0.03368381 0.013000011
0.053310476 0.03368381 0.013000011
0.054801904 0.033779047 0.011000037
0.056125715 0.033779047 0.011000037
0.057527624 0.033826668 0.0099999905
0.058849528 0.033826668 0.0099999905
0.060171433 0.033826668 0.0099999905
0.061565716 0.033874288 0.0090000033
0.062885717 0.033874288 0.0090000033
0.064205721 0.033874288 0.0090000033
0.065525718 0.033874288 0.0090000033
0.066845715 0.033874288 0.0090000033
0.06816572 0.033874288 0.0090000033
0.069485717 0.033874288 0.0090000033
0.070923805 0.033969525 0.0070000291
0.072240002 0.033969525 0.0070000291
0.073556192 0.033969525 0.0070000291
0.074872382 0.033969525 0.0070000291
0.076188572 0.033969525 0.0070000291
0.077504762 0.033969525 0.0070000291
0.078820959 0.033969525 0.0070000291
0.080182858 0.034017142 0.006000042
0.081497148 0.034017142 0.006000042
0.082769528 0.033969525 0.0070000291
0.084085718 0.033969525 0.0070000291
0.085401908 0.033969525 0.0070000291
0.086718097 0.033969525 0.0070000291
0.088034287 0.033969525 0.0070000291
0.089415237 0.034064762 0.0049999952
0.09072762 0.034064762 0.0049999952
0.092011429 0.034017142 0.006000042
0.093325719 0.034017142 0.006000042
0.094640002 0.034017142 0.006000042
0.095954284 0.034017142 0.006000042
0.097268574 0.034017142 0.006000042
0.098582864 0.034017142 0.006000042
0.099880002 0.033969525 0.0070000291
0.10119619 0.033969525 0.0070000291
0.10251238 0.033969525 0.0070000291
0.10380572 0.033874288 0.0090000033
0.10512572 0.033874288 0.0090000033
0.1064381 0.033826668 0.0099999905
0.10776 0.033826668 0.0099999905
0.1090781 0.033779047 0.011000037
0.11040191 0.033779047 0.011000037
0.11172572 0.033779047 0.011000037
0.11304953 0.033779047 0.011000037
0.11438096 0.03368381 0.013000011
0.11571429 0.03363619 0.013999999
0.11705905 0.033540953 0.016000032
0.11839239 0.033540953 0.016000032
0.11973715 0.033493333 0.01700002
0.12109905 0.033398096 0.018999994
0.1224381 0.033398096 0.018999994
0.12379429 0.033350475 0.020000041
0.12515429 0.033302855 0.021000028
0.12649715 0.033302855 0.021000028
0.12788571 0.033207618 0.023000002
0.12923238 0.033207618 0.023000002
0.13065904 0.033064764 0.026000023
0.13204001 0.033017144 0.02700001
0.13345525 0.032921907 0.029000044
0.13491048 0.032779053 0.032000005
0.13648 0.032493334 0.038000047
0.13789144 0.032445714 0.039000034
0.13934477 0.032350481 0.041000009
0.14072572 0.032350481 0.041000009
0.14214857 0.03230286 0.041999996
0.14366287 0.032160003 0.045000017
0.14514285 0.032064766 0.046999991
0.14682096 0.031779047 0.053000033
0.14822477 0.031779047 0.053000033
0.1505543 0.030921903 0.07100004
0.15204573 0.030874286 0.072000027
0.15359619 0.030779049 0.074000001
0.15504 0.030779049 0.074000001
0.15648381 0.030779049 0.074000001
0.15804952 0.030683808 0.076000035
0.15949714 0.030683808 0.076000035
0.0062933341 0.032680005 0.06400001
0.0078571439 0.032725714 0.063000023
0.0095542818 0.032817144 0.061000049
0.011243813 0.032908574 0.059000015
0.012792379 0.032954287 0.058000028
0.014600001 0.03309143 0.055000007
0.016396187 0.033228572 0.052000046
0.018308572 0.033411428 0.048000038
0.02008 0.033548575 0.045000017
0.021839999 0.033685718 0.041999996
0.023344763 0.033731427 0.041000009
0.024965711 0.033822857 0.039000034
0.026815236 0.034005716 0.035000026
0.028533332 0.034142859 0.032000005
0.030125707 0.034234285 0.030000031
0.031598091 0.034279998 0.029000044
0.033177145 0.034371428 0.02700001
0.034857146 0.034508575 0.023999989
0.036312379 0.034554288 0.023000002
0.037868574 0.034645714 0.021000028
0.03921143 0.034645714 0.021000028
0.040756196 0.034737147 0.018999994
0.042095244 0.034737147 0.018999994
0.043628566 0.03482857 0.01700002
0.044963807 0.03482857 0.01700002
0.046392381 0.034874287 0.016000032
0.047725715 0.034874287 0.016000032
0.049238101 0.034965716 0.013999999
0.050655242 0.035011429 0.013000011
0.051982857 0.035011429 0.013000011
0.053310476 0.035011429 0.013000011
0.054638099 0.035011429 0.013000011
0.056125715 0.035102859 0.011000037
0.057449523 0.035102859 0.011000037
0.058849528 0.035148572 0.0099999905
0.060171433 0.035148572 0.0099999905
0.061493337 0.035148572 0.0099999905
0.062815242 0.035148572 0.0099999905
0.064205721 0.035194289 0.0090000033
0.065525718 0.035194289 0.0090000033
0.066845715 0.035194289 0.0090000033
0.06816572 0.035194289 0.0090000033
0.069485717 0.035194289 0.0090000033
0.070923805 0.035285715 0.0070000291
0.072240002 0.035285715 0.0070000291
0.073556192 0.035285715 0.0070000291
0.074872382 0.035285715 0.0070000291
0.076188572 0.035285715 0.0070000291
0.077504762 0.035285715 0.0070000291
0.078820959 0.035285715 0.0070000291
0.080182858 0.035331428 0.006000042
0.081453338 0.035285715 0.0070000291
0.08281143 0.035331428 0.006000042
0.084125713 0.035331428 0.006000042
0.085401908 0.035285715 0.0070000291
0.086718097 0.035285715 0.0070000291
0.088034287 0.035285715 0.0070000291
0.089382857 0.035331428 0.006000042
0.090697147 0.035331428 0.006000042
0.092011429 0.035331428 0.006000042
0.093325719 0.035331428 0.006000042
0.094640002 0.035331428 0.006000042
0.095954284 0.035331428 0.006000042
0.097268574 0.035331428 0.006000042
0.098563813 0.035285715 0.0070000291
0.099880002 0.035285715 0.0070000291
0.10121143 0.035331428 0.006000042
0.10251238 0.035285715 0.0070000291
0.10382857 0.035285715 0.0070000291
0.10512572 0.035194289 0.0090000033
0.10644571 0.035194289 0.0090000033
0.10776 0.035148572 0.0099999905
0.10908191 0.035148572 0.0099999905
0.11040191 0.035102859 0.011000037
0.11172572 0.035102859 0.011000037
0.11304953 0.035102859 0.011000037
0.11437333 0.035102859 0.011000037
0.11571429 0.034965716 0.013999999
0.11704382 0.034965716 0.013999999
0.11839239 0.034874287 0.016000032
0.11973715 0.03482857 0.01700002
0.12107238 0.03482857 0.01700002
0.12240762 0.03482857 0.01700002
0.12379429 0.034691427 0.020000041
0.12513524 0.034691427 0.020000041
0.12649715 0.034645714 0.021000028
0.12788571 0.034554288 0.023000002
0.12923238 0.034554288 0.023000002
0.13065904 0.034417145 0.026000023
0.13204001 0.034371428 0.02700001
0.13339429 0.034371428 0.02700001
0.13484572 0.034234285 0.030000031
0.13648 0.033868574 0.038000047
0.13789144 0.033822857 0.039000034
0.13934477 0.033731427 0.041000009
0.14072572 0.033731427 0.041000009
0.14214857 0.033685718 0.041999996
0.14375047 0.033457145 0.046999991
0.14514285 0.033457145 0.046999991
0.1469162 0.03309143 0.055000007
0.14832382 0.03309143 0.055000007
0.1505543 0.032360002 0.07100004
0.15204573 0.032314286 0.072000027
0.15348572 0.032314286 0.072000027
0.15504 0.032222856 0.074000001
0.15660191 0.03213143 0.076000035
0.15811048 0.032085717 0.077000022
0.15956001 0.032085717 0.077000022
0.0057295263 0.033929523 0.068000019
0.0078571439 0.03414857 0.063000023
0.0092799962 0.03414857 0.063000023
0.010973327 0.034236189 0.061000049
0.012659051 0.034323812 0.059000015
0.014600001 0.034499049 0.055000007
0.016396187 0.034630477 0.052000046
0.018308572 0.034805715 0.048000038
0.02008 0.034937143 0.045000017
0.021592379 0.034980953 0.04400003
0.023344763 0.035112381 0.041000009
0.025325716 0.035331428 0.036000013
0.026815236 0.035375241 0.035000026
0.028533332 0.035506669 0.032000005
0.030125707 0.035594288 0.030000031
0.031485714 0.035594288 0.030000031
0.033177145 0.035725717 0.02700001
0.034857146 0.035857145 0.023999989
0.036312379 0.035900958 0.023000002
0.037659049 0.035900958 0.023000002
0.03921143 0.035988573 0.021000028
0.040756196 0.036076192 0.018999994
0.042095244 0.036076192 0.018999994
0.043434292 0.036076192 0.018999994
0.044963807 0.036163811 0.01700002
0.046299048 0.036163811 0.01700002
0.047725715 0.03620762 0.016000032
0.049238101 0.036295239 0.013999999
0.05056762 0.036295239 0.013999999
0.051982857 0.036339052 0.013000011
0.053310476 0.036339052 0.013000011
0.054638099 0.036339052 0.013000011
0.056125715 0.036426667 0.011000037
0.057449523 0.036426667 0.011000037
0.058773331 0.036426667 0.011000037
0.060171433 0.03647048 0.0099999905
0.061493337 0.03647048 0.0099999905
0.062885717 0.03651429 0.0090000033
0.064205721 0.03651429 0.0090000033
0.065525718 0.03651429 0.0090000033
0.066845715 0.03651429 0.0090000033
0.06816572 0.03651429 0.0090000033
0.069485717 0.03651429 0.0090000033
0.070805714 0.03651429 0.0090000033
0.072240002 0.036601909 0.0070000291
0.073445722 0.03651429 0.0090000033
0.074872382 0.036601909 0.0070000291
0.076188572 0.036601909 0.0070000291
0.077504762 0.036601909 0.0070000291
0.078868568 0.036645718 0.006000042
0.080182858 0.036645718 0.006000042
0.081497148 0.036645718 0.006000042
0.082769528 0.036601909 0.0070000291
0.084085718 0.036601909 0.0070000291
0.085401908 0.036601909 0.0070000291
0.086718097 0.036601909 0.0070000291
0.088034287 0.036601909 0.0070000291
0.089415237 0.036689527 0.0049999952
0.090697147 0.036645718 0.006000042
0.092011429 0.036645718 0.006000042
0.093325719 0.036645718 0.006000042
0.094640002 0.036645718 0.006000042
0.095954284 0.036645718 0.006000042
0.097268574 0.036645718 0.006000042
0.098582864 0.036645718 0.006000042
0.099880002 0.036601909 0.0070000291
0.10121143 0.036645718 0.006000042
0.10248572 0.03651429 0.0090000033
0.10380572 0.03651429 0.0090000033
0.10512572 0.03651429 0.0090000033
0.1064381 0.03647048 0.0099999905
0.10776 0.03647048 0.0099999905
0.10908191 0.03647048 0.0099999905
0.11040191 0.036426667 0.011000037
0.11172572 0.036426667 0.011000037
0.11304953 0.036426667 0.011000037
0.11438096 0.036339052 0.013000011
0.11571429 0.036295239 0.013999999
0.11705905 0.03620762 0.016000032
0.11839239 0.03620762 0.016000032
0.11973715 0.036163811 0.01700002
0.12107238 0.036163811 0.01700002
0.1224381 0.036076192 0.018999994
0.12379429 0.036032379 0.020000041
0.12515429 0.035988573 0.021000028
0.12653905 0.035900958 0.023000002
0.12788571 0.035900958 0.023000002
0.12925714 0.035857145 0.023999989
0.13065904 0.035769522 0.026000023
0.13201143 0.035769522 0.026000023
0.13339429 0.035725717 0.02700001
0.13481334 0.035638094 0.029000044
0.13630858 0.035462856 0.032999992
0.13785525 0.035243809 0.038000047
0.13923049 0.035243809 0.038000047
0.14084572 0.034980953 0.04400003
0.14235809 0.034849528 0.046999991
0.14375047 0.034849528 0.046999991
0.14518857 0.034805715 0.048000038
0.14677334 0.034630477 0.052000046
0.14817524 0.034630477 0.052000046
0.15045144 0.033885717 0.069000006
0.15199238 0.033798095 0.07100004
0.15343049 0.033798095 0.07100004
0.15504 0.03366667 0.074000001
0.15660191 0.033579048 0.076000035
0.15811048 0.033535242 0.077000022
0.15956001 0.033535242 0.077000022
0.16100952 0.033535242 0.077000022
0.16259238 0.033447623 0.078999996
0.0057295263 0.035361905 0.068000019
0.0074400008 0.035445713 0.066000044
0.0091428533 0.035529524 0.06400001
0.010973327 0.035655238 0.061000049
0.012659051 0.035739049 0.059000015
0.014468573 0.035864763 0.055999994
0.016266659 0.035990477 0.053000033
0.018308572 0.036199998 0.048000038
0.020205714 0.036367618 0.04400003
0.021839999 0.036451429 0.041999996
0.023344763 0.036493335 0.041000009
0.025325716 0.03670286 0.036000013
0.026815236 0.036744762 0.035000026
0.028417148 0.036828574 0.032999992
0.029897138 0.03687048 0.032000005
0.031485714 0.036954284 0.030000031
0.033177145 0.037080005 0.02700001
0.034857146 0.037205718 0.023999989
0.036312379 0.037247621 0.023000002
0.037868574 0.037331428 0.021000028
0.039314285 0.037373334 0.020000041
0.040655233 0.037373334 0.020000041
0.041996188 0.037373334 0.020000041
0.043434292 0.03741524 0.018999994
0.044773333 0.03741524 0.018999994
0.046299048 0.037499048 0.01700002
0.047725715 0.03754095 0.016000032
0.049238101 0.037624765 0.013999999
0.050655242 0.037666667 0.013000011
0.051982857 0.037666667 0.013000011
0.053310476 0.037666667 0.013000011
0.054638099 0.037666667 0.013000011
0.056125715 0.037750475 0.011000037
0.057449523 0.037750475 0.011000037
0.058773331 0.037750475 0.011000037
0.060171433 0.037792385 0.0099999905
0.061493337 0.037792385 0.0099999905
0.062815242 0.037792385 0.0099999905
0.064205721 0.037834287 0.0090000033
0.065525718 0.037834287 0.0090000033
0.066845715 0.037834287 0.0090000033
0.06816572 0.037834287 0.0090000033
0.069485717 0.037834287 0.0090000033
0.070805714 0.037834287 0.0090000033
0.072240002 0.037918098 0.0070000291
0.073445722 0.037834287 0.0090000033
0.074872382 0.037918098 0.0070000291
0.076188572 0.037918098 0.0070000291
0.077504762 0.037918098 0.0070000291
0.078820959 0.037918098 0.0070000291
0.080137148 0.037918098 0.0070000291
0.081453338 0.037918098 0.0070000291
0.082769528 0.037918098 0.0070000291
0.084085718 0.037918098 0.0070000291
0.085401908 0.037918098 0.0070000291
0.086718097 0.037918098 0.0070000291
0.088034287 0.037918098 0.0070000291
0.089382857 0.03796 0.006000042
0.090697147 0.03796 0.006000042
0.092011429 0.03796 0.006000042
0.093325719 0.03796 0.006000042
0.094640002 0.03796 0.006000042
0.095954284 0.03796 0.006000042
0.097268574 0.03796 0.006000042
0.098582864 0.03796 0.006000042
0.099897146 0.03796 0.006000042
0.10119619 0.037918098 0.0070000291
0.10251238 0.037918098 0.0070000291
0.10380572 0.037834287 0.0090000033
0.10512572 0.037834287 0.0090000033
0.10644571 0.037834287 0.0090000033
0.10776 0.037792385 0.0099999905
0.10908191 0.037792385 0.0099999905
0.11040191 0.037750475 0.011000037
0.11172572 0.037750475 0.011000037
0.11304953 0.037750475 0.011000037
0.11438096 0.037666667 0.013000011
0.11571429 0.037624765 0.013999999
0.11705905 0.03754095 0.016000032
0.11839239 0.03754095 0.016000032
0.11973715 0.037499048 0.01700002
0.12107238 0.037499048 0.01700002
0.1224381 0.03741524 0.018999994
0.12379429 0.037373334 0.020000041
0.12515429 0.037331428 0.021000028
0.12653905 0.037247621 0.023000002
0.12788571 0.037247621 0.023000002
0.12925714 0.037205718 0.023999989
0.13060571 0.037205718 0.023999989
0.13204001 0.037080005 0.02700001
0.13339429 0.037080005 0.02700001
0.13484572 0.036954284 0.030000031
0.13637714 0.036744762 0.035000026
0.13778286 0.03670286 0.036000013
0.13938287 0.036451429 0.041999996
0.14084572 0.036367618 0.04400003
0.14240001 0.036199998 0.048000038
0.14388192 0.03611619 0.050000012
0.14550857 0.035906665 0.055000007
0.1469162 0.035906665 0.055000007
0.14911619 0.035236191 0.07100004
0.1505543 0.035236191 0.07100004
0.15204573 0.035194289 0.072000027
0.15359619 0.035110477 0.074000001
0.15515429 0.035026666 0.076000035
0.15660191 0.035026666 0.076000035
0.15811048 0.034984764 0.077000022
0.15956001 0.034984764 0.077000022
0.16100952 0.034984764 0.077000022
0.16259238 0.034900956 0.078999996
0.0071619004 0.036794286 0.068000019
0.0088685676 0.036874287 0.066000044
0.01056762 0.036954287 0.06400001
0.012392372 0.037074286 0.061000049
0.014205717 0.037194289 0.058000028
0.016007617 0.037314288 0.055000007
0.018053338 0.037514288 0.050000012
0.019828573 0.037634291 0.046999991
0.021839999 0.037834287 0.041999996
0.023344763 0.037874289 0.041000009
0.025325716 0.038074285 0.036000013
0.026697144 0.038074285 0.036000013
0.028184764 0.038114287 0.035000026
0.029782861 0.038194288 0.032999992
0.03126096 0.038234286 0.032000005
0.03295619 0.038354285 0.029000044
0.034531429 0.038434289 0.02700001
0.036205724 0.038554288 0.023999989
0.037659049 0.038594291 0.023000002
0.03921143 0.038674287 0.021000028
0.040655233 0.038714286 0.020000041
0.041996188 0.038714286 0.020000041
0.043434292 0.038754288 0.018999994
0.044773333 0.038754288 0.018999994
0.046299048 0.038834289 0.01700002
0.047725715 0.038874287 0.016000032
0.049238101 0.038954288 0.013999999
0.050655242 0.038994286 0.013000011
0.051982857 0.038994286 0.013000011
0.053310476 0.038994286 0.013000011
0.054638099 0.038994286 0.013000011
0.056125715 0.039074287 0.011000037
0.057449523 0.039074287 0.011000037
0.058773331 0.039074287 0.011000037
0.060171433 0.039114289 0.0099999905
0.061493337 0.039114289 0.0099999905
0.062815242 0.039114289 0.0099999905
0.064205721 0.039154287 0.0090000033
0.065525718 0.039154287 0.0090000033
0.066845715 0.039154287 0.0090000033
0.06816572 0.039154287 0.0090000033
0.069485717 0.039154287 0.0090000033
0.070805714 0.039154287 0.0090000033
0.072125718 0.039154287 0.0090000033
0.073445722 0.039154287 0.0090000033
0.074765712 0.039154287 0.0090000033
0.076188572 0.039234288 0.0070000291
0.077504762 0.039234288 0.0070000291
0.078820959 0.039234288 0.0070000291
0.080137148 0.039234288 0.0070000291
0.081453338 0.039234288 0.0070000291
0.082769528 0.039234288 0.0070000291
0.084085718 0.039234288 0.0070000291
0.085401908 0.039234288 0.0070000291
0.086718097 0.039234288 0.0070000291
0.088034287 0.039234288 0.0070000291
0.089382857 0.039274283 0.006000042
0.090697147 0.039274283 0.006000042
0.092011429 0.039274283 0.006000042
0.093325719 0.039274283 0.006000042
0.094640002 0.039274283 0.006000042
0.095931433 0.039234288 0.0070000291
0.097268574 0.039274283 0.006000042
0.098582864 0.039274283 0.006000042
0.099897146 0.039274283 0.006000042
0.10121143 0.039274283 0.006000042
0.10251238 0.039234288 0.0070000291
0.10382857 0.039234288 0.0070000291
0.10514477 0.039234288 0.0070000291
0.10644571 0.039154287 0.0090000033
0.10776 0.039114289 0.0099999905
0.10908191 0.039114289 0.0099999905
0.11040191 0.039074287 0.011000037
0.11172572 0.039074287 0.011000037
0.11304953 0.039074287 0.011000037
0.11438096 0.038994286 0.013000011
0.11571429 0.038954288 0.013999999
0.11705905 0.038874287 0.016000032
0.11840191 0.038834289 0.01700002
0.11973715 0.038834289 0.01700002
0.12109905 0.038754288 0.018999994
0.1224381 0.038754288 0.018999994
0.12379429 0.038714286 0.020000041
0.12515429 0.038674287 0.021000028
0.12653905 0.038594291 0.023000002
0.12788571 0.038594291 0.023000002
0.12925714 0.038554288 0.023999989
0.13065904 0.038474284 0.026000023
0.13204001 0.038434289 0.02700001
0.13339429 0.038434289 0.02700001
0.13484572 0.038314283 0.030000031
0.13637714 0.038114287 0.035000026
0.13778286 0.038074285 0.036000013
0.13938287 0.037834287 0.041999996
0.14084572 0.037754286 0.04400003
0.14248382 0.037514288 0.050000012
0.14396954 0.037434287 0.052000046
0.14541715 0.037394285 0.053000033
0.14682096 0.037394285 0.053000033
0.14832382 0.037314288 0.055000007
0.15070857 0.036554288 0.074000001
0.15215239 0.036554288 0.074000001
0.15370667 0.036474288 0.076000035
0.15521143 0.036434285 0.077000022
0.15677905 0.036354288 0.078999996
0.15835428 0.036274288 0.08100003
0.15981144 0.036274288 0.08100003
0.0071619004 0.038226668 0.068000019
0.0088685676 0.038302857 0.066000044
0.01056762 0.038379051 0.06400001
0.012392372 0.038493335 0.061000049
0.014205717 0.03860762 0.058000028
0.016007617 0.038721904 0.055000007
0.01741524 0.038721904 0.055000007
0.020457149 0.039217144 0.041999996
0.021839999 0.039217144 0.041999996
0.023344763 0.039255239 0.041000009
0.025325716 0.039445713 0.036000013
0.026815236 0.039483808 0.035000026
0.028184764 0.039483808 0.035000026
0.029782861 0.039560005 0.032999992
0.03126096 0.039598096 0.032000005
0.03295619 0.039712381 0.029000044
0.034314282 0.039712381 0.029000044
0.036205724 0.039902858 0.023999989
0.037659049 0.039940953 0.023000002
0.03921143 0.040017143 0.021000028
0.040655233 0.040055238 0.020000041
0.041996188 0.040055238 0.020000041
0.043434292 0.040093333 0.018999994
0.044773333 0.040093333 0.018999994
0.046299048 0.040169526 0.01700002
0.047725715 0.040207621 0.016000032
0.049238101 0.040283814 0.013999999
0.050655242 0.040321909 0.013000011
0.051982857 0.040321909 0.013000011
0.053310476 0.040321909 0.013000011
0.054801904 0.040398095 0.011000037
0.056125715 0.040398095 0.011000037
0.057449523 0.040398095 0.011000037
0.058849528 0.040436193 0.0099999905
0.060171433 0.040436193 0.0099999905
0.061493337 0.040436193 0.0099999905
0.062815242 0.040436193 0.0099999905
0.064205721 0.040474288 0.0090000033
0.065525718 0.040474288 0.0090000033
0.066845715 0.040474288 0.0090000033
0.06816572 0.040474288 0.0090000033
0.069485717 0.040474288 0.0090000033
0.070805714 0.040474288 0.0090000033
0.072125718 0.040474288 0.0090000033
0.073445722 0.040474288 0.0090000033
0.074765712 0.040474288 0.0090000033
0.076188572 0.040550478 0.0070000291
0.077504762 0.040550478 0.0070000291
0.078820959 0.040550478 0.0070000291
0.080137148 0.040550478 0.0070000291
0.081453338 0.040550478 0.0070000291
0.082769528 0.040550478 0.0070000291
0.084085718 0.040550478 0.0070000291
0.085401908 0.040550478 0.0070000291
0.086718097 0.040550478 0.0070000291
0.088034287 0.040550478 0.0070000291
0.089382857 0.040588573 0.006000042
0.090697147 0.040588573 0.006000042
0.092011429 0.040588573 0.006000042
0.093325719 0.040588573 0.006000042
0.094640002 0.040588573 0.006000042
0.095931433 0.040550478 0.0070000291
0.097247623 0.040550478 0.0070000291
0.098563813 0.040550478 0.0070000291
0.099880002 0.040550478 0.0070000291
0.10119619 0.040550478 0.0070000291
0.10251238 0.040550478 0.0070000291
0.10382857 0.040550478 0.0070000291
0.10514477 0.040550478 0.0070000291
0.10646096 0.040550478 0.0070000291
0.10776572 0.040474288 0.0090000033
0.10908191 0.040436193 0.0099999905
0.11040381 0.040436193 0.0099999905
0.11172572 0.040398095 0.011000037
0.11304953 0.040398095 0.011000037
0.11438096 0.040321909 0.013000011
0.11571429 0.040283814 0.013999999
0.11705905 0.040207621 0.016000032
0.11840191 0.040169526 0.01700002
0.11973715 0.040169526 0.01700002
0.12109905 0.040093333 0.018999994
0.1224381 0.040093333 0.018999994
0.12379429 0.040055238 0.020000041
0.12515429 0.040017143 0.021000028
0.12653905 0.039940953 0.023000002
0.12788571 0.039940953 0.023000002
0.12925714 0.039902858 0.023999989
0.13065904 0.039826669 0.026000023
0.13204001 0.039788574 0.02700001
0.13339429 0.039788574 0.02700001
0.13484572 0.03967429 0.030000031
0.13627429 0.039598096 0.032000005
0.13763809 0.039598096 0.032000005
0.13900191 0.039598096 0.032000005
0.14116572 0.038836189 0.052000046
0.14256762 0.038836189 0.052000046
0.14396954 0.038836189 0.052000046
0.14550857 0.038721904 0.055000007
0.1469162 0.038721904 0.055000007
0.14832382 0.038721904 0.055000007
0.15070857 0.037998099 0.074000001
0.15225905 0.037921906 0.076000035
0.15376191 0.037883811 0.077000022
0.15532571 0.037807621 0.078999996
0.15677905 0.037807621 0.078999996
0.15835428 0.037731431 0.08100003
0.15981144 0.037731431 0.08100003
0.0071619004 0.039659046 0.068000019
0.0088685676 0.039731428 0.066000044
0.01056762 0.03980381 0.06400001
0.012392372 0.03991238 0.061000049
0.014074288 0.039984763 0.059000015
0.016007617 0.040129527 0.055000007
0.01741524 0.040129527 0.055000007
0.018822856 0.040129527 0.055000007
0.021963812 0.040636189 0.041000009
0.023344763 0.040636189 0.041000009
0.02508571 0.040744759 0.038000047
0.026815236 0.040853333 0.035000026
0.028184764 0.040853333 0.035000026
0.029782861 0.040925719 0.032999992
0.03126096 0.040961906 0.032000005
0.03295619 0.041070476 0.029000044
0.034531429 0.041142859 0.02700001
0.036205724 0.041251432 0.023999989
0.037659049 0.041287623 0.023000002
0.039005719 0.041287623 0.023000002
0.040554285 0.041360002 0.021000028
0.04189714 0.041360002 0.021000028
0.043337144 0.041396193 0.020000041
0.044773333 0.041432381 0.018999994
0.046299048 0.041504763 0.01700002
0.047725715 0.041540951 0.016000032
0.049238101 0.041613337 0.013999999
0.05056762 0.041613337 0.013999999
0.051982857 0.041649528 0.013000011
0.053310476 0.041649528 0.013000011
0.054638099 0.041649528 0.013000011
0.056125715 0.041721907 0.011000037
0.057449523 0.041721907 0.011000037
0.058849528 0.041758098 0.0099999905
0.060171433 0.041758098 0.0099999905
0.061493337 0.041758098 0.0099999905
0.062815242 0.041758098 0.0099999905
0.064205721 0.041794285 0.0090000033
0.065525718 0.041794285 0.0090000033
0.066845715 0.041794285 0.0090000033
0.06816572 0.041794285 0.0090000033
0.069485717 0.041794285 0.0090000033
0.070805714 0.041794285 0.0090000033
0.072125718 0.041794285 0.0090000033
0.073445722 0.041794285 0.0090000033
0.074765712 0.041794285 0.0090000033
0.076188572 0.041866668 0.0070000291
0.077504762 0.041866668 0.0070000291
0.078820959 0.041866668 0.0070000291
0.080137148 0.041866668 0.0070000291
0.081453338 0.041866668 0.0070000291
0.082769528 0.041866668 0.0070000291
0.084085718 0.041866668 0.0070000291
0.085401908 0.041866668 0.0070000291
0.086718097 0.041866668 0.0070000291
0.088034287 0.041866668 0.0070000291
0.089382857 0.041902859 0.006000042
0.090697147 0.041902859 0.006000042
0.092011429 0.041902859 0.006000042
0.093325719 0.041902859 0.006000042
0.094640002 0.041902859 0.006000042
0.095931433 0.041866668 0.0070000291
0.097247623 0.041866668 0.0070000291
0.098563813 0.041866668 0.0070000291
0.099880002 0.041866668 0.0070000291
0.10119619 0.041866668 0.0070000291
0.10251238 0.041866668 0.0070000291
0.10380572 0.041794285 0.0090000033
0.10512572 0.041794285 0.0090000033
0.10644571 0.041794285 0.0090000033
0.10776572 0.041794285 0.0090000033
0.10908191 0.041758098 0.0099999905
0.11040191 0.041721907 0.011000037
0.11172572 0.041721907 0.011000037
0.11305334 0.041649528 0.013000011
0.11438476 0.041613337 0.013999999
0.11571429 0.041613337 0.013999999
0.11705905 0.041540951 0.016000032
0.11840191 0.041504763 0.01700002
0.11973715 0.041504763 0.01700002
0.12109905 0.041432381 0.018999994
0.1224381 0.041432381 0.018999994
0.12379429 0.041396193 0.020000041
0.12515429 0.041360002 0.021000028
0.12653905 0.041287623 0.023000002
0.12788571 0.041287623 0.023000002
0.12925714 0.041251432 0.023999989
0.13065904 0.041179046 0.026000023
0.13204001 0.041142859 0.02700001
0.13345525 0.041070476 0.029000044
0.13484572 0.041034289 0.030000031
0.13627429 0.040961906 0.032000005
0.13763809 0.040961906 0.032000005
0.13900191 0.040961906 0.032000005
0.14116572 0.040238097 0.052000046
0.14256762 0.040238097 0.052000046
0.14396954 0.040238097 0.052000046
0.14555429 0.040093333 0.055999994
0.1469162 0.040129527 0.055000007
0.14832382 0.040129527 0.055000007
0.15081143 0.039369524 0.076000035
0.15225905 0.039369524 0.076000035
0.15376191 0.039333336 0.077000022
0.15521143 0.039333336 0.077000022
0.15666096 0.039333336 0.077000022
0.15823239 0.039260954 0.078999996
0.15968572 0.039260954 0.078999996
0.014074288 0.0414 0.059000015
0.015878104 0.041502859 0.055999994
0.017287619 0.041502859 0.055999994
0.01869715 0.041502859 0.055999994
0.022335231 0.042120002 0.038000047
0.023710474 0.042120002 0.038000047
0.025325716 0.04218857 0.036000013
0.026815236 0.042222857 0.035000026
0.028184764 0.042222857 0.035000026
0.029782861 0.042291433 0.032999992
0.03126096 0.042325716 0.032000005
0.03295619 0.042428572 0.029000044
0.034314282 0.042428572 0.029000044
0.036205724 0.042600002 0.023999989
0.037554294 0.042600002 0.023999989
0.039005719 0.042634286 0.023000002
0.040352382 0.042634286 0.023000002
0.04189714 0.042702861 0.021000028
0.043337144 0.042737141 0.020000041
0.044773333 0.042771429 0.018999994
0.046299048 0.04284 0.01700002
0.047725715 0.042874288 0.016000032
0.049238101 0.042942859 0.013999999
0.05056762 0.042942859 0.013999999
0.051982857 0.042977147 0.013000011
0.053310476 0.042977147 0.013000011
0.054801904 0.043045714 0.011000037
0.056125715 0.043045714 0.011000037
0.057449523 0.043045714 0.011000037
0.058849528 0.043080002 0.0099999905
0.060171433 0.043080002 0.0099999905
0.061493337 0.043080002 0.0099999905
0.062815242 0.043080002 0.0099999905
0.064137146 0.043080002 0.0099999905
0.06545905 0.043080002 0.0099999905
0.066780955 0.043080002 0.0099999905
0.068102859 0.043080002 0.0099999905
0.069485717 0.04311429 0.0090000033
0.070923805 0.043182857 0.0070000291
0.072125718 0.04311429 0.0090000033
0.073445722 0.04311429 0.0090000033
0.074872382 0.043182857 0.0070000291
0.076188572 0.043182857 0.0070000291
0.077504762 0.043182857 0.0070000291
0.078725718 0.04311429 0.0090000033
0.080137148 0.043182857 0.0070000291
0.081453338 0.043182857 0.0070000291
0.082769528 0.043182857 0.0070000291
0.084085718 0.043182857 0.0070000291
0.085401908 0.043182857 0.0070000291
0.086718097 0.043182857 0.0070000291
0.088034287 0.043182857 0.0070000291
0.089382857 0.043217145 0.006000042
0.090697147 0.043217145 0.006000042
0.092011429 0.043217145 0.006000042
0.093325719 0.043217145 0.006000042
0.094640002 0.043217145 0.006000042
0.095931433 0.043182857 0.0070000291
0.097247623 0.043182857 0.0070000291
0.098563813 0.043182857 0.0070000291
0.099880002 0.043182857 0.0070000291
0.10119619 0.043182857 0.0070000291
0.10251238 0.043182857 0.0070000291
0.10382857 0.043182857 0.0070000291
0.10512572 0.04311429 0.0090000033
0.10644571 0.04311429 0.0090000033
0.10776572 0.04311429 0.0090000033
0.10908191 0.043080002 0.0099999905
0.11040191 0.043045714 0.011000037
0.11172572 0.043045714 0.011000037
0.11305334 0.042977147 0.013000011
0.11438096 0.042977147 0.013000011
0.11571429 0.042942859 0.013999999
0.11705905 0.042874288 0.016000032
0.11839239 0.042874288 0.016000032
0.11973715 0.04284 0.01700002
0.12109905 0.042771429 0.018999994
0.1224381 0.042771429 0.018999994
0.12379429 0.042737141 0.020000041
0.12515429 0.042702861 0.021000028
0.12653905 0.042634286 0.023000002
0.12788571 0.042634286 0.023000002
0.12925714 0.042600002 0.023999989
0.13068572 0.042497143 0.02700001
0.13209715 0.042428572 0.029000044
0.13345525 0.042428572 0.029000044
0.13484572 0.042394288 0.030000031
0.13630858 0.042291433 0.032999992
0.13767429 0.042291433 0.032999992
0.13904001 0.042291433 0.032999992
0.14108571 0.041708574 0.050000012
0.14248382 0.041708574 0.050000012
0.14396954 0.041639999 0.052000046
0.14541715 0.041605715 0.053000033
0.14682096 0.041605715 0.053000033
0.14822477 0.041605715 0.053000033
0.14962858 0.041605715 0.053000033
0.15252572 0.040645719 0.08100003
0.15398286 0.040645719 0.08100003
0.15532571 0.040714286 0.078999996
0.15677905 0.040714286 0.078999996
0.15823239 0.040714286 0.078999996
0.15968572 0.040714286 0.078999996
0.014074288 0.042815238 0.059000015
0.015878104 0.042912386 0.055999994
0.017287619 0.042912386 0.055999994
0.018822856 0.042944763 0.055000007
0.021963812 0.043398097 0.041000009
0.023344763 0.043398097 0.041000009
0.024725713 0.043398097 0.041000009
0.026815236 0.043592382 0.035000026
0.028184764 0.043592382 0.035000026
0.029782861 0.043657146 0.032999992
0.03126096 0.043689527 0.032000005
0.032845713 0.043754287 0.030000031
0.034205712 0.043754287 0.030000031
0.035992384 0.043883812 0.026000023
0.037554294 0.043948576 0.023999989
0.039005719 0.043980956 0.023000002
0.040352382 0.043980956 0.023000002
0.042095244 0.044110477 0.018999994
0.043434292 0.044110477 0.018999994
0.044773333 0.044110477 0.018999994
0.046299048 0.044175237 0.01700002
0.047725715 0.044207621 0.016000032
0.049059048 0.044207621 0.016000032
0.05056762 0.044272386 0.013999999
0.051897146 0.044272386 0.013999999
0.053310476 0.044304762 0.013000011
0.054638099 0.044304762 0.013000011
0.055965714 0.044304762 0.013000011
0.057449523 0.044369526 0.011000037
0.058773331 0.044369526 0.011000037
0.060171433 0.044401906 0.0099999905
0.061493337 0.044401906 0.0099999905
0.062815242 0.044401906 0.0099999905
0.064137146 0.044401906 0.0099999905
0.06545905 0.044401906 0.0099999905
0.066780955 0.044401906 0.0099999905
0.06816572 0.044434287 0.0090000033
0.069485717 0.044434287 0.0090000033
0.070923805 0.044499047 0.0070000291
0.072240002 0.044499047 0.0070000291
0.073556192 0.044499047 0.0070000291
0.074872382 0.044499047 0.0070000291
0.076188572 0.044499047 0.0070000291
0.077504762 0.044499047 0.0070000291
0.078820959 0.044499047 0.0070000291
0.080137148 0.044499047 0.0070000291
0.081453338 0.044499047 0.0070000291
0.082769528 0.044499047 0.0070000291
0.084085718 0.044499047 0.0070000291
0.085401908 0.044499047 0.0070000291
0.086718097 0.044499047 0.0070000291
0.088034287 0.044499047 0.0070000291
0.089382857 0.044531427 0.006000042
0.090697147 0.044531427 0.006000042
0.092011429 0.044531427 0.006000042
0.093325719 0.044531427 0.006000042
0.094640002 0.044531427 0.006000042
0.095931433 0.044499047 0.0070000291
0.097247623 0.044499047 0.0070000291
0.098563813 0.044499047 0.0070000291
0.099880002 0.044499047 0.0070000291
0.10116572 0.044434287 0.0090000033
0.10248572 0.044434287 0.0090000033
0.10380572 0.044434287 0.0090000033
0.10512572 0.044434287 0.0090000033
0.10644571 0.044434287 0.0090000033
0.10776 0.044401906 0.0099999905
0.10908191 0.044401906 0.0099999905
0.11040191 0.044369526 0.011000037
0.11172572 0.044304762 0.013000011
0.11305334 0.044304762 0.013000011
0.11438476 0.044272386 0.013999999
0.11571429 0.044272386 0.013999999
0.11705905 0.044207621 0.016000032
0.11839239 0.044207621 0.016000032
0.11973715 0.044175237 0.01700002
0.12109905 0.044110477 0.018999994
0.1224381 0.044110477 0.018999994
0.12379429 0.044078097 0.020000041
0.12515429 0.044045717 0.021000028
0.12653905 0.043980956 0.023000002
0.12788571 0.043980956 0.023000002
0.12925714 0.043948576 0.023999989
0.13068572 0.043851428 0.02700001
0.13209715 0.043786667 0.029000044
0.13345525 0.043786667 0.029000044
0.13494286 0.043657146 0.032999992
0.13630858 0.043657146 0.032999992
0.13767429 0.043657146 0.032999992
0.13934477 0.043398097 0.041000009
0.14088573 0.043268573 0.045000017
0.14235809 0.043203812 0.046999991
0.1437943 0.043171428 0.048000038
0.14518857 0.043171428 0.048000038
0.14658287 0.043171428 0.048000038
0.14797714 0.043171428 0.048000038
0.14962858 0.043009523 0.053000033
0.15225905 0.042264763 0.076000035
0.15370667 0.042264763 0.076000035
0.15521143 0.042232383 0.077000022
0.15666096 0.042232383 0.077000022
0.15811048 0.042232383 0.077000022
0.15956001 0.042232383 0.077000022
0.16100952 0.042232383 0.077000022
0.015878104 0.04432191 0.055999994
0.01741524 0.044352382 0.055000007
0.018822856 0.044352382 0.055000007
0.02023048 0.044352382 0.055000007
0.023344763 0.044779047 0.041000009
0.02508571 0.044870477 0.038000047
0.026697144 0.04493143 0.036000013
0.028184764 0.044961907 0.035000026
0.029782861 0.04502286 0.032999992
0.03126096 0.045053333 0.032000005
0.032845713 0.045114286 0.030000031
0.034205712 0.045114286 0.030000031
0.035885714 0.045205716 0.02700001
0.037344761 0.045236193 0.026000023
0.038902864 0.045297146 0.023999989
0.040352382 0.045327619 0.023000002
0.042095244 0.045449525 0.018999994
0.043434292 0.045449525 0.018999994
0.044773333 0.045449525 0.018999994
0.046299048 0.045510478 0.01700002
0.047634281 0.045510478 0.01700002
0.049059048 0.045540951 0.016000032
0.050392382 0.045540951 0.016000032
0.051897146 0.045601904 0.013999999
0.053310476 0.045632385 0.013000011
0.054638099 0.045632385 0.013000011
0.055965714 0.045632385 0.013000011
0.057449523 0.045693334 0.011000037
0.058773331 0.045693334 0.011000037
0.060171433 0.045723811 0.0099999905
0.061493337 0.045723811 0.0099999905
0.062815242 0.045723811 0.0099999905
0.064137146 0.045723811 0.0099999905
0.06545905 0.045723811 0.0099999905
0.066780955 0.045723811 0.0099999905
0.068102859 0.045723811 0.0099999905
0.069485717 0.045754287 0.0090000033
0.070805714 0.045754287 0.0090000033
0.072125718 0.045754287 0.0090000033
0.073445722 0.045754287 0.0090000033
0.074872382 0.045815237 0.0070000291
0.076188572 0.045815237 0.0070000291
0.077504762 0.045815237 0.0070000291
0.078820959 0.045815237 0.0070000291
0.080045715 0.045754287 0.0090000033
0.081453338 0.045815237 0.0070000291
0.082769528 0.045815237 0.0070000291
0.084085718 0.045815237 0.0070000291
0.085401908 0.045815237 0.0070000291
0.086718097 0.045815237 0.0070000291
0.088034287 0.045815237 0.0070000291
0.089382857 0.045845717 0.006000042
0.090697147 0.045845717 0.006000042
0.092011429 0.045845717 0.006000042
0.093325719 0.045845717 0.006000042
0.094615236 0.045815237 0.0070000291
0.095931433 0.045815237 0.0070000291
0.097247623 0.045815237 0.0070000291
0.098563813 0.045815237 0.0070000291
0.099880002 0.045815237 0.0070000291
0.10119619 0.045815237 0.0070000291
0.10251238 0.045815237 0.0070000291
0.10382857 0.045815237 0.0070000291
0.10512572 0.045754287 0.0090000033
0.1064381 0.045723811 0.0099999905
0.10776 0.045723811 0.0099999905
0.1090781 0.045693334 0.011000037
0.11040191 0.045693334 0.011000037
0.11172572 0.045632385 0.013000011
0.11305334 0.045632385 0.013000011
0.11438476 0.045601904 0.013999999
0.11571429 0.045601904 0.013999999
0.11705905 0.045540951 0.016000032
0.11839239 0.045540951 0.016000032
0.11972572 0.045540951 0.016000032
