# .PCD v0.7 - Point Cloud Data file format
VERSION 0.7
FIELDS x y z rgb
SIZE 4 4 4 4
TYPE F F F F
COUNT 1 1 1 1
WIDTH 981
HEIGHT 1
VIEWPOINT 0 0 0 0 1 0 0
POINTS 981
DATA ascii
0.1422497 0.041999362 0.035707712 2.1736217e-38
0.14210171 0.04442738 0.03405714 2.0444031e-38
0.14275557 0.08343479 0.027231395 1.6388525e-38
0.1422904 0.09028393 0.02770704 1.5102797e-38
0.14233029 0.094267547 0.027355254 1.4366674e-38
0.13709748 0.035711095 0.038307726 2.2477018e-38
0.13824505 0.038456395 0.03767395 2.229262e-38
0.13841471 0.041601874 0.035497606 1.9985946e-38
0.13905032 0.086989999 0.027133763 1.7316229e-38
0.13826835 0.09021093 0.027483344 1.2058192e-38
0.1385297 0.094135553 0.027637124 1.0405144e-38
0.13447446 0.035120115 0.038775206 2.0632402e-38
0.13454273 0.038094148 0.037355959 1.8142402e-38
0.13496488 0.040763579 0.036195993 1.5003459e-38
0.13431008 0.09089458 0.027632117 1.6752166e-38
0.13461076 0.094417453 0.028262436 1.0859626e-38
0.13053992 0.035212003 0.039307475 1.6757286e-38
0.13021922 0.037928537 0.037566066 1.5006268e-38
0.1293768 0.063304685 0.032826662 9.482092e-39
0.1302456 0.067116015 0.032559693 9.2962925e-39
0.1300467 0.070698276 0.032078683 9.6643393e-39
0.12976387 0.074792907 0.031386793 1.095148e-38
0.12946025 0.077675104 0.030077934 1.1590354e-38
0.13163981 0.091498926 0.027387619 1.971272e-38
0.13134499 0.093532965 0.028443336 1.6194279e-38
0.12660539 0.035303891 0.039839685 1.528145e-38
0.12633067 0.038250975 0.03821677 1.4730776e-38
0.12510113 0.04092215 0.037030578 1.4455261e-38
0.12635235 0.062644809 0.033757746 8.4693807e-39
0.12659426 0.067244716 0.034212768 7.0821694e-39
0.12721106 0.071070388 0.033068001 7.6357006e-39
0.12653947 0.0749643 0.032318592 9.1990648e-39
0.12667042 0.077826977 0.030440331 1.0936779e-38
0.12267086 0.035395786 0.040371895 1.4545287e-38
0.12260912 0.038564645 0.039150476 1.4269745e-38
0.12253197 0.041704319 0.037765563 1.3995712e-38
0.12117793 0.044916049 0.036887527 1.3071591e-38
0.12269031 0.062972471 0.034378767 6.0733943e-39
0.12332661 0.066036433 0.03499037 5.611354e-39
0.12280557 0.075441897 0.032853901 8.8230656e-39
0.12338898 0.077882275 0.031229317 1.2043129e-38
0.11961067 0.035249814 0.04082334 1.3715887e-38
0.11911105 0.038740188 0.040290415 1.1229122e-38
0.1186683 0.042549893 0.038897634 1.003023e-38
0.11843111 0.046174772 0.037436903 1.0399739e-38
0.11769063 0.05106768 0.036311209 9.3949341e-39
0.11878504 0.062616289 0.035075486 4.5067776e-39
0.12004783 0.06611301 0.035433888 4.5056804e-39
0.11864971 0.074867129 0.033093035 1.2327957e-38
0.11510888 0.043688729 0.039737463 9.4774047e-39
0.11474698 0.046567813 0.038863957 9.8479921e-39
0.11451593 0.050516076 0.037360787 8.5551233e-39
0.11453578 0.054135852 0.036989152 6.530425e-39
0.11458611 0.058471352 0.036873877 5.7042194e-39
0.11480179 0.061017491 0.037044466 5.7967724e-39
0.11341089 0.06869404 0.034888446 9.9391059e-39
0.11433582 0.071437135 0.034139812 1.5004492e-38
0.11529312 0.073670119 0.032742918 1.7862209e-38
0.11086726 0.044150755 0.040504575 1.6298036e-38
0.11085047 0.04672619 0.039834738 1.5190295e-38
0.11082484 0.05058682 0.03883028 1.3622615e-38
0.11081685 0.054479778 0.038045466 1.1965589e-38
0.11082589 0.058408223 0.037479758 1.0675233e-38
0.11074805 0.063128248 0.037244856 1.0490136e-38
0.11084207 0.067571536 0.036123157 1.4085758e-38
0.11202377 0.070494577 0.0337466 1.8326048e-38
0.10562122 0.036446214 0.042565584 2.2935109e-38
0.10627697 0.039039925 0.04202646 2.2928986e-38
0.10675154 0.043068595 0.041008711 2.0717011e-38
0.10687076 0.046718605 0.039707482 1.8694464e-38
0.10686278 0.050610118 0.038922906 1.7861441e-38
0.10686278 0.054518014 0.038248181 1.5648774e-38
0.10683233 0.058351763 0.037135303 1.4636038e-38
0.10726065 0.062662058 0.03621763 1.6389569e-38
0.10813648 0.066772714 0.035442829 1.768033e-38
0.1029982 0.035855226 0.043033063 2.2375819e-38
0.10297026 0.039055221 0.042029202 2.1727936e-38
0.10295576 0.042933628 0.04113394 1.97e-38
0.10291311 0.046744108 0.039799154 1.8138419e-38
0.10325269 0.050373994 0.038588524 1.7491618e-38
0.10352348 0.054433651 0.037703633 1.6389221e-38
0.10417736 0.057019889 0.037165999 1.6841961e-38
0.099034362 0.035879776 0.043068886 2.044186e-38
0.099005044 0.039069936 0.04200995 1.9885103e-38
0.098979592 0.042913556 0.040894508 1.8686216e-38
0.099731043 0.046457529 0.039609015 1.7860418e-38
0.10025415 0.049306981 0.039044201 1.7859337e-38
0.095102668 0.035971597 0.043600738 2.0807054e-38
0.095248118 0.038745269 0.042296648 2.0621943e-38
0.096330941 0.041594066 0.040922344 1.960457e-38
0.091147289 0.035996854 0.043635011 2.1728294e-38
0.091116071 0.03850995 0.042522669 2.2002014e-38
0.087218434 0.036088616 0.044166505 2.2189634e-38
0.087438338 0.038419783 0.042709112 2.2281118e-38
0.087218419 0.10773343 0.031796992 2.2582901e-38
0.087245569 0.10984755 0.032111168 2.3231484e-38
0.083283238 0.036157839 0.044532061 2.1911615e-38
0.083253577 0.037997216 0.043365061 2.1637179e-38
0.083738096 0.1102839 0.032183051 2.3042802e-38
0.079196982 0.035786524 0.045336068 2.1914476e-38
0.079984233 0.03807357 0.043807268 2.1454577e-38
0.080638103 0.11220139 0.030918002 2.2665749e-38
0.078079499 0.11666454 0.032552481 2.2945559e-38
0.075456478 0.033237159 0.047321677 2.0625198e-38
0.0756189 0.035334945 0.045912445 2.1362387e-38
0.076061025 0.11621055 0.030863404 2.2107894e-38
0.075003192 0.11874229 0.031939507 2.1466096e-38
0.071521945 0.033329055 0.047853887 2.0163149e-38
0.071500108 0.035130098 0.046351075 2.0071297e-38
0.071687609 0.11950491 0.031781912 1.7680686e-38
0.071516253 0.12325373 0.031987727 2.0259984e-38
0.067915298 0.033087157 0.048398077 1.7951889e-38
0.067379639 0.035451502 0.046454847 1.7490193e-38
0.06782762 0.11988728 0.03178525 1.4269487e-38
0.067747787 0.1232008 0.032607198 1.9343801e-38
0.068243168 0.12602584 0.032306492 2.2375805e-38
0.063652895 0.032860592 0.049031019 1.8225595e-38
0.063903682 0.035146557 0.047167361 1.6934472e-38
0.063905597 0.11903964 0.032887757 1.196529e-38
0.059980653 0.033076808 0.049505234 1.6848762e-38
0.059715346 0.035383262 0.04777813 1.7034221e-38
0.059714317 0.11659232 0.033074677 1.537137e-38
0.059717052 0.11831376 0.034484327 1.417572e-38
0.05597534 0.036500014 0.048155189 1.6203021e-38
0.054483369 0.038669132 0.047256827 1.5005187e-38
0.05644498 0.11666867 0.033516943 1.9708212e-38
0.05545824 0.11869729 0.034840643 1.9432696e-38
0.051855192 0.036959253 0.049283981 1.5278891e-38
0.051430121 0.039630599 0.047686815 1.4912639e-38
0.051860459 0.1189388 0.034617186 1.9246187e-38
0.048182666 0.037211433 0.050025046 1.4727517e-38
0.04810255 0.040008038 0.048298597 1.5188873e-38
0.047934093 0.11703449 0.035322189 1.7495214e-38
0.047924437 0.11915697 0.035640061 1.7957964e-38
0.044008046 0.040523916 0.049078703 1.6198363e-38
0.044000849 0.11720987 0.036181211 1.7401917e-38
0.043990545 0.11929123 0.036335588 1.6574331e-38
0.040058851 0.041167825 0.050371289 1.5924284e-38
0.0397643 0.04327625 0.048767924 1.5833878e-38
0.04040549 0.116906 0.036478519 2.0353965e-38
0.040045694 0.11918345 0.037415802 1.9246195e-38
0.036766924 0.041967802 0.051203907 1.3900651e-38
0.036139153 0.044461571 0.049950302 1.3713398e-38
0.036175072 0.046901256 0.048385918 1.435806e-38
0.035894357 0.11677867 0.036975324 2.0537639e-38
0.036111161 0.1189492 0.038004339 1.9710415e-38
0.032832392 0.045320965 0.051173031 1.1963815e-38
0.03221909 0.04842364 0.049552202 1.2242923e-38
0.030904628 0.051081449 0.049422681 1.2887197e-38
0.032233052 0.11670904 0.037394881 1.6848764e-38
0.032176629 0.1190411 0.038536608 1.5562326e-38
0.029116444 0.049538702 0.050962508 1.0121719e-38
0.027608 0.051235862 0.050367415 9.9369802e-39
0.028645255 0.11705539 0.037578821 1.3902482e-38
0.028256536 0.11904851 0.038739979 1.2983742e-38
0.02371534 0.053163178 0.049808741 8.0930774e-39
0.021789975 0.055041745 0.048984349 7.7225068e-39
0.022443838 0.11746275 0.038116276 1.0496952e-38
0.02344954 0.11959562 0.039315164 8.011278e-39
0.020482235 0.055072285 0.049161255 8.4582628e-39
0.021684542 0.11993839 0.039843261 8.9328839e-39
0.10030805 0.063325889 0.031114459 1.4273385e-38
0.086025886 0.063053109 0.03319633 1.2061409e-38
0.12230048 0.04329443 0.034962595 1.3904946e-38
0.095248118 0.038745269 0.042296648 2.0621943e-38
0.10340776 0.0634754 0.035500109 1.8690164e-38
0.098673753 0.064962007 0.035844445 1.8138788e-38
0.095960796 0.060835436 0.036944568 1.6574698e-38
0.094231367 0.071389332 0.034969687 1.5741322e-38
0.092542104 0.053102195 0.040145099 1.6203394e-38
0.083516046 0.10905749 0.032314718 1.6298118e-38
0.063652895 0.032860592 0.049031019 1.8225595e-38
0.15456074 0.039641865 0.038269341 2.2010643e-38
0.15583163 0.042402014 0.037274241 2.1734415e-38
0.15705343 0.046637401 0.03569001 2.1365993e-38
0.15652731 0.075039014 0.030859768 2.191773e-38
0.156443 0.078770444 0.030568659 2.1642204e-38
0.15576649 0.082161754 0.029940784 2.228399e-38
0.14929205 0.035834491 0.039660633 2.256455e-38
0.15102828 0.038469262 0.038498282 2.1919888e-38
0.15310758 0.040842369 0.037240207 2.1827324e-38
0.15260866 0.086947128 0.029554486 2.2475942e-38
0.15118867 0.090687186 0.029311478 2.1461797e-38
0.14992893 0.094739527 0.02923125 2.0999409e-38
0.14995065 0.098050803 0.02882719 2.2012852e-38
0.14639428 0.035378113 0.040143073 2.2381224e-38
0.14653115 0.037071168 0.038807392 2.2289741e-38
0.14784643 0.091333404 0.029255807 1.8693771e-38
0.14672768 0.094849095 0.029060662 1.8233515e-38
0.14661583 0.098053917 0.028949678 1.8879223e-38
0.14264575 0.035266608 0.040172338 2.2381581e-38
0.14258531 0.037163317 0.039341152 2.2377629e-38
0.14264575 0.09810926 0.029322505 1.3996814e-38
0.1389025 0.035156108 0.04020071 2.201532e-38
0.13995473 0.037224755 0.039696991 2.2286884e-38
0.13732415 0.096158057 0.02988857 1.0498771e-38
0.13884708 0.098660767 0.029628396 9.5732353e-39
0.13414459 0.032257833 0.042388201 2.210464e-38
0.13476726 0.033509314 0.041743875 2.2011727e-38
0.13337831 0.094941959 0.030648232 1.1866568e-38
0.13500085 0.098134369 0.030280709 1.0865737e-38
0.13085167 0.032334745 0.042833745 2.0259665e-38
0.13085167 0.033644885 0.042607546 1.942845e-38
0.13118616 0.095865339 0.030794144 1.057511e-38
0.13206303 0.097589195 0.030374408 1.0405133e-38
0.12690015 0.033737168 0.043142021 1.6848767e-38
0.1254866 0.071577519 0.035781443 6.8988572e-39
0.12294864 0.033829458 0.043676555 1.5281083e-38
0.12270728 0.068169579 0.037195921 5.2414995e-39
0.12329797 0.071949169 0.036753714 6.5297159e-39
0.12219839 0.07427083 0.035774469 7.3529886e-39
0.11851521 0.034957051 0.043587208 1.3531124e-38
0.1175949 0.039055228 0.042495787 1.0397199e-38
0.11767994 0.064740807 0.039073586 5.1496107e-39
0.11987524 0.067964897 0.038211226 5.056706e-39
0.1187968 0.072267875 0.037472069 6.6186493e-39
0.12022546 0.074316919 0.036041379 8.0847537e-39
0.11501788 0.035934828 0.044076264 1.5370734e-38
0.11499982 0.03917776 0.04329133 1.3255234e-38
0.11476554 0.042376757 0.043135881 1.2055259e-38
0.11483475 0.063727982 0.039352059 6.4392691e-39
0.11414102 0.068038434 0.038655758 6.9884898e-39
0.11632119 0.071229875 0.037630379 7.3616052e-39
0.11109409 0.036071524 0.044940829 2.1455972e-38
0.11108589 0.039331317 0.04426533 1.9890049e-38
0.11107275 0.042861894 0.043478668 1.7586586e-38
0.11233376 0.062726848 0.039141715 8.184882e-39
0.10582539 0.032919213 0.046218991 2.2936557e-38
0.10709593 0.035638094 0.044889688 2.3120211e-38
0.10838789 0.039270252 0.043741226 2.2928208e-38
0.1083879 0.041886777 0.043289483 2.1085037e-38
0.10319107 0.03298074 0.046575367 2.2748193e-38
0.10312676 0.034160063 0.045356393 2.2564872e-38
0.099239558 0.03307303 0.047109902 2.089962e-38
0.099180907 0.034252219 0.045890152 2.07163e-38
0.095275253 0.032805458 0.047452152 2.0990385e-38
0.09523505 0.034344375 0.046423912 2.0899258e-38
0.091336519 0.033257604 0.048178971 2.1912325e-38
0.091289207 0.034436524 0.046957672 2.1819771e-38
0.089996628 0.11243087 0.034184098 2.2474839e-38
0.087371424 0.03265164 0.048494339 2.2924695e-38
0.087371103 0.11253271 0.034702897 2.2854781e-38
0.083220154 0.032418981 0.048722684 2.2372243e-38
0.0833975 0.034620836 0.048025191 2.2094578e-38
0.083744779 0.11290395 0.034973323 2.3232214e-38
0.082774892 0.11468628 0.035312891 2.3142179e-38
0.079471849 0.02956266 0.050128102 2.1171184e-38
0.079451643 0.03209646 0.049010694 2.0898548e-38
0.080766931 0.034682274 0.048381031 2.1636819e-38
0.080124445 0.11593491 0.034954309 2.2674734e-38
0.078594364 0.11906689 0.03479743 2.2669689e-38
0.07684762 0.029010475 0.0509305 1.9883674e-38
0.075505786 0.031534478 0.049657345 1.9978741e-38
0.076163433 0.12048107 0.034209073 2.2573878e-38
0.074716613 0.12352386 0.0338853 2.1648314e-38
0.071559928 0.031626634 0.050191104 1.988548e-38
0.067351028 0.031594105 0.050783038 1.8042647e-38
0.066298798 0.12529038 0.034752965 2.127845e-38
0.066298798 0.12659863 0.034527063 2.2560202e-38
0.063675918 0.029973179 0.052599251 1.8225949e-38
0.063668221 0.031156808 0.051371574 1.8410685e-38
0.0627933 0.12109676 0.036306679 1.2056743e-38
0.064202778 0.12376696 0.03633225 1.6761288e-38
0.059724405 0.030065469 0.053133786 1.7123195e-38
0.059393555 0.031583712 0.051893353 1.6664366e-38
0.059724405 0.12112024 0.03741312 1.353147e-38
0.061041564 0.12305471 0.036895573 1.4737627e-38
0.056431465 0.030142367 0.053579152 1.6938084e-38
0.05577489 0.032691859 0.052547514 1.6477821e-38
0.055118881 0.035281271 0.051850438 1.6107957e-38
0.056037396 0.12123565 0.037496984 1.7310746e-38
0.0521525 0.033812568 0.05328542 1.6107601e-38
0.051830672 0.035358064 0.052295268 1.5647325e-38
0.051825084 0.12187439 0.03804177 1.8509341e-38
0.053138539 0.12323928 0.037964642 1.7860006e-38
0.049187019 0.034241982 0.053880513 1.5094895e-38
0.047879823 0.035930529 0.053088188 1.5094871e-38
0.047879197 0.12188116 0.038248837 1.7403366e-38
0.044808939 0.037747853 0.053202212 1.6476735e-38
0.043281324 0.039482519 0.052774131 1.6385251e-38
0.043918341 0.12214448 0.039438128 1.666437e-38
0.043918334 0.1234546 0.039211869 1.6571096e-38
0.040413998 0.12126809 0.039736032 1.8326399e-38
0.035694465 0.041399896 0.054268122 1.2611727e-38
0.036026262 0.12158893 0.040291846 1.7957288e-38
0.032722369 0.042487353 0.054750502 1.1689398e-38
0.031762704 0.044693887 0.053734958 1.1413873e-38
0.030786119 0.047623925 0.053109109 1.095327e-38
0.032076634 0.12168117 0.040826142 1.473363e-38
0.029429451 0.045839608 0.054630458 9.9437708e-39
0.02786576 0.048829392 0.053922355 9.5692598e-39
0.028141446 0.12168801 0.041031718 9.5693047e-39
0.026795104 0.12385452 0.041528165 8.4683493e-39
0.024160773 0.052295007 0.054249942 8.2767456e-39
0.024452813 0.12139875 0.041663826 5.2418652e-39
0.023996115 0.12506625 0.041708827 8.3826669e-39
0.023502171 0.12786183 0.041294992 1.4753502e-38
0.021526411 0.12266742 0.042467058 3.1275272e-39
0.021526426 0.12528771 0.042014718 8.6610657e-39
0.021526411 0.12790799 0.041562259 1.5121206e-38
0.085212089 0.075026602 0.022122979 1.9238624e-38
0.083809517 0.089317232 0.014350653 1.4911926e-38
0.081678323 0.094401374 0.011061072 1.3901775e-38
0.078910001 0.086630434 0.01209408 1.2886893e-38
0.076336533 0.077516899 0.016324282 1.3437532e-38
0.076152839 0.082771748 0.015749216 1.4816507e-38
0.082870819 0.092773914 0.014407158 1.6950318e-38
0.079960905 0.080509081 0.017659187 1.925233e-38
0.078908488 0.083688527 0.016337514 1.7773247e-38
0.071731366 0.090392292 0.017494321 1.6115155e-38
0.069392242 0.070983529 0.027669549 1.712425e-38
0.067857258 0.075757116 0.025393486 1.8046945e-38
0.064630501 0.073872194 0.026315689 1.8230613e-38
0.058633104 0.075392142 0.026407421 1.5189598e-38
0.056946903 0.069324151 0.029094577 1.6204125e-38
0.058067881 0.071861133 0.028767705 1.8507211e-38
0.051527679 0.072381496 0.029275596 1.6298111e-38
0.084779412 0.076786831 0.026508272 1.9795786e-38
0.10755612 0.07370311 0.026132643 2.2558055e-38
0.086102314 0.058416322 0.034814537 1.7494125e-38
0.087196082 0.077012599 0.030448437 1.5009164e-38
0.021197267 0.080037013 0.034838557 1.1138744e-38
0.018096067 0.079502255 0.034964502 1.1414967e-38
0.13351679 0.05155021 0.02787745 9.7561902e-39
0.10734333 0.059637368 0.029960752 9.296626e-39
0.082214557 0.059371889 0.034490168 1.2704622e-38
0.087440409 0.068693966 0.031310797 1.2520948e-38
0.111798 0.060954981 0.036908031 1.9152227e-38
0.12279175 0.044153333 0.037379682 1.9703597e-38
0.11803161 0.050406508 0.036349475 1.9518847e-38
0.050603777 0.047117703 0.042369425 1.7301822e-38
0.093158022 0.035503738 0.043834984 1.5927884e-38
0.095864192 0.068753287 0.03760159 1.2241826e-38
0.1187776 0.066352859 0.038642466 5.0570605e-39
0.10726669 0.055902041 0.04333061 1.8694818e-38
0.1058231 0.055160142 0.041355073 1.8966746e-38
0.10744727 0.072545215 0.030091345 8.3721838e-39
0.11276732 0.078041464 0.027167678 1.6575426e-38
0.15515825 0.098246008 0.032506764 2.2957435e-38
0.15127034 0.033829562 0.044852734 2.2748214e-38
0.1522173 0.035403721 0.041546822 2.2565254e-38
0.15351558 0.03732188 0.04086411 2.2289023e-38
0.1530416 0.094181046 0.031523108 2.2480633e-38
0.15299079 0.09799853 0.031485736 2.2487111e-38
0.15225472 0.10178377 0.031812727 2.2477396e-38
0.14848931 0.032663852 0.044417083 2.2563827e-38
0.14823179 0.034379527 0.042108119 2.2381236e-38
0.14843138 0.10218057 0.031967819 2.1645479e-38
0.14463732 0.030025899 0.046433449 2.2748933e-38
0.14443204 0.031793848 0.044449627 2.2656737e-38
0.14360848 0.033611573 0.042884767 2.2105364e-38
0.14386743 0.10195561 0.031700909 1.5841458e-38
0.14379171 0.10556695 0.031972587 1.6306375e-38
0.14065748 0.029591039 0.047062933 2.2655298e-38
0.14046228 0.031886563 0.044986606 2.2287965e-38
0.13964564 0.033704124 0.043420851 2.1277767e-38
0.14006573 0.10285154 0.031628847 9.3016412e-39
0.14031598 0.10614248 0.032357454 9.025067e-39
0.13648815 0.029273696 0.047698498 2.2375106e-38
0.13667434 0.031748414 0.04478693 2.2286865e-38
0.13766423 0.0337504 0.043688834 2.2013878e-38
0.13640457 0.1022303 0.032610357 9.7583174e-39
0.13656494 0.10585287 0.03344208 9.4842374e-39
0.13203454 0.026361644 0.048821688 2.1636456e-38
0.1325807 0.028848037 0.047178209 2.1822666e-38
0.1317724 0.031324491 0.045440555 2.1456766e-38
0.1321286 0.099415094 0.033891141 9.9427143e-39
0.13310002 0.10206707 0.034373522 1.0037058e-38
0.12871802 0.026439101 0.049270332 2.1086532e-38
0.1285845 0.028913632 0.047495961 2.0441531e-38
0.12775713 0.032010935 0.045369267 1.8046243e-38
0.1247168 0.029143468 0.049133182 1.8691231e-38
0.12451746 0.032172628 0.046475649 1.694059e-38
0.1209479 0.029636636 0.049800634 1.8136244e-38
0.12053633 0.032243848 0.046847045 1.555839e-38
0.11917098 0.068343565 0.040292501 5.1496177e-39
0.12049192 0.070940509 0.039660096 6.1601963e-39
0.11657162 0.029463433 0.04992801 1.841463e-38
0.1165568 0.032315359 0.047218323 1.6106187e-38
0.11586861 0.034259424 0.046637177 1.5185654e-38
0.11636397 0.067259468 0.040870667 6.344198e-39
0.11718956 0.069703743 0.040333688 5.9747121e-39
0.11275393 0.029755615 0.050336301 2.062516e-38
0.11243209 0.032743283 0.048109293 2.062408e-38
0.11322673 0.034321129 0.046994567 1.9795397e-38
0.10879841 0.029884189 0.051157713 2.2840405e-38
0.10826732 0.03244599 0.048594475 2.2843267e-38
0.10860342 0.034429103 0.047619939 2.3029798e-38
0.10479499 0.02955243 0.051382482 2.3021563e-38
0.10331963 0.03192471 0.048788369 2.2934025e-38
0.10041708 0.026220381 0.053250492 2.2557685e-38
0.10081895 0.029645287 0.051920354 2.2097796e-38
0.10001726 0.032001838 0.049235106 2.1360595e-38
0.09687946 0.025863156 0.053804934 2.1913021e-38
0.096818931 0.029683232 0.052015722 2.1267675e-38
0.097375378 0.032063536 0.049592435 2.0439363e-38
0.093089156 0.026328683 0.054252565 2.1727927e-38
0.092834055 0.029748559 0.052331984 2.1082575e-38
0.092752062 0.03217151 0.050217867 2.1728653e-38
0.091431126 0.11366385 0.03633219 2.2741371e-38
0.09254434 0.11556876 0.038409054 2.2742452e-38
0.088919826 0.027368568 0.054653883 2.2187479e-38
0.089059055 0.029484212 0.053098619 2.2741007e-38
0.088789232 0.031388134 0.050905168 2.2831052e-38
0.08882615 0.11590278 0.037162185 2.2563792e-38
0.088235699 0.11896633 0.038422644 2.2753224e-38
0.084940001 0.027131647 0.055249155 2.2648463e-38
0.084884144 0.029255547 0.053353846 2.292649e-38
0.084826387 0.031042725 0.051516831 2.3019395e-38
0.085098527 0.11596371 0.037022114 2.2859448e-38
0.084885523 0.11946645 0.037835658 2.2481693e-38
0.084940001 0.12246738 0.038789392 2.2570634e-38
0.080682732 0.026984736 0.05545789 2.2098873e-38
0.081202313 0.028858766 0.052654803 2.1912331e-38
0.081524022 0.11652301 0.03721863 2.323257e-38
0.081260182 0.11948998 0.037328482 2.2673643e-38
0.08041741 0.12326224 0.038872421 2.2480965e-38
0.076953813 0.026867226 0.055383027 2.1361674e-38
0.076460399 0.029048279 0.053026557 2.0252448e-38
0.077574931 0.12265679 0.037221909 2.3125619e-38
0.072819985 0.026499674 0.056278348 1.979112e-38
0.072948314 0.02941075 0.05396533 1.942521e-38
0.069000416 0.026354119 0.056238115 1.8779123e-38
0.068982653 0.02950336 0.054501772 1.8687656e-38
0.065032408 0.026499763 0.057220995 1.8134464e-38
0.065347217 0.029259793 0.055050254 1.8502536e-38
0.063698933 0.12508263 0.039248228 1.7137597e-38
0.063714288 0.12824121 0.040749371 2.053911e-38
0.06105718 0.027238496 0.057533443 1.6752986e-38
0.061052583 0.029052101 0.055855095 1.748948e-38
0.060259141 0.12453341 0.039412498 1.5837507e-38
0.061061077 0.12764341 0.041222155 1.8972157e-38
0.057082072 0.027661204 0.058014095 1.6107976e-38
0.057084784 0.029185757 0.056726277 1.6387434e-38
0.056821294 0.12461372 0.039877534 1.5102441e-38
0.057081252 0.12773636 0.041760564 1.7960168e-38
0.053101435 0.028205097 0.059499025 1.6572549e-38
0.05310975 0.030018434 0.057819128 1.7217171e-38
0.051802747 0.032470919 0.055870533 1.6567861e-38
0.05311738 0.12475184 0.040574491 1.7036007e-38
0.053112589 0.12813723 0.040878475 1.8050523e-38
0.052779086 0.13119712 0.040738046 1.7221847e-38
0.049576908 0.031239636 0.058441877 1.5095261e-38
0.04827524 0.033691064 0.056492686 1.4546033e-38
0.049147785 0.12476459 0.041330218 1.7494498e-38
0.0491428 0.12817134 0.041197956 1.7496988e-38
0.049147785 0.13134345 0.040194392 1.5384801e-38
0.045805097 0.032334082 0.059802592 1.3065167e-38
0.044978514 0.034429647 0.058092654 1.3807381e-38
0.045198023 0.036347881 0.05612123 1.5371478e-38
0.045163527 0.12519717 0.042629898 1.6573972e-38
0.046502113 0.13140523 0.040552199 1.4743745e-38
0.041427299 0.035867095 0.059802473 1.3531122e-38
0.041218273 0.038063779 0.057062209 1.5005938e-38
0.040574707 0.039959565 0.056141734 1.5558735e-38
0.040749826 0.12495866 0.043320179 1.5564847e-38
0.038508765 0.036463067 0.060106099 1.1135923e-38
0.037242293 0.03820169 0.057933807 1.2055697e-38
0.037272342 0.040036693 0.056588411 1.3164554e-38
0.037409522 0.12494299 0.043666244 1.4733651e-38
0.033481948 0.039428242 0.059884667 1.1041161e-38
0.033296965 0.041052066 0.057308316 1.1410315e-38
0.033249967 0.12530917 0.044133663 1.0858237e-38
0.032823287 0.12877415 0.044960558 1.280731e-38
0.028932244 0.043471597 0.05920583 8.9256841e-39
0.029016428 0.045156613 0.056854546 9.5749883e-39
0.029292434 0.12531558 0.044342399 9.1133908e-39
0.027895898 0.12907773 0.045594573 1.3549194e-38
0.025905982 0.044674546 0.060443997 8.6479916e-39
0.025152616 0.046926849 0.058495581 9.3844664e-39
0.024715208 0.049990371 0.056789875 8.832771e-39
0.022741951 0.0522011 0.056512356 8.3671405e-39
0.026044317 0.12438819 0.043589234 6.7234875e-39
0.026044317 0.12832987 0.042908669 1.3920507e-38
0.022029713 0.043820053 0.059082866 1.2243952e-38
0.021898553 0.047112547 0.058532715 1.1318061e-38
0.021036334 0.049634725 0.05733937 9.9358787e-39
0.021420993 0.0528889 0.056577623 8.4589886e-39
0.090996429 0.085133299 0.013019025 1.933949e-38
0.087844357 0.082537606 0.014863968 1.9246565e-38
0.08501257 0.080474302 0.013073802 1.6943124e-38
0.083085462 0.084705219 0.010683894 1.7036391e-38
0.083219267 0.080660254 0.013127804 1.7768919e-38
0.072112739 0.07808575 0.018515408 1.0951854e-38
0.069008321 0.086117625 0.017086148 1.3255298e-38
0.064904861 0.084597096 0.019689322 1.3257794e-38
0.064912729 0.060539186 0.026011646 1.565162e-38
0.061901264 0.074534327 0.026487648 1.8045511e-38
0.041837506 0.068502367 0.030181825 1.6573244e-38
0.063617416 0.075726405 0.028737605 1.7398337e-38
0.06014318 0.075943157 0.029006481 1.7677801e-38
0.08310964 0.04520829 0.038042784 2.1083647e-38
0.094863832 0.073183253 0.031045198 1.740265e-38
0.079583786 0.063902311 0.035370469 1.5650581e-38
0.10135007 0.069073156 0.032835543 1.5284311e-38
0.10337605 0.055987321 0.037216425 1.8966395e-38
0.11610734 0.063550457 0.034817815 1.8323173e-38
0.097022325 0.05118034 0.041365087 1.4267254e-38
0.10873014 0.059775695 0.042913258 2.1182681e-38
0.11923091 0.029452287 0.05253762 2.0812096e-38
0.11503421 0.068263695 0.04427129 2.0812812e-38
0.13147821 0.093622237 0.03467536 2.1373197e-38
0.14889371 0.026210681 0.05136466 2.3116292e-38
0.14896092 0.028937161 0.048750579 2.2839694e-38
0.14947501 0.03142529 0.04705441 2.2748215e-38
0.14887467 0.106932 0.034613907 2.2482773e-38
0.14889371 0.11056694 0.036800444 2.2769085e-38
0.14499286 0.02541092 0.051533997 2.2840412e-38
0.14478089 0.028187618 0.047925949 2.2749293e-38
0.14534099 0.10740106 0.034410655 1.9896245e-38
0.1449905 0.11119792 0.036906123 1.8795332e-38
0.14104792 0.025227621 0.05117625 2.2838978e-38
0.14077462 0.027930342 0.048357666 2.2931522e-38
0.14210311 0.10817453 0.034318388 1.2063648e-38
0.14094421 0.11119361 0.03543812 9.6647233e-39
0.14116566 0.11429848 0.036805987 1.1144871e-38
0.137235 0.022858724 0.05382365 2.2281858e-38
0.13687646 0.025139853 0.050179124 2.2003453e-38
0.13745338 0.027677551 0.048863947 2.2374384e-38
0.13678914 0.10829866 0.035037279 9.2101701e-39
0.13688821 0.11115372 0.035440922 1.0221088e-38
0.13673392 0.11532873 0.03741622 1.1786277e-38
0.13317396 0.022231393 0.053985417 2.2002722e-38
0.13302395 0.024794176 0.050271511 2.1082199e-38
0.13219136 0.10389654 0.036949933 9.4838759e-39
0.13298985 0.10748556 0.037527859 1.0129621e-38
0.13330011 0.11161119 0.038152218 1.1508967e-38
0.13450906 0.1151592 0.03775543 1.2707859e-38
0.12947765 0.022621095 0.054176927 2.1636819e-38
0.12884653 0.024891734 0.050836623 2.1178363e-38
0.13050377 0.10064505 0.040819228 6.8988306e-39
0.1305548 0.10407829 0.040731609 8.4704526e-39
0.12654665 0.023108341 0.05526942 2.1176565e-38
0.12495866 0.025483564 0.052348971 2.0072016e-38
0.12098517 0.025603279 0.053109527 1.9519555e-38
0.12018296 0.028080896 0.051200151 1.8689074e-38
0.11853041 0.023295559 0.056353748 2.1179769e-38
0.11706479 0.025800765 0.054531991 2.0997174e-38
0.11819022 0.028127439 0.051469684 1.9058498e-38
0.11585832 0.10309261 0.042949021 2.0638775e-38
0.11318624 0.023420379 0.057076752 2.2651693e-38
0.11306547 0.025893748 0.055073142 2.2376892e-38
0.11287625 0.028251544 0.052188516 2.1364164e-38
0.1135004 0.10408735 0.04284966 2.3412572e-38
0.10851008 0.023529574 0.057709217 2.2838612e-38
0.1090588 0.025973879 0.055503547 2.2837886e-38
0.10889076 0.028344624 0.05272764 2.2744991e-38
0.11051415 0.10853305 0.042754173 2.2848275e-38
0.10514855 0.023569599 0.057829082 2.2925787e-38
0.10383394 0.11666253 0.04228121 2.3325854e-38
0.10090408 0.022371992 0.057432175 2.2925763e-38
0.10180546 0.024986371 0.054294527 2.2833204e-38
0.10074636 0.1165939 0.042137861 2.3138586e-38
0.097153731 0.019808069 0.059933782 2.2834643e-38
0.097067982 0.022289395 0.057923913 2.2649889e-38
0.097765952 0.11390339 0.042578518 2.2760822e-38
0.09705095 0.11635558 0.041344225 2.2850847e-38
0.096806467 0.11975406 0.042470217 2.2758292e-38
0.092477575 0.019917272 0.060566247 2.311446e-38
0.093074337 0.022395074 0.058575809 2.2743884e-38
0.09228459 0.024768248 0.0556584 2.2649169e-38
0.093651392 0.11642858 0.040411055 2.2841102e-38
0.092863888 0.120141 0.040776014 2.2288302e-38
0.091809556 0.12358792 0.042760551 2.2843633e-38
0.090473518 0.019964077 0.060837388 2.3115175e-38
0.089079447 0.022501215 0.059227884 2.2929361e-38
0.08896336 0.025506526 0.055993676 2.2554105e-38
0.08950384 0.12055364 0.039713323 2.2659254e-38
0.088878758 0.12420276 0.041453123 2.2663562e-38
0.085086852 0.022620082 0.059991002 2.2466933e-38
0.084985062 0.025490738 0.056755364 2.2557689e-38
0.084779195 0.12504408 0.04123503 2.2473773e-38
0.081089012 0.023391053 0.060528696 2.1912684e-38
0.081333041 0.025383696 0.057333827 2.2096362e-38
0.081714883 0.12523544 0.041577637 2.2287946e-38
0.081121236 0.12782428 0.043518126 2.2561672e-38
0.07707832 0.023446232 0.060736418 2.11762e-38
0.077006914 0.025125057 0.057725072 2.1085091e-38
0.077725194 0.12605479 0.042248011 2.3215654e-38
0.078449138 0.12855113 0.04376483 2.3021214e-38
0.072889075 0.022926688 0.060342729 2.0348604e-38
0.074349925 0.025187105 0.058084428 2.0437924e-38
0.069051795 0.022780105 0.060262322 1.8780189e-38
0.065064058 0.022923082 0.061248362 1.749161e-38
0.065060019 0.12873718 0.042524874 2.1825525e-38
0.063721962 0.13180825 0.041156769 2.0537984e-38
0.061242491 0.023341313 0.06317389 1.4359861e-38
0.061066277 0.02553644 0.060216069 1.5093481e-38
0.061065644 0.12997672 0.042184532 2.0078847e-38
0.061397605 0.13159905 0.041772783 2.0078092e-38
0.057076991 0.02623637 0.061333835 1.6477464e-38
0.057079501 0.12998129 0.042397559 1.8883544e-38
0.053076684 0.026599705 0.063023329 1.6849138e-38
0.0490724 0.027414978 0.063952565 1.4359506e-38
0.048217885 0.030243069 0.061193287 1.3806694e-38
0.045328759 0.028363854 0.06485647 1.3347488e-38
0.044896834 0.031012394 0.063083887 1.2978e-38
0.044317707 0.12932807 0.044697821 1.5835711e-38
0.044453636 0.13232511 0.044007778 1.5116171e-38
0.042375997 0.029060841 0.065966964 1.2428388e-38
0.041066237 0.031608932 0.064571381 1.2424803e-38
0.040798865 0.034261584 0.061447561 1.2333663e-38
0.041095003 0.12950364 0.046527565 1.3350774e-38
0.040797517 0.13301611 0.047214627 1.5487111e-38
0.037104845 0.035509855 0.063100219 1.1044387e-38
0.03748522 0.12934472 0.046846628 1.1507916e-38
0.03771393 0.13335502 0.048097789 1.6225025e-38
0.033726506 0.037104003 0.064758897 1.0397221e-38
0.032243334 0.03863778 0.062652111 9.6636092e-39
0.035695791 0.13021407 0.049433351 1.0589935e-38
0.031687662 0.037283927 0.066036165 7.7318156e-39
0.029331312 0.040628962 0.064557612 9.1986598e-39
0.0291529 0.042192712 0.062127411 9.0167881e-39
0.029804923 0.12956056 0.047293901 1.3366979e-38
0.025675461 0.041411072 0.066161096 1.0307105e-38
0.025132276 0.043482237 0.063147664 1.03961e-38
0.09134917 0.084007353 0.014319479 1.8229185e-38
0.085461795 0.086118698 0.012555778 1.5925691e-38
0.083981425 0.090865582 0.011601031 1.2338391e-38
0.057089403 0.091452345 0.018795669 1.1689045e-38
0.052587323 0.071220234 0.02558881 1.4359838e-38
0.014760748 0.079351246 0.035267353 6.6218751e-39
0.057664804 0.063830003 0.031116843 1.6753323e-38
0.060540602 0.074377984 0.029059589 1.5649504e-38
0.092033125 0.061823905 0.030345976 2.1454589e-38
0.093008146 0.063566059 0.032418966 1.5557291e-38
0.058406003 0.04674235 0.038943112 1.7400866e-38
0.13483161 0.064368702 0.029168665 2.1180902e-38
0.10690735 0.058849275 0.03352499 1.7955472e-38
0.031062618 0.11391954 0.034454465 1.6393539e-38
0.11979128 0.062975124 0.033894539 1.8968189e-38
0.12302916 0.058648258 0.034298956 2.0072739e-38
0.094257057 0.070051074 0.038562179 1.3896699e-38
0.14830302 0.022946492 0.055339515 2.2841494e-38
0.14986131 0.024730787 0.054404676 2.2932614e-38
0.14955845 0.11261553 0.039000392 2.304783e-38
0.14683664 0.024197981 0.054303408 2.2840422e-38
0.14622906 0.11362223 0.039461076 2.1008764e-38
0.14458311 0.11605641 0.039526165 1.7499582e-38
0.14131944 0.022074446 0.055731297 2.2375833e-38
0.14151609 0.11702535 0.039359391 1.243381e-38
0.1429362 0.11915883 0.039476037 1.4917694e-38
0.13712297 0.021426335 0.056135118 2.2373675e-38
0.13842607 0.11740251 0.040066123 1.1326396e-38
0.13622768 0.11931551 0.040383518 1.4085062e-38
0.13347311 0.020549305 0.057136416 2.2188569e-38
0.13310048 0.11676934 0.040673435 1.3719142e-38
0.13488598 0.11934684 0.040565014 1.4546749e-38
0.12921116 0.021211684 0.057888865 2.1729378e-38
0.12879825 0.1013601 0.044006288 6.7097506e-39
0.12874912 0.1045803 0.042945027 7.4570532e-39
0.12941903 0.10856265 0.042164147 9.1176339e-39
0.1294965 0.11274663 0.042227745 1.0499136e-38
0.12971085 0.11641733 0.041791797 1.3074137e-38
0.1252791 0.021925598 0.058210909 2.1268753e-38
0.12683576 0.10218582 0.044649303 2.2977245e-39
0.12562588 0.10496329 0.043954134 6.6301876e-39
0.12546194 0.10881209 0.043355167 7.3659366e-39
0.12549406 0.11289348 0.042987525 7.8280078e-39
0.12616491 0.1155469 0.042435944 1.1604755e-38
0.12142453 0.022849247 0.058588386 2.053369e-38
0.12166063 0.10535707 0.044822752 4.8784468e-39
0.12191619 0.108751 0.044201195 5.8932924e-39
0.12180437 0.11264601 0.043544233 6.1674074e-39
0.11744384 0.023222357 0.059590757 2.1640036e-38
0.11741096 0.10551685 0.044977367 1.1682866e-38
0.11789108 0.11218137 0.044169664 8.4639716e-39
0.11408958 0.022410989 0.060198009 2.2469091e-38
0.11336769 0.10634945 0.045123756 2.1746549e-38
0.11340193 0.10912013 0.045095921 1.8598567e-38
0.11341874 0.11250824 0.044736207 1.6109735e-38
0.10972904 0.02284646 0.060730278 2.2656376e-38
0.10958974 0.10955882 0.044754446 2.303519e-38
0.10936211 0.11316346 0.044732869 2.2291157e-38
0.10469766 0.019961245 0.061929286 2.2652037e-38
0.10532471 0.021873027 0.060829043 2.2835009e-38
0.10532501 0.11453703 0.044830501 2.2861639e-38
0.10533123 0.11703658 0.044495642 2.3047821e-38
0.10131377 0.019318417 0.0619995 2.3113391e-38
0.1026227 0.021232583 0.060974538 2.3019393e-38
0.10195279 0.11453477 0.044959247 2.3046033e-38
0.1026227 0.11718445 0.044408441 2.3325493e-38
0.10132386 0.12004715 0.044777989 2.2769092e-38
0.097272888 0.01804354 0.062441111 2.2925756e-38
0.095976591 0.12292464 0.045367539 2.2751454e-38
0.093456469 0.018446013 0.063171566 2.3108708e-38
0.094583809 0.12270285 0.044575512 2.2567063e-38
0.093005545 0.12529334 0.044962704 2.2754312e-38
0.089239039 0.019137591 0.063542068 2.292575e-38
0.089917146 0.1269398 0.045006216 2.2573513e-38
0.087926365 0.12845081 0.045534849 2.2939416e-38
0.085217074 0.020343013 0.063894272 2.2465502e-38
0.086544901 0.1268886 0.044972718 2.2569562e-38
0.084572107 0.12852916 0.04598856 2.2569946e-38
0.081217855 0.020509608 0.065105498 2.2007027e-38
0.081185639 0.021733239 0.063874364 2.1914121e-38
0.077175654 0.021864109 0.064751804 2.1176913e-38
0.077166192 0.12844029 0.046011269 2.321134e-38
0.073161289 0.02066116 0.065860152 1.9610675e-38
0.074486561 0.021889694 0.064780533 2.0905729e-38
0.069135368 0.020403251 0.06629473 1.8045856e-38
0.066452101 0.020336419 0.066509426 1.6941313e-38
0.065117411 0.13165259 0.04815942 2.1642573e-38
0.065117411 0.13365442 0.047813833 2.0722011e-38
0.063775703 0.020916961 0.067464888 1.5465126e-38
0.057961658 0.024166688 0.067713797 1.4358385e-38
0.05411803 0.024299249 0.067816496 1.4820449e-38
0.050026506 0.024879202 0.06844002 1.4085425e-38
0.047008626 0.024616063 0.06890589 1.251847e-38
0.045671135 0.0266193 0.068490207 1.3256382e-38
0.04179503 0.027983844 0.068282425 1.2059597e-38
0.039625034 0.029488243 0.069349289 1.1689036e-38
0.037626572 0.032808393 0.068542302 1.0675976e-38
0.034269497 0.035797693 0.068664551 1.040225e-38
0.034727395 0.13174108 0.051694691 1.3088236e-38
0.031574823 0.036348961 0.069286227 7.9969077e-39
0.029582016 0.038997486 0.068594337 9.1068397e-39
0.026655249 0.03735356 0.069798172 1.2242134e-38
0.026222728 0.039764948 0.069100559 1.0674475e-38
0.022853747 0.041890807 0.069544256 1.4175362e-38
0.022853747 0.043225348 0.069313884 1.4083525e-38
0.088731289 0.074800834 0.019666672 1.8413202e-38
0.08578945 0.084253043 0.011583567 1.4636775e-38
0.066001087 0.084484413 0.015207469 1.3809515e-38
0.078469254 0.080950752 0.017412126 1.6859553e-38
0.059999987 0.065151162 0.025015116 1.1879539e-38
0.045010015 0.07968615 0.024081647 1.3899936e-38
0.025055088 0.10208513 0.02299422 9.4828151e-39
0.09740454 0.054712161 0.033158779 1.3532611e-38
0.14564544 0.056847841 0.028346181 1.9061098e-38
0.095574021 0.059526131 0.035033822 1.7031718e-38
0.11420856 0.054503568 0.036437571 1.8966743e-38
0.10744727 0.072545215 0.030091345 8.3721838e-39
0.092163622 0.054834053 0.038679421 1.8230274e-38
0.08323057 0.063088916 0.033753812 2.034824e-38
0.097159885 0.026022241 0.055274904 1.9334466e-38
0.1241364 0.021673284 0.060405433 2.1919527e-38
0.15057436 0.1141284 0.041329205 2.3232584e-38
0.14908963 0.11611137 0.041876495 2.3325494e-38
0.14598799 0.019326299 0.059360027 2.3023356e-38
0.14623272 0.020911574 0.058283985 2.2748932e-38
0.1465691 0.11696023 0.041654289 2.1652331e-38
0.14504942 0.12022437 0.041729212 1.8612028e-38
0.14190716 0.01871492 0.059692562 2.2742082e-38
0.1425015 0.020636231 0.05859524 2.2556622e-38
0.14160614 0.12059498 0.041871786 1.2799017e-38
0.13786663 0.018139198 0.060354888 2.2558772e-38
0.13846506 0.020730495 0.059141278 2.2740284e-38
0.13812831 0.1207267 0.042538404 1.2707173e-38
0.13382643 0.018233553 0.060901403 2.2098146e-38
0.13380927 0.12066849 0.043047667 1.5286469e-38
0.12978622 0.018327914 0.061447918 2.1729724e-38
0.12904672 0.11864606 0.043548107 1.3258542e-38
0.12971947 0.11996864 0.043226063 1.445709e-38
0.12574603 0.018422291 0.061994493 2.1729013e-38
0.12545136 0.10195722 0.047339976 7.900382e-39
0.12433755 0.10403478 0.046726763 5.5166766e-39
0.12550405 0.11780842 0.044332623 1.233835e-38
0.12667575 0.12073702 0.044541717 1.4825836e-38
0.12190252 0.018900171 0.062496126 2.2188547e-38
0.12164659 0.02112329 0.061416328 2.1360944e-38
0.12303742 0.10216984 0.047742009 1.1674628e-38
0.1216466 0.10409763 0.047090769 8.1737193e-39
0.12074961 0.10991785 0.046210885 5.4312142e-39
0.1213775 0.11373964 0.045463562 6.5340277e-39
0.12188984 0.11723386 0.045374334 7.459207e-39
0.11794579 0.019423187 0.063044846 2.2101386e-38
0.11735731 0.021781102 0.06210506 2.1916989e-38
0.11761016 0.10686849 0.047174692 9.7349227e-39
0.11761017 0.10954508 0.046712637 8.6469154e-39
0.11738592 0.1140113 0.045972705 9.0182539e-39
0.11765079 0.11635807 0.04604274 1.0303238e-38
0.11365123 0.01941143 0.063849986 2.2928637e-38
0.11323735 0.021654256 0.062496066 2.2655281e-38
0.11357372 0.11499253 0.046334326 1.7586371e-38
0.11338174 0.11711632 0.047018647 2.008067e-38
0.10957321 0.019451767 0.063898921 2.2560219e-38
0.1095373 0.021406092 0.063054383 2.2563442e-38
0.10939606 0.11769244 0.04683429 2.2385536e-38
0.10572144 0.018481702 0.064529836 2.2743151e-38
0.10684634 0.11916453 0.046551168 2.2582512e-38
0.10486121 0.12067448 0.047079146 2.29549e-38
0.10148522 0.017614596 0.065172017 2.3109792e-38
0.10085126 0.12223357 0.047880709 2.2489267e-38
0.096782207 0.015732788 0.066322803 2.2739902e-38
0.098128624 0.12284103 0.047642946 2.2578562e-38
0.096082523 0.12476911 0.04708302 2.2659617e-38
0.094305575 0.015996635 0.06645155 2.3017583e-38
0.094064303 0.12682369 0.047009408 2.2660683e-38
0.092093386 0.12913898 0.047908485 2.2661048e-38
0.089355133 0.017862551 0.066477597 2.311013e-38
0.090027869 0.1289254 0.047208846 2.2663192e-38
0.086690672 0.018888287 0.067354441 2.2648087e-38
0.08735773 0.12978876 0.04794389 2.3028733e-38
0.082661845 0.019465089 0.068157613 2.2188898e-38
0.081314467 0.1307309 0.049135149 2.2846156e-38
0.078415081 0.019517466 0.068301141 2.0717735e-38
0.077272378 0.1308253 0.049681962 2.3118775e-38
0.077946059 0.13214973 0.049359441 2.3117327e-38
0.074756853 0.01920487 0.068718433 1.9058563e-38
0.074914485 0.13054532 0.050058782 2.302693e-38
0.074577652 0.1322284 0.049815178 2.2560579e-38
0.070523523 0.019229889 0.069206238 1.7126795e-38
0.071209244 0.1309669 0.050502121 2.2471947e-38
0.070535563 0.13276953 0.050284803 2.1734746e-38
0.065809272 0.019750752 0.069431603 1.6204848e-38
0.066482015 0.13215189 0.049931824 2.2102459e-38
0.066821709 0.13455284 0.049726009 2.0537626e-38
0.11425595 0.086740181 0.013729751 2.3140746e-38
0.093024626 0.09062846 0.0095043182 1.6576129e-38
0.072223045 0.089079812 0.017254114 1.5200379e-38
0.052786998 0.098505691 0.020944059 1.6017536e-38
0.045595981 0.070039585 0.02851069 1.6110836e-38
0.052301913 0.064915478 0.031546295 1.4175802e-38
0.10254635 0.042610481 0.036637366 1.8504682e-38
0.091843635 0.058984727 0.032683671 1.5189962e-38
0.10488421 0.061108917 0.033238828 1.5927525e-38
0.10675154 0.043068595 0.041008711 2.0717011e-38
0.11991483 0.057736598 0.034496665 1.7863983e-38
0.12875643 0.053936541 0.03485775 1.7308658e-38
0.095915899 0.03884428 0.043944597 1.5006999e-38
0.10709593 0.035638094 0.044889688 2.3120211e-38
0.097821727 0.038909368 0.046427727 1.9795073e-38
0.091285318 0.076680616 0.039767146 1.8787029e-38
0.075284317 0.1234266 0.040762722 1.5751445e-38
0.085615247 0.12763199 0.046510339 2.2935832e-38
0.14660192 0.015812218 0.065002739 2.108978e-38
0.14629495 0.01757583 0.062180281 2.1737295e-38
0.14703286 0.12123944 0.044692039 2.2025423e-38
0.14553618 0.12391125 0.045122147 2.2021467e-38
0.14229725 0.015704438 0.063572347 2.1637932e-38
0.14218013 0.016946942 0.062349856 2.2374755e-38
0.14182444 0.12434211 0.045496523 1.5564547e-38
0.1411747 0.12795226 0.046397746 1.8884261e-38
0.13812672 0.01569768 0.0631302 2.2651325e-38
0.13826253 0.12486613 0.04551518 1.4827309e-38
0.13826728 0.12898414 0.046624601 1.7777206e-38
0.1371043 0.13277078 0.046132863 7.7225474e-39
0.1340733 0.015792347 0.063678503 2.2558412e-38
0.13272217 0.12199411 0.045530975 1.5748528e-38
0.13427316 0.12513092 0.046708167 1.6024396e-38
0.13439071 0.12811071 0.047315419 1.7497746e-38
0.1297558 0.015633918 0.065075517 2.2465485e-38
0.13001987 0.12205723 0.045896471 1.5103168e-38
0.13047151 0.12438822 0.047274947 1.5472302e-38
0.12596646 0.015981674 0.064775109 2.2556253e-38
0.12506571 0.12172495 0.046643972 1.3445771e-38
0.12606095 0.12374793 0.047180414 1.2890491e-38
0.12207558 0.015588738 0.067262948 2.2926117e-38
0.12123749 0.017436042 0.065182805 2.2372581e-38
0.12123749 0.11957449 0.047548532 8.5644742e-39
0.12204535 0.12194955 0.048562527 1.0865761e-38
0.12353632 0.12431553 0.049482703 9.4832131e-39
0.11792956 0.015582651 0.066817164 2.3296339e-38
0.11752185 0.017858803 0.065627396 2.2927199e-38
0.11788313 0.11876394 0.048448443 1.1044393e-38
0.11844832 0.12207264 0.050578713 1.611263e-38
0.1139231 0.015745044 0.068030238 2.3295628e-38
0.11380622 0.017609596 0.066188037 2.3295266e-38
0.11420213 0.11958933 0.049294233 2.1464665e-38
0.11369951 0.12218353 0.051221073 2.2576781e-38
0.10961075 0.016011335 0.068892241 2.3110158e-38
0.1097528 0.017704263 0.066736341 2.2924332e-38
0.11110394 0.11981115 0.04891932 2.2292268e-38
0.10986151 0.12223411 0.050210655 2.2299099e-38
0.10861151 0.1246641 0.051501572 2.2301274e-38
0.10608988 0.016093567 0.069368482 2.3201273e-38
0.10607073 0.1224068 0.049684525 2.2487079e-38
0.10608056 0.12545337 0.051035106 2.2388407e-38
0.10589792 0.12877613 0.051169693 2.2564924e-38
0.10240538 0.01599668 0.069420516 2.3199823e-38
0.10299711 0.12268832 0.049551904 2.2682995e-38
0.10223339 0.12591368 0.050684512 2.2390938e-38
0.10318431 0.12883952 0.051536739 2.2568115e-38
0.099471621 0.015840895 0.069856048 2.237365e-38
0.098296024 0.12628698 0.050097644 2.2476673e-38
0.099113911 0.12893458 0.052087367 2.248277e-38
0.096241415 0.12687787 0.04976964 2.2567781e-38
0.095233545 0.1294179 0.050905645 2.2658887e-38
0.090882272 0.13129853 0.050777256 2.2747488e-38
0.089616314 0.13320506 0.052673101 2.2651328e-38
0.086186446 0.13167191 0.05239135 2.2940126e-38
0.086902708 0.13326845 0.053040147 2.2751054e-38
0.083423592 0.13134086 0.05129689 2.2847608e-38
0.082334913 0.13392073 0.052198172 2.2939084e-38
0.081475519 0.13744386 0.053075314 2.3028346e-38
0.080027752 0.13128832 0.051266789 2.2929375e-38
0.078894809 0.13461722 0.051727891 2.3025521e-38
0.080118708 0.13747555 0.053258836 2.3212387e-38
0.074634582 0.13490878 0.051905215 2.1548576e-38
0.07059186 0.13484018 0.053402126 2.1456012e-38
0.067880847 0.13452733 0.053424001 2.0997889e-38
0.067880847 0.13721892 0.052959263 1.9344128e-38
0.094759785 0.087314785 0.015635014 1.5096295e-38
0.090958312 0.087077811 0.010749519 1.5837847e-38
0.064357966 0.079660058 0.020990491 1.5558014e-38
0.060788043 0.074522719 0.022632837 1.4543139e-38
0.017479077 0.089620203 0.031810999 1.1323488e-38
0.071114615 0.068796769 0.027233362 1.7316933e-38
0.097697496 0.055873476 0.033608079 1.7311877e-38
0.091176316 0.0735953 0.033718169 1.5283611e-38
0.090124592 0.067660287 0.034267843 1.4268017e-38
0.1083879 0.041886777 0.043289483 2.1085037e-38
0.084940001 0.027131647 0.055249155 2.2648463e-38
0.063714288 0.12824121 0.040749371 2.053911e-38
0.14808339 0.12264512 0.047375917 2.3316868e-38
0.14721859 0.12610039 0.048743665 2.3323691e-38
0.1460391 0.12983127 0.049236894 2.0914712e-38
0.14572871 0.13295689 0.048996627 1.7401563e-38
0.14294146 0.012871481 0.069605529 1.9615351e-38
0.14264864 0.014657274 0.06677717 2.0993266e-38
0.14332798 0.12613477 0.04743588 1.8889704e-38
0.14302438 0.13014805 0.048577785 1.8510787e-38
0.14270335 0.13351727 0.049116433 1.0960121e-38
0.13902283 0.012650698 0.069970071 2.0993968e-38
0.13857257 0.014752463 0.067328513 2.2832844e-38
0.13925192 0.13095999 0.047170639 1.7399751e-38
0.13449651 0.014847666 0.067879915 2.2650967e-38
0.13452621 0.13018039 0.048256278 1.9344145e-38
0.1345364 0.13413945 0.049327254 9.1065286e-39
0.13109979 0.014926992 0.068339348 2.2373299e-38
0.13012992 0.12690991 0.049652755 1.5654883e-38
0.13102353 0.13016872 0.05064851 1.8238519e-38
0.13208523 0.13463259 0.05060786 1.305478e-38
0.1263444 0.015038051 0.068982661 2.3205197e-38
0.12665468 0.12649226 0.050106525 1.243058e-38
0.12210318 0.1257216 0.051693082 1.390531e-38
0.11751293 0.12335908 0.051511228 2.0917575e-38
0.11815235 0.12613642 0.052845061 2.1936396e-38
0.11479555 0.12342255 0.05187881 2.3230405e-38
0.11461648 0.12630415 0.052869618 2.3324774e-38
0.11434871 0.12961856 0.05394429 2.341769e-38
0.11106881 0.12679149 0.0535236 2.267581e-38
0.11127892 0.13002953 0.054300964 2.277124e-38
0.10807207 0.12789196 0.053068161 2.2388071e-38
0.10744973 0.13083862 0.053524137 2.2392398e-38
0.10616262 0.13455948 0.054231584 2.2675097e-38
0.10330912 0.13138741 0.053128123 2.2476645e-38
0.10343392 0.13394468 0.054717839 2.2665729e-38
0.099227399 0.13148274 0.053680301 2.2576757e-38
0.099156387 0.13516563 0.054846823 2.2936558e-38
0.097976528 0.13814333 0.054753184 2.2659473e-38
0.095129907 0.13216627 0.053791642 2.2749652e-38
0.095622778 0.13521443 0.055294096 2.2750355e-38
0.091278732 0.13548897 0.05512017 2.2756472e-38
0.091154784 0.13830265 0.055675983 2.3311362e-38
0.086781308 0.13645141 0.056399941 2.2759709e-38
0.085697398 0.1384301 0.056414187 2.3404305e-38
0.083796196 0.13603851 0.054701924 2.2847596e-38
0.083633818 0.13969976 0.055970252 1.9614597e-38
0.077975139 0.13887797 0.054339647 1.9617876e-38
0.075013354 0.13873351 0.056006312 1.9522082e-38
0.070638224 0.13661674 0.055752099 2.0905732e-38
0.07176242 0.1392982 0.05718118 1.8970688e-38
0.069317609 0.13935557 0.058024049 1.8606215e-38
0.09668465 0.089413285 0.0088018179 1.7869738e-38
0.090248503 0.076527417 0.017300725 1.5181619e-38
0.045036614 0.079383165 0.024386168 1.0306102e-38
0.026183657 0.11294682 0.028131843 1.2242553e-38
0.028427251 0.083791316 0.028789997 1.113909e-38
0.064394943 0.054162033 0.034232259 1.7123918e-38
0.1031002 0.056099296 0.033036411 1.7122466e-38
0.06873145 0.048649654 0.03433001 1.7583807e-38
0.11050321 0.062743172 0.036328197 1.6847328e-38
0.092173785 0.077622488 0.036267519 1.1049063e-38
0.036766924 0.041967802 0.051203907 1.3900651e-38
0.10469766 0.019961245 0.061929286 2.2652037e-38
0.10148184 0.12353241 0.046160221 1.9164798e-38
0.092545405 0.11194608 0.041270077 1.2155782e-38
0.14460239 0.13487518 0.050870836 1.2989158e-38
0.12960216 0.1319553 0.053976715 2.0081701e-38
0.13092117 0.13383386 0.052956462 1.8149535e-38
0.12818491 0.12981531 0.054031432 1.5747822e-38
0.12207183 0.1287263 0.055583179 1.8511886e-38
0.12143125 0.13023299 0.055924475 2.3395356e-38
0.11933465 0.12879023 0.055953443 2.2676114e-38
0.11869122 0.13029699 0.056295097 2.3416582e-38
0.11589167 0.13084829 0.055821717 2.341769e-38
0.1117914 0.13210052 0.056262076 2.3048549e-38
0.10903122 0.13298428 0.056152523 2.2578224e-38
0.10704614 0.13601974 0.05692929 2.2766565e-38
