# .PCD v0.7 - Point Cloud Data file format
VERSION 0.7
FIELDS x y z rgb
SIZE 4 4 4 4
TYPE F F F F
COUNT 1 1 1 1
WIDTH 981
HEIGHT 1
VIEWPOINT 0 0 0 0 1 0 0
POINTS 981
DATA ascii
0.14913505 0.067160472 0.017754436 1.4546396e-38
0.1598568 0.069212541 0.018656313 1.2703555e-38
0.16186284 0.075807586 0.017530203 1.3902829e-38
0.16731568 0.052564666 0.029537678 1.5283597e-38
0.17474329 0.090990707 0.020597041 1.3259619e-38
0.18659168 0.041391507 0.042229652 2.0631289e-38
0.18636408 0.043962866 0.040496945 1.8784479e-38
0.18596232 0.046757564 0.038479507 1.6110094e-38
0.18774852 0.097237423 0.023008049 1.7038176e-38
0.18297373 0.04180561 0.041850686 2.2016408e-38
0.1818673 0.044014737 0.040307999 2.1829832e-38
0.18243182 0.046459734 0.038004875 1.8869138e-38
0.18358293 0.093174294 0.022117257 1.6576479e-38
0.18327236 0.097243354 0.022305667 1.7499177e-38
0.17664406 0.041037843 0.041080952 2.2102479e-38
0.17821324 0.04367213 0.038995743 2.1731906e-38
0.17969756 0.094078109 0.021033585 1.6760536e-38
0.17959735 0.096882656 0.021115184 1.8141323e-38
0.17909747 0.10048841 0.020853221 2.0076693e-38
0.17398158 0.040620252 0.040484011 2.1732281e-38
0.17453192 0.042762876 0.037994504 2.1731896e-38
0.17638849 0.096869126 0.019702017 1.8325356e-38
0.17566586 0.1004497 0.019769371 1.9338399e-38
0.17005584 0.037240878 0.040891588 2.1915575e-38
0.17051455 0.039926499 0.039273143 2.1454961e-38
0.17075525 0.042665124 0.03741014 2.1087964e-38
0.17224225 0.097497985 0.018626451 1.6390664e-38
0.17222911 0.10008617 0.018202305 1.7588842e-38
0.17138758 0.10310723 0.018682301 1.7865447e-38
0.16649592 0.036495283 0.039618909 2.1822649e-38
0.16706738 0.039214909 0.038003683 2.126984e-38
0.16814269 0.097090825 0.018096685 1.537581e-38
0.16838817 0.10012127 0.017918408 1.6206982e-38
0.16886228 0.10304184 0.018291593 1.6664363e-38
0.16320592 0.034046724 0.041307092 2.1455295e-38
0.1628948 0.036042377 0.039135516 2.1086519e-38
0.16341043 0.038561121 0.037631869 2.0902488e-38
0.16448572 0.096437052 0.017724991 1.4548921e-38
0.16444024 0.10037775 0.01813513 1.5103526e-38
0.1585177 0.035878047 0.038297534 2.0533341e-38
0.15805198 0.038121358 0.036907315 2.0347159e-38
0.16067083 0.096966878 0.018140733 1.4549263e-38
0.15996927 0.099523738 0.017878115 1.4917329e-38
0.15434131 0.036048383 0.037325203 2.0072374e-38
0.15531281 0.096417233 0.016444325 1.4639652e-38
0.15558936 0.099544749 0.016975343 1.5192463e-38
0.1505333 0.035993829 0.036873817 1.970251e-38
0.15175752 0.037958428 0.035933435 1.9796498e-38
0.15197518 0.095946893 0.01632303 1.4457063e-38
0.1517345 0.099578872 0.01668942 1.5193186e-38
0.14633162 0.035973102 0.036499143 1.9425556e-38
0.14672196 0.037828103 0.035154283 1.9241888e-38
0.14757952 0.092644677 0.01627326 1.3720213e-38
0.14819579 0.095849082 0.015738308 1.4363424e-38
0.14801688 0.099348411 0.015803814 1.4916241e-38
0.142564 0.036377475 0.036583602 1.9150767e-38
0.14292863 0.039003477 0.034363568 1.8690162e-38
0.14569119 0.092595801 0.015981019 1.3812403e-38
0.14439231 0.095794842 0.015253425 1.408934e-38
0.14401618 0.099580541 0.015272379 1.4458139e-38
0.13904619 0.036665559 0.036175489 1.9241507e-38
0.13912573 0.038939685 0.033882082 1.8690157e-38
0.13863721 0.041231662 0.032649696 1.7952246e-38
0.1404071 0.092579499 0.015121758 1.353584e-38
0.14058816 0.095698819 0.015599012 1.3810979e-38
0.1416169 0.098713055 0.015333593 1.3995744e-38
0.13615721 0.036970243 0.035864592 1.9332996e-38
0.13521793 0.039012328 0.033812225 1.8505766e-38
0.13509214 0.04194276 0.031822681 1.7768927e-38
0.13686261 0.09176518 0.014824092 1.3536567e-38
0.13659933 0.09536536 0.015138268 1.3627667e-38
0.13149753 0.039430574 0.033636093 1.8228462e-38
0.13083263 0.042269126 0.031499088 1.767744e-38
0.12929359 0.044602633 0.02995044 1.7309026e-38
0.1317486 0.088742569 0.015035748 1.39046e-38
0.1323768 0.091780141 0.01444155 1.3812773e-38
0.13248987 0.094957009 0.01460731 1.3996815e-38
0.12678564 0.040351287 0.033157229 1.8138777e-38
0.12654753 0.042335033 0.031001806 1.7125365e-38
0.1280347 0.044570044 0.029755652 1.7585617e-38
0.12725753 0.085495189 0.015427351 1.3996098e-38
0.12789804 0.088006809 0.014898777 1.3444006e-38
0.12765096 0.092014626 0.014970005 1.2798992e-38
0.13015467 0.094792739 0.014817536 1.381315e-38
0.12265494 0.042375639 0.030826569 1.4268701e-38
0.12366886 0.08459948 0.015150785 1.1322773e-38
0.12400921 0.088078693 0.014713228 1.0864694e-38
0.12400872 0.091493204 0.014956355 1.1324941e-38
0.11898313 0.042498603 0.029757738 1.417471e-38
0.11922246 0.044341967 0.028392196 1.4359443e-38
0.11960967 0.081112847 0.016124487 1.1047965e-38
0.12001671 0.084528103 0.015767753 1.1416037e-38
0.1203838 0.08796905 0.015228868 1.0590243e-38
0.12121776 0.090937838 0.014692187 1.0959009e-38
0.11615142 0.043699667 0.030254543 1.3167405e-38
0.115613 0.045731083 0.028237462 1.1963821e-38
0.11555912 0.049954101 0.026559174 1.1599715e-38
0.11483993 0.053756267 0.024836421 9.753305e-39
0.1145464 0.057467923 0.023071945 6.7076164e-39
0.11462809 0.060480714 0.02203995 4.5053357e-39
0.11601771 0.065333769 0.020583391 4.3284932e-39
0.11736088 0.078386351 0.01734513 1.0038485e-38
0.11713478 0.079961285 0.017832637 1.0589496e-38
0.11267486 0.055084467 0.025734842 8.1888869e-39
0.11302216 0.057770804 0.023788452 6.7155337e-39
0.11308761 0.060184658 0.022961617 5.060313e-39
0.10028392 0.091362283 0.011117995 1.5007394e-38
0.099357367 0.1004286 0.0056781173 1.4551075e-38
0.094669253 0.089042798 0.011003613 1.9424484e-38
0.096628785 0.091509268 0.010468602 1.7862185e-38
0.09655793 0.095240846 0.009162128 2.2286091e-38
0.096861571 0.098358408 0.00735116 1.8133329e-38
0.096839577 0.10036342 0.0052885413 1.4728984e-38
0.091291264 0.088552728 0.010620713 2.2836066e-38
0.092407659 0.09113799 0.0091923475 2.2002734e-38
0.092604488 0.094630405 0.0076557398 2.3121681e-38
0.092833266 0.098075166 0.0060217977 2.1457807e-38
0.093692347 0.10028197 0.004801631 1.6096459e-38
0.087626338 0.085236892 0.011171401 2.2843621e-38
0.088434219 0.087484941 0.0095863938 2.2743521e-38
0.089069515 0.090675667 0.0077799559 2.1264815e-38
0.088955745 0.094359383 0.0066764355 2.2103569e-38
0.08902061 0.098021522 0.0055352449 2.3119852e-38
0.088506177 0.10035129 0.0044640899 2.1090383e-38
0.084607691 0.084363237 0.01044488 2.218711e-38
0.085233256 0.086582378 0.0084767342 2.1266261e-38
0.086719424 0.098295078 0.0043495893 2.2654222e-38
0.079952061 0.081414625 0.011241436 2.1360909e-38
0.080965221 0.083433583 0.0091001391 2.1175453e-38
0.081792787 0.10218181 0.0021944046 1.9428768e-38
0.077250242 0.083292648 0.0088384151 1.6473134e-38
0.075046271 0.085348085 0.0069313049 1.3712686e-38
0.077408463 0.10287119 0.0012375116 1.8599028e-38
0.074691027 0.084518358 0.0082321167 1.3341387e-38
0.072467938 0.086596057 0.0063822865 1.3343511e-38
0.071997091 0.088881984 0.0052058101 1.5003403e-38
0.069746122 0.088008597 0.0062115192 1.3808822e-38
0.069495633 0.08941935 0.0046098828 1.4361986e-38
0.069577351 0.092432156 0.0035778284 1.3718084e-38
0.15298776 0.081471831 0.014609158 1.2983388e-38
0.16627944 0.064295724 0.022536874 1.4269803e-38
0.17271042 0.062557504 0.023954749 1.6388128e-38
0.17985198 0.060684666 0.026220024 1.5741682e-38
0.18010177 0.066831455 0.02568996 1.3350008e-38
0.17796913 0.065644145 0.025480151 1.4824055e-38
0.11602889 0.073812172 0.01589787 1.5099551e-38
0.12248597 0.09132944 0.011015177 1.3719861e-38
0.15685874 0.094498947 0.015006781 1.4085416e-38
0.16448572 0.096437052 0.017724991 1.4548921e-38
0.18549812 0.040170163 0.043902576 2.1275966e-38
0.18688498 0.099076793 0.023688972 1.7037469e-38
0.18704583 0.10198505 0.024634004 1.7866518e-38
0.18528277 0.1050954 0.024551451 1.9895955e-38
0.18102667 0.038608804 0.046390057 2.2292999e-38
0.18135349 0.040718108 0.043033957 2.2659983e-38
0.18296191 0.10188921 0.023379862 1.8418636e-38
0.18279114 0.10523288 0.02382803 1.9805898e-38
0.17578214 0.035590336 0.047114491 2.1828419e-38
0.17724922 0.037817433 0.04574883 2.2197549e-38
0.17807865 0.040611744 0.042534769 2.2382664e-38
0.18022834 0.10213031 0.021539748 1.9703256e-38
0.17912194 0.10539623 0.022367477 2.0258931e-38
0.17324176 0.035524607 0.046721458 2.1917379e-38
0.17355934 0.037516281 0.04453522 2.2010648e-38
0.17452788 0.039482996 0.042345226 2.1827342e-38
0.17686719 0.10244651 0.020879686 2.0167434e-38
0.17518491 0.10543872 0.021574259 1.952137e-38
0.16944471 0.03476803 0.046183884 2.1733688e-38
0.17014904 0.036349371 0.043786705 2.1916295e-38
0.17183803 0.1056089 0.020336151 1.8600484e-38
0.17173548 0.10869373 0.021085083 1.9982702e-38
0.16571128 0.033810377 0.044476926 2.136526e-38
0.16684218 0.035655037 0.042415321 2.2191443e-38
0.16775334 0.10532765 0.019306123 1.6849824e-38
0.16767679 0.10875498 0.020042479 1.7495192e-38
0.16194159 0.033107653 0.04372108 2.0904282e-38
0.16416201 0.10481082 0.018693507 1.5930038e-38
0.1638675 0.10865639 0.019453049 1.6574341e-38
0.15710917 0.030957058 0.045308352 1.9887288e-38
0.1583171 0.033383638 0.043116987 2.0534793e-38
0.16016218 0.10153027 0.018463016 1.4824783e-38
0.16019185 0.10507114 0.018905222 1.455e-38
0.15999456 0.10869364 0.019163132 1.5562699e-38
0.15399122 0.027735904 0.046272755 2.0074883e-38
0.15361646 0.030309632 0.044997036 1.9797591e-38
0.15385996 0.033302084 0.04253459 2.0257829e-38
0.15293229 0.03529501 0.040263116 2.0256034e-38
0.15600234 0.10190646 0.017651439 1.4733658e-38
0.15563297 0.10520302 0.018767774 1.4917702e-38
0.15680262 0.10800348 0.01888001 1.5282874e-38
0.14931872 0.030956402 0.044390321 1.9426649e-38
0.14928535 0.033386722 0.042470455 1.9703937e-38
0.14913867 0.035196826 0.039676249 1.961209e-38
0.15143836 0.10205857 0.017565608 1.5009877e-38
0.15110794 0.10461481 0.018588126 1.5102437e-38
0.14540856 0.033386692 0.042192876 1.9425192e-38
0.14618045 0.03573291 0.041148067 1.9330115e-38
0.14778286 0.10169376 0.016379774 1.4825127e-38
0.14730023 0.10451628 0.017998993 1.4916604e-38
0.14147078 0.034094736 0.042016625 1.9242244e-38
0.14174139 0.035618022 0.040461242 1.9242975e-38
0.14418647 0.10241131 0.017684162 1.4733646e-38
0.14348972 0.10435762 0.016588748 1.5101352e-38
0.13766024 0.03399612 0.041427076 1.9517383e-38
0.13787818 0.035756841 0.0389238 1.9425911e-38
0.1394649 0.097849414 0.016352117 1.390355e-38
0.14000888 0.10043405 0.015544176 1.4273773e-38
0.13988799 0.1045921 0.015866756 1.5287183e-38
0.13417548 0.034209684 0.040782452 1.988439e-38
0.13417593 0.036251351 0.038199604 1.9332283e-38
0.13630357 0.097767606 0.015863001 1.3627654e-38
0.13616458 0.10054322 0.015829027 1.3997537e-38
0.13607666 0.10463013 0.01598841 1.4918407e-38
0.13005564 0.034406826 0.040039718 1.9057127e-38
0.13046539 0.036400899 0.037867725 1.8689778e-38
0.13026913 0.038337439 0.035497367 1.8503957e-38
0.13274974 0.097191736 0.015480995 1.3720227e-38
0.1321049 0.10088612 0.01623565 1.4181571e-38
0.13226096 0.10402681 0.016242385 1.4828009e-38
0.1262451 0.03430818 0.039450049 1.8875276e-38
0.12647352 0.036538184 0.037999451 1.8506861e-38
0.12712421 0.038860887 0.034800947 1.8229905e-38
0.12735334 0.093906894 0.015737355 1.2890832e-38
0.12822758 0.096999064 0.016146302 1.3537633e-38
0.12821944 0.10091986 0.015944839 1.3998958e-38
0.12812462 0.10361601 0.01570785 1.4181915e-38
0.12370476 0.034242421 0.039057016 1.8049833e-38
0.12279767 0.0368637 0.037539959 1.7494476e-38
0.12261467 0.039473668 0.034278452 1.6389574e-38
0.12354878 0.093405262 0.01528877 1.1510402e-38
0.12456077 0.096785977 0.015709221 1.1417137e-38
0.12438504 0.10086544 0.015455008 1.1602953e-38
0.12558427 0.10355024 0.015314758 1.233476e-38
0.11955872 0.037375331 0.037291169 1.5466538e-38
0.1182546 0.039792523 0.034929812 1.4728618e-38
0.11835453 0.041658089 0.032394707 1.4357682e-38
0.11881366 0.089653686 0.015815437 1.1143399e-38
0.11957042 0.093246415 0.016001582 1.1510019e-38
0.11980867 0.097159788 0.016140521 9.4810074e-39
0.12107269 0.1010033 0.015460074 7.4559532e-39
0.11830546 0.10427313 0.013872385 7.3652163e-39
0.11443366 0.043518484 0.03282094 1.187344e-38
0.1134277 0.04636924 0.02995342 9.1965284e-39
0.11350976 0.049395546 0.028916657 8.5612218e-39
0.1156882 0.082429007 0.019738555 1.1139806e-38
0.11522169 0.085889056 0.018675745 1.1691557e-38
0.11543538 0.089362636 0.017029345 1.1327818e-38
0.11519122 0.092877641 0.016398787 1.2153619e-38
0.11499074 0.096714631 0.015952528 1.1231644e-38
0.11145425 0.047183067 0.032204211 6.7148275e-39
0.11142313 0.051505193 0.029628158 7.0882693e-39
0.11038105 0.055432871 0.028451741 8.3768711e-39
0.11122689 0.058409035 0.025415361 7.086847e-39
0.11137927 0.086463913 0.01876539 1.1780516e-38
0.1115156 0.08943297 0.016839325 1.1783045e-38
0.11155549 0.093161479 0.015790105 1.2704634e-38
0.11081231 0.097092524 0.015137434 1.2890089e-38
0.11087827 0.099524394 0.01430434 7.5492152e-39
0.10600398 0.083602265 0.019031346 1.1133725e-38
0.10724625 0.086302385 0.017991841 1.1595411e-38
0.10771069 0.089334503 0.01625061 1.1780863e-38
0.10787022 0.092891559 0.014804423 1.3717349e-38
0.10784838 0.096706346 0.013953149 1.5929664e-38
0.10346362 0.083536521 0.018638372 1.1596832e-38
0.1037764 0.085635051 0.017009258 1.1870185e-38
0.10439917 0.088559791 0.014073193 1.2147481e-38
0.10455889 0.092107251 0.012630284 1.4176201e-38
0.10459623 0.095826134 0.011584044 1.8972834e-38
0.10453966 0.098422959 0.011149764 1.3713737e-38
0.099653065 0.083437905 0.018048763 1.2148224e-38
0.10000211 0.085495129 0.016321003 1.2516268e-38
0.10060433 0.088461533 0.013486028 1.3069095e-38
0.10172187 0.092336252 0.012086511 1.5649172e-38
0.10086375 0.095640615 0.010799348 2.0538691e-38
0.10159449 0.099288568 0.009653151 1.4722491e-38
0.10166016 0.10170962 0.008823812 1.3899236e-38
0.096477628 0.08335568 0.017557442 1.2885087e-38
0.09613283 0.085479453 0.01593101 1.4175071e-38
0.096808612 0.088363305 0.012898803 1.5741339e-38
0.098301843 0.094364658 0.010822773 2.0269342e-38
0.092032 0.083240643 0.016869605 1.5550828e-38
0.092231363 0.085299149 0.014795542 1.8506443e-38
0.09275116 0.087718979 0.012220144 2.0903913e-38
0.087052569 0.082985625 0.015785933 1.8595103e-38
0.088147566 0.084613308 0.014210224 2.0534801e-38
0.089253128 0.086872414 0.011941314 2.3117368e-38
0.083749294 0.082007915 0.01502347 2.0529757e-38
0.079813614 0.080878362 0.013904095 2.1914119e-38
0.081567436 0.083044454 0.012011349 2.2281809e-38
0.076224327 0.081315771 0.013113678 1.5738092e-38
0.072979286 0.082747489 0.013921738 1.1395209e-38
0.073190048 0.084384575 0.012852669 1.2228936e-38
0.18832445 0.072747573 0.023153543 1.0401907e-38
0.18853809 0.079607219 0.021075845 1.1601517e-38
0.152969 0.079001144 0.015225351 1.2707521e-38
0.14950472 0.044980809 0.02670145 1.721825e-38
0.17729229 0.064156264 0.026102841 1.5190679e-38
0.17554702 0.062766925 0.02484858 1.4638939e-38
0.17629507 0.077960774 0.01976198 1.2982653e-38
0.11991738 0.08721821 0.011995196 1.427124e-38
0.11610582 0.06375204 0.019551992 1.5559446e-38
0.13374066 0.087551311 0.013739288 1.3995368e-38
0.17856956 0.029840693 0.054921329 1.5195369e-38
0.18006095 0.032062516 0.053442299 1.8604801e-38
0.18052167 0.035068572 0.050094545 2.1833075e-38
0.180733 0.037239894 0.048423707 2.2290096e-38
0.18244314 0.10786892 0.025480568 2.0999747e-38
0.18184993 0.11071105 0.02659291 2.2291213e-38
0.17601037 0.029774442 0.054525316 1.6671548e-38
0.17630176 0.031833097 0.052430511 1.9712571e-38
0.17687918 0.034779996 0.049449682 2.1828776e-38
0.17883216 0.10776936 0.023638725 2.0997576e-38
0.17840378 0.11087011 0.024634719 2.2194338e-38
0.17702286 0.11426173 0.025373936 2.2291513e-38
0.17217161 0.029675081 0.053931355 1.8420761e-38
0.17250949 0.031668857 0.051628709 1.9803338e-38
0.17290252 0.034195632 0.048912108 2.1826256e-38
0.17628804 0.10770349 0.023245096 2.071956e-38
0.1749115 0.11051734 0.023114383 2.1271662e-38
0.17459467 0.11453201 0.024168611 2.182877e-38
0.16864443 0.029277772 0.053491831 1.9249807e-38
0.16877908 0.031407118 0.050513804 1.9893022e-38
0.16918536 0.033290401 0.047903836 2.1457819e-38
0.17103124 0.11073129 0.021333873 1.9798677e-38
0.17083487 0.1149071 0.023065865 2.0535876e-38
0.16404539 0.028648719 0.052957296 1.8050916e-38
0.16501473 0.031210408 0.049608946 1.980118e-38
0.16664124 0.033224553 0.047510207 2.0816035e-38
0.16748266 0.1111262 0.020615935 1.7494502e-38
0.16716464 0.11443861 0.021675587 1.9521368e-38
0.16633809 0.11744572 0.021984339 2.0257849e-38
0.16083428 0.028237119 0.052306592 1.7499181e-38
0.16127393 0.030981034 0.048600078 1.989374e-38
0.16366647 0.11102743 0.020025492 1.6478212e-38
0.16331419 0.11438577 0.021182537 1.8601195e-38
0.16451262 0.1171868 0.021239877 1.9425934e-38
0.15677971 0.028150603 0.051022649 1.9062534e-38
0.15801872 0.030260518 0.047484219 1.9982704e-38
0.15985028 0.11092867 0.019435048 1.5834981e-38
0.15940003 0.11447062 0.020988405 1.7863988e-38
0.16004065 0.11707105 0.020547926 1.8782361e-38
0.15313777 0.027315661 0.050563157 1.9062173e-38
0.15382154 0.029242113 0.046793461 2.016781e-38
0.15577129 0.11007278 0.019370317 1.5562323e-38
0.15563279 0.11441301 0.020882607 1.7403006e-38
0.14903934 0.02540414 0.051626623 1.8142025e-38
0.14942966 0.027405873 0.049329698 1.9243693e-38
0.14925534 0.029610679 0.045918047 1.9242248e-38
0.15084678 0.10704501 0.019308805 1.5377238e-38
0.15180416 0.10963152 0.019210696 1.5836777e-38
0.15165262 0.11379828 0.020310521 1.7770705e-38
0.14549759 0.028078929 0.049047589 1.9242967e-38
0.14494267 0.030462816 0.046201587 1.9334431e-38
0.14703059 0.10694624 0.018718362 1.5379361e-38
0.1472927 0.11002602 0.019055724 1.6023318e-38
0.14731105 0.11430089 0.019717455 1.8416791e-38
0.14705217 0.11715822 0.019462526 1.9151129e-38
0.14040338 0.028559104 0.048047066 1.9703223e-38
0.14071527 0.030679956 0.046172023 1.9332291e-38
0.14119998 0.032566056 0.043573856 1.9333355e-38
0.14385043 0.10686393 0.018226326 1.5285344e-38
0.14303841 0.10973819 0.018286049 1.6206279e-38
0.14314371 0.11372109 0.018638372 1.8140215e-38
0.13641819 0.028651789 0.04807657 1.9794347e-38
0.13678795 0.030711263 0.045994401 1.9334458e-38
0.1373838 0.032467276 0.042983472 1.9333365e-38
0.1391658 0.10973002 0.017892838 1.6393187e-38
0.13880067 0.11360551 0.018630505 1.8049104e-38
0.13250434 0.028648391 0.047794044 1.9427345e-38
0.13290668 0.030676857 0.045608878 1.9242247e-38
0.13332641 0.032848999 0.042186737 1.9333376e-38
0.13430998 0.10661699 0.016750216 1.5377592e-38
0.13529088 0.10972221 0.017499268 1.5838938e-38
0.13492775 0.11357524 0.018185496 1.7681763e-38
0.12904483 0.030973479 0.045751393 1.8871298e-38
0.12952968 0.033173338 0.042523682 1.8594003e-38
0.13149822 0.10605745 0.016484082 1.5288269e-38
0.13125685 0.1099851 0.017699718 1.6298481e-38
0.13134415 0.11328094 0.017968774 1.7592794e-38
0.12542102 0.031606898 0.044804513 1.868944e-38
0.125645 0.033420071 0.042108178 1.878164e-38
0.12769224 0.10624798 0.016865909 1.3997888e-38
0.12743138 0.10982589 0.017876863 1.3998962e-38
0.12108767 0.032025114 0.044753432 1.7673492e-38
0.12145826 0.033761546 0.042203248 1.758452e-38
0.12158209 0.035708904 0.039271772 1.7309751e-38
0.12366746 0.10573839 0.016517818 8.9267575e-39
0.12371099 0.10988818 0.017807186 9.0214432e-39
0.11796491 0.034546971 0.042474449 1.6203012e-38
0.11761644 0.036877617 0.039823711 1.5189586e-38
0.12003803 0.10584931 0.016420603 6.6262009e-39
0.11920729 0.10966216 0.017077029 5.1582693e-39
0.11944133 0.11277135 0.016464829 3.7775027e-39
0.11486812 0.037904456 0.040356278 1.435877e-38
0.11382599 0.040828064 0.038367808 1.3253505e-38
0.11298728 0.043421909 0.037330449 1.1779461e-38
0.11450252 0.079333097 0.022975206 9.202271e-39
0.11393255 0.081752077 0.022042513 1.0402964e-38
0.11336255 0.084171072 0.021109819 1.1323157e-38
0.11556785 0.09517999 0.017650723 1.3074846e-38
0.11533239 0.098216131 0.016558647 9.1968577e-39
0.11619762 0.10082434 0.015795231 6.1699017e-39
0.11071233 0.042365208 0.039466858 1.1872737e-38
0.11020219 0.044888735 0.037436664 1.1131918e-38
0.10964921 0.047783792 0.033842325 8.7406062e-39
0.10930727 0.051818982 0.03167212 7.5445727e-39
0.10875383 0.054846838 0.03053087 8.3764872e-39
0.11009735 0.065141007 0.031284451 5.1579078e-39
0.11053473 0.067250088 0.030802727 5.8933106e-39
0.11130629 0.082700744 0.024190605 1.0029869e-38
0.1107018 0.084899798 0.020956874 1.1228055e-38
0.11245374 0.097533181 0.016324401 1.1139806e-38
0.11251979 0.099968627 0.015490055 7.2719011e-39
0.10741082 0.046360001 0.037540257 1.1597561e-38
0.10683867 0.048643097 0.035583198 1.150571e-38
0.10648568 0.052294806 0.033615649 1.0490476e-38
0.10628907 0.056730226 0.031794429 9.5717667e-39
0.10695079 0.060504243 0.030890644 8.1913728e-39
0.10721321 0.063668713 0.030787706 7.6399843e-39
0.10707022 0.083261743 0.024220467 1.0302509e-38
0.10770908 0.084965482 0.021193862 1.1042226e-38
0.10350879 0.053358629 0.034472942 1.206032e-38
0.10335255 0.057026789 0.033174455 1.0767079e-38
0.10397068 0.060959831 0.031910896 9.3891874e-39
0.10258278 0.080509067 0.024900079 1.0579085e-38
0.10290681 0.082496479 0.02260828 1.1132987e-38
0.098495811 0.079825684 0.024315119 1.149963e-38
0.098831654 0.081983969 0.021275043 1.1963828e-38
0.094296709 0.079620734 0.023673356 1.2421576e-38
0.09481281 0.082130566 0.021280348 1.2975124e-38
0.094281614 0.083677217 0.018157542 1.3992486e-38
0.090491712 0.078848332 0.023139954 1.3713023e-38
0.090984091 0.082031891 0.020687819 1.4265841e-38
0.091737509 0.083611354 0.017763913 1.5650556e-38
0.086708784 0.078841805 0.02234447 1.4816505e-38
0.087322116 0.081728324 0.019598722 1.573917e-38
0.089193359 0.083545521 0.017370343 1.7676361e-38
0.083136767 0.07960698 0.021761954 1.7211426e-38
0.083308801 0.081222996 0.01971209 1.804334e-38
0.079014882 0.079775378 0.020939529 2.172975e-38
0.080083609 0.080593333 0.018188596 2.2374762e-38
0.075120032 0.078937545 0.019878626 1.9790377e-38
0.075369865 0.080322206 0.017082691 1.7304691e-38
0.071797639 0.078851879 0.019364417 1.583064e-38
0.071575359 0.081229821 0.017431855 1.2780617e-38
0.071109444 0.085281983 0.014878392 1.1221246e-38
0.068756729 0.082693741 0.018604636 1.2144966e-38
0.067986652 0.085811451 0.016631603 1.1686867e-38
0.063937336 0.093585655 0.014036119 1.4084689e-38
0.17272493 0.073227927 0.020209908 1.2061419e-38
0.16995427 0.057850972 0.025348723 1.436307e-38
0.15293692 0.07155703 0.016970217 1.2706784e-38
0.15303393 0.075134575 0.015744746 1.261495e-38
0.13870695 0.080178335 0.01689297 1.6295949e-38
0.12112121 0.072341293 0.017407358 1.7769636e-38
0.15685874 0.094498947 0.015006781 1.4085416e-38
0.13048533 0.096587077 0.015796125 1.5835689e-38
0.17787418 0.023327038 0.060280979 7.6407214e-39
0.17858353 0.025804341 0.059537411 7.823298e-39
0.17958522 0.029182792 0.057859719 1.1140938e-38
0.18169124 0.11358495 0.029050648 2.2572835e-38
0.18037657 0.11560233 0.028671026 2.2669674e-38
0.17658895 0.023293778 0.060082138 7.823319e-39
0.17538942 0.025689617 0.058935404 8.744548e-39
0.17562988 0.028773636 0.056952596 1.3907121e-38
0.17922159 0.11392684 0.027992189 2.3030203e-38
0.17790596 0.11594369 0.027612507 2.2845436e-38
0.17161196 0.025464132 0.057919264 1.1879166e-38
0.17177269 0.028410718 0.056447029 1.6486822e-38
0.17401712 0.11789669 0.026833773 2.2196848e-38
0.1677358 0.026042208 0.057322145 1.6394612e-38
0.16766262 0.028181598 0.055853724 1.8237815e-38
0.16964141 0.11880122 0.025268018 2.1364189e-38
0.16373576 0.025606841 0.056563377 1.6394252e-38
0.1649226 0.028028801 0.055458128 1.8418614e-38
0.16644594 0.11933325 0.024560332 2.0534792e-38
0.16007534 0.025133699 0.05602634 1.6208428e-38
0.15892251 0.027464285 0.054671824 1.7034972e-38
0.16262038 0.11895879 0.023885489 1.9151871e-38
0.15666781 0.022778168 0.056999922 1.4637543e-38
0.15633069 0.025273949 0.055677056 1.6945646e-38
0.15699747 0.027414456 0.05437398 1.786544e-38
0.15838024 0.1195377 0.023436785 1.9242975e-38
0.15235431 0.025596038 0.054780424 1.6758749e-38
0.15365447 0.11694811 0.022758424 1.8324573e-38
0.15455812 0.11871819 0.022827625 1.9152206e-38
0.14838052 0.025022611 0.054864466 1.7033526e-38
0.15108778 0.11688165 0.022361279 1.8414997e-38
0.15091628 0.11852823 0.02283299 1.8416806e-38
0.14462893 0.026058868 0.053533673 1.850505e-38
0.14480563 0.027098879 0.052487552 1.8966027e-38
0.1483458 0.11846171 0.022435248 1.8785226e-38
0.14198771 0.026086614 0.053448677 1.9149345e-38
0.14133754 0.02812922 0.05191946 1.9610666e-38
0.14274597 0.11666577 0.021070719 1.8879564e-38
0.13691349 0.028414235 0.051810384 1.9794333e-38
0.13889591 0.11656611 0.02047497 1.8601564e-38
0.13934916 0.11822887 0.021043301 1.8785594e-38
0.13434304 0.028347686 0.051412642 1.9702856e-38
0.13440418 0.11644985 0.01978004 1.8326438e-38
0.13485083 0.11811243 0.020347357 1.8512614e-38
0.12883034 0.029140756 0.049163818 1.9239712e-38
0.12693864 0.030319467 0.048445225 1.9057827e-38
0.13018976 0.11601834 0.019668281 1.7500964e-38
0.13035251 0.11799599 0.019651353 1.7222579e-38
0.12403059 0.03085348 0.048212349 1.8781282e-38
0.12596245 0.11254834 0.019751847 1.2432701e-38
0.12655449 0.11445029 0.01961726 1.2708216e-38
0.12018493 0.030999467 0.047532082 1.7858246e-38
0.12188739 0.11203362 0.019263387 7.6413898e-39
0.12299338 0.11421548 0.019222856 8.9306741e-39
0.1168595 0.032430917 0.04686594 1.6937357e-38
0.1158416 0.034224778 0.045630455 1.5926446e-38
0.11973736 0.11156876 0.019072771 4.7920232e-39
0.11997055 0.11403884 0.019324899 6.4496892e-39
0.11373121 0.03542228 0.045315742 1.5375071e-38
0.11217326 0.038408369 0.043649733 1.4081832e-38
0.1126435 0.080653414 0.029710293 8.5590624e-39
0.1093218 0.039379045 0.043060243 1.3806678e-38
0.10882127 0.041770026 0.041684628 1.3068752e-38
0.10808814 0.044563636 0.040416598 1.2330835e-38
0.10863768 0.069922626 0.032242417 6.2567206e-39
0.11022198 0.081019923 0.028651118 8.3732208e-39
0.10912095 0.082648262 0.027370214 9.3848531e-39
0.10582562 0.042363271 0.041880906 1.6111552e-38
0.10525361 0.045723736 0.040085614 1.3348185e-38
0.10435468 0.048763856 0.0383479 1.2888284e-38
0.10579473 0.065900177 0.032994449 7.8247259e-39
0.10616791 0.068968639 0.03239882 7.5485118e-39
0.10608211 0.080781862 0.028438568 8.9224331e-39
0.10719591 0.082598433 0.02707237 9.5667305e-39
0.10239133 0.045962796 0.04006958 1.4639993e-38
0.10158865 0.049558178 0.038452625 1.3625139e-38
0.10114089 0.05337517 0.036374807 1.2612062e-38
0.10108367 0.058193669 0.034540355 1.1320269e-38
0.1014497 0.061636642 0.033584177 1.0309349e-38
0.1020225 0.065547958 0.032975137 9.3895433e-39
0.10204464 0.068699092 0.032123387 8.8374457e-39
0.10265392 0.079885051 0.027882516 9.9355158e-39
0.10398751 0.082515404 0.026575983 1.0393267e-38
0.097571701 0.045838058 0.039323926 1.6386689e-38
0.097671792 0.049529061 0.038059473 1.4453815e-38
0.097905681 0.053700611 0.03620404 1.3349624e-38
0.098030239 0.057995111 0.034704387 1.2429837e-38
0.098422736 0.06143342 0.034051538 1.2062131e-38
0.098714799 0.064309731 0.03310132 1.113945e-38
0.09816879 0.077328041 0.028494596 1.1043295e-38
0.099013418 0.079102427 0.027213812 1.1042585e-38
0.094934493 0.043310836 0.039769113 1.7031338e-38
0.093880817 0.045896217 0.038699508 1.5461875e-38
0.093816072 0.049429253 0.03746289 1.4543138e-38
0.093932867 0.05373545 0.035987794 1.3348551e-38
0.094293341 0.057556137 0.034721017 1.2428755e-38
0.094641998 0.076745838 0.027813196 1.1964174e-38
0.094904095 0.078597263 0.026448607 1.1962032e-38
0.091178894 0.046902061 0.037908196 1.5093843e-38
0.09085758 0.076832995 0.026934028 1.2885419e-38
0.0923374 0.078530833 0.026051462 1.26074e-38
0.086618796 0.076837227 0.026315093 1.4358388e-38
0.085920632 0.078364745 0.025058687 1.481757e-38
0.082357064 0.076795831 0.026090801 1.6474206e-38
0.081827223 0.078749865 0.024254978 1.7763148e-38
0.077875435 0.077294573 0.025184095 1.9792864e-38
0.07808131 0.07895945 0.024104595 2.0715929e-38
0.072734505 0.077161536 0.024388671 1.9519153e-38
0.07454142 0.078560904 0.023663342 2.0345698e-38
0.07144928 0.077128246 0.02418983 1.8220878e-38
0.070045918 0.078444526 0.022967815 1.5829549e-38
0.067363009 0.080177352 0.022105873 1.3988854e-38
0.066424862 0.082958207 0.020808816 1.214461e-38
0.066063449 0.085405961 0.019900203 1.1777988e-38
0.062752917 0.087968424 0.019004703 1.0862873e-38
0.06289342 0.090345129 0.017964959 1.1690135e-38
0.062823668 0.092903212 0.016500533 1.3258512e-38
0.060332581 0.093438402 0.016710401 1.3254921e-38
0.17258352 0.06258814 0.023477197 1.3901737e-38
0.17243132 0.067907497 0.021465063 1.288938e-38
0.15216713 0.048519343 0.025552452 1.6940593e-38
0.1650711 0.057113096 0.023659229 1.4912642e-38
0.17364831 0.069262728 0.021008015 1.2704636e-38
0.12078923 0.079834834 0.015047371 1.7585255e-38
0.12476052 0.055814996 0.024213731 1.8783075e-38
0.12421481 0.085407779 0.012754142 1.4915181e-38
0.16562834 0.094125584 0.016571939 1.4271973e-38
0.15558936 0.099544749 0.016975343 1.5192463e-38
0.098030239 0.057995111 0.034704387 1.2429837e-38
0.18275571 0.11485057 0.030392408 2.2486384e-38
0.18154123 0.1178567 0.030221462 2.2860193e-38
0.18082856 0.12193488 0.030525863 2.2953479e-38
0.1803733 0.12510626 0.029656887 2.3325853e-38
0.17459442 0.019906744 0.064679742 5.0657094e-39
0.1748092 0.022354946 0.061990976 7.4559602e-39
0.17802091 0.11811401 0.028484821 2.2575348e-38
0.1771543 0.12187697 0.029982746 2.2486753e-38
0.17692593 0.12501703 0.029123485 2.3043512e-38
0.17096299 0.019964173 0.064172447 6.8113265e-39
0.17112327 0.022390172 0.061286092 9.1154689e-39
0.17364861 0.12151189 0.029344261 2.2474517e-38
0.17411375 0.12453203 0.028831482 2.2758678e-38
0.16649804 0.019959614 0.063871503 9.02403e-39
0.16725816 0.022290125 0.060687959 1.160296e-38
0.16744532 0.024571314 0.059213042 1.4364147e-38
0.1698166 0.12205864 0.028374255 2.2194321e-38
0.1695891 0.12441491 0.028131425 2.2750735e-38
0.16320652 0.020059898 0.063297808 1.0866852e-38
0.16347536 0.022068068 0.059669852 1.2895125e-38
0.16422752 0.024488017 0.058715224 1.51035e-38
0.16617668 0.1219997 0.026911378 2.0812095e-38
0.1596598 0.020277292 0.062641799 1.2064325e-38
0.15950641 0.02212052 0.059596956 1.3996833e-38
0.1617907 0.12188618 0.026232719 2.0074911e-38
0.15580559 0.022217914 0.058124244 1.4178353e-38
0.15457416 0.024238169 0.057221591 1.5932929e-38
0.15811411 0.1224543 0.025862217 1.9796871e-38
0.15666147 0.12408032 0.026131153 1.9798677e-38
0.15150961 0.022922844 0.059497058 1.5286835e-38
0.15199992 0.024171531 0.056823313 1.6115152e-38
0.15448625 0.12186719 0.025472045 1.9522802e-38
0.15342957 0.12399666 0.025631189 2.0165687e-38
0.14784575 0.023301616 0.059390604 1.6479983e-38
0.14785919 0.024444029 0.057479084 1.6941314e-38
0.1502497 0.12184678 0.025321066 1.979938e-38
0.14337185 0.023014471 0.058811426 1.7401209e-38
0.14407969 0.024866909 0.056356549 1.7861124e-38
0.14674164 0.12134053 0.024654686 1.9518845e-38
0.13972268 0.023471266 0.058269739 1.9333374e-38
0.14000893 0.025295332 0.055809259 1.9332297e-38
0.139229 0.027534798 0.053565562 1.9794703e-38
0.14278938 0.11978202 0.023209691 1.9245121e-38
0.13713717 0.023404345 0.057869732 2.0258544e-38
0.13623695 0.02543892 0.055469155 2.0164196e-38
0.13665476 0.027468175 0.053167343 1.9886538e-38
0.13873562 0.12038885 0.021799922 1.9062894e-38
0.13235928 0.025942877 0.055594683 2.0162758e-38
0.13254936 0.027854413 0.05236119 1.9703572e-38
0.13534369 0.12069924 0.021672487 1.9157249e-38
0.1295819 0.026156321 0.055142462 1.9977299e-38
0.12831666 0.028464451 0.05268079 1.9423762e-38
0.13075656 0.11999004 0.021703243 1.7688595e-38
0.12446338 0.029368207 0.053368568 1.9147894e-38
0.12621447 0.11677314 0.020469308 1.1510034e-38
0.12694997 0.12042128 0.022108674 1.1785918e-38
0.12053263 0.030394614 0.052725792 1.8598686e-38
0.12130961 0.030764803 0.049511313 1.8319242e-38
0.12189366 0.11681385 0.02060473 9.8501361e-39
0.12302978 0.11935873 0.021907032 7.9219844e-39
0.11571206 0.031348899 0.049249232 1.7859299e-38
0.1195205 0.1167136 0.020465195 7.9251668e-39
0.12036347 0.1194308 0.021802485 1.2337972e-38
0.11183989 0.032311216 0.049447775 1.7858228e-38
0.11165449 0.035193756 0.046393871 1.5650936e-38
0.11177713 0.078651801 0.033476233 7.0867923e-39
0.11234924 0.079783842 0.031034887 8.0076906e-39
0.10794227 0.032809958 0.049520671 1.8040827e-38
0.10821682 0.035753474 0.047065079 1.6018635e-38
0.10832553 0.038124219 0.04483211 1.4914801e-38
0.11016797 0.070492834 0.033901811 5.1528729e-39
0.1094898 0.073713601 0.033149123 5.7024524e-39
0.10941482 0.077648923 0.032485366 6.7169224e-39
0.10977501 0.079717204 0.030636489 7.6371047e-39
0.1044738 0.033689007 0.048953772 1.813446e-38
0.10453963 0.036036447 0.047079027 1.7859653e-38
0.1046893 0.039090082 0.044377625 1.7770321e-38
0.10362412 0.04261981 0.042502463 1.7215382e-38
0.1050362 0.070975646 0.032894135 7.7332646e-39
0.10544598 0.073847994 0.033154547 6.9957065e-39
0.10554594 0.0775484 0.031886935 7.2686697e-39
0.10655722 0.079633936 0.030138731 8.095908e-39
0.10069618 0.037301257 0.047082007 1.8139121e-38
0.1002709 0.039591804 0.045622528 1.8322438e-38
0.10098782 0.042620823 0.042308569 1.740264e-38
0.10037787 0.046229601 0.040718436 1.5468691e-38
0.10181841 0.070892364 0.032396257 8.5615833e-39
0.10188523 0.073356643 0.031552136 8.3736047e-39
0.10192455 0.077131972 0.030486584 8.7427305e-39
0.096301571 0.039592147 0.045329511 1.8320297e-38
0.096999794 0.042656168 0.042119443 1.7767824e-38
0.096887365 0.062966675 0.034339309 1.159972e-38
0.097649083 0.066211149 0.033338189 1.0586287e-38
0.097923651 0.069560304 0.03222096 9.9416423e-39
0.098023891 0.073256701 0.030954659 1.0401177e-38
0.098420843 0.076037347 0.030054748 1.0951819e-38
0.092639044 0.040308043 0.044719636 1.7214307e-38
0.093089461 0.042271152 0.041166663 1.6754392e-38
0.092106909 0.044784248 0.03986603 1.592174e-38
0.093456507 0.058978841 0.035161376 1.2152527e-38
0.093861818 0.062067509 0.034155965 1.1691871e-38
0.093962044 0.065763921 0.032889724 1.1506446e-38
0.094062299 0.069460347 0.031623423 1.1414967e-38
0.094162539 0.073156744 0.030357242 1.1689755e-38
0.09422937 0.075621039 0.029513061 1.1964534e-38
0.088885859 0.043217435 0.042024612 1.6475657e-38
0.088994801 0.046218917 0.040331483 1.5368616e-38
0.089469016 0.049857274 0.038387835 1.4266897e-38
0.089783266 0.053958669 0.03630209 1.3439313e-38
0.089900225 0.058271155 0.034824789 1.2702486e-38
0.090000466 0.061967567 0.033558547 1.2703177e-38
0.090100706 0.065663978 0.032292306 1.279573e-38
0.090200946 0.06936042 0.031026065 1.2612422e-38
0.090301186 0.073056802 0.029759765 1.2609555e-38
0.090368018 0.075521097 0.028915644 1.2793586e-38
0.085052818 0.044007227 0.042194128 1.6474228e-38
0.084805131 0.046783343 0.041190326 1.5829575e-38
0.085072324 0.050319508 0.039411962 1.4817938e-38
0.085671961 0.054126143 0.036463559 1.4265842e-38
0.085971951 0.05824475 0.034428954 1.4174016e-38
0.085938781 0.062090263 0.033565104 1.4450967e-38
0.086172476 0.065639168 0.031895876 1.3532237e-38
0.086139053 0.069490686 0.031029999 1.3163794e-38
0.086439833 0.072956875 0.029162407 1.3438228e-38
0.086506665 0.07542114 0.028318167 1.3805933e-38
0.082236409 0.047335178 0.040578246 1.6382388e-38
0.081193343 0.050554454 0.039290369 1.6197627e-38
0.081450641 0.054403663 0.036925793 1.5371106e-38
0.081771642 0.058509216 0.03483963 1.4726111e-38
0.0820072 0.062065765 0.033168077 1.4543153e-38
0.081835836 0.06606786 0.03270328 1.3808097e-38
0.081869096 0.069851011 0.031634033 1.325492e-38
0.082442343 0.073012367 0.028964758 1.371375e-38
0.082645312 0.075321212 0.027720749 1.5184914e-38
0.078458786 0.050947428 0.038706422 1.6383458e-38
0.07770595 0.054168895 0.035947978 1.5740979e-38
0.077970147 0.058336332 0.034039259 1.5005192e-38
0.078278437 0.061817095 0.032167792 1.4358755e-38
0.077895924 0.066043541 0.032304764 1.3716248e-38
0.077892631 0.06986621 0.031334817 1.3163806e-38
0.078165472 0.073379695 0.029565215 1.3346425e-38
0.078489423 0.076192006 0.027809381 1.6291594e-38
0.07365419 0.054550573 0.036182821 1.5833526e-38
0.073716357 0.058638051 0.034547329 1.4912657e-38
0.073992997 0.062161818 0.032774806 1.417366e-38
0.074093074 0.065867856 0.031505167 1.3805947e-38
0.073913246 0.069881141 0.031035304 1.334748e-38
0.074083403 0.073513284 0.029564738 1.2976196e-38
0.074207038 0.076559827 0.026980758 1.7400856e-38
0.069805622 0.055793822 0.035608172 1.5191041e-38
0.070273995 0.05877395 0.034650743 1.4634633e-38
0.070427984 0.062430933 0.033228517 1.3805218e-38
0.07047537 0.066199213 0.032107115 1.3530802e-38
0.070576042 0.069911852 0.030835271 1.3070532e-38
0.070196137 0.073766619 0.029435515 1.325242e-38
0.069957808 0.076599523 0.027520955 1.5367876e-38
0.066311821 0.055579737 0.035110474 1.5187447e-38
0.065715775 0.057419315 0.034374535 1.4910152e-38
0.065850019 0.062369481 0.032678843 1.426548e-38
0.066848248 0.07765694 0.027323365 1.5003062e-38
0.06565088 0.07970719 0.023845255 1.4727547e-38
0.064826161 0.08224763 0.02240026 1.2516661e-38
0.062904984 0.077628016 0.02690202 1.5370752e-38
0.062433869 0.080285445 0.024831712 1.4268014e-38
0.062467441 0.083806887 0.02208519 1.2242551e-38
0.062368885 0.086493507 0.020524681 1.0677404e-38
0.061332405 0.095701203 0.017159939 1.3991402e-38
0.062009364 0.096950009 0.016837418 1.3899938e-38
0.05778268 0.074527428 0.027139366 1.4267289e-38
0.058042169 0.077649072 0.025563121 1.3808091e-38
0.058289424 0.080354556 0.024129212 1.316202e-38
0.05821088 0.083944872 0.022870541 1.1781945e-38
0.058070198 0.0875047 0.020898223 1.0863578e-38
0.058624491 0.090706035 0.018449903 1.1598645e-38
0.058113724 0.094843671 0.018180251 1.3350702e-38
0.058759391 0.098330215 0.018682659 1.4179731e-38
0.05519715 0.074460492 0.026739359 1.3254224e-38
0.054617912 0.076918855 0.025791466 1.2794315e-38
0.054129452 0.080554694 0.024271429 1.2057834e-38
0.054287374 0.084205166 0.022852063 1.1414592e-38
0.054560259 0.087730363 0.021137953 1.0861389e-38
0.054775283 0.091314122 0.019572437 1.1780465e-38
0.055624425 0.095609173 0.018935144 1.2982279e-38
0.056481197 0.097990558 0.018784583 1.3994999e-38
0.052149832 0.081183329 0.023907661 1.1230227e-38
0.052233726 0.084277198 0.022847831 1.1227691e-38
0.051823989 0.088223919 0.0214113 1.0401515e-38
0.051981792 0.090866253 0.020520151 1.1778683e-38
0.15671219 0.059119627 0.019999862 1.4361998e-38
0.17478268 0.071460143 0.020356953 1.1784131e-38
0.16844417 0.063342348 0.021526217 1.3256009e-38
0.13740964 0.041989759 0.03105092 1.5742764e-38
0.084721014 0.076385781 0.024959862 1.3162364e-38
0.079115465 0.07642363 0.027871132 1.3163432e-38
0.07753998 0.069472805 0.030045033 1.49112e-38
0.067363009 0.080177352 0.022105873 1.3988854e-38
0.12053263 0.030394614 0.052725792 1.8598686e-38
0.12130961 0.030764803 0.049511313 1.8319242e-38
0.17386554 0.01653868 0.069596887 6.4457641e-39
0.17412074 0.018726066 0.067689538 5.1564939e-39
0.17767203 0.12579165 0.031118989 2.3141458e-38
0.17578614 0.12791334 0.03007406 2.3325854e-38
0.17004709 0.016319707 0.068571687 6.0747998e-39
0.16991545 0.018927291 0.066931307 6.7191294e-39
0.17267042 0.12563063 0.030534685 2.2851219e-38
0.17279108 0.12836249 0.029963434 2.3140737e-38
0.16601318 0.016425535 0.068707645 7.6403375e-39
0.16667414 0.018843397 0.066429734 8.1013492e-39
0.16915055 0.12626351 0.030202925 2.2570654e-38
0.16899435 0.12925671 0.029567182 2.2671483e-38
0.16259454 0.014000103 0.069584727 7.6396144e-39
0.16211523 0.016324654 0.068104625 8.654481e-39
0.16220616 0.01891382 0.065673947 1.0312586e-38
0.16530308 0.12592511 0.029404879 2.2285777e-38
0.16520479 0.12945898 0.029233575 2.2664659e-38
0.15830642 0.016732261 0.067934752 9.3920418e-39
0.15826362 0.019397482 0.065625787 1.0863963e-38
0.16138002 0.12589531 0.028951526 2.0997222e-38
0.15441418 0.020024672 0.065619528 1.169121e-38
0.15445811 0.022248045 0.063248575 1.2982676e-38
0.15773095 0.12596799 0.028436184 2.0718821e-38
0.15077177 0.020548761 0.06494844 1.2706066e-38
0.15074824 0.022028163 0.063431621 1.3259254e-38
0.15387803 0.12611885 0.02791369 2.0351489e-38
0.14654346 0.021047905 0.064511597 1.4456718e-38
0.14645587 0.022618756 0.06330955 1.5011331e-38
0.14970283 0.12559308 0.027144849 2.0352198e-38
0.14944647 0.12809627 0.027840853 2.0260001e-38
0.14306298 0.022442356 0.063190043 1.6576115e-38
0.14589968 0.12492602 0.02750349 1.988834e-38
0.13917649 0.022876427 0.060885906 1.933446e-38
0.14155087 0.12383081 0.026421785 1.9336955e-38
0.13506827 0.023228705 0.059948266 2.0440065e-38
0.13875103 0.12385406 0.025419891 1.9062543e-38
0.13137993 0.023776323 0.060654044 2.0989276e-38
0.13088909 0.025048748 0.058418393 2.071377e-38
0.13398589 0.12415858 0.025605261 1.952567e-38
0.12844069 0.024310961 0.060415745 2.0992512e-38
0.12726741 0.026433483 0.058237672 2.0069133e-38
0.12914184 0.12396909 0.025234997 1.6116974e-38
0.12383921 0.027396277 0.05778861 1.9701068e-38
0.12321092 0.028570846 0.055939317 1.9425913e-38
0.12508704 0.12163998 0.023951352 9.6722623e-39
0.12628198 0.12438701 0.025335848 1.1414996e-38
0.11943993 0.02780965 0.05772835 1.9426639e-38
0.11990346 0.029202089 0.055535853 1.9058934e-38
0.12249397 0.12157287 0.023550153 9.3002568e-39
0.12268929 0.12367205 0.024995863 1.0127463e-38
0.11553906 0.027708694 0.057124794 1.9520261e-38
0.11594462 0.029817075 0.055031419 1.8966733e-38
0.11869273 0.12162732 0.024337113 9.4885717e-39
0.11200184 0.030113697 0.055175602 1.9240796e-38
0.10811375 0.030233726 0.054573953 1.9149326e-38
0.10710533 0.031874821 0.05215627 1.8593647e-38
0.104238 0.030591473 0.054060161 1.9057143e-38
0.10353243 0.032752708 0.051572859 1.8502531e-38
0.10203704 0.036084592 0.049865842 1.8042254e-38
0.099800602 0.033148125 0.051321983 1.8687984e-38
0.099265948 0.03627865 0.049344957 1.8228065e-38
0.095737487 0.036696717 0.048622191 1.8228804e-38
0.092323646 0.033296123 0.050715983 1.7584155e-38
0.091764152 0.036495939 0.048684061 1.7675624e-38
0.091433257 0.039220884 0.047041655 1.7489812e-38
0.088435531 0.034470394 0.050341487 1.7305396e-38
0.087789267 0.036902115 0.0486269 1.7672401e-38
0.087794453 0.040159449 0.046477377 1.7304342e-38
0.087812215 0.042693779 0.045779347 1.6843722e-38
0.083773404 0.037283525 0.048296034 1.8042284e-38
0.083703324 0.040259168 0.046487093 1.7489818e-38
0.083644912 0.043113217 0.045058727 1.6937361e-38
0.079101294 0.037649438 0.04771024 1.7857537e-38
0.079808071 0.040158346 0.045884371 1.767313e-38
0.080112964 0.043682829 0.043997228 1.7304353e-38
0.079940617 0.047118112 0.04242003 1.6657543e-38
0.079086661 0.049753726 0.041365564 1.6382028e-38
0.076184064 0.037884921 0.047151089 1.7306494e-38
0.075808644 0.040157124 0.045587063 1.7764223e-38
0.076186717 0.043616056 0.043496728 1.7212883e-38
0.076426268 0.047204331 0.041814804 1.6660426e-38
0.076151997 0.050740853 0.040542603 1.620159e-38
0.072197765 0.040632471 0.045366645 1.7674202e-38
0.072083339 0.043719247 0.043503165 1.6845181e-38
0.072395459 0.04724136 0.041618109 1.6570024e-38
0.072637677 0.050827101 0.039937437 1.6294147e-38
0.07140848 0.053275809 0.038886428 1.6202665e-38
0.068188235 0.043934777 0.043341041 1.6383847e-38
0.068324685 0.047313556 0.041521668 1.5835679e-38
0.068748116 0.050726429 0.039335668 1.6477078e-38
0.068654239 0.054090455 0.038152993 1.5559105e-38
0.067687199 0.059380844 0.0361588 1.4541721e-38
0.067788154 0.063104317 0.03488332 1.4081458e-38
0.067889139 0.066827729 0.033607781 1.362265e-38
0.067990124 0.070551172 0.032332361 1.3070894e-38
0.068057433 0.073033467 0.031481922 1.325421e-38
0.064889461 0.044641212 0.042957723 1.5832098e-38
0.064472944 0.047488257 0.041232109 1.5556214e-38
0.064639896 0.050835699 0.039339185 1.5558377e-38
0.064635366 0.054340795 0.037408173 1.5281071e-38
0.065098345 0.05946891 0.035704494 1.4542086e-38
0.065195099 0.063037202 0.034482181 1.4265482e-38
0.065296099 0.066760644 0.033206642 1.3713401e-38
0.065397054 0.070484087 0.031931162 1.3715161e-38
0.065498039 0.0742075 0.030655622 1.4544232e-38
0.064933926 0.07729359 0.029492378 1.5372929e-38
0.061534554 0.048700616 0.04099983 1.5001604e-38
0.06063509 0.051157728 0.039464414 1.4817589e-38
0.060891598 0.055056855 0.037171721 1.5279279e-38
0.061130285 0.05928646 0.035356283 1.4818654e-38
0.061305538 0.06293653 0.033880353 1.4543847e-38
0.061406538 0.066659972 0.032604873 1.4544591e-38
0.061507493 0.070383415 0.031329334 1.4636428e-38
0.061608478 0.074106842 0.030053854 1.5372199e-38
0.061044335 0.077192917 0.02889055 1.5555862e-38
0.060868859 0.10095264 0.021152675 1.3256736e-38
0.057734966 0.052333891 0.039117038 1.5001613e-38
0.056987673 0.055921391 0.037348151 1.5371123e-38
0.056975663 0.059440762 0.035455704 1.5003041e-38
0.057227314 0.063020751 0.033778548 1.5095605e-38
0.057516918 0.0665593 0.032003045 1.4545653e-38
0.057617903 0.070282742 0.030727565 1.4269799e-38
0.057894439 0.073656335 0.02960217 1.4544597e-38
0.058118731 0.076807112 0.028545499 1.4084689e-38
0.058175743 0.10112642 0.020972908 1.3440393e-38
0.057818681 0.10333492 0.021433353 1.2980843e-38
0.0539691 0.057211921 0.036807895 1.4636414e-38
0.052850559 0.059558406 0.035453618 1.436054e-38
0.053143501 0.063105419 0.033675611 1.4358751e-38
0.053473726 0.06660898 0.031799912 1.3436802e-38
0.053728342 0.070182055 0.030125737 1.2795033e-38
0.05363445 0.073546082 0.028943062 1.2977995e-38
0.052600101 0.076354206 0.027799249 1.2701046e-38
0.052793667 0.096594557 0.0218786 1.2704971e-38
0.054090157 0.099832371 0.021235108 1.3256012e-38
0.048869237 0.060811535 0.034723938 1.3715559e-38
0.04893674 0.063301042 0.033871114 1.3532582e-38
0.049309492 0.066771254 0.031894982 1.2791785e-38
0.049682677 0.070234075 0.029921353 1.2058159e-38
0.049939737 0.073804811 0.028248429 1.2427676e-38
0.050040722 0.077528253 0.02697289 1.2150009e-38
0.049766421 0.08106479 0.025700808 1.1506081e-38
0.049477383 0.085080519 0.024617016 1.1965976e-38
0.049099654 0.08864139 0.023765862 1.187629e-38
0.049790144 0.093075827 0.022250891 1.2888989e-38
0.05017373 0.096395507 0.022130787 1.3347819e-38
0.045575917 0.067791164 0.031495094 1.3159472e-38
0.046065286 0.070513383 0.030362904 1.2240754e-38
0.045575663 0.074169502 0.028835475 1.1964162e-38
0.045784548 0.078119233 0.027677655 1.2332953e-38
0.045738786 0.081671193 0.026378095 1.2056381e-38
0.046470061 0.085439637 0.025249839 1.2334044e-38
0.045980543 0.089092448 0.023723483 1.04905e-38
0.04631342 0.092798516 0.022899985 1.0583424e-38
0.17812455 0.062748477 0.0240013 1.1322059e-38
0.12619907 0.046280965 0.02826643 1.4917322e-38
0.17547104 0.094780579 0.017955899 1.6759457e-38
0.12189366 0.11681385 0.02060473 9.8501361e-39
0.14146981 0.021711603 0.065235734 1.1324584e-38
0.14965281 0.019500345 0.067699671 1.2332646e-38
0.1459707 0.019853875 0.067509711 1.4087929e-38
0.14852278 0.13555665 0.029385269 2.2949886e-38
0.14883187 0.13731612 0.028825283 2.341769e-38
0.14241202 0.020939782 0.067085922 1.5837477e-38
0.14421067 0.12716208 0.029450059 1.9983033e-38
0.14494823 0.13052674 0.029474437 2.0539814e-38
0.14621624 0.13724844 0.028420508 2.1297223e-38
0.13786146 0.021933287 0.067067325 1.8603347e-38
0.13833545 0.022637978 0.064758301 1.9335528e-38
0.14142643 0.12700684 0.029048145 1.952386e-38
0.14091137 0.13066341 0.029361129 2.0908249e-38
0.13401324 0.021741197 0.066147029 1.9245848e-38
0.13434745 0.022627845 0.06446588 2.0624099e-38
0.13682127 0.12729006 0.028731525 1.8970348e-38
0.13788806 0.12965526 0.028978109 1.9616079e-38
0.13039041 0.02135779 0.065776289 1.9523141e-38
0.13002011 0.022944108 0.064094067 2.0990357e-38
0.13294417 0.12704565 0.028288782 1.9893011e-38
0.13228047 0.12938128 0.028869092 2.0076323e-38
0.12739892 0.021662489 0.065448582 1.9888703e-38
0.12632795 0.023935631 0.063719511 2.0623026e-38
0.12539649 0.026045486 0.061457694 2.0253529e-38
0.12977751 0.12651621 0.027668417 1.7685006e-38
0.12880988 0.12970544 0.027974367 1.6303153e-38
0.12783892 0.13427065 0.026445448 1.2801543e-38
0.12251203 0.025006279 0.06241715 2.0253889e-38
0.12239565 0.026637658 0.061403632 1.9977299e-38
0.12513596 0.12688001 0.026693165 1.0126415e-38
0.12528059 0.13016219 0.026738346 1.1695174e-38
0.12522328 0.13420297 0.026040792 8.7456887e-39
0.12398338 0.13667299 0.024980664 9.1328002e-39
0.11842817 0.025089234 0.062434018 2.0253156e-38
0.11872746 0.026686743 0.060857534 1.9793621e-38
0.12123297 0.12639941 0.026718259 1.1603267e-38
0.12156004 0.12930851 0.0268718 1.344252e-38
0.12264161 0.1353872 0.025207162 7.3513799e-40
0.12202165 0.13662221 0.024677157 7.4764752e-39
