# .PCD v0.7 - Point Cloud Data file format
VERSION 0.7
FIELDS x y z rgb
SIZE 4 4 4 4
TYPE F F F F
COUNT 1 1 1 1
WIDTH 977
HEIGHT 1
VIEWPOINT 0 0 0 0 1 0 0
POINTS 977
DATA ascii
0.084584877 0.13104923 0.0018763542 2.2662499e-38
0.082126379 0.034696266 0.041553915 1.3072345e-38
0.080802582 0.038370028 0.04004544 1.4085058e-38
0.080971524 0.041545734 0.037295461 1.6296322e-38
0.082375981 0.043738052 0.035667539 1.7678166e-38
0.080791987 0.079869404 0.020796537 1.2243674e-38
0.080957234 0.083134905 0.020292819 1.1692282e-38
0.08084482 0.08718963 0.019585013 1.1878468e-38
0.080802582 0.089783028 0.018877804 1.1970299e-38
0.080537818 0.11377604 0.009000361 1.398854e-38
0.080901556 0.11634047 0.0071022511 1.4082539e-38
0.081013747 0.11957742 0.0048078895 1.4820821e-38
0.081583984 0.12258939 0.0032055974 1.5282508e-38
0.081475191 0.12722923 0.0014758706 1.7678894e-38
0.0808734 0.13112567 0.0012553334 2.0540883e-38
0.080361307 0.13425983 0.00056737661 1.7875115e-38
0.076831155 0.03898637 0.039803803 1.2610666e-38
0.077007726 0.041549996 0.037305772 1.5190323e-38
0.077096 0.043743715 0.035681307 1.6846961e-38
0.075776011 0.047406927 0.034177125 1.5830658e-38
0.077359997 0.07987307 0.020805478 1.2704288e-38
0.076963581 0.083234742 0.020504177 1.2704997e-38
0.076875292 0.087193921 0.019595385 1.2981943e-38
0.076831155 0.08978729 0.018888175 1.2981207e-38
0.076996632 0.11289234 0.0093750358 1.4546752e-38
0.076948658 0.11629148 0.0070143938 1.4730769e-38
0.077007085 0.11974387 0.0051121116 1.510205e-38
0.076914206 0.12299107 0.0031896234 1.5556924e-38
0.076699667 0.12698983 0.0015633702 1.6203755e-38
0.07694865 0.13096328 0.00097370148 1.6949621e-38
0.077162109 0.13416125 0.00061768293 1.6312513e-38
0.073521651 0.039601967 0.039560378 1.1966346e-38
0.07301303 0.041637316 0.037522376 1.4174018e-38
0.072718874 0.044902161 0.035526752 1.5555875e-38
0.07234402 0.048387095 0.033784032 1.5833532e-38
0.07181602 0.054734752 0.031172216 1.4450963e-38
0.073466018 0.080060348 0.020740271 1.3349283e-38
0.073013879 0.08319141 0.020413876 1.3626226e-38
0.072906218 0.087197945 0.019605756 1.36266e-38
0.072859749 0.089791551 0.018898547 1.3073407e-38
0.074183553 0.11060016 0.01032728 1.1507186e-38
0.073742278 0.11223276 0.0096564293 9.3737563e-39
0.073852606 0.11702712 0.0076822042 9.9340795e-39
0.073276907 0.12043025 0.0059739351 1.0580573e-38
0.072951213 0.12374015 0.0042001605 1.5651653e-38
0.072982341 0.12729873 0.0024946332 1.666833e-38
0.073415816 0.1305867 0.0011995435 1.6585532e-38
0.068888344 0.039606944 0.039572477 1.1593989e-38
0.068968043 0.0418479 0.038048804 1.2425905e-38
0.0690322 0.045350179 0.036126018 1.426944e-38
0.069151752 0.049308494 0.033594608 1.5097033e-38
0.069440037 0.05327259 0.031781495 1.4543506e-38
0.069836035 0.080369398 0.020624101 1.3811702e-38
0.069080152 0.083099857 0.0202232 1.3902822e-38
0.069107756 0.087031081 0.019640982 1.3347488e-38
0.070212148 0.12529384 0.0042897463 1.6304246e-38
0.068888336 0.1277435 0.0032852888 1.6311473e-38
0.069550239 0.13019101 0.0022755265 1.6222147e-38
0.064916931 0.042059436 0.038574874 1.1690131e-38
0.065016009 0.045480207 0.0364452 1.2977998e-38
0.065216057 0.053521201 0.031691968 1.3992135e-38
0.064688057 0.057427719 0.030085206 1.4359488e-38
0.064336054 0.060032025 0.029014051 1.454532e-38
0.063896053 0.064508036 0.027172565 1.4361635e-38
0.063896053 0.080375776 0.020639539 1.4271953e-38
0.065116353 0.083104119 0.020233512 1.3719858e-38
0.064991713 0.086522058 0.019727945 1.2983713e-38
0.061475031 0.042307958 0.038483083 1.1228791e-38
0.061110981 0.045888916 0.037009835 1.2334411e-38
0.061087698 0.049668714 0.034462392 1.3438238e-38
0.061186418 0.053698495 0.032112002 1.3714833e-38
0.061256066 0.057797596 0.029943407 1.380882e-38
0.061256066 0.060849056 0.02868706 1.371807e-38
0.061067492 0.064859822 0.027036369 1.3901014e-38
0.059936069 0.066953465 0.026177824 1.3808818e-38
0.06037607 0.076310888 0.022323847 1.445203e-38
0.060834281 0.079455242 0.021336973 1.3902468e-38
0.061083123 0.083300367 0.020645738 1.2984106e-38
0.060996957 0.086598888 0.019888759 1.197028e-38
0.057636008 0.046963736 0.03657788 1.1875604e-38
0.057014361 0.049928203 0.035088897 1.325457e-38
0.05713509 0.053919449 0.032634199 1.380666e-38
0.057170451 0.057498768 0.030920148 1.3070544e-38
0.057278186 0.060897991 0.028799176 1.242698e-38
0.05718834 0.064785287 0.027799845 1.3348204e-38
0.057259873 0.068268165 0.025884986 1.3623351e-38
0.057241775 0.071977392 0.024478078 1.3438269e-38
0.057029746 0.075916842 0.023172319 1.3531176e-38
0.057152763 0.079541758 0.021964848 1.2796122e-38
0.057027332 0.083544418 0.021158457 1.1599369e-38
0.056974098 0.087360367 0.019948006 1.1047267e-38
0.058297902 0.089807168 0.018936515 1.0404791e-38
0.053315178 0.050461814 0.035030723 1.2793236e-38
0.053113408 0.054053411 0.032951772 1.3164155e-38
0.053131931 0.057678357 0.031339109 1.3252765e-38
0.053206027 0.061168686 0.029421151 1.3623338e-38
0.053169392 0.06492494 0.028115153 1.2981221e-38
0.053169407 0.068591997 0.026605368 1.2980151e-38
0.053169407 0.072259083 0.025095582 1.3255661e-38
0.053094886 0.076113805 0.02398932 1.2704639e-38
0.053057611 0.079877689 0.022680223 1.178267e-38
0.053380907 0.083517 0.021541357 1.1046907e-38
0.053532206 0.087364063 0.019956946 1.1228424e-38
0.052624449 0.090862527 0.018519342 1.0766358e-38
0.050355077 0.051255986 0.034832895 1.288757e-38
0.049693175 0.054316983 0.0335747 1.2977609e-38
0.049693175 0.057989344 0.032062709 1.3255988e-38
0.049031265 0.061662391 0.030552506 1.2980493e-38
0.049107276 0.065154299 0.028633893 1.2613153e-38
0.049107276 0.068824694 0.027122796 1.316525e-38
0.049050212 0.07263346 0.025915384 1.3530432e-38
0.04919675 0.076351658 0.024504185 1.2701396e-38
0.049031265 0.080024198 0.022992671 1.2147851e-38
0.048865795 0.083696708 0.021481097 1.205854e-38
0.04919675 0.087215707 0.020031273 1.1968489e-38
0.049409501 0.090865985 0.018527746 1.1875192e-38
0.046383671 0.061665252 0.030559361 1.2518437e-38
0.046383671 0.065337613 0.02904737 1.270391e-38
0.046383671 0.069009945 0.027535379 1.2795395e-38
0.046383671 0.072070256 0.026275396 1.3346397e-38
0.045721762 0.080027744 0.023001254 1.2609203e-38
0.045721762 0.083700106 0.021489322 1.2887228e-38
0.045721777 0.086148337 0.020481288 1.3534036e-38
0.1213742 0.056649908 0.019057691 1.5100283e-38
0.14371254 0.065209195 0.014558733 1.4455635e-38
0.14372054 0.062934592 0.015165448 1.500844e-38
0.1365968 0.063540354 0.016614974 1.1510749e-38
0.1350341 0.039229855 0.030513942 1.2429844e-38
0.12770312 0.046284631 0.027789474 1.0770701e-38
0.073810421 0.078078881 0.022011638 1.39021e-38
0.1615231 0.011106953 0.054268122 6.078062e-39
0.16020027 0.013383433 0.052734077 6.9045801e-39
0.160206 0.016306624 0.051049948 7.9147986e-39
0.15637802 0.013600677 0.052851558 6.4425243e-39
0.15578063 0.016515985 0.05097729 7.3652009e-39
0.15221648 0.014805153 0.052773952 6.9024403e-39
0.15223746 0.016966045 0.050922871 7.1783013e-39
0.1509127 0.01938571 0.049810588 7.4545281e-39
0.14822792 0.014809445 0.052784383 6.809481e-39
0.14824763 0.017044336 0.05114311 7.2690536e-39
0.14825748 0.019388556 0.049817502 7.6392753e-39
0.14825223 0.11051704 0.01247865 1.9335863e-38
0.14490412 0.014813006 0.052792966 7.2712046e-39
0.14426288 0.017048612 0.051153481 7.5503194e-39
0.14427464 0.020006657 0.04957521 8.0091228e-39
0.1445982 0.11127634 0.012267351 1.9519557e-38
0.14042701 0.017346114 0.051493406 7.5488663e-39
0.14028248 0.020699978 0.049542189 8.1938742e-39
0.1402918 0.023080036 0.048321962 9.0236222e-39
0.1402918 0.11147021 0.011930346 1.9246561e-38
0.1402508 0.11317022 0.012311995 1.9614628e-38
0.13630229 0.021028146 0.049333394 7.9191006e-39
0.13630895 0.023084313 0.048332393 8.657739e-39
0.13763657 0.11147307 0.011937261 1.9523503e-38
0.13595369 0.11324601 0.011753082 1.9891227e-38
0.13231862 0.021032423 0.049343824 6.9964226e-39
0.13188358 0.023907498 0.048006952 7.7347177e-39
0.13099849 0.026772946 0.046829879 9.3945796e-39
0.13365373 0.11147733 0.011947632 2.090071e-38
0.1322737 0.11317877 0.012332797 2.0074181e-38
0.12830389 0.021478832 0.049738646 5.7085494e-39
0.12834328 0.024320513 0.047847688 6.9031676e-39
0.12834327 0.026775792 0.046836793 8.6577292e-39
0.12799636 0.11313649 0.011552155 1.7315115e-38
0.12303282 0.0046839565 0.055948555 4.2377424e-39
0.12433915 0.02443938 0.048171401 6.5343696e-39
0.12436043 0.026780069 0.046847224 8.1917162e-39
0.1246008 0.11339538 0.011618078 1.4735449e-38
0.12082013 0.0063231736 0.055280447 3.8711431e-39
0.11993505 0.0091886222 0.054103374 4.7898245e-39
0.12076247 0.025026083 0.048481584 6.7176861e-39
0.12002782 0.027485803 0.046840191 8.3757403e-39
0.11904998 0.10781009 0.013502061 1.0215633e-38
0.11996765 0.11064069 0.012797296 1.0590242e-38
0.1209728 0.1131909 0.012362182 1.1879191e-38
0.11631948 0.025908321 0.048312128 8.2853313e-39
0.11636966 0.028132617 0.046675086 9.2980483e-39
0.11631948 0.1045901 0.01591748 1.0316502e-38
0.11700258 0.10693224 0.014680684 1.0867507e-38
0.11238459 0.028751314 0.046432555 9.9387472e-39
0.10834236 0.0283757 0.047320604 1.0948939e-38
0.10440002 0.028818339 0.046609581 1.2425126e-38
0.10302429 0.089851543 0.022026122 8.0076752e-39
0.10368905 0.091080233 0.02151823 7.7314387e-39
0.10041432 0.028822616 0.046619952 1.326138e-38
0.10005789 0.089438066 0.021935046 9.0239599e-39
0.10036525 0.09108378 0.021526992 8.5644209e-39
0.095047183 0.029004678 0.047102094 1.1416782e-38
0.096480533 0.030983984 0.045201421 1.4453113e-38
0.096463546 0.088879034 0.021545351 9.9462946e-39
0.096155114 0.091907933 0.021200538 9.669356e-39
0.095047183 0.12305398 0.0083804727 2.1192727e-38
0.095047183 0.12428339 0.00787431 2.3409745e-38
0.092388138 0.029007524 0.047109127 1.0860031e-38
0.092497692 0.031111032 0.045161247 1.2795024e-38
0.092497692 0.088810161 0.021405578 1.0496953e-38
0.09240672 0.091633603 0.021144688 1.0865333e-38
0.091391012 0.11844765 0.010288179 1.3531891e-38
0.092056043 0.12179573 0.0084442496 1.8508328e-38
0.092425302 0.12535228 0.0070818067 2.3136783e-38
0.091923214 0.12841545 0.0055337548 2.3046363e-38
0.088731967 0.029318795 0.046992064 1.039869e-38
0.088514857 0.030808389 0.04529798 1.0951135e-38
0.089178666 0.089427546 0.021161556 1.1141609e-38
0.088259056 0.091786131 0.02081126 1.1324916e-38
0.087734833 0.11507072 0.011689663 1.1503951e-38
0.088438436 0.11798345 0.010127723 1.215003e-38
0.088514857 0.12134694 0.0080218315 1.4729711e-38
0.088894174 0.1248541 0.0065767169 1.9900246e-38
0.089178666 0.12871207 0.0049874783 2.3138228e-38
0.089178666 0.13116737 0.0039765835 2.2662148e-38
0.084320687 0.031713024 0.045343816 1.1135159e-38
0.085859634 0.089431122 0.021170199 1.1784096e-38
0.084465019 0.092134222 0.020662308 1.1600079e-38
0.083081514 0.094790563 0.020053506 1.1599731e-38
0.084411025 0.1116934 0.013090253 1.0763518e-38
0.084478453 0.11419554 0.011459112 1.1132656e-38
0.085859634 0.11643924 0.010050535 1.1964568e-38
0.08064805 0.032342881 0.045462608 1.113516e-38
0.079885371 0.035421297 0.043425083 1.2704277e-38
0.080485821 0.092728034 0.020369828 1.2061419e-38
0.07975772 0.094794109 0.020062149 1.2060703e-38
0.080122247 0.11158036 0.012879491 1.3254565e-38
0.080849878 0.11318667 0.011675239 1.3159143e-38
0.077098675 0.033326849 0.045377314 1.0860007e-38
0.076477639 0.035665467 0.044055879 1.1598652e-38
0.076566339 0.037880167 0.042422891 1.2424834e-38
0.076500133 0.092732325 0.020380259 1.2797906e-38
0.076433919 0.094797686 0.02007091 1.2612803e-38
0.075104401 0.10832255 0.014506459 1.6658248e-38
0.076334178 0.11069866 0.012983739 1.5923184e-38
0.07523872 0.11522298 0.010583639 1.2891195e-38
0.073774882 0.036403939 0.04412061 1.1316326e-38
0.072334081 0.038918212 0.042471826 1.1686543e-38
0.072537772 0.092662558 0.020240784 1.2798273e-38
0.073110126 0.094801262 0.020079494 1.2432735e-38
0.072777748 0.1080177 0.01463908 1.5832107e-38
0.072417542 0.110162 0.012675941 1.1775133e-38
0.072289959 0.11433886 0.011172891 9.0121582e-39
0.071702905 0.11772417 0.010213435 9.6578583e-39
0.071185857 0.12099315 0.0087609887 1.066659e-38
0.068492763 0.039698318 0.042509913 1.1409598e-38
0.067273043 0.08945106 0.021218657 1.3073043e-38
0.068748936 0.091680422 0.020605266 1.2614224e-38
0.069786333 0.10832827 0.014520347 1.2141406e-38
0.069833644 0.11063133 0.013211489 1.1135474e-38
0.069786333 0.11324586 0.012495697 1.1138032e-38
0.069390468 0.12250955 0.0083223581 1.5010214e-38
0.069102928 0.1249028 0.0068332553 1.6581182e-38
0.064517789 0.039979264 0.042316258 1.1042246e-38
0.064617805 0.089453921 0.021225572 1.2429107e-38
0.064823896 0.091349348 0.020877123 1.2061407e-38
0.060776666 0.040155306 0.042399406 1.0489067e-38
0.059971161 0.042501643 0.040570796 1.0859292e-38
0.059307352 0.045264527 0.039435267 1.1414261e-38
0.060634971 0.089458212 0.021235943 1.1417466e-38
0.060356312 0.091816053 0.020884037 1.0866454e-38
0.059150182 0.096045658 0.019609809 1.0311151e-38
0.056893721 0.043306008 0.041175902 1.0764577e-38
0.056416191 0.046251789 0.039346576 1.0860383e-38
0.056486174 0.092071399 0.020172715 9.9416493e-39
0.056426279 0.095615312 0.019119322 9.4828319e-39
0.056047969 0.098917589 0.018436849 9.7572622e-39
0.053832114 0.044416443 0.040882528 1.1595771e-38
0.052739874 0.047119454 0.039464116 1.1778742e-38
0.051784202 0.049364761 0.037770092 1.2240084e-38
0.051341668 0.085171446 0.023029268 1.1413891e-38
0.052005485 0.088239834 0.021763921 1.1320612e-38
0.053996898 0.092534438 0.019989669 9.7543742e-39
0.052669294 0.095604971 0.018729568 1.0583727e-38
0.05258593 0.098900601 0.01791358 1.0954347e-38
0.04984355 0.04810895 0.039374411 1.2243665e-38
0.048462309 0.050901935 0.037627876 1.2980128e-38
0.047358833 0.055098489 0.035422921 1.3253488e-38
0.047358833 0.05878143 0.033906579 1.3347832e-38
0.047358833 0.077196047 0.026324987 1.2887581e-38
0.050014064 0.084559038 0.023285449 1.1689396e-38
0.047358833 0.089472458 0.021270573 1.2797163e-38
0.047358833 0.092541561 0.020007014 1.1968852e-38
0.048648126 0.09570916 0.018939197 1.1875934e-38
0.048514031 0.098823234 0.0184986 1.2338723e-38
0.045522623 0.055797353 0.03622216 1.3345343e-38
0.044564642 0.059091315 0.03462863 1.2884358e-38
0.043949768 0.06266804 0.032857478 1.2148226e-38
0.043949798 0.066353604 0.031340063 1.2795394e-38
0.043949768 0.070039168 0.029822648 1.2146081e-38
0.044221677 0.073929295 0.028297484 1.3438235e-38
0.044643581 0.077339366 0.026634693 1.3160945e-38
0.043375969 0.08088325 0.024819076 1.2977246e-38
0.043375969 0.084566161 0.023302734 1.3255284e-38
0.044462502 0.088723823 0.021896601 1.3165974e-38
0.044643581 0.092078105 0.020566523 1.1688679e-38
0.04499802 0.095576718 0.019665718 1.0856746e-38
0.045855001 0.098518744 0.018632114 1.1871268e-38
0.041866437 0.062870339 0.033321261 1.2700685e-38
0.041866437 0.065943852 0.032055855 1.3069137e-38
0.041866437 0.069632068 0.030537367 1.2330057e-38
0.040869296 0.074858084 0.028388739 1.389814e-38
0.040536925 0.077624604 0.027250767 1.4174358e-38
0.041201681 0.081312105 0.02573061 1.3160903e-38
0.041262329 0.084856585 0.023910463 1.2886849e-38
0.041866437 0.08807309 0.022944868 1.3254207e-38
0.037877873 0.07639806 0.027763844 1.4176526e-38
0.15653141 0.074109957 0.0088780522 1.4179037e-38
0.11573157 0.07595031 0.0082447529 1.3902072e-38
0.14616778 0.053994343 0.021597445 1.3442209e-38
0.14708129 0.052211449 0.021167159 1.6297393e-38
0.15782665 0.079498217 0.0066556334 1.3996808e-38
0.13551763 0.052733943 0.020526707 1.2982283e-38
0.13643731 0.047226027 0.024282992 1.23355e-38
0.11347482 0.086784914 0.010144413 8.836008e-39
0.090172455 0.051890686 0.029547632 1.5466191e-38
0.090315744 0.071321622 0.021715403 1.2244724e-38
0.093753919 0.087864801 0.01773572 1.2155058e-38
0.076788157 0.034496143 0.044716597 1.122915e-38
0.15744333 0.011850014 0.055883646 6.2620847e-39
0.16105238 0.011305392 0.056891441 6.0769746e-39
0.1572257 0.011218622 0.057047009 6.2599337e-39
0.15746057 0.11806126 0.015112162 2.0350758e-38
0.15360868 0.0091055185 0.060253143 4.8795062e-39
0.15328261 0.011834055 0.057547331 5.707483e-39
0.15350211 0.013617173 0.055422008 6.4418195e-39
0.15347286 0.1147321 0.015233338 1.933913e-38
0.15410581 0.11799325 0.015691161 2.1551106e-38
0.14995477 0.009530589 0.060359657 4.9684719e-39
0.14945604 0.012314484 0.057773113 5.9815672e-39
0.14882903 0.014321044 0.055416822 6.5343612e-39
0.14674108 0.010276958 0.06006217 5.7975081e-39
0.14561065 0.012500405 0.057798386 6.7201902e-39
0.14483547 0.014242947 0.055190802 7.1790132e-39
0.14548022 0.11504145 0.014409542 1.9890136e-38
0.14473251 0.11800332 0.015715659 2.0259302e-38
0.14141922 0.01246807 0.058215082 7.273364e-39
0.14148262 0.015027821 0.055418551 7.8243812e-39
0.14183548 0.11503781 0.013701081 1.9983054e-38
0.14142399 0.11815016 0.014583886 2.0350759e-38
0.13736778 0.012763426 0.05906707 6.3546363e-39
0.13726759 0.015825883 0.056184351 6.997126e-39
0.13723551 0.018196478 0.053586245 7.272973e-39
0.13750218 0.02041544 0.05267185 7.7336191e-39
0.13750216 0.11535071 0.013585508 2.0074892e-38
0.13743767 0.11850803 0.013847888 2.0443667e-38
0.13357383 0.013180241 0.058907032 5.0642548e-39
0.13338348 0.016260639 0.056918323 5.9840573e-39
0.13348503 0.018682003 0.053758264 6.4439733e-39
0.13416885 0.020419031 0.052680552 7.0889742e-39
0.13283552 0.11535572 0.013597667 1.9800108e-38
0.13344607 0.11835293 0.013563395 1.9338058e-38
0.12966828 0.013700351 0.058704793 3.4058237e-39
0.12933353 0.016486689 0.057558596 4.4203315e-39
0.12944597 0.018910527 0.054397523 4.9720606e-39
0.12950221 0.020424038 0.052692711 5.5237966e-39
0.12950221 0.11535929 0.013606369 1.8602254e-38
0.12943931 0.11835723 0.013573825 1.749556e-38
0.12665544 0.014013156 0.058585167 2.0250514e-39
0.12569898 0.016667485 0.057495296 2.8533674e-39
0.1252313 0.019275323 0.054569185 4.1415712e-39
0.12443556 0.021415815 0.052299857 5.1542868e-39
0.12283556 0.11536644 0.013623774 1.400003e-38
0.12542932 0.11777024 0.013887882 1.6483545e-38
0.12230346 0.0089430362 0.058883548 4.3310492e-39
0.12150224 0.0093363076 0.05728215 4.7927196e-39
0.12196879 0.017732814 0.05706805 2.0254088e-39
0.12131388 0.020134717 0.05584079 3.5898464e-39
0.12080127 0.022452861 0.05242461 5.3394026e-39
0.11928003 0.024544761 0.051027358 6.4411048e-39
0.12014572 0.11511637 0.014095366 1.233837e-38
0.12166691 0.11809973 0.015205562 1.4182612e-38
0.11728214 0.020833358 0.055805802 3.2189283e-39
0.11742888 0.022627488 0.052903831 5.2450616e-39
0.11670226 0.11068793 0.015568674 1.1327063e-38
0.11703663 0.11485739 0.015086949 1.2245799e-38
0.11661263 0.11803351 0.015788972 1.5009817e-38
0.11393454 0.021456063 0.055559635 3.1270984e-39
0.11338804 0.023400351 0.053078592 4.9677656e-39
0.11320359 0.026004612 0.050877452 7.9186928e-39
0.1128356 0.027839482 0.049690485 9.3884433e-39
0.1131727 0.10406803 0.0197469 8.7452669e-39
0.11341292 0.10725872 0.018192112 1.0221458e-38
0.11342318 0.11091189 0.016567945 1.1325654e-38
0.11336982 0.1143135 0.015888512 1.1784815e-38
0.10924789 0.021461099 0.055571854 1.8392253e-39
0.10936096 0.023480281 0.053298235 4.2294859e-39
0.10947402 0.026108861 0.05077374 6.9953576e-39
0.10950229 0.027843058 0.049699187 9.0214572e-39
0.10963048 0.11202686 0.018283308 1.0952913e-38
0.10924789 0.11556499 0.016827762 1.1873086e-38
0.10880154 0.11886735 0.015469491 1.7036087e-38
0.10790884 0.12299569 0.013772488 2.2850105e-38
0.10790884 0.12547211 0.01275295 2.1652591e-38
0.10532127 0.024217129 0.053367674 5.4237187e-39
0.10523368 0.026559606 0.051167607 7.3641331e-39
0.10616896 0.027846649 0.04970789 9.3888188e-39
0.10483564 0.09380959 0.02255398 7.0875e-39
0.10465366 0.095933571 0.023842871 6.8119977e-39
0.10389172 0.10937969 0.019390702 1.0306447e-38
0.10506338 0.11185487 0.018368065 1.0767432e-38
0.10533261 0.11504407 0.01585263 1.1505022e-38
0.10537241 0.11854126 0.01393199 1.4174773e-38
0.10533261 0.12246235 0.012798369 2.1744139e-38
0.10522103 0.12538417 0.010634482 2.2111121e-38
0.10121363 0.02456525 0.054318309 7.2676033e-39
0.10121533 0.026613533 0.051312149 8.7441501e-39
0.10216898 0.027850941 0.04971832 1.0499142e-38
0.10150231 0.093196705 0.022816479 8.0105325e-39
0.10088658 0.096570149 0.024055779 7.8236469e-39
0.10020936 0.10443081 0.021439433 9.6653861e-39
0.10088658 0.10805677 0.019326627 1.0397943e-38
0.10134321 0.11123623 0.017192245 1.0953629e-38
0.10140608 0.11462887 0.015074253 1.1505741e-38
0.10140608 0.11833291 0.013549209 1.2608877e-38
0.10140608 0.12203698 0.012024224 1.9528225e-38
0.10140608 0.12574102 0.010499179 2.1929947e-38
0.097196504 0.024304226 0.054438055 8.0966619e-39
0.09740039 0.026970401 0.051176846 9.7561804e-39
0.096835673 0.029706046 0.048970819 1.215325e-38
0.098168992 0.093200281 0.022825122 9.0257844e-39
0.097466789 0.096713409 0.023543775 9.3002119e-39
0.096192226 0.10072051 0.022979319 9.9452296e-39
0.097265303 0.1041293 0.020851612 1.0312538e-38
0.09737815 0.10732727 0.018333077 1.0953626e-38
0.09740039 0.11092909 0.016609728 1.1230219e-38
0.097400397 0.11463316 0.015084684 1.1229887e-38
0.09740039 0.1183372 0.013559699 1.1781253e-38
0.097400382 0.12204127 0.012034655 1.6575818e-38
0.09744633 0.1255285 0.010118127 2.2489243e-38
0.097434998 0.12866785 0.0089458823 1.998775e-38
0.093012005 0.024109721 0.054530859 8.2810447e-39
0.093394689 0.026974693 0.051187336 9.7551112e-39
0.093502335 0.09443821 0.022329688 1.0497313e-38
0.093359448 0.096883729 0.022765219 1.0496611e-38
0.093299851 0.1002223 0.021991611 1.068136e-38
0.093371183 0.10362636 0.01986903 1.0957203e-38
0.093394689 0.10722934 0.018145204 1.1323138e-38
0.093394689 0.11093341 0.016620159 1.1413893e-38
0.09341903 0.11453246 0.014897943 1.1321341e-38
0.09350235 0.11786379 0.012685001 1.2149654e-38
0.094169006 0.12156184 0.011160433 1.6386755e-38
0.094835676 0.12649281 0.0091282129 2.341769e-38
0.094391234 0.12895916 0.0081141591 2.2668566e-38
0.089162245 0.023959085 0.05460465 8.5561841e-39
0.089363374 0.0270558 0.051406562 9.5699871e-39
0.088169038 0.029098898 0.049247205 1.0213934e-38
0.089502364 0.094442502 0.022340119 1.1324934e-38
0.089408197 0.096664444 0.022326767 1.1232387e-38
0.089388989 0.099825516 0.021205664 1.1140899e-38
0.089388989 0.10352956 0.019680679 1.1324559e-38
0.089414611 0.10713081 0.017957628 1.1507525e-38
0.089477591 0.11057414 0.015938818 1.1872348e-38
0.089669026 0.11401503 0.014281332 1.1596497e-38
0.09016902 0.11663444 0.013201296 1.1689403e-38
0.086484164 0.02458106 0.054356754 9.200808e-39
0.085145123 0.027678028 0.053085744 9.5681598e-39
0.085165396 0.029805765 0.049614251 1.0120654e-38
0.085278146 0.096688524 0.021737278 1.1600809e-38
0.085580453 0.099870905 0.020928204 1.1601152e-38
0.085396737 0.10348313 0.019591749 1.1876293e-38
0.085489355 0.10682736 0.017373443 1.0955445e-38
0.085669048 0.11032052 0.015814602 1.104189e-38
0.086835705 0.11355571 0.014479041 1.113481e-38
0.081127994 0.028301433 0.052841306 9.5692248e-39
0.081439994 0.029897958 0.049479425 9.5706933e-39
0.080169074 0.03157334 0.048252821 1.0490501e-38
0.0815024 0.097269252 0.021200776 1.150933e-38
0.081460476 0.10015027 0.020375133 1.1324931e-38
0.081391253 0.10348766 0.01960218 1.1229143e-38
0.081446506 0.10698579 0.017681062 1.0765319e-38
0.0815024 0.11047913 0.015761971 1.150216e-38
0.077780396 0.028924137 0.052595139 9.934392e-39
0.077393331 0.030019835 0.049802184 9.7550622e-39
0.076335743 0.032348022 0.047945559 1.0215704e-38
0.076835737 0.097538427 0.021104157 1.1968873e-38
0.077437155 0.10023008 0.020534754 1.0865747e-38
0.077371895 0.10354246 0.019711971 1.1226257e-38
0.076981954 0.10702275 0.017493725 1.389848e-38
0.077769078 0.10974337 0.016076326 1.463604e-38
0.07313852 0.031494394 0.051190615 9.5717541e-39
0.072565056 0.034158215 0.048293233 1.0123507e-38
0.072835766 0.097542718 0.021114528 1.1878482e-38
0.073366188 0.10046007 0.020993292 1.1233461e-38
0.073366188 0.10354675 0.019722462 1.1321701e-38
0.072989859 0.1066085 0.017922223 1.5278906e-38
0.06926503 0.034646854 0.048823059 9.6632463e-39
0.069407165 0.037374511 0.046618164 1.0859636e-38
0.06816911 0.038983777 0.045238435 1.1134437e-38
0.067502446 0.094466135 0.022397518 1.2155041e-38
0.068909854 0.096519485 0.021547794 1.1878478e-38
0.069360495 0.10000135 0.021194339 1.1232034e-38
0.069328532 0.10365216 0.019931734 1.0677041e-38
0.069423161 0.10704945 0.017811716 1.187272e-38
0.06816911 0.11049344 0.015796781 1.012315e-38
0.068430521 0.11473678 0.014589667 1.0494106e-38
0.069059826 0.1179186 0.013200462 1.1877378e-38
0.068673678 0.12143888 0.011505067 1.3535775e-38
0.066835791 0.12590642 0.0094550848 1.6951046e-38
0.066835791 0.12775584 0.0086936355 1.6584104e-38
0.065385595 0.035727605 0.049399316 9.8461998e-39
0.065354802 0.037499651 0.046939552 1.1225533e-38
0.064835794 0.038987353 0.045247138 1.0857488e-38
0.064835794 0.094468996 0.022404432 1.1785904e-38
0.064761013 0.096541837 0.022091925 1.1509709e-38
0.065288767 0.10005267 0.021666288 1.1139834e-38
0.065190323 0.10406153 0.020737052 1.0678124e-38
0.065189481 0.1077726 0.019209087 9.5732311e-39
0.065222286 0.11137916 0.01748383 8.8374513e-39
0.065595105 0.11610715 0.0167377 9.2984477e-39
0.065059498 0.11932708 0.015413642 1.1231679e-38
0.06522271 0.12250422 0.012903392 1.3353211e-38
0.064973302 0.12560375 0.010666847 1.6674802e-38
0.064687185 0.12824978 0.0095782876 1.6493346e-38
0.061219715 0.037805513 0.047727466 1.0672002e-38
0.061502479 0.03899093 0.04525584 1.0670935e-38
0.061835803 0.094163969 0.022539198 1.1233093e-38
0.061335795 0.096784487 0.021461785 1.0955431e-38
0.061562024 0.10014369 0.021005034 1.0678479e-38
0.061315432 0.10366078 0.019952595 1.0401194e-38
0.061145894 0.10787956 0.019417763 1.003169e-38
0.060990959 0.11139806 0.017879486 9.38773e-39
0.060659781 0.11579405 0.016881645 9.4799453e-39
0.062381409 0.12304457 0.01389122 1.3537266e-38
0.062482394 0.12643369 0.011774659 1.695103e-38
0.061711885 0.12923636 0.011344016 1.6492616e-38
0.057184324 0.038694039 0.047554135 9.8447803e-39
0.057502493 0.04043363 0.044674039 1.0211402e-38
0.057502493 0.09817563 0.020900726 9.5750458e-39
0.058090083 0.10025086 0.020585239 1.0126758e-38
0.057450101 0.10325958 0.019168317 1.0217882e-38
0.057379171 0.10716559 0.018040895 1.0493399e-38
0.05730848 0.11107631 0.016911745 9.8498096e-39
0.05720327 0.11509611 0.015977919 9.8501837e-39
0.057025239 0.11898191 0.015580237 1.0861804e-38
0.053677633 0.040093914 0.048069894 9.9358899e-39
0.053309277 0.041277453 0.04560113 1.0764223e-38
0.053312026 0.043579176 0.043391824 1.1687608e-38
0.052169181 0.046398506 0.04223448 1.1596876e-38
0.054835826 0.10064436 0.019892454 1.0216436e-38
0.053502515 0.10311164 0.018880725 1.0402595e-38
0.053392634 0.10711892 0.017952144 1.0127113e-38
0.053337708 0.11097641 0.016724646 9.6671798e-39
0.053263627 0.11489083 0.015593827 9.7597663e-39
0.053342879 0.11841099 0.015826523 1.1417833e-38
0.049279168 0.042717323 0.046385288 1.1779803e-38
0.049416624 0.044738308 0.043467045 1.2240421e-38
0.049058065 0.047223791 0.041904211 1.1874868e-38
0.049502522 0.10065009 0.019906342 1.2152168e-38
0.049483366 0.10316689 0.018990457 1.2428742e-38
0.049350746 0.10722552 0.018160999 1.2337243e-38
0.049217485 0.11129294 0.017327785 1.2523069e-38
0.049526609 0.11513384 0.017187417 1.2430543e-38
0.046312906 0.043816432 0.046559751 1.1319185e-38
0.045207985 0.045795038 0.044306576 1.1044401e-38
0.045443162 0.048381135 0.041799188 1.169047e-38
0.045096129 0.051216051 0.040427148 1.2703894e-38
0.044502541 0.05472897 0.038828075 1.3254212e-38
0.044169202 0.098189965 0.020935535 1.0575835e-38
0.045124665 0.10045977 0.020268381 1.1409572e-38
0.045470476 0.10347964 0.019970298 1.1414953e-38
0.04550641 0.10763253 0.019361138 1.0307521e-38
0.046312898 0.11191793 0.018521249 1.0859291e-38
0.042295784 0.047535375 0.045040846 1.141102e-38
0.041806281 0.049015149 0.04335165 1.1593971e-38
0.041418567 0.05202134 0.041439295 1.2609916e-38
0.041421056 0.055212632 0.039118946 1.3069825e-38
0.040502563 0.059356704 0.036934912 1.2883254e-38
0.040169224 0.063055888 0.035412967 1.2976189e-38
0.039502561 0.066138908 0.034145653 1.343609e-38
0.039902568 0.070453689 0.032367945 1.3067649e-38
0.039902568 0.074029192 0.030895889 1.3623335e-38
0.038835898 0.081551179 0.027802229 1.34418e-38
0.038835898 0.084633484 0.026533186 1.3164128e-38
0.039369226 0.088578299 0.02490741 1.279608e-38
0.040805236 0.092102662 0.023632228 1.2242937e-38
0.041267529 0.096653029 0.022967637 1.0951487e-38
0.041969463 0.10047795 0.022523582 9.7500806e-39
0.042295784 0.10325478 0.02210027 9.1028979e-39
0.038278669 0.053111628 0.042757273 1.2335871e-38
0.037293211 0.055975243 0.040499806 1.2979408e-38
0.036879241 0.059072629 0.03845346 1.3344951e-38
0.036933407 0.063017622 0.036520064 1.3804874e-38
0.036678582 0.066477969 0.034915805 1.4359098e-38
0.036835909 0.070456997 0.032375991 1.4081787e-38
0.036835909 0.074155793 0.030853152 1.3991749e-38
0.036702573 0.077238247 0.029584467 1.3991762e-38
0.036835909 0.080936864 0.028061271 1.3349255e-38
0.036804304 0.084707633 0.026689053 1.3625136e-38
0.036678582 0.088697627 0.025767624 1.3258523e-38
0.037344277 0.092498168 0.025308192 1.2796823e-38
0.03426154 0.060545191 0.039708972 1.3712661e-38
0.033783451 0.063242927 0.037518382 1.4174355e-38
0.033281788 0.067107156 0.035928905 1.4542776e-38
0.033383772 0.070622072 0.033724487 1.408215e-38
0.03314136 0.074111566 0.031964004 1.3346028e-38
0.033416003 0.077427998 0.029996991 1.2700337e-38
0.033373043 0.081223741 0.028674662 1.26128e-38
0.033243701 0.085213467 0.027753413 1.3992844e-38
0.033414468 0.0892189 0.027288258 1.3809873e-38
0.03426154 0.09211953 0.026709318 1.3625478e-38
0.03024441 0.072312489 0.034876466 1.2520209e-38
0.029351711 0.074996248 0.033774257 1.131954e-38
0.029081032 0.078131571 0.031522989 1.1135166e-38
0.029265642 0.081501439 0.030169368 1.1599032e-38
0.15912187 0.060333654 0.014542043 1.67562e-38
0.15815045 0.062829897 0.013517261 1.5837119e-38
0.15604064 0.065757409 0.012175381 1.5191746e-38
0.17208838 0.068759039 0.014277995 1.5747087e-38
0.1697033 0.067959592 0.014614403 1.5652025e-38
0.1486842 0.052751496 0.02098006 1.4916253e-38
0.14899026 0.069972023 0.014145494 1.4639302e-38
0.13254054 0.071181551 0.015068233 1.4179407e-38
0.13247587 0.085512444 0.01190418 1.1783049e-38
0.09705206 0.03896825 0.035259068 1.4180857e-38
0.096511111 0.062797353 0.026552498 1.3993211e-38
0.11268188 0.034181073 0.04023087 1.5467999e-38
0.078677021 0.12514363 0 1.5467998e-38
0.089664459 0.050465629 0.033201337 1.3902467e-38
0.090487808 0.073555335 0.022565186 1.307126e-38
0.072236143 0.066928908 0.022906184 1.454389e-38
0.093865193 0.10534395 0.01851213 1.1140906e-38
0.093807742 0.096509144 0.019383132 1.1691207e-38
0.068212584 0.094135806 0.024559259 1.2704994e-38
0.15742745 0.12073709 0.016281664 2.1360617e-38
0.15341434 0.0068725049 0.062525034 4.0508386e-39
0.1520734 0.0081138909 0.062017977 4.3263338e-39
0.15320683 0.1204062 0.016554475 2.2471254e-38
0.15352863 0.12479858 0.017834842 2.3302419e-38
0.14938165 0.0069826096 0.062852442 3.7742265e-39
0.14872102 0.0087374747 0.061771452 4.4174477e-39
0.14937593 0.11998005 0.016569853 2.1180521e-38
0.1494665 0.12490834 0.017589509 2.2838225e-38
0.14533529 0.0071984679 0.063496947 3.5891205e-39
0.14519246 0.0092860311 0.061826706 4.9713319e-39
0.14402771 0.011842445 0.060507357 6.62977e-39
0.14554593 0.12027799 0.016321599 2.099721e-38
0.14508329 0.12497346 0.017711282 2.1732254e-38
0.14133279 0.0094717443 0.061852098 5.3408277e-39
0.14134581 0.12096275 0.015589058 2.1365246e-38
0.14122814 0.12489261 0.017215729 2.2010269e-38
0.13727754 0.009689182 0.062495947 4.2370137e-39
0.13322134 0.0098717511 0.063033819 2.1172513e-39
0.13285315 0.012267783 0.060366392 4.0522525e-39
0.12918359 0.0099119544 0.06314981 1.3800464e-39
0.12898624 0.012484327 0.060721576 1.93286e-39
0.12837811 0.12788208 0.01710546 1.8236381e-38
0.12559415 0.0097886026 0.062181711 3.8664305e-39
0.1250791 0.012988314 0.060228586 1.9303419e-39
0.12391351 0.01620394 0.058773041 1.6577081e-39
0.12525445 0.12098004 0.01563102 1.6483512e-38
0.12511617 0.1245345 0.016571105 1.4918054e-38
0.12568097 0.12788497 0.017112494 1.4556127e-38
0.12137339 0.013384447 0.06034708 2.8522842e-39
0.12101051 0.016614288 0.059076428 7.3684057e-40
0.1209356 0.12068005 0.016200244 1.4090762e-38
0.12105119 0.12475391 0.016973913 1.0400789e-38
0.11717637 0.016977832 0.05895561 2.2051323e-39
0.11720877 0.019311085 0.05751431 2.1136626e-39
0.11736943 0.120308 0.016395152 1.5839963e-38
0.11701376 0.12475742 0.016984642 1.0856735e-38
0.11606643 0.12798615 0.016379237 8.1013787e-39
0.11297177 0.020297006 0.057430267 1.7463178e-39
0.11184499 0.10239486 0.023323655 7.547423e-39
0.11184499 0.10363482 0.022813141 7.7303667e-39
0.11318593 0.11727311 0.017194033 1.2981947e-38
0.11315957 0.11991282 0.01646769 1.9898049e-38
0.11307211 0.12417127 0.015916228 1.6293005e-38
0.1132504 0.12771548 0.015706182 1.0312615e-38
0.10899222 0.018124178 0.060190797 2.7586536e-39
0.10913129 0.020530283 0.057442367 1.0109093e-39
0.10782214 0.098059282 0.025120974 5.2450756e-39
0.10890031 0.10182099 0.024785459 6.5354346e-39
0.10909672 0.10523255 0.02300477 7.8239902e-39
0.10915345 0.1086487 0.020877242 9.3884531e-39
0.10782214 0.11169894 0.019505262 1.0673435e-38
0.11005706 0.12058304 0.015840828 2.137538e-38
0.10976385 0.1238793 0.015385747 2.2567395e-38
0.10974972 0.12706377 0.014254928 1.8513674e-38
0.10511956 0.018652067 0.061282992 3.0363125e-39
0.10502898 0.020974398 0.05818826 1.7481044e-39
0.10514025 0.02304396 0.05601424 4.0468785e-39
0.10514025 0.09818615 0.025076926 6.2592121e-39
0.10505956 0.10156335 0.024647892 6.4432208e-39
0.10504971 0.10533853 0.023213804 7.9161985e-39
0.10526308 0.10867719 0.021297872 9.3859251e-39
0.10648119 0.11232038 0.019253552 1.0767073e-38
0.10076458 0.019310296 0.061529875 1.0123527e-39
0.10097926 0.021054372 0.058408022 3.4025825e-39
0.10108469 0.023161709 0.056338549 5.7964291e-39
0.10245836 0.098065034 0.025134921 6.9956897e-39
0.10110691 0.10121672 0.023961604 8.0066088e-39
0.10192198 0.10488544 0.022328496 8.9278407e-39
0.10245836 0.1079848 0.021050811 9.6625302e-39
0.096499398 0.01866132 0.061305463 1.8370743e-39
0.096993044 0.020908818 0.057999492 4.4134932e-39
0.097094566 0.023052573 0.056035161 7.1771999e-39
0.097899131 0.10116987 0.023870528 9.4838815e-39
0.092963643 0.020913139 0.058009982 5.886108e-39
0.09441267 0.023055449 0.056042135 7.4534267e-39
0.08893238 0.018735722 0.061514199 5.9790477e-39
0.088834316 0.021216258 0.05885905 7.8207658e-39
0.085058138 0.022178993 0.060216486 9.2944442e-39
0.084642909 0.024128795 0.055630088 9.5692388e-39
0.081178293 0.02318342 0.060355484 1.0304657e-38
0.08079499 0.024878383 0.057135463 1.0120283e-38
0.081003189 0.026789784 0.054545641 9.7511035e-39
0.076780662 0.025695294 0.058253407 1.0485109e-38
0.076751225 0.02777873 0.054460347 1.0485446e-38
0.072783336 0.026535794 0.058730483 1.0950399e-38
0.072623245 0.028886169 0.056351483 1.1226246e-38
0.072287045 0.030519024 0.053036749 9.6632351e-39
0.068366922 0.029432282 0.057821929 1.0396847e-38
0.068823852 0.032036692 0.053263485 8.9253043e-39
0.064590931 0.030184522 0.057523668 1.0854946e-38
0.06473095 0.03219755 0.053690374 9.7529084e-39
0.064576596 0.034557208 0.051397681 9.569271e-39
0.064241365 0.11546566 0.018087387 8.8367381e-39
0.060462117 0.032749981 0.055158257 9.8444146e-39
0.060682803 0.03542541 0.05132246 9.9366158e-39
0.062229939 0.11360787 0.018858433 9.021404e-39
0.062229939 0.1154678 0.018092632 8.9267533e-39
0.060888998 0.11980917 0.016309321 1.0586307e-38
0.060089111 0.12393291 0.015515149 1.3720564e-38
0.060063243 0.12773715 0.014129281 1.6397461e-38
0.056732051 0.033483401 0.055828989 1.0212487e-38
0.056706421 0.035852656 0.051969707 9.750784e-39
0.056195669 0.037976131 0.050015628 9.4767223e-39
0.056866147 0.12105344 0.015809298 1.1785925e-38
0.056717083 0.12421428 0.016825855 1.3352498e-38
0.05353269 0.034436241 0.055806875 1.1040782e-38
0.0525987 0.036549762 0.053317368 9.8447691e-39
0.052533753 0.039124355 0.050326526 9.8440544e-39
0.052476242 0.12084977 0.016555369 1.2337288e-38
0.053192399 0.12431671 0.018081725 1.2430197e-38
0.049318828 0.036968842 0.05412817 1.0028084e-38
0.048555031 0.039787754 0.050975263 1.0672753e-38
0.048106894 0.11684148 0.017840505 1.3625833e-38
0.048625283 0.12068261 0.018285096 1.445526e-38
0.05016128 0.12422501 0.018849671 1.4177961e-38
0.046789862 0.037561014 0.054540932 9.5692556e-39
0.045006849 0.040711328 0.052600443 1.0764241e-38
0.044365197 0.043344513 0.04946357 1.10426e-38
0.043456674 0.10618819 0.021970451 9.5605788e-39
0.043456674 0.10928811 0.020694196 9.0067268e-39
0.04406777 0.11254309 0.019712746 8.0873222e-39
0.044542022 0.11679016 0.019164205 8.9192619e-39
0.045476168 0.12164082 0.019711614 1.140957e-38
0.04274416 0.041929916 0.052754521 1.131596e-38
0.040964574 0.044453546 0.051072061 1.1223386e-38
0.040515721 0.046704158 0.047010601 1.1042233e-38
0.039433837 0.049773857 0.045209408 1.1685446e-38
0.039433837 0.05163379 0.044443667 1.2240776e-38
0.039433837 0.098752692 0.025044024 1.2152171e-38
0.039859921 0.10175087 0.024457216 1.1780164e-38
0.04028663 0.10590585 0.023988843 1.1315936e-38
0.040490285 0.10938974 0.022343576 1.1038642e-38
0.040623292 0.11305313 0.021045148 1.1500336e-38
0.040811643 0.11776443 0.020997405 1.2053494e-38
0.04274416 0.12049194 0.020409286 1.0481193e-38
0.03869845 0.045675322 0.051224768 1.0949662e-38
0.036892936 0.047734484 0.049120843 1.1041517e-38
0.036907166 0.050127581 0.045720339 1.1226625e-38
0.03631492 0.052808776 0.044278443 1.1686183e-38
0.035411 0.055358037 0.042922616 1.1962766e-38
0.035986692 0.095257685 0.027034223 1.28901e-38
0.036617607 0.097834483 0.026203156 1.288938e-38
0.037048683 0.10213868 0.025820076 1.2796093e-38
0.036862299 0.10632463 0.02517873 1.3163801e-38
0.036862299 0.11006041 0.023640633 1.3163408e-38
0.037017941 0.11430828 0.022663772 1.1962731e-38
0.03734988 0.11675669 0.021963656 1.140991e-38
0.033650115 0.048772827 0.049532413 1.1039361e-38
0.033187658 0.050865665 0.048239529 1.039647e-38
0.033078879 0.05351685 0.045490086 1.1041531e-38
0.033001721 0.056999072 0.04287225 1.2516647e-38
0.032262281 0.060312614 0.041355789 1.3254204e-38
0.031388149 0.064042166 0.03935951 1.3806289e-38
0.031388149 0.066522077 0.038338423 1.4081786e-38
0.031388149 0.090701506 0.028383374 1.3809505e-38
0.032759219 0.094241425 0.028003216 1.3809156e-38
0.033110365 0.099035755 0.02819103 1.3714801e-38
0.033431217 0.10274296 0.027024269 1.3070892e-38
0.033388868 0.10658236 0.025683999 1.2795743e-38
0.033346534 0.1104237 0.024342895 1.0767072e-38
0.033641338 0.11333136 0.023385167 9.1993759e-39
0.029699594 0.054482773 0.047317207 1.0584129e-38
0.028782353 0.06150414 0.043656647 1.214751e-38
0.02904588 0.06470795 0.040894866 1.279395e-38
0.028699681 0.068273082 0.038571954 1.3070865e-38
0.028488621 0.07143189 0.036596179 1.2147499e-38
0.027812287 0.07479243 0.034944355 1.0581638e-38
0.028035775 0.083885267 0.031199932 1.1691951e-38
0.028180107 0.086849645 0.030751526 1.2614245e-38
0.028724328 0.090255871 0.029386044 1.3719141e-38
0.029312477 0.09522669 0.029635727 1.4824009e-38
0.02957496 0.098817185 0.028562188 1.4732543e-38
0.030269921 0.10335885 0.027501285 1.3808437e-38
0.030269921 0.10647638 0.026217699 1.2980474e-38
0.030607074 0.11302285 0.023521423 8.4650324e-39
0.026561379 0.058782026 0.045865595 1.1041889e-38
0.026274502 0.062112913 0.044224679 1.1501788e-38
0.026102334 0.065730855 0.042573512 1.1873804e-38
0.025122985 0.06890659 0.040980577 1.1598262e-38
0.024980024 0.07223703 0.037987709 1.0489415e-38
0.024546251 0.075485334 0.0353899 9.4781502e-39
0.024591774 0.079115316 0.033654988 1.0123511e-38
0.024569437 0.082885578 0.032222867 1.067634e-38
0.024745241 0.086867616 0.031681538 1.1508251e-38
0.025146872 0.091323808 0.030772567 1.3074499e-38
0.02560021 0.094525054 0.03088218 1.3813843e-38
0.021538019 0.073133424 0.039045274 9.1104341e-39
0.021051303 0.075764611 0.03600651 9.018607e-39
0.021121472 0.079352275 0.034168839 9.7557726e-39
0.021121487 0.083077475 0.032635093 1.0587705e-38
0.021259516 0.08771117 0.032619417 1.1325272e-38
0.021306172 0.091543987 0.03167206 1.1970669e-38
0.018020451 0.07396324 0.039641321 7.8229379e-39
0.017287672 0.076551393 0.037736893 7.915495e-39
0.017311707 0.080241874 0.03609705 8.5583435e-39
0.017263666 0.084072694 0.034760416 9.3884573e-39
0.018015504 0.087924078 0.033460855 1.067916e-38
0.018020451 0.091005787 0.032624662 1.123202e-38
0.014424279 0.076876804 0.038452744 6.90172e-39
0.014087141 0.08092995 0.036784947 7.9140545e-39
0.013749987 0.083112583 0.035887361 8.2817412e-39
0.16857582 0.067800418 0.014683366 1.6202306e-38
0.16883601 0.071168497 0.013295889 1.5005575e-38
0.15902162 0.093434408 0.0084843636 1.6576125e-38
0.087045416 0.051851764 0.032241881 1.2887229e-38
0.1526065 0.12757833 0.019319534 2.3391376e-38
0.14787319 0.12758343 0.019331872 2.2472339e-38
0.14652082 0.12758489 0.019335389 2.1826972e-38
0.1437808 0.12932472 0.019708872 2.2748905e-38
0.14108463 0.12916549 0.019422114 2.2475897e-38
0.13703988 0.12900771 0.019138992 2.1734034e-38
0.13264586 0.12928496 0.018948078 2.0631665e-38
0.12890181 0.13001345 0.019110203 1.8607318e-38
0.12449826 0.13016306 0.019152164 1.243205e-38
0.12079185 0.12973239 0.019070387 9.2955904e-39
0.087016284 0.018226638 0.064541399 5.7996577e-39
0.085585795 0.019073769 0.064917922 8.8345184e-39
0.083635353 0.021981895 0.063005626 9.9358759e-39
0.080848657 0.02241686 0.063555956 1.0487609e-38
0.077453203 0.023491994 0.063213825 1.1498888e-38
0.076197281 0.02511622 0.061737895 1.0946085e-38
0.0747125 0.0242057 0.063198745 1.1408499e-38
0.073358215 0.025876924 0.062514842 1.0766371e-38
0.069080912 0.027079776 0.06159997 1.0854986e-38
0.065643489 0.027487412 0.061334491 1.1038254e-38
0.064702094 0.028880179 0.060223222 1.1131165e-38
0.062523976 0.027975693 0.061683714 1.1501405e-38
0.061277606 0.030233368 0.059985578 1.104079e-38
0.05846113 0.031736955 0.060147583 1.0120238e-38
0.055911653 0.032641232 0.058701575 9.9359152e-39
0.055911653 0.12768216 0.019571722 1.4460275e-38
0.05680757 0.13023572 0.019328654 1.4735804e-38
0.057106853 0.1331747 0.018388152 1.5662132e-38
0.053109169 0.034105971 0.058755994 1.0397232e-38
0.053152591 0.1274298 0.020044446 1.4362691e-38
0.053721152 0.12942143 0.019943774 1.4825459e-38
0.049319737 0.035190597 0.05875349 1.0947889e-38
0.048388332 0.036578938 0.05764395 1.0487252e-38
0.048685223 0.12648888 0.020896077 1.4640008e-38
0.044961907 0.038236156 0.057242572 9.5681724e-39
0.043740273 0.040157542 0.055644095 1.0487285e-38
0.043740273 0.12331836 0.021405458 9.6636471e-39
0.04568167 0.12543263 0.021069765 1.4265482e-38
0.041197971 0.041878745 0.05559206 1.1224482e-38
0.039683148 0.043913499 0.05411011 1.1314877e-38
0.039501205 0.12567981 0.021527588 1.510426e-38
0.037137419 0.045637891 0.054056764 1.1040789e-38
0.036885515 0.11981113 0.023411036 1.0308967e-38
0.036961928 0.12302138 0.022629857 1.1691581e-38
0.034084082 0.046790734 0.054024041 1.1406707e-38
0.033501714 0.047857717 0.05304575 1.2235028e-38
0.0326121 0.11604585 0.024649918 8.7416445e-39
0.032970414 0.11909209 0.023854196 8.8334828e-39
0.034084082 0.12318103 0.022572994 1.1051977e-38
0.034084082 0.12568562 0.021541715 1.456584e-38
0.03002125 0.050551996 0.05248785 1.0579078e-38
0.029015914 0.052405551 0.051295221 9.9362277e-39
0.027511761 0.054556146 0.049765468 1.0400803e-38
0.027511761 0.10145135 0.030457973 1.4548529e-38
0.028052703 0.10370173 0.02952981 1.4087538e-38
0.028012887 0.10804524 0.027957916 1.2798238e-38
0.028420851 0.11158635 0.02659148 9.6632561e-39
0.028571621 0.11565496 0.025282741 8.466494e-39
0.029344112 0.11880307 0.024389863 9.0210677e-39
0.026092395 0.055309847 0.049819946 1.0033098e-38
0.024644315 0.059246674 0.0487082 1.0676309e-38
0.0239546 0.062516585 0.04671514 1.0861771e-38
0.023792729 0.066127613 0.045012653 1.1040089e-38
0.023454651 0.070192233 0.043340206 1.1324183e-38
0.02453652 0.097202703 0.032216251 1.3352515e-38
0.024671748 0.10050167 0.031578541 1.3628744e-38
0.024797589 0.10404871 0.030478358 1.3168823e-38
0.025281265 0.10816289 0.028783023 1.1785514e-38
0.025281265 0.11191981 0.027236283 8.3772102e-39
0.025958404 0.11504979 0.025945485 8.1903149e-39
0.021395177 0.063255742 0.047067463 9.4741845e-39
0.020762235 0.06689854 0.045515537 9.9355214e-39
0.020656526 0.070374623 0.04375428 9.938729e-39
0.020073697 0.072696939 0.042319298 8.9260358e-39
0.020679936 0.096603766 0.032835066 1.2614958e-38
0.020610809 0.10050605 0.03158915 1.2800769e-38
0.02087985 0.10347147 0.030727923 1.2245806e-38
0.017494157 0.070915297 0.044142127 8.3700104e-39
0.016098142 0.073807195 0.042595267 7.3601618e-39
0.015678495 0.088958666 0.035637498 1.0218935e-38
0.016205922 0.093199417 0.034070134 1.1139465e-38
0.016478419 0.09690161 0.033446252 1.2151815e-38
0.016817018 0.099718943 0.032285273 1.25231e-38
0.012863696 0.075097993 0.041893423 6.1648486e-39
0.011959448 0.077707812 0.040280998 6.9002795e-39
0.011824206 0.081209466 0.038839698 7.2708417e-39
0.01237902 0.0856895 0.037302554 8.2821153e-39
0.012561634 0.089105353 0.035947084 9.4803026e-39
0.012537614 0.092907682 0.034501851 9.9402172e-39
0.012584865 0.096749261 0.033520877 1.1692277e-38
0.01376988 0.10003527 0.032164335 1.2336206e-38
0.0097070336 0.075619802 0.042228997 7.7256653e-39
0.0097070187 0.078124419 0.041197836 6.8062426e-39
0.0097070187 0.081881329 0.039651096 6.8073258e-39
0.0097070187 0.08563821 0.038104296 7.5445461e-39
0.0090298951 0.089395836 0.036559284 9.2987546e-39
0.008739695 0.092974171 0.03508693 1.0124554e-38
0.0097070336 0.095656589 0.033979535 1.1232734e-38
0.13055752 0.044446781 0.027018011 1.2429474e-38
0.07181602 0.054734752 0.031172216 1.4450963e-38
0.10502898 0.020974398 0.05818826 1.7481044e-39
0.14911494 0.13077824 0.022338569 2.302118e-38
0.14505658 0.13087751 0.0215891 2.2656006e-38
0.14096864 0.13188179 0.02154845 2.3119487e-38
0.13691978 0.13156076 0.020972133 2.2195391e-38
0.135515 0.13330795 0.021338463 2.2377286e-38
0.13352457 0.13156439 0.020981014 2.182733e-38
0.13279501 0.13331093 0.021345615 2.19199e-38
0.13012934 0.13156803 0.020989835 1.9532149e-38
0.12873439 0.13315196 0.02106297 1.9715459e-38
0.12469698 0.13282968 0.020486951 1.3169603e-38
0.12013555 0.13391788 0.020593524 1.1877418e-38
0.11783506 0.13521333 0.020607889 1.4742337e-38
0.08395429 0.019849405 0.067127049 1.1041813e-38
0.081115209 0.017668694 0.069114983 9.6610869e-39
0.08122424 0.019888952 0.067239165 1.0671249e-38
0.077247605 0.020499721 0.067806721 1.1409203e-38
0.076824315 0.022682652 0.065982282 1.1958802e-38
0.07285241 0.023639455 0.066141129 1.1408861e-38
0.071731478 0.026141629 0.064573705 1.0583417e-38
0.069781914 0.02480717 0.066210508 1.0949699e-38
0.068921305 0.026371419 0.065208495 1.048765e-38
0.064795271 0.027118072 0.065274239 1.094536e-38
0.060765781 0.028475031 0.064367473 1.1318104e-38
0.059508674 0.029922232 0.063054442 1.0857857e-38
0.057033047 0.03150095 0.062628269 1.0212475e-38
0.055434398 0.13164823 0.021184623 1.4734021e-38
0.055328339 0.1344883 0.020736516 1.5201874e-38
0.053235322 0.032789603 0.062974453 1.030216e-38
0.052039176 0.033697709 0.061522782 9.9380381e-39
0.052296773 0.13095333 0.022020996 1.5103863e-38
0.053915314 0.1346532 0.021033525 1.4926722e-38
0.048338227 0.034274146 0.061513007 9.4784991e-39
0.048559651 0.13001503 0.022418678 1.5477008e-38
0.045501575 0.035450742 0.061361611 1.0029492e-38
0.043802515 0.0382808 0.060201645 9.2011625e-39
0.044186093 0.12769957 0.023114979 1.4551072e-38
0.04516156 0.1293899 0.022686422 1.5017473e-38
0.041281402 0.039808854 0.059760392 1.0306113e-38
0.039590001 0.041664615 0.058280647 1.1042958e-38
0.040695399 0.12758742 0.023334026 1.5386952e-38
0.039529994 0.12973382 0.022381783 1.6588409e-38
0.037347317 0.0429997 0.058278501 1.0950059e-38
0.035742089 0.04564552 0.05665338 1.0948967e-38
0.036200851 0.12707315 0.023281455 1.5023579e-38
0.03732653 0.12957464 0.022093594 1.5853729e-38
0.033125564 0.0461023 0.057194173 1.0764224e-38
0.030988768 0.049418107 0.055114686 1.1227331e-38
0.030988768 0.12162788 0.025384724 1.0498755e-38
0.031667814 0.12351091 0.02460742 1.1970686e-38
0.03234686 0.12602182 0.023571551 1.3364074e-38
