# .PCD v0.7 - Point Cloud Data file format
VERSION 0.7
FIELDS x y z rgb
SIZE 4 4 4 4
TYPE F F F F
COUNT 1 1 1 1
WIDTH 976
HEIGHT 1
VIEWPOINT 0 0 0 0 1 0 0
POINTS 976
DATA ascii
0.078850269 0.078582525 0.025370777 1.3623337e-38
0.079142481 0.082307771 0.025151968 1.3531166e-38
0.079142466 0.086176328 0.024635732 1.2975486e-38
0.079102978 0.090522125 0.023610175 1.6567494e-38
0.079111397 0.092631668 0.022745073 1.8504691e-38
0.075186551 0.062543087 0.02710104 1.6016508e-38
0.074930161 0.066276841 0.026558101 1.5188891e-38
0.075090408 0.070632629 0.026004732 1.4727543e-38
0.075699359 0.074418373 0.0256055 1.4266931e-38
0.076212168 0.078556545 0.025142491 1.3900652e-38
0.074893087 0.090426035 0.022890151 1.7306157e-38
0.072366148 0.062994517 0.026549816 1.5559106e-38
0.072366148 0.066003397 0.02614826 1.5006644e-38
0.072366148 0.070731632 0.025517225 1.4359121e-38
0.071598917 0.090166621 0.022351265 1.2698181e-38
0.068520129 0.091276161 0.022105932 1.398997e-38
0.067354858 0.093769379 0.021229088 1.353009e-38
0.066630125 0.097175382 0.019965887 1.1962043e-38
0.064674109 0.095056929 0.02093184 1.3163798e-38
0.06355235 0.097771555 0.020374298 1.1783009e-38
0.063689888 0.10068045 0.019156933 1.1138707e-38
0.060400754 0.098398104 0.019742012 1.150749e-38
0.06011945 0.1012923 0.018721879 1.0955407e-38
0.059251308 0.10487461 0.018063366 1.2429108e-38
0.059909463 0.10764495 0.017398715 1.3258876e-38
0.16948818 0.1070268 0.014033973 1.4178695e-38
0.16702349 0.087477237 0.015675426 1.4547828e-38
0.13051456 0.080286622 0.012046635 1.252276e-38
0.130288 0.086617351 0.010605514 1.2798984e-38
0.13118944 0.081549048 0.016403496 1.417939e-38
0.12178825 0.070749037 0.012846828 1.1229479e-38
0.14235649 0.047362782 0.024439812 1.8412116e-38
0.12525436 0.11467902 0.020157099 1.4087558e-38
0.072532415 0.1036053 0.0075939894 1.2239713e-38
0.17280641 0.020220242 0.050767064 6.8131145e-39
0.17344835 0.13775301 0.035193384 2.3026247e-38
0.17309976 0.14075825 0.036551714 2.285301e-38
0.16917078 0.01768532 0.052633822 7.7339764e-39
0.16927573 0.020462509 0.050120115 6.3542734e-39
0.17023864 0.13767973 0.034644425 2.2654574e-38
0.16906634 0.14070898 0.036723495 2.284294e-38
0.17028037 0.14358321 0.036935151 2.3223211e-38
0.16538705 0.017785735 0.052359879 7.3648394e-39
0.16574505 0.020704761 0.049473166 7.1811544e-39
0.16539907 0.14055707 0.035124302 2.2379074e-38
0.16125375 0.018858273 0.052009046 7.547444e-39
0.16143905 0.021182816 0.050067484 8.1938854e-39
0.16060951 0.02381606 0.048163891 9.3009378e-39
0.16152708 0.14047994 0.034509301 2.1546085e-38
0.15867473 0.018799406 0.051567912 8.1013184e-39
0.15760088 0.021513667 0.050762892 8.9300099e-39
0.15746664 0.024653845 0.048187613 1.012711e-38
0.15790573 0.14041752 0.033974946 2.0629133e-38
0.15378986 0.025297787 0.04933846 1.104584e-38
0.15375298 0.028112423 0.047216058 1.2241511e-38
0.1538911 0.13956618 0.032911956 2.0350756e-38
0.15480618 0.14841828 0.033596098 2.341769e-38
0.1499705 0.026058886 0.049083829 1.2889714e-38
0.14994739 0.028654959 0.046685815 1.3716617e-38
0.1496965 0.13721085 0.03113091 2.0348967e-38
0.14987823 0.13898635 0.03297323 2.0350398e-38
0.1462293 0.029026713 0.047012746 1.5007733e-38
0.14648679 0.13713758 0.030581951 1.9705746e-38
0.1459361 0.13897634 0.032629609 1.9799015e-38
0.14163116 0.029313423 0.045662105 1.7217906e-38
0.14163116 0.13738385 0.03123951 1.915545e-38
0.13841158 0.029564202 0.045068204 1.8968153e-38
0.13749962 0.031037003 0.043177187 2.0163121e-38
0.13814156 0.1369471 0.029154599 1.9155084e-38
0.13933201 0.13898556 0.032161117 1.8877074e-38
0.13546346 0.029943231 0.046039999 1.952027e-38
0.13420758 0.031920556 0.043680608 2.0253173e-38
0.13382141 0.13665611 0.029465258 1.9156886e-38
0.13047726 0.033014383 0.044079602 2.0530843e-38
0.12953953 0.035246093 0.041229725 1.9699612e-38
0.13011402 0.13512197 0.029280484 1.8326782e-38
0.12621975 0.033017837 0.043435574 1.9883677e-38
0.12571774 0.035794497 0.040747166 1.9331561e-38
0.12612456 0.13514805 0.029094338 1.215613e-38
0.12199093 0.033180904 0.043006659 1.9979077e-38
0.12179103 0.035943706 0.040925205 1.9056043e-38
0.12080911 0.038404472 0.039288402 1.8506114e-38
0.12152472 0.13547066 0.027994633 1.0499119e-38
0.11770973 0.036139369 0.041610599 1.9056769e-38
0.1180554 0.038404681 0.039491594 1.8780907e-38
0.11872913 0.1346653 0.027444899 1.3074482e-38
0.11386409 0.036908366 0.041350365 1.8965655e-38
0.11401218 0.039021783 0.039387882 1.8504684e-38
0.11021936 0.039905019 0.039292216 1.8412475e-38
0.10957514 0.042990819 0.036720634 1.7215378e-38
0.10989611 0.091103084 0.030355692 6.6247324e-39
0.10609853 0.04084824 0.038448989 1.7859314e-38
0.10635898 0.043353334 0.037249982 1.7584513e-38
0.10668641 0.045830548 0.035838783 1.7033126e-38
0.10203531 0.040821068 0.03842777 1.8136244e-38
0.10240185 0.043295994 0.036909938 1.8136234e-38
0.10283475 0.045742631 0.035180032 1.7768543e-38
0.099357054 0.040792711 0.038306534 1.813733e-38
0.098609477 0.043186732 0.036036849 1.7767481e-38
0.098469555 0.04641784 0.03433001 1.7675648e-38
0.094598591 0.044225045 0.036764205 1.7123539e-38
0.094819993 0.046957441 0.034646511 1.7122107e-38
0.094617903 0.050204143 0.03315419 1.6936643e-38
0.090330452 0.044477887 0.03624332 1.7031342e-38
0.090785086 0.047359258 0.035060525 1.7121381e-38
0.091209069 0.050667688 0.032726407 1.666041e-38
0.091279805 0.053227328 0.03216958 1.6109026e-38
0.086848259 0.047726922 0.034794092 1.7766035e-38
0.086890697 0.050732397 0.033444881 1.7302906e-38
0.086914599 0.053902529 0.031319559 1.6751883e-38
0.082593352 0.048192494 0.034400702 1.8502885e-38
0.082702577 0.050750688 0.033737063 1.7764612e-38
0.083430439 0.054391667 0.031102777 1.7488377e-38
0.083255529 0.057564095 0.030193925 1.6750823e-38
0.079694986 0.051546752 0.033107281 1.739978e-38
0.079205275 0.054427177 0.031500041 1.7399056e-38
0.079082891 0.058114551 0.02939409 1.6752611e-38
0.07715708 0.083253041 0.025703967 1.3441828e-38
0.07715708 0.087127268 0.025186896 1.2605987e-38
0.077799022 0.08907903 0.025038183 1.3802721e-38
0.076145798 0.051936537 0.032778621 1.758382e-38
0.075006694 0.054451123 0.031789899 1.7030279e-38
0.074589312 0.058011979 0.028625488 1.6111209e-38
0.074268341 0.060910322 0.028182864 1.6110134e-38
0.073305428 0.072188161 0.026510119 1.4268719e-38
0.073626399 0.075101152 0.026177227 1.389958e-38
0.07394737 0.078659847 0.025758207 1.3440048e-38
0.075231254 0.082563378 0.02546072 1.3073767e-38
0.074589312 0.08642295 0.024833918 1.2238254e-38
0.075231254 0.089020416 0.024599016 1.3156655e-38
0.071961641 0.055259556 0.031265497 1.6659319e-38
0.070860505 0.058113128 0.029498637 1.5649868e-38
0.07073763 0.061798289 0.027449787 1.5466177e-38
0.070309699 0.066380188 0.026763737 1.4821164e-38
0.070095718 0.070823483 0.026133478 1.4266941e-38
0.07073766 0.074712366 0.025726259 1.3715191e-38
0.071148604 0.078699939 0.025948226 1.3164175e-38
0.071332335 0.082795717 0.026798546 1.2334774e-38
0.071264118 0.086401857 0.024599075 1.1596451e-38
0.069453776 0.089534245 0.023524702 1.1774766e-38
0.067704648 0.05872272 0.030198753 1.5648432e-38
0.067050934 0.061807595 0.02900058 1.5370745e-38
0.066825375 0.066502571 0.028188348 1.4726812e-38
0.067000389 0.070969298 0.027110934 1.4174374e-38
0.066825569 0.074921757 0.02706486 1.3346772e-38
0.067637175 0.078729644 0.027282953 1.2703194e-38
0.067119166 0.082860231 0.027080357 1.2057812e-38
0.067313135 0.086663246 0.026037753 1.2056025e-38
0.066785425 0.090167642 0.023268163 1.3898867e-38
0.064306259 0.062334053 0.029074073 1.454099e-38
0.063576519 0.066911355 0.028478384 1.454242e-38
0.063329279 0.071068361 0.027766824 1.3528987e-38
0.063250631 0.074989498 0.027457297 1.2518098e-38
0.063573003 0.078239523 0.027079582 1.20582e-38
0.063411832 0.082937732 0.026424527 1.242481e-38
0.063250631 0.086663142 0.025899351 1.3160223e-38
0.062918216 0.090395078 0.02444762 1.426909e-38
0.06287387 0.093742549 0.021817565 1.3254572e-38
0.061750501 0.096461147 0.021259189 1.2150351e-38
0.060241759 0.070597231 0.027519584 1.3161616e-38
0.060026854 0.076212972 0.026732743 1.2238998e-38
0.0598979 0.078544758 0.026399076 1.2241505e-38
0.060026854 0.08269833 0.025867224 1.27014e-38
0.059382081 0.086574838 0.025237679 1.3347843e-38
0.058882862 0.090385288 0.024232686 1.3347493e-38
0.059020787 0.093894146 0.02158165 1.2241861e-38
0.058754742 0.09725371 0.020631909 1.159935e-38
0.057898819 0.10153887 0.019911051 1.1691182e-38
0.057898819 0.1067045 0.019221663 1.3258512e-38
0.058669716 0.11016281 0.021380723 1.3349991e-38
0.058737338 0.11250155 0.021665335 1.3072327e-38
0.056373239 0.079588436 0.02564621 1.1779451e-38
0.055728465 0.082384035 0.025160909 1.2148591e-38
0.055513531 0.086486526 0.024575949 1.2334764e-38
0.055249989 0.090137027 0.023750484 1.1690122e-38
0.05483821 0.093956597 0.021755219 1.1136223e-38
0.054837793 0.097839206 0.021237016 1.1229473e-38
0.055001825 0.10164115 0.02030313 1.1324921e-38
0.055603981 0.10555443 0.019999504 1.2243296e-38
0.055144876 0.10979235 0.021230876 1.2429842e-38
0.056803048 0.11245739 0.021334469 1.2981204e-38
0.052934527 0.081239372 0.024827242 1.2423726e-38
0.052289754 0.087710008 0.023851514 1.1686527e-38
0.052013427 0.090483144 0.023433268 1.1410301e-38
0.050563395 0.094056852 0.022135258 1.2332234e-38
0.05047977 0.097984172 0.021824002 1.2240035e-38
0.050703555 0.10168543 0.021198332 1.2701728e-38
0.047776461 0.094092354 0.022214055 1.0772073e-38
0.047776461 0.097335026 0.021781266 1.0490172e-38
0.047776461 0.10057771 0.021348536 1.0676653e-38
0.16895309 0.053736322 0.023669124 2.0256044e-38
0.17035538 0.074966028 0.01606065 1.4455271e-38
0.19341426 0.087778628 0.017270029 7.8257993e-39
0.1274813 0.10009717 0.010717392 1.3631972e-38
0.17074397 0.024652701 0.049190879 1.0683165e-38
0.16815586 0.14359236 0.03861165 2.3033432e-38
0.16341388 0.016434647 0.054756045 7.1815299e-39
0.16467254 0.14463815 0.038036346 2.2665013e-38
0.16395672 0.14665653 0.037983596 2.3308554e-38
0.16104943 0.015197266 0.056557178 6.9042424e-39
0.16064903 0.017072789 0.055042803 7.2712172e-39
0.16088971 0.1443727 0.037827671 2.2380527e-38
0.16052221 0.14811328 0.038142025 2.2669684e-38
0.15669221 0.017871473 0.054588675 8.1913658e-39
0.15543354 0.020221304 0.053885341 8.8356815e-39
0.1565392 0.14420071 0.037660003 2.0902868e-38
0.15685762 0.14818153 0.037056208 2.2953476e-38
0.15608111 0.15050967 0.036610305 2.341769e-38
0.15363248 0.01846404 0.054147542 8.8338654e-39
0.15311715 0.021598984 0.052786291 9.6643519e-39
0.15177447 0.023974054 0.051723659 1.1325283e-38
0.15302745 0.14355436 0.037007034 2.0717742e-38
0.15337859 0.14796862 0.036990821 2.2769088e-38
0.15301211 0.15106274 0.036411762 2.3325828e-38
0.14895718 0.022027258 0.052516878 1.0956143e-38
0.14892925 0.024429452 0.051167607 1.2614913e-38
0.14918792 0.14099132 0.03565675 2.0350393e-38
0.14897847 0.14363712 0.037022233 2.0444378e-38
0.14501956 0.025209896 0.051634133 1.344182e-38
0.14530811 0.027728997 0.050096869 1.4546027e-38
0.14507237 0.14113924 0.035944402 1.998341e-38
0.14189008 0.026041437 0.051433325 1.4454907e-38
0.14137965 0.028175186 0.049558222 1.5837847e-38
0.1415904 0.14013374 0.034858108 1.9156525e-38
0.13740028 0.028115407 0.049283028 1.6941293e-38
0.13704321 0.14043562 0.034640551 1.8694478e-38
0.13335291 0.029507682 0.04905802 1.9517033e-38
0.12927234 0.030127414 0.049032867 2.0162053e-38
0.12953061 0.031354669 0.047890246 2.0714156e-38
0.12667832 0.030068196 0.04858911 2.0255682e-38
0.12546864 0.031317454 0.047870517 2.0253887e-38
0.12150109 0.031691723 0.046447456 2.0530102e-38
0.11760899 0.032253422 0.046078742 2.0068762e-38
0.11417226 0.033326928 0.045465231 1.9607807e-38
0.11380547 0.035184693 0.04412967 1.9332667e-38
0.1098339 0.035986286 0.044227064 1.9057146e-38
0.10823441 0.039023995 0.042135537 1.8779461e-38
0.10619438 0.036470026 0.04387641 1.9332281e-38
0.10571693 0.039230637 0.042181611 1.8963492e-38
0.10203487 0.036681123 0.043416619 1.9515951e-38
0.10233255 0.039201625 0.042108238 1.9053544e-38
0.098792315 0.037259415 0.042774916 1.9146113e-38
0.097885847 0.039611831 0.041535318 1.8411054e-38
0.09392041 0.040481217 0.040882587 1.7857165e-38
0.093193978 0.042710066 0.03943491 1.6937717e-38
0.089064628 0.040951252 0.040588856 1.7489812e-38
0.089606851 0.043025568 0.038651347 1.6935209e-38
0.089050919 0.045957588 0.037870646 1.7307223e-38
0.085746378 0.043302745 0.037877262 1.8226995e-38
0.085494444 0.046201617 0.037218988 1.7951135e-38
0.081730679 0.043466084 0.038080633 1.8228818e-38
0.081828386 0.046478465 0.036885142 1.8134837e-38
0.077502251 0.043914199 0.037839234 1.6844094e-38
0.077835485 0.047073901 0.036451817 1.7580581e-38
0.077627033 0.050466612 0.035280228 1.7583457e-38
0.073824644 0.044191092 0.037503362 1.6477104e-38
0.073763818 0.047040835 0.036316156 1.7491611e-38
0.073931694 0.050681159 0.034864247 1.7767844e-38
0.070906341 0.044450633 0.036960661 1.6387419e-38
0.071134806 0.0469926 0.035978734 1.7033497e-38
0.070072025 0.051017791 0.03504324 1.6754398e-38
0.069752246 0.054228485 0.033748627 1.6383812e-38
0.066566139 0.051112533 0.035111248 1.5649139e-38
0.066145658 0.054632731 0.033521831 1.5555163e-38
0.065772086 0.057784274 0.032239854 1.5371144e-38
0.065125465 0.079883933 0.029177964 1.2149308e-38
0.062416762 0.055191487 0.03384465 1.4908696e-38
0.062221944 0.058463767 0.032441258 1.4537757e-38
0.061691403 0.062009647 0.031170368 1.4355881e-38
0.061676741 0.06571269 0.030468822 1.4358031e-38
0.062280238 0.079688907 0.028708756 1.2058206e-38
0.06124565 0.081746638 0.028253973 1.2517012e-38
0.059233129 0.055925794 0.033397138 1.4267295e-38
0.058786243 0.058760427 0.032736242 1.398854e-38
0.058256805 0.062310249 0.031465113 1.4082509e-38
0.058568388 0.066759512 0.030044079 1.3714814e-38
0.058228016 0.071487792 0.029097795 1.3071615e-38
0.058474332 0.07480748 0.02869761 1.2609923e-38
0.058012486 0.079396352 0.028004766 1.2149672e-38
0.057365835 0.082958929 0.027416766 1.2518452e-38
0.057560146 0.11509304 0.024441838 1.2704629e-38
0.056639075 0.11718391 0.024770319 1.2520239e-38
0.054462969 0.066971034 0.030255079 1.3530051e-38
0.054615915 0.071251765 0.02895546 1.3255279e-38
0.054779291 0.075094812 0.028016031 1.2791425e-38
0.054348201 0.0785539 0.027479351 1.1412447e-38
0.054348201 0.083323665 0.026842773 1.2241144e-38
0.054779291 0.08680243 0.026453555 1.251879e-38
0.054779291 0.11151853 0.023155034 1.270749e-38
0.054479957 0.11435395 0.023108482 1.2428033e-38
0.054320365 0.11729981 0.023583353 1.1968119e-38
0.051006347 0.06771294 0.03018713 1.3437876e-38
0.050595194 0.071438961 0.029055238 1.3529357e-38
0.050691754 0.075084276 0.027874708 1.2701037e-38
0.050733179 0.078973688 0.027249098 1.1872351e-38
0.05059734 0.083027296 0.026613295 1.1965266e-38
0.050714701 0.086337991 0.025807977 1.2425884e-38
0.049606234 0.089936472 0.025134742 1.2239314e-38
0.049929559 0.10652965 0.022976577 1.307089e-38
0.050484687 0.11034308 0.023701847 1.2797191e-38
0.04996863 0.11404966 0.024027467 1.2980097e-38
0.048856914 0.1183109 0.023265243 1.2885783e-38
0.047127575 0.07217472 0.02912128 1.3896696e-38
0.046514541 0.07510528 0.027940929 1.2609914e-38
0.046556801 0.078999326 0.027314842 1.1593613e-38
0.046848893 0.082948402 0.027049899 1.0391126e-38
0.046754926 0.086969003 0.026186168 1.0949319e-38
0.04680866 0.090618178 0.025125563 1.048867e-38
0.046091616 0.094480284 0.024326026 9.1950963e-39
0.046049744 0.098636016 0.02335459 7.7196537e-39
0.046461821 0.10271969 0.023222625 1.0118141e-38
0.047010511 0.10614665 0.023543417 1.2241128e-38
0.047559917 0.11045355 0.024088025 1.2602739e-38
0.046911389 0.11435263 0.023454785 1.0945397e-38
0.046911418 0.11761418 0.023019433 1.2979765e-38
0.043668866 0.091447681 0.025947034 9.0978546e-39
0.043796211 0.094652928 0.025200188 8.7316435e-39
0.044050992 0.098449141 0.024055421 7.9050946e-39
0.043859929 0.10179549 0.024087429 8.3620818e-39
0.1660696 0.087519854 0.014250696 1.5283955e-38
0.16398378 0.080691658 0.013998985 1.5007366e-38
0.10937591 0.073469438 0.022266984 1.5923205e-38
0.06354858 0.10841468 0.014858067 1.3991428e-38
0.087163523 0.071045294 0.027880788 1.3806663e-38
0.047776461 0.094092354 0.022214055 1.0772073e-38
0.16377395 0.013441768 0.059825182 6.7198385e-39
0.16013883 0.014029078 0.059369981 6.8113363e-39
0.15432993 0.015278753 0.059471607 8.2842901e-39
0.15542176 0.016494643 0.057451904 8.2842817e-39
0.15194535 0.017786182 0.057698071 9.1140312e-39
0.15086904 0.020315919 0.056149364 9.6636345e-39
0.15151943 0.14593714 0.039497733 2.0906431e-38
0.15119424 0.14821944 0.039136529 2.2024684e-38
0.14845954 0.019081283 0.057942212 9.94308e-39
0.14811283 0.020297188 0.056354582 1.022074e-38
0.1476171 0.14584807 0.03883028 2.090535e-38
0.14811325 0.14864436 0.039225996 2.06396e-38
0.14428595 0.022805806 0.055012345 1.2063905e-38
0.14433897 0.14449236 0.038554251 2.0540529e-38
0.14407745 0.14869145 0.039085925 1.9994574e-38
0.14063235 0.022839155 0.056078136 1.1696959e-38
0.1398674 0.024910532 0.054303467 1.3258519e-38
0.13916206 0.14172989 0.037907958 1.8968553e-38
0.14027426 0.14456376 0.03851974 2.0631658e-38
0.13644522 0.025466174 0.054102778 1.3075914e-38
0.13646457 0.14419174 0.038279891 2.0167815e-38
0.13254173 0.026244033 0.05395937 1.3622981e-38
0.1321435 0.028124191 0.052615345 1.7216818e-38
0.13214798 0.14436102 0.037743509 2.0079217e-38
0.13150063 0.14859962 0.037705064 1.9529266e-38
0.12954384 0.026522569 0.05365622 1.5097413e-38
0.12845393 0.028400034 0.05236274 1.8504361e-38
0.12852627 0.14432289 0.036620438 1.7037488e-38
0.12829712 0.14847043 0.036937058 1.7687544e-38
0.12719493 0.15087059 0.035628557 1.6407605e-38
0.12450163 0.029196601 0.051739156 1.9794711e-38
0.12615429 0.14143297 0.035683155 1.2607436e-38
0.12456051 0.14428736 0.036162257 1.1785572e-38
0.12438415 0.14838091 0.036267817 1.1053032e-38
0.124501 0.15089414 0.035497785 1.0499529e-38
0.12041213 0.030250665 0.051568985 2.0346782e-38
0.12059161 0.14425114 0.035703719 1.3723752e-38
0.12057519 0.14818621 0.035858274 6.0813635e-39
0.11649853 0.030161332 0.050899625 2.0069852e-38
0.11625996 0.14067337 0.034573913 1.7222167e-38
0.11668178 0.14416149 0.035035014 1.8052282e-38
0.11696272 0.14715892 0.034854531 1.5645441e-39
0.11258495 0.030072 0.050230265 2.0068772e-38
0.11260483 0.031825107 0.048976004 1.9699995e-38
0.11402893 0.13692918 0.035709023 1.0035252e-38
0.11363307 0.13993114 0.03549552 1.4278081e-38
0.11356333 0.14392558 0.035206139 2.0171356e-38
0.10895777 0.032527149 0.048247457 1.9424476e-38
0.10519391 0.032828491 0.047698259 1.9515235e-38
0.10469148 0.034962669 0.04615593 1.9607795e-38
0.10109162 0.033017866 0.046983123 1.9884024e-38
0.10143952 0.034888443 0.045599699 1.9791473e-38
0.097191453 0.033132292 0.047142148 1.9699649e-38
0.093669236 0.033576757 0.046469629 1.9608526e-38
0.093222097 0.036129959 0.045368612 1.9517059e-38
0.093231976 0.038977042 0.043881118 1.8686213e-38
0.089289725 0.036476057 0.045320332 1.9609226e-38
0.089522511 0.039259195 0.043624341 1.8318138e-38
0.086059466 0.036902193 0.04470104 1.8963513e-38
0.085306913 0.03969761 0.043301225 1.8224851e-38
0.081457004 0.039804243 0.042943835 1.8412496e-38
0.077528328 0.040376119 0.0422405 1.7767112e-38
0.078025535 0.042204395 0.040547311 1.7581629e-38
0.073943228 0.040622309 0.041583419 1.7031719e-38
0.073713288 0.042458132 0.040018678 1.6382391e-38
0.070839942 0.040928714 0.041514218 1.5923207e-38
0.069691524 0.043049805 0.040007472 1.5926082e-38
0.068920106 0.047230154 0.038291514 1.6849106e-38
0.066021711 0.044188768 0.039830863 1.5370396e-38
0.066163525 0.047214523 0.038268745 1.5466547e-38
0.066318572 0.049787566 0.037497342 1.5744205e-38
0.063012764 0.044686578 0.039650142 1.4634645e-38
0.062045753 0.047617033 0.038652003 1.352936e-38
0.062140256 0.051088229 0.037392676 1.4360927e-38
0.06068185 0.054456376 0.035892963 1.4633907e-38
0.060563236 0.11819968 0.027706623 1.3623722e-38
0.058120757 0.048183396 0.038331866 1.4266917e-38
0.057874337 0.051104531 0.037671626 1.3808454e-38
0.057900473 0.054451518 0.035921335 1.3714106e-38
0.05634594 0.058718733 0.034569323 1.3897033e-38
0.058513895 0.11502942 0.027431726 1.2704284e-38
0.057833716 0.1191216 0.027644813 1.3256375e-38
0.054305673 0.055155411 0.036591113 1.3345316e-38
0.053664565 0.058666199 0.035718441 1.3714093e-38
0.053717047 0.062670276 0.034266829 1.4450223e-38
0.05201 0.065161765 0.032954633 1.3712628e-38
0.053945899 0.11945875 0.026454926 1.2152167e-38
0.050750166 0.059103049 0.035591483 1.3620454e-38
0.050173104 0.062691063 0.034443378 1.4725361e-38
0.048912734 0.0666399 0.032388806 1.3528985e-38
0.048107684 0.070306286 0.031588733 1.3438947e-38
0.049810946 0.11889769 0.026082993 1.2518772e-38
0.049687028 0.12158535 0.026043952 1.2520218e-38
0.046426564 0.062865905 0.034336686 1.500125e-38
0.046079844 0.066876173 0.032489717 1.3436409e-38
0.045245945 0.071287684 0.030959606 1.3438222e-38
0.044205338 0.083301209 0.029175162 1.0759552e-38
0.044205338 0.085918009 0.028825939 9.1043749e-39
0.044205338 0.10685241 0.02603215 8.9167074e-39
0.04550612 0.1108073 0.025730789 1.0578388e-38
0.044205338 0.11404862 0.02507174 1.0488031e-38
0.04255715 0.067646593 0.032683671 1.3713358e-38
0.042095363 0.071454212 0.03155899 1.3438229e-38
0.04193446 0.075523429 0.030670941 1.288579e-38
0.042005241 0.079886347 0.030783534 1.2426233e-38
0.041742742 0.083459243 0.030090451 1.2237181e-38
0.04193449 0.087312564 0.029097617 1.1498189e-38
0.041832983 0.090812892 0.028015614 1.0483303e-38
0.041603804 0.095017426 0.027158678 9.3752066e-39
0.041603804 0.09894263 0.026634872 9.0092841e-39
0.04173696 0.10329294 0.026589334 9.1003854e-39
0.042414755 0.10666665 0.026359499 9.3769414e-39
0.043213755 0.1114331 0.027039766 9.1050573e-39
0.04270187 0.11501117 0.02638787 1.2329048e-38
0.04382509 0.11752069 0.025565922 1.3898854e-38
0.039917111 0.088605151 0.028744578 1.2514443e-38
0.038764775 0.091297723 0.028769732 1.2328995e-38
0.038355321 0.095239379 0.028269827 1.1864805e-38
0.038355291 0.099174023 0.02774477 1.1589282e-38
0.038902879 0.10258407 0.027316689 1.1593231e-38
0.038878918 0.10646406 0.027204275 1.2234281e-38
0.035291463 0.095556714 0.028035402 1.1684e-38
0.16603859 0.08158505 0.014605165 1.5559106e-38
0.14236507 0.036973853 0.03629297 1.8964958e-38
0.077397466 0.1004353 0.0088407397 1.6200159e-38
0.091399416 0.070725597 0.028483033 1.5280706e-38
0.16611432 0.011770375 0.065062642 5.8904366e-39
0.16414908 0.011725519 0.064726532 6.2570443e-39
0.16228762 0.012973391 0.063723981 6.6283617e-39
0.15585092 0.015430909 0.061763644 7.6399913e-39
0.1525802 0.015356254 0.061204255 8.7481227e-39
0.14996365 0.017928429 0.060405433 9.2073002e-39
0.14800121 0.017883636 0.060069799 9.3909866e-39
0.14363143 0.02143636 0.059346795 1.1414595e-38
0.13898927 0.022005886 0.058718681 1.0401916e-38
0.13794582 0.14950061 0.041778147 1.8247899e-38
0.13794583 0.1521363 0.041426361 1.7061984e-38
0.136363 0.022465847 0.057773471 1.0038164e-38
0.13426422 0.024149835 0.056842148 1.1877381e-38
0.13491836 0.1465483 0.040621281 2.063347e-38
0.13543467 0.14933181 0.040908396 1.7689686e-38
0.13663568 0.15210637 0.041202247 1.7069515e-38
0.13119426 0.024773695 0.05673629 1.2611693e-38
0.13295594 0.14650351 0.040285587 2.0631666e-38
0.13295594 0.14913541 0.039934337 1.8610138e-38
0.1274095 0.025850467 0.055626631 1.4271954e-38
0.12370968 0.025907442 0.055111468 1.3997535e-38
0.12314379 0.027843855 0.054413259 1.7589604e-38
0.12091373 0.026552711 0.0552212 1.3997196e-38
0.11975756 0.02873978 0.054142952 1.8782004e-38
0.11590207 0.028349459 0.053255737 1.8875995e-38
0.11188298 0.028283585 0.052906096 2.0160599e-38
0.11043245 0.13042282 0.03953445 4.13591e-39
0.11168364 0.13316557 0.039002359 6.2631736e-39
0.11148831 0.13674745 0.038435459 7.086449e-39
0.11106879 0.14114729 0.037804484 1.6862472e-38
0.108246 0.02964111 0.051989436 1.9884034e-38
0.10912225 0.1330286 0.038958728 6.1612417e-39
0.10388161 0.03011746 0.051780462 1.9149346e-38
0.10351953 0.031343766 0.050529897 1.9423048e-38
0.10257146 0.12101851 0.039421141 1.0678458e-38
0.10519178 0.13425672 0.038110495 1.3536856e-38
0.10126129 0.030057643 0.051332235 1.9517055e-38
0.10014896 0.031294577 0.050290942 1.9700728e-38
0.099951118 0.11964086 0.039148808 1.5372515e-38
0.095769405 0.031558286 0.049919903 1.9975498e-38
0.09207204 0.032727409 0.04835242 1.9517033e-38
0.088735908 0.03311184 0.047720373 1.9333e-38
0.087820113 0.034933269 0.047317863 1.960923e-38
0.084335297 0.033595785 0.047572196 1.9333e-38
0.0841133 0.035725959 0.046566784 1.8964942e-38
0.080443323 0.036130656 0.046442628 1.8317786e-38
0.07669577 0.037074491 0.046119332 1.7674572e-38
0.076699674 0.038627289 0.044888973 1.7951868e-38
0.073747903 0.037336662 0.045571148 1.6847687e-38
0.07237795 0.039092854 0.044484019 1.6203772e-38
0.068679079 0.040466372 0.043759108 1.5649123e-38
0.065231845 0.041095793 0.043586969 1.5645525e-38
0.064510494 0.042650968 0.042486012 1.5461503e-38
0.060881644 0.044441998 0.041700542 1.4542799e-38
0.060346127 0.046149716 0.041038156 1.3988533e-38
0.056896061 0.04678189 0.040865064 1.3991057e-38
0.055405617 0.12257758 0.031002164 1.3069834e-38
0.054095447 0.048748635 0.040627003 1.3995044e-38
0.053085595 0.051482961 0.039702356 1.2792165e-38
0.051842272 0.054509297 0.038442135 1.297797e-38
0.052312851 0.12108237 0.030151367 1.2152157e-38
0.052785307 0.12251776 0.030553997 1.2335466e-38
0.050164998 0.052612439 0.039427102 1.1875944e-38
0.049387574 0.055367045 0.038485408 1.2975099e-38
0.048244476 0.058704019 0.037256062 1.343462e-38
0.046234488 0.056476243 0.03822726 1.2879644e-38
0.045860291 0.05931665 0.037373483 1.3805548e-38
0.043803364 0.062285788 0.036516726 1.4726847e-38
0.04183954 0.063557863 0.03600508 1.4269073e-38
0.0405038 0.065874726 0.034951508 1.3530421e-38
0.039875686 0.079315789 0.033560276 1.2794309e-38
0.040721834 0.10886747 0.029251873 9.9311984e-39
0.0404374 0.11130944 0.029285967 1.0760605e-38
0.040067703 0.11411634 0.028437495 1.3800538e-38
0.038003802 0.068356916 0.034799337 1.3532582e-38
0.038238943 0.07170698 0.034290731 1.3715915e-38
0.03837353 0.074746564 0.03442049 1.3438961e-38
0.037492812 0.083928116 0.032895565 1.3159136e-38
0.03714174 0.087627918 0.03184706 1.2700646e-38
0.036142856 0.091655575 0.030751765 1.2698854e-38
0.036796987 0.10417205 0.029195249 1.251448e-38
0.036771953 0.10806596 0.029080749 1.1962013e-38
0.038046002 0.11130914 0.029483974 1.2514083e-38
0.033460438 0.088801198 0.031689525 1.2517348e-38
0.033394545 0.091557339 0.031054258 1.2423363e-38
0.03266263 0.095295951 0.029864788 1.0305397e-38
0.033438444 0.099530503 0.02945751 1.0119546e-38
0.033394724 0.10349983 0.029033899 9.6628862e-39
0.034006298 0.10671432 0.029394031 9.9409164e-39
0.03020823 0.096464328 0.029759407 9.1100879e-39
0.030512542 0.099606104 0.029734433 8.9274637e-39
0.030512571 0.10290069 0.02929467 8.7452094e-39
0.18076035 0.069309548 0.016934931 1.2979416e-38
0.12619992 0.07644245 0.012627602 8.4665304e-39
0.1042438 0.10027516 0.014838517 1.4636425e-38
0.078177691 0.094356075 0.021385431 1.1781959e-38
0.1186066 0.026363105 0.054162264 1.4637144e-38
0.16265474 0.010968234 0.067638874 5.8896883e-39
0.15930279 0.011622954 0.068332911 6.3521406e-39
0.15585417 0.014285512 0.064988434 7.2715858e-39
0.15256417 0.013053622 0.067651391 7.8244022e-39
0.15130381 0.014583558 0.065436184 8.5623036e-39
0.1505985 0.016808785 0.063736737 9.024697e-39
0.14764193 0.015306126 0.066084385 8.8406883e-39
0.14862762 0.016763799 0.063399673 9.0221957e-39
0.14464688 0.016854741 0.065765858 8.4733659e-39
0.14363852 0.018737443 0.063974023 9.5771687e-39
0.14205804 0.02057869 0.061746895 1.031113e-38
0.13992 0.018793244 0.06345576 8.3811451e-39
0.13943021 0.020518705 0.061297417 9.5750107e-39
0.13596661 0.02002877 0.062602639 8.3768487e-39
0.1348315 0.021735352 0.060334504 9.0189839e-39
0.13145141 0.020535383 0.062977552 7.8236189e-39
0.13186839 0.022419713 0.061092377 9.3927831e-39
0.13088976 0.02428861 0.059307516 1.2430183e-38
0.12796104 0.022523329 0.061285615 9.3899076e-39
0.12760496 0.024213631 0.058745742 1.1508235e-38
0.12337577 0.022976842 0.060836375 1.0770282e-38
0.12497714 0.024153646 0.058296263 1.0862507e-38
0.12011077 0.024114504 0.058478177 1.0675984e-38
0.11950248 0.025790837 0.057124734 1.2977292e-38
0.1161634 0.024024405 0.057803035 1.0858219e-38
0.11643669 0.025941126 0.056570947 1.3898525e-38
0.11165822 0.024065424 0.059060752 1.5556579e-38
0.11235549 0.025884874 0.056379855 1.8043703e-38
0.11090022 0.12846109 0.04294908 7.2787394e-39
0.10769957 0.023975063 0.058383703 1.9614241e-38
0.10841092 0.025794838 0.05570519 1.961245e-38
0.10789624 0.027728606 0.054845631 1.9885807e-38
0.10808292 0.1253107 0.04236716 7.0878937e-39
0.10852179 0.12821005 0.041658401 7.174323e-39
0.10756776 0.13179839 0.040899754 8.1005771e-39
0.10776484 0.13636246 0.040324926 9.292289e-39
0.10775301 0.14018175 0.040325105 1.5287248e-38
0.10789624 0.14337 0.039412618 2.2202239e-38
0.10399844 0.026476592 0.056495547 1.9334428e-38
0.10461143 0.028975241 0.054107428 1.9240456e-38
0.10461143 0.12148838 0.041761041 8.0980492e-39
0.10454674 0.12417841 0.041618288 8.3753717e-39
0.10451409 0.12816791 0.041193902 8.3771794e-39
0.10517167 0.13214999 0.040776968 8.838854e-39
0.1051684 0.13648987 0.040674984 1.4645696e-38
0.10022432 0.026771713 0.055831611 1.9425203e-38
0.10026678 0.029226344 0.053573549 1.9516694e-38
0.10001272 0.1213834 0.040974498 1.2243283e-38
0.10032032 0.12433422 0.04127413 1.1323478e-38
0.10039964 0.12760341 0.042054534 1.1969938e-38
0.096023336 0.027638659 0.055179596 1.8689423e-38
0.096476436 0.029517237 0.053472161 1.9331214e-38
0.096626833 0.12137666 0.040727258 1.5003012e-38
0.096493274 0.12411427 0.040793598 1.3071236e-38
0.095800117 0.12758686 0.041665554 1.3441841e-38
0.092808068 0.029777937 0.052969337 1.8872382e-38
0.09212923 0.031333558 0.051619768 1.979146e-38
0.092742279 0.12487021 0.040267289 1.4084349e-38
0.09196797 0.12773439 0.041456461 1.50999e-38
0.088045523 0.030371659 0.052572846 1.8871673e-38
0.089501411 0.031273577 0.05117029 1.9237579e-38
0.088217169 0.12551361 0.040417373 1.5373648e-38
0.088273004 0.1278823 0.040549815 1.6298086e-38
0.083947718 0.030732941 0.053346992 1.8138421e-38
0.084584355 0.032568108 0.051165402 1.8781624e-38
0.083683819 0.12509653 0.040707648 1.6658217e-38
0.0842776 0.1273001 0.040516973 1.6109365e-38
0.080318958 0.030981932 0.052682042 1.7123573e-38
0.080243871 0.033031736 0.050757408 1.8319222e-38
0.076525122 0.033529323 0.050145984 1.730723e-38
0.076362237 0.035599321 0.04830569 1.7582018e-38
0.072664693 0.036528829 0.047793925 1.6662578e-38
0.068772942 0.035032049 0.050131559 1.5466536e-38
0.068623483 0.036881141 0.048323095 1.5833166e-38
0.068478733 0.038723409 0.046516359 1.5465813e-38
0.064556256 0.038348898 0.048545361 1.4910846e-38
0.064962327 0.040029075 0.046412468 1.5279987e-38
0.06151545 0.038848229 0.048358858 1.4634983e-38
0.060952365 0.040821314 0.046564221 1.5553708e-38
0.059938297 0.04315412 0.044438303 1.4911225e-38
0.058750361 0.12341075 0.035056472 1.6025459e-38
0.058876336 0.12638848 0.036216676 1.8420033e-38
0.057072788 0.042038091 0.045521677 1.4450567e-38
0.056563586 0.044424236 0.043937266 1.3714092e-38
0.056800723 0.12372752 0.034601688 1.4547112e-38
0.054917693 0.12696175 0.035451055 1.4362701e-38
0.05432111 0.042465352 0.044576168 1.3348165e-38
0.052931547 0.045101449 0.044187248 1.3070181e-38
0.053105921 0.047359496 0.042687654 1.3439345e-38
0.053368717 0.12395315 0.032511532 1.2609912e-38
0.052884817 0.12654877 0.033446014 1.2705003e-38
0.049346834 0.046428233 0.04420507 1.260847e-38
0.048816442 0.048594207 0.042946219 1.2331854e-38
0.049164176 0.051234372 0.041484356 1.1781567e-38
0.049992144 0.12359999 0.032226801 1.2335799e-38
0.049715847 0.12640274 0.032572508 1.2979408e-38
0.045207441 0.049702078 0.043559492 1.2516968e-38
0.04492259 0.052460715 0.041606128 1.3160935e-38
0.045422465 0.055177718 0.040477335 1.3067303e-38
0.044171304 0.057992809 0.039713204 1.3250932e-38
0.042100608 0.05355154 0.041992962 1.3528631e-38
0.040824354 0.056822553 0.041220546 1.3435362e-38
0.041479766 0.059934586 0.039156139 1.398997e-38
0.040886521 0.061882682 0.03862226 1.445346e-38
0.037267894 0.061174259 0.04013437 1.3252776e-38
0.037214547 0.063912384 0.038735986 1.307018e-38
0.03672576 0.066193096 0.0373227 1.3070889e-38
0.036287785 0.072350636 0.036424696 1.4082175e-38
0.036813378 0.075798839 0.036055982 1.3438248e-38
0.036658257 0.079292364 0.035972357 1.3344257e-38
0.036944747 0.081616946 0.035302401 1.3252417e-38
0.036287785 0.11199912 0.031133354 1.3159102e-38
0.036557913 0.11419086 0.031911671 1.3532908e-38
0.033804923 0.062106751 0.040430903 1.2056751e-38
0.033624828 0.064226545 0.039434135 1.19685e-38
0.033089161 0.067411602 0.038446605 1.2150377e-38
0.033049464 0.071175873 0.037610292 1.307125e-38
0.032919168 0.075195082 0.037392437 1.3804868e-38
0.033311754 0.079026684 0.035925686 1.417185e-38
0.033397615 0.082731612 0.034792125 1.3988175e-38
0.03322199 0.086377904 0.034018993 1.3068364e-38
0.03234607 0.10794431 0.030988336 9.9412765e-39
0.033299714 0.11087441 0.031275213 1.1047633e-38
0.032833815 0.11499521 0.032293618 1.3442174e-38
0.032219023 0.11760844 0.031723976 1.4176139e-38
0.029516399 0.075613476 0.037881792 1.4083235e-38
0.029016674 0.079397425 0.036997318 1.3808429e-38
0.029453039 0.082872994 0.034513175 1.3899879e-38
0.029489934 0.087258682 0.033530891 1.3346394e-38
0.029061258 0.091349125 0.032631218 1.2610251e-38
0.029280245 0.094217621 0.032286525 1.0675959e-38
0.028404295 0.099263825 0.031460583 8.835987e-39
0.028404295 0.10256786 0.031019628 8.4704134e-39
0.029354721 0.10681622 0.031130016 9.2051254e-39
0.029321074 0.11071692 0.031115532 1.0863578e-38
0.029057115 0.11481747 0.03120482 1.2984069e-38
0.025887638 0.083826147 0.036154032 1.3346754e-38
0.026154906 0.087039568 0.035089195 1.2979761e-38
0.025628775 0.090950191 0.034134507 1.1876272e-38
0.025238365 0.094799623 0.032870233 9.5706919e-39
0.025282919 0.098754153 0.032236516 7.9147565e-39
0.025288731 0.10270807 0.032652378 7.2715213e-39
0.025887638 0.10705355 0.033054233 8.468638e-39
0.026422203 0.11078177 0.03128469 1.1601835e-38
0.021928996 0.096344948 0.033794224 8.4647087e-39
0.021928996 0.10032679 0.033262789 6.9020269e-39
0.021928996 0.10165408 0.033085704 6.5328843e-39
0.17810626 0.087542363 0.013982594 1.1508598e-38
0.16302592 0.10399403 0.011266291 1.3444013e-38
0.13690144 0.050116703 0.023122668 1.795331e-38
0.1450481 0.062219359 0.019345284 1.6388144e-38
0.10252702 0.069151141 0.027537704 1.3805954e-38
0.1548778 0.011193205 0.069838166 6.9953604e-39
0.15068966 0.01160907 0.069309473 7.9173069e-39
0.14665139 0.011737276 0.06964159 8.0112976e-39
0.14260697 0.015452091 0.068029404 7.918739e-39
0.13914743 0.01588155 0.066693485 7.3670002e-39
0.13780777 0.018088408 0.065434456 7.9187446e-39
0.13477282 0.018367048 0.065124869 7.457042e-39
0.1295753 0.011457697 0.068810523 6.4430162e-40
0.1301519 0.01583828 0.067911983 4.6929724e-39
0.13086663 0.018678188 0.065512359 6.7162456e-39
0.12638241 0.00067492574 0.069181919 6.44796e-39
0.12626824 0.0033619925 0.069258511 1.0503099e-38
0.12621084 0.0073799044 0.068939805 6.1698667e-39
0.12621084 0.011390071 0.068404615 5.5138852e-40
0.12643874 0.015353031 0.067005455 2.9452043e-39
0.12700808 0.019227233 0.064312398 6.8098509e-39
0.12591496 0.021804448 0.062868178 9.4745447e-39
0.12260336 0.0032275543 0.067387164 1.1706327e-38
0.12234072 0.0072711408 0.067825615 9.7658536e-39
0.12225337 0.011294048 0.067614734 1.1942272e-39
0.12239873 0.015273444 0.066540241 2.2991314e-39
0.1228348 0.019181427 0.064388275 6.7208881e-39
0.12327211 0.021744125 0.062416136 1.0860318e-38
0.11906973 0.0030771345 0.065085769 1.1896451e-38
0.11862344 0.0071391091 0.066172302 1.161192e-38
0.1184271 0.010830473 0.067124248 2.020741e-39
0.11872455 0.015664808 0.066360116 1.4715414e-39
0.11853379 0.019162368 0.064893425 6.259945e-39
0.11921862 0.022338904 0.06197238 1.086358e-38
0.11464435 0.0030454695 0.066025913 1.2641214e-38
0.1144934 0.0070705265 0.066031158 1.3185374e-38
0.1145827 0.010122098 0.06654948 3.7656155e-39
0.11491494 0.016479105 0.065758944 2.8508899e-39
0.11437193 0.019110914 0.064858258 6.0726796e-39
0.11520693 0.022258695 0.061455369 1.1229115e-38
0.11091569 0.00025863945 0.064838767 1.1024954e-39
0.11051139 0.0029745102 0.06588459 1.355527e-38
0.11046441 0.0068477094 0.066141665 1.3822103e-38
0.11064065 0.019830506 0.064158082 9.5731764e-39
0.11123984 0.022168141 0.06077683 1.4264739e-38
0.10693955 0.00016787648 0.064158678 5.7000015e-39
0.10643432 0.0028953552 0.065526664 1.612557e-38
0.10673758 0.0067303702 0.065343976 1.280109e-38
0.10627687 0.0202921 0.063746393 1.2428371e-38
0.10698727 0.022139542 0.061064065 1.6759063e-38
0.10229006 0.00015029311 0.065740407 1.1242815e-38
0.10361901 0.0021857023 0.065700054 1.5576363e-38
0.10229006 0.020201098 0.063064516 1.1321739e-38
0.10280573 0.022759471 0.060992777 1.648431e-38
0.10193461 0.13305902 0.044528604 1.1322755e-38
0.10125318 0.13757451 0.046196043 1.658047e-38
0.098967746 7.4453652e-05 0.065172076 1.1232395e-38
0.098303273 0.020110097 0.062382638 9.8444202e-39
0.098565787 0.022726219 0.061169207 1.4730777e-38
0.098825753 0.025173612 0.05770272 1.869198e-38
0.099156111 0.12985316 0.043790162 1.2798984e-38
0.098762989 0.13339096 0.045752108 1.4087937e-38
0.098967746 0.13775663 0.046797633 1.7040362e-38
0.095645413 0.020049419 0.061927974 9.1061195e-39
0.094416946 0.022670843 0.061023057 1.205534e-38
0.095219836 0.025830023 0.058011115 1.7310487e-38
0.095852554 0.12977774 0.04322511 1.3995012e-38
0.094751865 0.13332441 0.045176506 1.4642187e-38
0.09365201 0.13629857 0.046066821 1.6390304e-38
0.090461284 0.022955619 0.060198903 1.0400476e-38
0.091046154 0.026450127 0.057884336 1.6942419e-38
0.090897217 0.02898014 0.055814505 1.8227401e-38
0.09155792 0.13001202 0.042446315 1.5747415e-38
0.090739086 0.13325822 0.044600546 1.7402611e-38
0.086655587 0.023782447 0.05884105 9.2008753e-39
0.08700262 0.026374646 0.057417929 1.501028e-38
0.087593645 0.028904736 0.055249512 1.8780933e-38
0.086932942 0.12990645 0.041655183 1.6945616e-38
0.086610645 0.13288951 0.044418514 1.8324262e-38
0.083685026 0.023786575 0.059347093 8.6487889e-39
0.082851052 0.026321743 0.057271123 1.3166358e-38
0.083522648 0.028838314 0.054890931 1.795404e-38
0.083301812 0.12933648 0.041303873 1.6760138e-38
0.083098859 0.13152286 0.042478323 1.7863302e-38
0.078782052 0.027331233 0.05776459 1.23377e-38
0.078816593 0.029379882 0.055500865 1.5652029e-38
0.079336032 0.12525696 0.041157961 2.0806265e-38
0.079448938 0.12855424 0.041215241 1.6108308e-38
0.078297883 0.13233772 0.043308258 1.7585636e-38
0.074959666 0.030334491 0.055674553 1.4913004e-38
0.074379414 0.032590609 0.052457154 1.6665446e-38
0.075618833 0.12865168 0.040620804 1.766809e-38
0.074298859 0.13201219 0.042501986 1.6571093e-38
0.071227312 0.030812547 0.055728853 1.4727525e-38
0.071136311 0.033133402 0.052843928 1.6387415e-38
0.06840232 0.031458054 0.055662811 1.3256035e-38
0.066976368 0.033731412 0.053404927 1.4547475e-38
0.06382443 0.034053344 0.052618265 1.2609942e-38
0.063477665 0.036661562 0.050016046 1.4636415e-38
0.059651628 0.034043252 0.053154528 1.3713383e-38
0.059413567 0.037468109 0.049968719 1.3898863e-38
0.058522314 0.040203668 0.048680723 1.4267644e-38
0.058801606 0.12889658 0.039281487 1.8878146e-38
0.059274912 0.1313913 0.040225327 1.8969969e-38
0.056441903 0.034526844 0.053171158 1.4083958e-38
0.055707335 0.03769549 0.050914168 1.4451326e-38
0.055459231 0.040490158 0.048365176 1.4451661e-38
0.056002021 0.12822039 0.037226915 1.5930734e-38
0.054891497 0.13184924 0.039913058 1.50999e-38
0.052128375 0.038553294 0.051678121 1.3903902e-38
0.051591009 0.041520283 0.048834026 1.3715884e-38
0.051254481 0.044025272 0.046905458 1.2977628e-38
0.051551819 0.1293218 0.036597729 1.3074856e-38
0.051308811 0.13165504 0.038803339 1.4086847e-38
0.047758341 0.042155512 0.050027132 1.30684e-38
0.047581941 0.04515186 0.047139525 1.2607767e-38
0.0478746 0.12946084 0.036962748 1.3347487e-38
0.047931463 0.13163161 0.037450671 1.2889027e-38
0.044481516 0.042942517 0.049965918 1.2518077e-38
0.043970674 0.045263112 0.048104823 1.2517373e-38
0.043382794 0.048652165 0.045122445 1.2883978e-38
0.040588856 0.046168983 0.048601806 1.2426621e-38
0.039797366 0.049335748 0.046591043 1.2517708e-38
0.040257692 0.052774519 0.044079423 1.3528627e-38
0.03687048 0.053659931 0.046596408 1.2334047e-38
0.035956472 0.05706799 0.043354809 1.2516995e-38
0.035177171 0.060051382 0.041967928 1.2701399e-38
0.034348935 0.11561856 0.035431683 1.371696e-38
0.032715023 0.057985708 0.045398057 1.1689401e-38
0.032053053 0.060950324 0.041986585 1.1598283e-38
0.031212866 0.063948393 0.040757775 1.1232716e-38
0.030772418 0.066153616 0.040386736 1.1229151e-38
0.033573389 0.11734387 0.037113965 1.3902106e-38
0.033573389 0.11867872 0.036935806 1.4178685e-38
0.028354585 0.061203718 0.044038892 1.0586998e-38
0.0281955 0.064297676 0.041721404 1.0491197e-38
0.028095722 0.067655891 0.040232062 1.0676671e-38
0.02799654 0.07145419 0.039537311 1.1872714e-38
0.027336717 0.075113535 0.038592875 1.3252786e-38
0.026808143 0.078690223 0.038023531 1.3346053e-38
0.02521199 0.06255348 0.043994188 9.8490557e-39
0.024747074 0.064482242 0.043143988 9.665026e-39
0.024284005 0.067743048 0.042116344 1.0033803e-38
0.024155647 0.071554936 0.040220261 1.0952196e-38
0.024140596 0.075644016 0.038989425 1.2150389e-38
0.023896158 0.079390414 0.038105607 1.2796124e-38
0.023441702 0.08321169 0.037711561 1.2980857e-38
0.023633063 0.087671861 0.036784053 1.233512e-38
0.022708982 0.091279835 0.035971045 1.1322394e-38
0.022843868 0.10385393 0.033975124 6.6257974e-39
0.023302257 0.10728371 0.034109116 7.8232658e-39
0.024165273 0.11119452 0.033225596 1.1786965e-38
0.021225214 0.069146074 0.042420328 9.4795571e-39
0.020507455 0.071912803 0.041341245 9.9387738e-39
0.020085901 0.075507551 0.040477157 1.1228438e-38
0.019639313 0.079650521 0.039718628 1.215252e-38
0.019639313 0.083655015 0.039184213 1.2519521e-38
0.02003482 0.087543041 0.03899014 1.2056034e-38
0.019706756 0.091636255 0.037960231 1.0953618e-38
0.019944787 0.095352598 0.035799384 9.0171622e-39
0.019779861 0.099078923 0.034718812 7.362289e-39
0.019908786 0.10325573 0.034275353 6.6229233e-39
0.019842267 0.10759118 0.035513222 7.3619261e-39
0.020763099 0.11047558 0.036312342 1.0036341e-38
0.016795427 0.076619714 0.040651858 1.0583776e-38
0.016046256 0.079670578 0.039772987 1.1505367e-38
0.016092032 0.083662055 0.039134562 1.224223e-38
0.016126901 0.087556385 0.03894794 1.1778019e-38
0.0167889 0.092001997 0.03839308 1.0676681e-38
0.016000748 0.095484048 0.037356138 9.2022626e-39
0.015846431 0.099568143 0.035230219 7.1779076e-39
0.016060233 0.1037336 0.035589159 7.3619289e-39
0.016339779 0.10692108 0.036119103 7.4498435e-39
0.012808621 0.084549032 0.038899601 1.1967759e-38
0.012808621 0.086776897 0.038602293 1.1597552e-38
0.011922657 0.092994705 0.037618279 9.663591e-39
0.012154192 0.10359001 0.035675764 8.0984205e-39
0.012188464 0.10690266 0.035808384 8.0058676e-39
0.15881294 0.1186907 0.019833028 1.4824058e-38
0.11690181 0.012651645 0.069175065 4.5953761e-40
0.11672428 0.014426399 0.068736672 1.011638e-39
0.11327302 0.012037735 0.068727672 1.8403673e-40
0.11361313 0.015025631 0.068115115 1.1956803e-39
0.10837317 0.0084080212 0.067744851 8.7484857e-39
0.11009422 0.0098389685 0.06887728 4.6839704e-39
0.10982984 0.016194094 0.067727149 2.7561621e-39
0.10923275 0.018177472 0.067102551 6.2591756e-39
0.10423189 0.0076678693 0.067634583 7.270815e-39
0.10408869 0.0097018853 0.067850113 2.388083e-39
0.10570779 0.019071151 0.065857828 9.0085386e-39
0.10143925 0.0028950348 0.067444146 1.4372781e-38
0.10176775 0.0071025416 0.067153096 6.3503161e-39
0.10208684 0.0096561909 0.067507744 1.2860669e-39
0.10161363 0.018999156 0.065495908 8.9181829e-39
0.10091011 0.1425554 0.048542917 2.0813908e-38
0.096378982 9.1262162e-05 0.066766798 1.0589493e-38
0.098675281 0.0028461516 0.067310691 1.013179e-38
0.10008499 0.0055833459 0.06770277 8.4711813e-39
0.10008499 0.0096104965 0.067165375 1.6534411e-39
0.097711653 0.01888863 0.064490199 8.4640081e-39
0.097919047 0.1379763 0.048838079 1.676341e-38
0.097415864 0.14110322 0.049152255 1.8787721e-38
0.094379947 4.5627356e-05 0.066424906 6.9985301e-39
0.095080376 0.0017775446 0.06733948 7.2686627e-39
0.094638705 0.01883411 0.064218462 8.6476609e-39
0.094821632 0.13796601 0.048863292 1.6484655e-38
0.092380911 0 0.066082954 7.2611097e-39
0.091228351 0.019779138 0.063754499 8.7391292e-39
0.091048241 0.021417525 0.062992692 8.924982e-39
0.09089613 0.13748318 0.047988415 1.6943826e-38
0.088073924 0.020075407 0.063677788 7.9104405e-39
0.086972475 0.022011779 0.062459826 8.6487188e-39
0.08705017 0.13526845 0.04710263 1.915294e-38
0.086739361 0.13683239 0.047863662 1.979865e-38
0.083560258 0.022622116 0.06204021 9.1100753e-39
0.082658619 0.13472347 0.046820343 1.8875284e-38
0.078165591 0.025591783 0.060192943 9.5689067e-39
0.079192132 0.13464434 0.046227455 1.9061451e-38
0.075257391 0.026701931 0.059743226 9.9384473e-39
0.074658006 0.13454086 0.045451939 1.7587766e-38
0.071391881 0.027748927 0.059749663 1.1137719e-38
0.070946202 0.029028147 0.058818758 1.2884722e-38
0.070590645 0.13449335 0.044954956 1.8232036e-38
0.066856503 0.030297242 0.058210492 1.2149336e-38
0.068055481 0.13372113 0.045026243 1.8137309e-38
0.062831461 0.031552915 0.057410419 1.1130872e-38
0.061729133 0.032812756 0.056367934 1.113159e-38
0.058830276 0.031461585 0.056726038 1.1319545e-38
0.057731077 0.032721493 0.05568409 1.2977263e-38
0.057378978 0.13347742 0.043200135 1.7771753e-38
0.054709822 0.03408007 0.05600071 1.2979792e-38
0.055836171 0.13284422 0.042333484 1.6391354e-38
0.05106765 0.037261128 0.053918302 1.2429138e-38
0.052400351 0.13313705 0.041355073 1.4454548e-38
0.046824217 0.038567189 0.053687692 1.0308277e-38
0.046824217 0.040579826 0.053419113 1.178054e-38
0.042644709 0.042120323 0.052059412 1.1595763e-38
0.039710283 0.042653486 0.051903963 9.5689179e-39
0.038312614 0.045208678 0.051251471 1.0307212e-38
0.035787851 0.050064459 0.050317407 1.150572e-38
0.033882976 0.053347155 0.04929173 1.1044746e-38
0.034024119 0.1181781 0.0411762 1.390033e-38
0.033930302 0.1198965 0.040589213 1.4181213e-38
0.032022268 0.055040345 0.049253821 1.0858551e-38
0.030437678 0.057180963 0.048180342 1.0859283e-38
0.03068769 0.12011552 0.040336847 1.4176513e-38
0.028018594 0.058976114 0.048031628 1.0583782e-38
0.025548041 0.060869947 0.046836853 9.5732115e-39
0.022661477 0.061483771 0.046325624 8.4686492e-39
0.021748543 0.064742319 0.045146763 8.8363597e-39
0.021748543 0.067423306 0.044788957 9.5728303e-39
0.018676639 0.061447643 0.046075463 6.8087719e-39
0.018811524 0.064762875 0.045315206 7.5477901e-39
0.01871261 0.067924514 0.044705391 8.2849754e-39
0.017750502 0.07135354 0.043568432 8.9256925e-39
0.015340239 0.064727448 0.045056939 5.4308905e-39
0.015340209 0.068083413 0.044609129 6.8109425e-39
0.015477002 0.072066098 0.043760061 8.3718138e-39
0.014640927 0.075527467 0.042470098 9.4788607e-39
0.013752431 0.089358978 0.040469527 1.1595417e-38
0.014085621 0.091712452 0.040213466 1.0952193e-38
0.015085101 0.10905001 0.038073659 8.0980786e-39
0.012270749 0.062106848 0.044872344 8.4621738e-39
0.012893498 0.064447872 0.044668376 4.8716253e-39
0.013338387 0.068037719 0.04426676 5.699937e-39
0.012804538 0.072321154 0.043602109 6.9017214e-39
0.01146999 0.076317847 0.042836428 8.3750228e-39
0.011683762 0.079953492 0.041535258 1.1043663e-38
0.010820508 0.083661973 0.04071945 1.1508933e-38
0.010642827 0.088394336 0.040056944 1.0402228e-38
0.01108706 0.091308884 0.039745331 1.012421e-38
0.011441469 0.10922453 0.038183868 8.0987722e-39
0.14969906 0.1087532 0.014613092 1.5194995e-38
0.10298055 0.067901507 0.027882338 1.3714096e-38
0.10552332 0.017913923 0.069051504 7.3579688e-39
0.10198531 0.015853394 0.069393218 5.1550127e-39
0.10217753 0.017837554 0.06847924 7.5434601e-39
0.09749341 0.0069613531 0.069115281 2.1143786e-39
0.098064899 0.015744001 0.068383873 6.6247506e-39
0.098162577 0.017745908 0.067792535 7.6371173e-39
0.098162577 0.14226575 0.051174641 1.9984123e-38
