# .PCD v0.7 - Point Cloud Data file format
VERSION 0.7
FIELDS x y z rgb
SIZE 4 4 4 4
TYPE F F F F
COUNT 1 1 1 1
WIDTH 987
HEIGHT 1
VIEWPOINT 0 0 0 0 1 0 0
POINTS 987
DATA ascii
0.11013769 0.10385108 0.013851404 1.0309707e-38
0.11021094 0.10834341 0.013367176 1.0862145e-38
0.11018673 0.11268094 0.014208853 9.848369e-39
0.11016275 0.11639677 0.014977992 8.4693919e-39
0.11009742 0.12006375 0.016301394 7.1797208e-39
0.11006466 0.12378141 0.017182827 7.0839603e-39
0.11085808 0.1266496 0.018176913 6.8134803e-39
0.10640846 0.09271469 0.014285207 1.2517705e-38
0.1062803 0.096206047 0.014022827 1.4913333e-38
0.10630703 0.10000756 0.014130116 1.2981551e-38
0.10630703 0.10376497 0.01456815 1.1509656e-38
0.1062865 0.10812026 0.015327871 1.0863922e-38
0.10631558 0.11254432 0.015479505 8.9289421e-39
0.10630703 0.11628968 0.016028225 7.7296814e-39
0.10628029 0.12001581 0.016798556 8.1909931e-39
0.10666183 0.12331285 0.017680883 9.0214768e-39
0.10307126 0.093605109 0.014437318 1.8056586e-38
0.1024585 0.096141495 0.014518142 2.0349976e-38
0.10252457 0.10000127 0.014184058 1.5097028e-38
0.10249635 0.10371941 0.014953494 1.2338715e-38
0.10345007 0.1076546 0.01606971 1.1328498e-38
0.10373022 0.11245646 0.01628983 7.7314849e-39
0.10373022 0.11621892 0.016728461 6.8070007e-39
0.10370262 0.1186934 0.017352939 7.0839477e-39
0.09781415 0.096420862 0.014338195 2.099143e-38
0.098173372 0.1000777 0.013584673 1.5832073e-38
0.09810432 0.10374182 0.014768004 1.2980493e-38
0.097388983 0.10613928 0.015980721 1.2613146e-38
0.093600802 0.093275763 0.014535904 2.3020107e-38
0.093754098 0.096300974 0.013320088 2.0620865e-38
0.093851469 0.10018234 0.012764335 1.5093446e-38
0.093720786 0.10377146 0.014527082 1.3073415e-38
0.093600802 0.10613298 0.016034782 1.270535e-38
0.089903839 0.092603996 0.013630033 2.3206297e-38
0.090354815 0.095709726 0.01204741 2.1632863e-38
0.090123773 0.10147987 0.012521982 1.3257413e-38
0.089950711 0.10377868 0.014470696 1.2706443e-38
0.085558183 0.089397259 0.012689769 2.3113399e-38
0.086640105 0.091762125 0.011691213 2.3300648e-38
0.086352728 0.10147359 0.012575805 1.3068742e-38
0.086133882 0.10373268 0.01485616 1.2889034e-38
0.082169667 0.10367303 0.014302313 1.2245088e-38
0.078375779 0.10430755 0.01402843 1.2796454e-38
0.07844808 0.10610776 0.016251087 1.2523476e-38
0.0742203 0.10690021 0.014894307 1.1872358e-38
0.065541118 0.085132062 0.011475325 1.6382454e-38
0.065881625 0.10914654 0.01506108 1.620262e-38
0.062226579 0.10874013 0.01545012 1.4364496e-38
0.06203264 0.11141148 0.017106831 1.5374702e-38
0.056184418 0.097677335 0.012569726 1.4726452e-38
0.056981727 0.10356332 0.016264975 9.8526766e-39
0.059340931 0.10713207 0.01564008 1.132241e-38
0.054087602 0.092495672 0.013338506 1.5005922e-38
0.053887844 0.096439622 0.01427108 1.3255293e-38
0.054833315 0.09914501 0.014975548 1.1504292e-38
0.052091666 0.093655005 0.014173806 1.4172601e-38
0.051930822 0.096028738 0.015459657 1.3530083e-38
0.11594935 0.10323745 0.0096963048 1.5558021e-38
0.1230479 0.11211615 0.011556327 1.3257455e-38
0.15297271 0.11208977 0.013106108 1.5650937e-38
0.14145757 0.11286149 0.012435019 1.3809548e-38
0.13919175 0.11447098 0.013609171 1.4914464e-38
0.13622707 0.10065003 0.011548638 1.6203396e-38
0.17324054 0.092551991 0.017326891 2.2373306e-38
0.15773042 0.096627563 0.016252458 1.7400859e-38
0.1528983 0.10270486 0.015280724 1.6111917e-38
0.1461091 0.11187152 0.015627146 1.4180116e-38
0.13471159 0.10529326 0.015174329 1.3441127e-38
0.12915029 0.10955662 0.014241517 1.3626941e-38
0.15145142 0.11773042 0.017542779 1.3628042e-38
0.15300468 0.11492416 0.017934322 1.4457443e-38
0.16475712 0.12014519 0.019659579 1.7225096e-38
0.17324054 0.12599313 0.021225452 1.9253023e-38
0.16942951 0.089390829 0.01701349 2.2942675e-38
0.17052588 0.092192851 0.016443312 2.2197197e-38
0.17068434 0.095818549 0.016849637 2.0168153e-38
0.17103083 0.099523403 0.016445518 1.8690869e-38
0.17066351 0.10225515 0.016481578 1.7678874e-38
0.17066351 0.11609476 0.018095016 1.5285375e-38
0.17129678 0.11987025 0.018525958 1.6022252e-38
0.17067625 0.12358412 0.019639134 1.7405186e-38
0.17044254 0.12651035 0.021124899 1.8879249e-38
0.16599554 0.088431939 0.016548514 2.2195047e-38
0.16781379 0.091870703 0.015312195 2.145604e-38
0.16813043 0.095331132 0.01571101 1.9983431e-38
0.16813043 0.11671962 0.01820451 1.5376145e-38
0.16704483 0.12399708 0.019068658 1.7957979e-38
0.16624205 0.12733468 0.020392179 1.9158327e-38
0.1647687 0.1302121 0.021504164 2.0444063e-38
0.16053709 0.081804454 0.016257763 2.1461444e-38
0.16096054 0.084749654 0.016594946 2.1546441e-38
0.16180012 0.08833693 0.015434682 2.1084363e-38
0.16222186 0.12779616 0.019916952 1.7403756e-38
0.16168983 0.13152358 0.021488011 1.8877454e-38
0.16053709 0.13480552 0.022436559 1.8509386e-38
0.1579964 0.081169255 0.01622045 2.1363489e-38
0.1579964 0.084324084 0.016588271 2.0625921e-38
0.15799785 0.088346414 0.015378952 1.9979104e-38
0.15812439 0.13211066 0.021049678 1.6667614e-38
0.15817788 0.13570295 0.022575378 1.8046596e-38
0.15450296 0.081478924 0.016307116 2.0253529e-38
0.15418756 0.084366448 0.016312599 1.9241175e-38
0.15419634 0.088340089 0.015433192 1.8322083e-38
0.15419304 0.13299018 0.021141946 1.5654185e-38
0.15400389 0.13569601 0.022634983 1.6482863e-38
0.15355019 0.13857967 0.02297765 1.7404133e-38
0.15009634 0.080435738 0.015913546 1.9609586e-38
0.15038957 0.084491871 0.015487134 1.82281e-38
0.15039892 0.088381827 0.015157402 1.7492327e-38
0.15071297 0.13334253 0.020646036 1.4732233e-38
0.1503818 0.13609028 0.022173882 1.5560205e-38
0.15021554 0.13967831 0.023153961 1.6853435e-38
0.14656329 0.079888314 0.016236484 1.9148613e-38
0.14657973 0.084435999 0.015871406 1.7214317e-38
0.14641838 0.088015728 0.015172362 1.694096e-38
0.14596605 0.13366771 0.020500958 1.4181201e-38
0.1465811 0.13611546 0.021784246 1.4732229e-38
0.14672209 0.1396725 0.02320385 1.5654897e-38
0.14263678 0.080168582 0.016325951 1.8687645e-38
0.14214556 0.084470034 0.01565975 1.7675278e-38
0.14195229 0.087932378 0.015339077 1.7216108e-38
0.14216644 0.13366139 0.020555198 1.3904966e-38
0.14214176 0.13610786 0.021847546 1.4273754e-38
0.14211708 0.13957021 0.023258448 1.4641459e-38
0.13757284 0.080013826 0.015832007 1.9333013e-38
0.13772702 0.084553212 0.015118182 1.823025e-38
0.13798687 0.087606281 0.01524657 1.7491974e-38
0.13836683 0.13365507 0.020609379 1.4088279e-38
0.13770592 0.13610789 0.021799862 1.4090802e-38
0.13767087 0.13918422 0.023277879 1.4090074e-38
0.13322467 0.076711282 0.016059101 2.0717375e-38
0.13391867 0.080111183 0.014851153 1.9887961e-38
0.13418727 0.084077157 0.014890134 1.8510421e-38
0.13390884 0.13611785 0.021632314 1.409189e-38
0.13404635 0.13945812 0.023218334 1.4182288e-38
0.13007796 0.076812275 0.015445113 2.0442599e-38
0.13024577 0.079984471 0.014561534 1.9793268e-38
0.13013434 0.083315521 0.014859974 1.8777675e-38
0.13013434 0.13364136 0.020726979 1.3719504e-38
0.13009158 0.13608846 0.022019565 1.3905335e-38
0.13036638 0.13885657 0.023345351 1.4090796e-38
0.12628625 0.076859072 0.01516974 1.9792559e-38
0.1262081 0.079786181 0.014505327 1.9148266e-38
0.1250682 0.087081537 0.015372276 1.6478174e-38
0.12582812 0.13287932 0.020700336 1.3810613e-38
0.12625393 0.1360345 0.022740126 1.3536552e-38
0.12248094 0.076852739 0.015224099 1.8689062e-38
0.12253004 0.079971634 0.014671683 1.8412123e-38
0.12253514 0.084561028 0.015115082 1.7309018e-38
0.12232405 0.087915726 0.015509248 1.6570022e-38
0.12226519 0.13197024 0.020947993 1.3169204e-38
0.12243857 0.13602012 0.022905588 1.3077736e-38
0.12242674 0.13852789 0.023421884 1.3630905e-38
0.11867561 0.076846406 0.015278399 1.6388523e-38
0.11871539 0.080098845 0.01498574 1.6848062e-38
0.11826934 0.084654689 0.015279293 1.5745278e-38
0.11810225 0.088328086 0.015618384 1.5282879e-38
0.11746899 0.12858769 0.020321012 1.1879928e-38
0.11848032 0.1315138 0.021654308 1.2065051e-38
0.1186157 0.13536672 0.023108482 1.2525648e-38
0.11416949 0.07667958 0.016331077 1.040373e-38
0.11421908 0.079949856 0.015956402 1.058488e-38
0.11388911 0.084346086 0.01571852 1.0954307e-38
0.11366167 0.088304684 0.015791714 1.1137669e-38
0.11366939 0.12858137 0.020375252 9.672237e-39
0.11408273 0.1317465 0.022147834 1.0038881e-38
0.11416949 0.135149 0.023147404 1.0407308e-38
0.11019967 0.08014328 0.016792297 8.3735543e-39
0.10977983 0.084358744 0.016506612 8.2799489e-39
0.10985371 0.088282324 0.015956163 9.3870097e-39
0.1094476 0.12773558 0.020337701 7.7282157e-39
0.10978417 0.13163137 0.021961629 8.1935308e-39
0.10972328 0.1359829 0.023308933 8.6523314e-39
0.10972328 0.13850674 0.023603201 8.7452781e-39
0.10656669 0.084905997 0.017148316 6.0683734e-39
0.10636464 0.08836633 0.016655684 8.0952214e-39
0.1054369 0.090823308 0.016092479 1.011522e-38
0.10595549 0.1271898 0.021778882 1.0956493e-38
0.10602774 0.13138792 0.022826672 1.1968137e-38
0.10675915 0.13513666 0.023253202 1.2059956e-38
0.10305847 0.089048222 0.016591251 6.7065388e-39
0.10205306 0.09165699 0.016670167 1.4915491e-38
0.10153446 0.10805565 0.018301785 1.0866817e-38
0.10172932 0.11191107 0.019007266 7.08757e-39
0.1035371 0.12038658 0.019566476 7.6374886e-39
0.1035371 0.1222738 0.019786477 8.1917414e-39
0.098410487 0.091978267 0.01700002 2.0812834e-38
0.099104226 0.094587207 0.016622901 2.3391748e-38
0.098848566 0.10732192 0.018614709 1.1692963e-38
0.095749483 0.08926823 0.018065155 1.9155796e-38
0.095029771 0.091552414 0.016999364 2.2465509e-38
0.094987981 0.10747635 0.018185079 1.1967052e-38
0.091260612 0.091172934 0.016674042 2.3296685e-38
0.090169638 0.10686848 0.018855214 1.2520591e-38
0.08685708 0.088622466 0.018118501 2.3387108e-38
0.08643686 0.10625526 0.019374609 1.2889384e-38
0.08142902 0.087236054 0.017364144 2.2932967e-38
0.081868201 0.10624764 0.019439936 1.2339443e-38
0.078116208 0.10736379 0.019171178 1.280042e-38
0.074280202 0.10764394 0.019511044 1.1784126e-38
0.071612932 0.10815702 0.020616353 1.0855666e-38
0.0678019 0.1094126 0.020817876 1.3349885e-38
0.065095842 0.11170723 0.019278586 1.5648028e-38
0.063007943 0.11277026 0.019264877 1.4726826e-38
0.056368791 0.101822 0.020098388 1.0128906e-38
0.057789519 0.10761508 0.019746244 1.0675605e-38
0.058423735 0.11076718 0.020104527 1.150358e-38
0.053271458 0.089267761 0.018176138 1.5466512e-38
0.053746566 0.10042624 0.018463314 9.9409416e-39
0.053828098 0.10244874 0.02020818 9.2030024e-39
0.051287413 0.089194246 0.018699765 1.4726809e-38
0.050108984 0.091794759 0.018444538 1.4451319e-38
0.049490392 0.095587581 0.018799782 1.3436458e-38
0.050106861 0.099357948 0.019342303 1.0584501e-38
0.050017059 0.10231621 0.020247877 9.5721381e-39
0.047476374 0.092973694 0.019195497 1.3166729e-38
0.047476366 0.095497556 0.019489706 1.2887236e-38
0.047476366 0.099283345 0.019931078 1.0953279e-38
0.047476374 0.10243817 0.020298839 1.0218226e-38
0.11411299 0.10880974 0.0099878311 1.6572538e-38
0.11280811 0.11216155 0.011357367 1.6111559e-38
0.10815957 0.097416088 0.0093021989 1.5278551e-38
0.059016623 0.089956723 0.0061915517 1.6204793e-38
0.13601789 0.10654845 0.011861682 1.5188535e-38
0.13525018 0.11192686 0.012273967 1.3994298e-38
0.13395837 0.1183715 0.013227761 1.3441846e-38
0.14602768 0.12827563 0.016599059 1.3441487e-38
0.12396775 0.11515518 0.017042756 1.335e-38
0.13124219 0.11151809 0.017359257 1.4825131e-38
0.14027956 0.11121006 0.017211556 1.6022958e-38
0.14415897 0.097383395 0.014786839 1.6112273e-38
0.11017432 0.10609725 0.013609231 1.0585926e-38
0.17076714 0.081265047 0.019738734 2.3234015e-38
0.17075258 0.08391764 0.019265056 2.3139297e-38
0.17089549 0.087688535 0.01880765 2.2854067e-38
0.17201036 0.090380043 0.019105256 2.2666797e-38
0.1694946 0.1338965 0.026228428 2.2576077e-38
0.16607945 0.080461919 0.019377291 2.2675454e-38
0.16628203 0.0839798 0.018861592 2.2670052e-38
0.16755083 0.086575478 0.01872623 2.2849057e-38
0.16677675 0.13112986 0.024267137 2.1647275e-38
0.16616032 0.1351148 0.025277674 2.2294425e-38
0.16540128 0.13886738 0.026464462 2.2386623e-38
0.16118655 0.076173007 0.019283712 2.2935495e-38
0.16197893 0.080021322 0.018420339 2.2751113e-38
0.16224185 0.083824262 0.018482327 2.2376202e-38
0.16210231 0.13576555 0.024875224 2.0904308e-38
0.16156909 0.13887393 0.026319325 2.1273804e-38
0.15735395 0.072305672 0.019223869 2.2831057e-38
0.15799358 0.075599954 0.018843532 2.2376548e-38
0.15799467 0.078965291 0.017977297 2.2283996e-38
0.15735759 0.13718708 0.024773955 1.8780932e-38
0.15799469 0.13970558 0.025282085 1.979904e-38
0.15714188 0.14257115 0.02708286 2.0625586e-38
0.15383956 0.071982443 0.019237041 2.1820487e-38
0.15416633 0.075647488 0.018568873 2.0991458e-38
0.15391737 0.079464793 0.01809454 2.0438996e-38
0.15480928 0.13718283 0.024810314 1.7035336e-38
0.15435423 0.14007513 0.025154173 1.878596e-38
0.1541675 0.14283811 0.026150107 1.9246561e-38
0.1503313 0.07174173 0.01875633 2.1543895e-38
0.15045792 0.075512931 0.018324614 2.0529398e-38
0.15162389 0.078954697 0.018068194 2.034607e-38
0.15162389 0.14097467 0.025298476 1.7682482e-38
0.15033744 0.14281204 0.026538193 1.7865441e-38
0.14631926 0.071475066 0.018711388 2.0531546e-38
0.14651948 0.075076774 0.018137515 1.9886893e-38
0.14525312 0.14096408 0.025389373 1.5469824e-38
0.14634253 0.14325836 0.027025521 1.67609e-38
0.14137942 0.068470597 0.019007862 2.1268774e-38
0.14267318 0.071122371 0.018627048 2.0531906e-38
0.14269976 0.075106442 0.017972469 1.988725e-38
0.14206775 0.078938797 0.018204629 1.8781993e-38
0.14206775 0.14095877 0.025434852 1.4916278e-38
0.14267847 0.14342666 0.026832461 1.5473757e-38
0.14010145 0.068468466 0.019026101 2.1360594e-38
0.13820198 0.07110101 0.018773198 2.08067e-38
0.13838506 0.075292595 0.018065214 2.0255675e-38
0.13973179 0.079356812 0.018287122 1.8502553e-38
0.1376082 0.14095135 0.025498509 1.4549985e-38
0.13821259 0.1434209 0.026868463 1.510316e-38
0.13626756 0.14590144 0.028108656 1.556592e-38
0.13373201 0.07108894 0.018864453 2.1268397e-38
0.13395187 0.074696608 0.018259048 2.0808865e-38
0.13314866 0.14094393 0.025562167 1.4458515e-38
0.13375258 0.14342491 0.02673769 1.4917331e-38
0.12990171 0.071082562 0.01891911 2.1085805e-38
0.12994933 0.074434258 0.018190384 2.0717758e-38
0.12970844 0.14043191 0.025552273 1.4365954e-38
0.1299108 0.14339864 0.027125835 1.5196425e-38
0.12607057 0.071076192 0.018973768 2.0717372e-38
0.1261408 0.13966656 0.025514662 1.4274813e-38
0.12606809 0.1427412 0.02738446 1.5196091e-38
0.12240382 0.071240291 0.018976033 2.0165624e-38
0.12231834 0.074475929 0.017970085 1.979468e-38
0.1223048 0.13980266 0.025837719 1.3999681e-38
0.12223706 0.14273483 0.027439117 1.5012045e-38
0.11842953 0.071118683 0.018753648 1.6208102e-38
0.11849588 0.074469566 0.018024683 1.6667268e-38
0.11849588 0.13712241 0.025328636 1.307774e-38
0.11847591 0.13963285 0.025957167 1.3907856e-38
0.11837606 0.14206319 0.027920008 1.4919493e-38
0.11454218 0.068425938 0.019390941 1.0310451e-38
0.11462967 0.07118696 0.018369079 1.0679604e-38
0.11467342 0.074463204 0.018079221 1.1046953e-38
0.1144186 0.13660933 0.025327861 1.1603348e-38
0.11463717 0.13961208 0.02623409 1.2989146e-38
0.11198625 0.068421692 0.019427419 9.5689109e-39
0.11092059 0.071242288 0.019016504 1.0673424e-38
0.11011584 0.075460799 0.01881063 9.5714094e-39
0.10830265 0.080148324 0.018834114 7.2726045e-39
0.11212511 0.13711181 0.025419533 8.7499514e-39
0.11024551 0.13973232 0.026118457 9.8523361e-39
0.1102823 0.14247289 0.028084874 1.123708e-38
0.10815236 0.074762791 0.020222127 9.7605006e-39
0.10636574 0.080093876 0.019191384 5.0545536e-39
0.10639143 0.082676575 0.019156456 5.7928249e-39
0.10448019 0.087103389 0.019700229 6.0698084e-39
0.10520828 0.13583457 0.025370777 1.344181e-38
0.10585464 0.13942698 0.026535332 1.325852e-38
0.10815236 0.14204617 0.028065979 1.1604761e-38
0.10269728 0.12392902 0.025025964 8.4708422e-39
0.10199519 0.12703335 0.025523901 9.3002427e-39
0.10189361 0.13073134 0.025271297 8.6534146e-39
0.10184626 0.1351251 0.026343524 9.4853515e-39
0.1020347 0.13874862 0.027568698 1.2157223e-38
0.098079294 0.10878412 0.022655904 9.1129466e-39
0.09938357 0.11051062 0.02250272 7.8243994e-39
0.099206619 0.13060582 0.026861668 6.1702282e-39
0.099206619 0.1344143 0.027305663 2.2062463e-39
0.093552828 0.088843375 0.021067977 2.1727559e-38
0.093503833 0.10780136 0.023782253 1.150535e-38
0.090431191 0.088931777 0.020452201 2.3202701e-38
0.090464495 0.10796435 0.022334933 1.2244005e-38
0.08791618 0.088974401 0.020157933 2.3296345e-38
0.08612676 0.10807598 0.023249745 1.2704997e-38
0.082435966 0.10799309 0.023349464 1.2614955e-38
0.081315137 0.11026408 0.024749041 1.3073788e-38
0.080154225 0.085018262 0.020815909 2.3113748e-38
0.078392282 0.10861558 0.023390949 1.2891901e-38
0.079398185 0.11026089 0.024776459 1.3074513e-38
0.074464001 0.10877408 0.024271786 1.2430568e-38
0.074925318 0.11025345 0.024840295 1.3165987e-38
0.069912679 0.10874178 0.023981392 1.1320924e-38
0.069813468 0.11024494 0.024913251 1.1783038e-38
0.066368066 0.11156186 0.024613261 1.3623667e-38
0.057336487 0.10917494 0.022955298 1.1047611e-38
0.054073535 0.086947419 0.020914674 1.6113684e-38
0.054111846 0.10407729 0.022659361 9.0204048e-39
0.054435238 0.10649723 0.023943722 9.2044416e-39
0.049867928 0.087362416 0.021401465 1.454495e-38
0.048417412 0.090174392 0.020869255 1.4360542e-38
0.049691558 0.10378294 0.022437334 8.9292672e-39
0.049917452 0.10599107 0.023554504 9.1132941e-39
0.046013877 0.087401383 0.022258878 1.3718411e-38
0.04568854 0.091260023 0.021161199 1.2429129e-38
0.04523202 0.095231935 0.021505058 1.2060337e-38
0.04523202 0.099029079 0.021947682 1.1229862e-38
0.045480706 0.10299063 0.022549748 1.0403335e-38
0.045888454 0.10659268 0.024229527 9.7586972e-39
0.042976238 0.088618822 0.022780299 1.2337256e-38
0.042452417 0.0912477 0.022423208 1.1595379e-38
0.04198771 0.095221311 0.022809267 1.1228064e-38
0.041832902 0.098870531 0.023208976 1.1413891e-38
0.041966185 0.10249837 0.023783803 1.0862871e-38
0.041698284 0.10575491 0.024796546 1.0216417e-38
0.039142333 0.095594682 0.023649037 1.2698516e-38
0.038822852 0.098450519 0.023986578 1.3435358e-38
0.039142333 0.10194217 0.024389029 1.2703184e-38
0.11578001 0.098184936 0.0099208355 1.9060002e-38
0.1143616 0.094473802 0.0087385178 1.9148606e-38
0.11460093 0.10361603 0.0084809065 1.6846257e-38
0.12201559 0.10806028 0.012783051 1.5466545e-38
0.12452368 0.096273676 0.011827648 1.6662577e-38
0.12673 0.096421413 0.01502651 1.3255296e-38
0.11357186 0.096729971 0.016641021 1.3532236e-38
0.10186544 0.10220464 0.017233312 1.3809539e-38
0.16955969 0.076774247 0.02359575 2.341769e-38
0.15981267 0.078312635 0.021437705 2.2025398e-38
0.14301924 0.13661152 0.027323663 1.8335413e-38
0.17006741 0.13784584 0.030305386 2.2581104e-38
0.16473876 0.071977228 0.023106277 2.2491412e-38
0.16608286 0.075841457 0.022933185 2.2676531e-38
0.16696903 0.078306228 0.022133708 2.2863081e-38
0.16696496 0.13947558 0.028929234 2.2576067e-38
0.16527122 0.14276913 0.031015873 2.2576782e-38
0.16202778 0.071359016 0.022641897 2.2662505e-38
0.16234902 0.074817814 0.021256924 2.2755061e-38
0.16215163 0.14048585 0.028109789 2.2010655e-38
0.16184372 0.14320226 0.030892134 2.2749287e-38
0.16056062 0.14572081 0.031763673 2.3119875e-38
0.15798946 0.067815527 0.022718787 2.3205944e-38
0.15817447 0.070266798 0.021419644 2.3111946e-38
0.15841816 0.14368722 0.029879451 2.1825187e-38
0.15734667 0.14571546 0.031809568 2.210214e-38
0.15381344 0.067531988 0.022494435 2.2836793e-38
0.15440392 0.069966495 0.020806253 2.2280739e-38
0.15415245 0.14460453 0.028705716 1.9797954e-38
0.15370889 0.14659731 0.03129375 2.0445848e-38
0.15029031 0.067363307 0.02160275 2.2372955e-38
0.15031286 0.069586158 0.020015717 2.2003432e-38
0.15031286 0.14459816 0.028760552 1.8234204e-38
0.15028574 0.14702271 0.031280994 1.9616779e-38
0.14899039 0.14953275 0.032375455 2.0177156e-38
0.14644624 0.067413792 0.021328628 2.2187096e-38
0.14711319 0.069580838 0.020061314 2.1359862e-38
0.14775312 0.14459389 0.02879703 1.8417521e-38
0.14644966 0.14706419 0.030446231 1.8511884e-38
0.14610282 0.14985961 0.032203674 2.0444031e-38
0.14259806 0.066982657 0.021333992 2.1729373e-38
0.14262353 0.14710526 0.029611468 1.7497735e-38
0.14238898 0.15045521 0.03214699 1.9617867e-38
0.13806294 0.063951179 0.022556484 2.2191407e-38
0.13860486 0.066690534 0.020854235 2.1543899e-38
0.13879403 0.14712179 0.029221296 1.6578643e-38
0.13878012 0.15091515 0.030111134 1.8695168e-38
0.1374515 0.15402624 0.032059431 1.8971071e-38
0.13420621 0.063944764 0.022611558 2.182264e-38
0.13427484 0.066828035 0.021016836 2.1452782e-38
0.13405074 0.14735787 0.029518843 1.5932204e-38
0.13441044 0.15070884 0.031899631 1.7866129e-38
0.12970667 0.063937269 0.022675812 2.1546777e-38
0.1297732 0.066758066 0.021437407 2.108544e-38
0.12977794 0.14703688 0.030684233 1.6024759e-38
0.12970667 0.14950065 0.032650769 1.7223296e-38
0.12584992 0.063930854 0.022730887 2.1269826e-38
0.12591456 0.066713288 0.021711886 2.0441513e-38
0.12599537 0.14455768 0.02910763 1.6024769e-38
0.1259042 0.14700015 0.031295419 1.6577212e-38
0.12584992 0.14949425 0.032705724 1.8602631e-38
0.12199318 0.063924432 0.022785902 1.8969602e-38
0.12205297 0.066668928 0.021986246 1.8786658e-38
0.1208759 0.069537178 0.02043581 1.8970336e-38
0.12215576 0.14455131 0.029162407 1.5841434e-38
0.12207727 0.14701834 0.030905426 1.6578646e-38
0.12263597 0.1494889 0.03275162 1.8602999e-38
0.11813644 0.063918017 0.022840977 1.4732607e-38
0.11822984 0.066739276 0.021602213 1.4639701e-38
0.11831616 0.14390922 0.029143035 1.5562711e-38
0.11820902 0.14699389 0.031294227 1.648395e-38
0.11942202 0.14948355 0.032797515 1.7773958e-38
0.11397517 0.063635923 0.022616565 1.2056395e-38
0.11441093 0.066173494 0.021144032 1.0675275e-38
0.11446155 0.14325443 0.029346108 1.5659544e-38
0.11432344 0.14695714 0.031905532 1.6855236e-38
0.11170852 0.063907325 0.022932649 1.2612799e-38
0.11034179 0.066492967 0.022121191 1.2147485e-38
0.1092106 0.069180213 0.02257669 1.3164141e-38
0.11080334 0.14364672 0.029892445 1.2984123e-38
0.11063714 0.14679591 0.03185612 1.4275553e-38
0.11128 0.15032136 0.033012986 1.7405553e-38
0.10744829 0.07246837 0.023656785 1.0126007e-38
0.10668176 0.07562869 0.0228616 7.1725616e-39
0.10655984 0.14335527 0.030255318 1.3257809e-38
0.10682331 0.14614221 0.03259021 1.353547e-38
0.10150854 0.11443606 0.027963996 6.2556388e-39
0.1015932 0.11899242 0.02748704 6.7176973e-39
0.10167786 0.12226792 0.026860833 7.3616346e-39
0.100398 0.12544426 0.027249634 9.6672554e-39
0.10193385 0.14044921 0.028976679 1.2244765e-38
0.10294186 0.14296401 0.031394899 1.4457406e-38
0.096281551 0.10857895 0.028363645 8.6537593e-39
0.099339575 0.11205918 0.02805388 6.3482057e-39
0.10022487 0.11443393 0.027982295 5.3351412e-39
0.099641368 0.11907509 0.029337287 5.7053559e-39
0.098891392 0.1226705 0.029521167 8.1938812e-39
0.098445028 0.12681612 0.029250145 1.1048035e-38
0.097449087 0.1307857 0.028670192 6.9056395e-39
0.097597539 0.13427582 0.029200792 5.243628e-39
0.097762004 0.13873522 0.029676199 6.3474673e-39
0.098468721 0.14224246 0.031753004 9.0232873e-39
0.093775071 0.1086482 0.027736723 1.0400797e-38
0.092424802 0.1098496 0.028567553 1.0495508e-38
0.094995953 0.13475665 0.031434 7.825093e-39
0.088568054 0.086856008 0.025942802 2.3291684e-38
0.090024583 0.10875209 0.026796222 1.1968845e-38
0.089262709 0.10989846 0.028115511 1.1785165e-38
0.085996889 0.086213194 0.025905013 2.3293119e-38
0.087599322 0.1088949 0.025505483 1.2521679e-38
0.085997954 0.11111774 0.027298093 1.2428403e-38
0.081027277 0.083869904 0.024193466 2.3296696e-38
0.082839549 0.085641503 0.025380611 2.3296345e-38
0.082484856 0.11144352 0.027261019 1.2981216e-38
0.081497356 0.11366262 0.029170156 1.2521664e-38
0.079686023 0.083158001 0.024633348 2.3296703e-38
0.078320377 0.11166503 0.027113318 1.3165973e-38
0.078322411 0.11369152 0.028883815 1.2338374e-38
0.074614599 0.11141643 0.02749753 1.3349644e-38
0.074426644 0.11365084 0.029271126 1.2612804e-38
0.070407979 0.11127251 0.027340353 1.2245094e-38
0.067491092 0.1124667 0.028226554 1.2704989e-38
0.05899968 0.080421478 0.025620401 2.256735e-38
0.057763897 0.083235398 0.025630772 1.7942874e-38
0.053909384 0.083654366 0.025735259 1.7769985e-38
0.053604305 0.10814757 0.02641362 9.846595e-39
0.054050319 0.11024031 0.027909636 1.0772133e-38
0.050024569 0.083513901 0.024816215 1.6388136e-38
0.050376557 0.10812385 0.026625335 9.6647149e-39
0.04990913 0.11075263 0.028712571 1.1047284e-38
0.044858277 0.080397949 0.025822222 1.3717351e-38
0.046328507 0.08311747 0.024999201 1.4915859e-38
0.046643548 0.10882674 0.026090145 9.5750248e-39
0.046292141 0.11114463 0.02849102 1.058666e-38
0.041644327 0.080392599 0.025868118 1.3809887e-38
0.042382605 0.083029538 0.0256055 1.3071944e-38
0.042146988 0.08659023 0.024905264 1.2335101e-38
0.042547986 0.10831138 0.026089251 9.7557895e-39
0.042497247 0.11117399 0.02821368 1.0216413e-38
0.041858591 0.11402234 0.029785633 1.0769246e-38
0.038888238 0.083392188 0.026089847 1.288543e-38
0.038469493 0.086804047 0.026437879 1.2793593e-38
0.038924366 0.090983674 0.024345279 1.2700303e-38
0.038111091 0.09461537 0.024556756 1.2794306e-38
0.036916554 0.098893724 0.025072813 1.2981918e-38
0.037867323 0.10263682 0.02549541 1.2795014e-38
0.038433529 0.1069234 0.026353002 1.261242e-38
0.038528614 0.11109629 0.028933227 1.2152153e-38
0.039715968 0.11359309 0.0297665 1.1690094e-38
0.035859205 0.084214166 0.026397347 1.1664188e-38
0.035859205 0.086768292 0.026695132 1.1214397e-38
0.034716286 0.090703435 0.026387215 1.0298205e-38
0.034573667 0.094383501 0.026720405 1.0208517e-38
0.034115478 0.098384254 0.027067661 8.4528453e-39
0.034390569 0.10239239 0.027531028 9.19975e-39
0.035196945 0.10624581 0.028371274 1.1140198e-38
0.035859205 0.11039402 0.029449344 1.178806e-38
0.032002449 0.091231614 0.027271211 1.0567599e-38
0.030927345 0.094805785 0.027559757 1.0293905e-38
0.031207919 0.097870529 0.027721107 9.1025504e-39
0.032002449 0.10144813 0.028462231 8.0044088e-39
0.10906088 0.10096939 0.0095859766 1.9336254e-38
0.11774838 0.11230142 0.01090169 1.8321749e-38
0.10438009 0.096841246 0.010455847 1.9426634e-38
0.11847481 0.10368004 0.011529267 1.6112273e-38
0.12545139 0.11460701 0.015476346 1.1967071e-38
0.13028611 0.11537281 0.018150866 1.4086493e-38
0.10138839 0.11178427 0.018743932 1.3257808e-38
0.10792594 0.1057209 0.016923964 1.3164533e-38
0.12770225 0.11456539 0.015819252 1.4177965e-38
0.10718546 0.13156125 0.026245892 1.0497337e-38
0.16612303 0.067759082 0.027341247 2.2769448e-38
0.16718253 0.07108894 0.025484562 2.3140743e-38
0.1676591 0.073894516 0.025301337 2.3141825e-38
0.16743495 0.14288622 0.03267628 2.2582173e-38
0.16659772 0.14598712 0.034839928 2.2577127e-38
0.16100605 0.064023443 0.026931763 2.2662854e-38
0.16186212 0.067289308 0.025733888 2.2571381e-38
0.16185737 0.14665438 0.034370959 2.2571373e-38
0.16187043 0.14801972 0.037047088 2.2574604e-38
0.15780087 0.063569807 0.026685596 2.2931176e-38
0.15798685 0.066020757 0.025530219 2.3023003e-38
0.15817066 0.147194 0.035134494 2.2659616e-38
0.15798512 0.14929977 0.037252545 2.2477733e-38
0.15377602 0.0602009 0.026926339 2.2750378e-38
0.15426992 0.063155554 0.026005089 2.2747833e-38
0.15412614 0.065933146 0.023562133 2.2928637e-38
0.15498446 0.14778785 0.03309226 2.2101418e-38
0.15367532 0.15019956 0.036413014 2.2103566e-38
0.15053827 0.059552252 0.02689755 2.29333e-38
0.14994645 0.062507108 0.025684416 2.2656363e-38
0.15090741 0.065075159 0.023508668 2.2832141e-38
0.15040688 0.15085469 0.035026312 2.1552897e-38
0.14935581 0.15358847 0.037541747 2.2381941e-38
0.14607015 0.058708571 0.026863873 2.2931882e-38
0.14648551 0.06232027 0.025768578 2.2561652e-38
0.14575747 0.065066591 0.02358216 2.2189982e-38
0.1466371 0.1514706 0.034850538 2.1550007e-38
0.14659862 0.15368135 0.037324071 2.164472e-38
0.14245209 0.058634564 0.026571929 2.2929351e-38
0.14249194 0.062145919 0.025302589 2.2650956e-38
0.1431825 0.065062299 0.023618937 2.2374364e-38
0.14313696 0.15193972 0.035761356 2.0356136e-38
0.13856868 0.058628112 0.026627362 2.2742443e-38
0.13884002 0.062003076 0.024044335 2.2558398e-38
0.13487807 0.058389902 0.026413262 2.2376186e-38
0.13374774 0.15445901 0.036946058 1.8604077e-38
0.13097998 0.058209121 0.02626878 2.2650981e-38
0.13056017 0.061832316 0.024000406 2.2098516e-38
0.13027976 0.15133993 0.034534991 1.7774669e-38
0.1308195 0.1544342 0.037460983 1.8326406e-38
0.1265664 0.058769375 0.026433945 2.2376178e-38
0.12611496 0.061539285 0.02460587 2.2006305e-38
0.12607577 0.1511578 0.034910202 1.8326047e-38
0.12656613 0.15368953 0.037499666 1.8141651e-38
0.12195644 0.05860047 0.026864469 2.0445445e-38
0.12185863 0.061559856 0.025029361 1.9614253e-38
0.12170859 0.15104288 0.034816206 1.8329631e-38
0.12191118 0.15408593 0.037828982 1.8326037e-38
0.11787714 0.058654353 0.026594222 1.4913742e-38
0.11805718 0.061763056 0.023933351 1.4825867e-38
0.11787065 0.15083586 0.034739673 1.8051261e-38
0.11851344 0.15311563 0.037765026 1.8049091e-38
0.11398438 0.058617547 0.026814044 1.353152e-38
0.11444531 0.061617143 0.024035811 1.2518072e-38
0.11414844 0.15065834 0.035024524 1.9342358e-38
0.10974248 0.058841102 0.027404845 1.6297367e-38
0.11005595 0.061953545 0.02562356 1.4912639e-38
0.10906412 0.14813776 0.033797383 1.4827288e-38
0.10979006 0.15082511 0.03594619 1.7128594e-38
0.10618094 0.055297241 0.027043223 1.2873232e-38
0.10618094 0.058513552 0.027418137 1.1225187e-38
0.10621455 0.063094817 0.027504265 1.0952556e-38
0.1062822 0.06710349 0.027075648 1.0860007e-38
0.10583818 0.070499867 0.027645946 9.4785019e-39
0.10530783 0.07479234 0.028070033 6.6197452e-39
0.10612779 0.14778739 0.034302473 1.4089011e-38
0.10640062 0.15037613 0.037369132 1.4916623e-38
0.10359073 0.068158172 0.02858001 9.666154e-39
0.10359073 0.071374491 0.028954983 8.1935182e-39
0.10361768 0.074643321 0.029000044 5.4258851e-39
0.1036716 0.077319518 0.028640032 2.2998629e-39
0.10116985 0.11595314 0.032173216 6.3489106e-39
0.10133919 0.14428803 0.033460379 1.417904e-38
0.10248746 0.14676018 0.035410047 1.4273389e-38
0.10257082 0.1497321 0.037903309 1.4456343e-38
0.097762756 0.087446354 0.030912936 1.168583e-38
0.09735623 0.11088799 0.030966699 7.4559518e-39
0.098179594 0.11480553 0.032514215 5.2432791e-39
0.097663037 0.11823913 0.031987011 5.5206017e-39
0.097476736 0.12509724 0.031278968 1.0126869e-38
0.099407971 0.14364535 0.033413351 1.0774297e-38
0.098713689 0.14539716 0.036648214 1.1694794e-38
0.099705413 0.14855954 0.038009405 1.3535821e-38
0.094894916 0.08654689 0.030346215 1.6567476e-38
0.094512776 0.11087566 0.031073511 8.6519558e-39
0.094619401 0.11455926 0.033112347 6.8102209e-39
0.094619185 0.11841273 0.033561587 6.7180308e-39
0.09461876 0.12226622 0.034010828 7.727864e-39
0.094660416 0.12615755 0.034016371 8.4679752e-39
0.094574086 0.12991171 0.033644259 8.0066257e-39
0.093767978 0.13359801 0.034085572 8.2871614e-39
0.094390072 0.13742873 0.03477484 8.5640776e-39
0.095912397 0.14282291 0.036388636 9.0214376e-39
0.089992136 0.083573848 0.030573905 2.0897376e-38
0.090789534 0.085719042 0.029302061 2.1454549e-38
0.090134725 0.11139119 0.030794203 1.0677397e-38
0.090772912 0.11458662 0.032835543 8.374325e-39
0.090684295 0.11835384 0.034170926 8.0073123e-39
0.090651006 0.12218064 0.034953237 8.4690093e-39
0.09067256 0.12605798 0.035181165 8.8370926e-39
0.090661466 0.12990698 0.035741985 9.2062324e-39
0.091104046 0.13334575 0.03602457 9.2998812e-39
0.086349115 0.082873508 0.029789746 2.2372927e-38
0.087037295 0.085239954 0.028125942 2.3383854e-38
0.087176844 0.11229054 0.029935002 1.1875237e-38
0.086382993 0.11470561 0.031654418 1.1415315e-38
0.086871944 0.11841061 0.033561528 9.392039e-39
0.086836725 0.12223426 0.034343362 9.9448611e-39
0.086929463 0.12587397 0.035423696 1.0681004e-38
0.087401927 0.12859792 0.03586024 1.0772111e-38
0.082869053 0.079702422 0.030225635 2.2006678e-38
0.082612231 0.082218699 0.028956473 2.3019746e-38
0.082081951 0.11509196 0.031486034 1.2152874e-38
0.082333796 0.11839228 0.033737004 1.1325282e-38
0.08250019 0.12212174 0.034260809 1.0865021e-38
0.082893804 0.12603617 0.035403073 1.1235621e-38
0.083192833 0.12891255 0.035957813 1.1695875e-38
0.078425415 0.079808846 0.029547155 2.274389e-38
0.077572368 0.081673823 0.029323876 2.3203066e-38
0.078045495 0.11537396 0.031433403 1.206107e-38
0.07780759 0.11838476 0.033801496 1.1601161e-38
0.078031115 0.12234126 0.034561634 1.1234165e-38
0.078336202 0.12536654 0.035614669 1.1325654e-38
0.07509844 0.079689495 0.030336559 2.3293475e-38
0.074666731 0.081832983 0.03059268 2.3207742e-38
0.074219503 0.11540052 0.031156242 1.2244748e-38
0.074012168 0.11844239 0.033191919 1.1876672e-38
0.073942065 0.12224236 0.034195304 1.1601891e-38
0.073824435 0.12537327 0.035512984 1.1693719e-38
0.070352606 0.11475461 0.03113687 1.2152901e-38
0.070062682 0.12223591 0.034250677 1.2245074e-38
0.069805019 0.12586686 0.035418868 1.2797166e-38
0.065289572 0.11225412 0.03024739 1.3624068e-38
0.066394761 0.11468048 0.031856716 1.2613153e-38
0.066183694 0.11837619 0.033856809 1.2704975e-38
0.066168785 0.12221929 0.034416914 1.3165231e-38
0.066032708 0.12598932 0.035865247 1.3901737e-38
0.062415242 0.11459494 0.032687485 1.215398e-38
0.062289201 0.11835894 0.034022987 1.2796833e-38
0.062257469 0.12219336 0.034694195 1.3534028e-38
0.062579088 0.12555473 0.035864592 1.4086501e-38
0.057746053 0.079158925 0.028176367 2.3207385e-38
0.057564661 0.081546284 0.026779234 2.0994647e-38
0.058416113 0.11160424 0.031479239 1.2243674e-38
0.058556482 0.11460033 0.032631993 1.1603694e-38
0.058392994 0.11834211 0.034189343 1.2337673e-38
0.058742315 0.12171885 0.035137296 1.3166329e-38
0.059557192 0.12469202 0.035807729 1.371771e-38
0.054478601 0.079113089 0.029896438 2.2002746e-38
0.054683231 0.081241764 0.028799176 2.0161348e-38
0.054307655 0.11159764 0.03119278 1.1415709e-38
0.054632157 0.11456003 0.033019722 1.1509334e-38
0.054495953 0.11832528 0.034355581 1.1969234e-38
0.054376766 0.12082382 0.035431743 1.2521318e-38
0.050361305 0.078611866 0.029763281 1.9425548e-38
0.050916582 0.08133541 0.028193295 1.8044035e-38
0.050483488 0.11222948 0.030458748 1.1967434e-38
0.050738893 0.11454237 0.03318584 1.2059626e-38
0.050597429 0.11830844 0.034521937 1.2336216e-38
0.050491452 0.12081736 0.035487175 1.2705e-38
0.046324007 0.075499766 0.030012727 1.6478554e-38
0.046357006 0.078466207 0.028193235 1.611155e-38
0.046219707 0.11476084 0.032188475 1.178413e-38
0.046752512 0.11832316 0.034355462 1.2706432e-38
0.046606138 0.12113252 0.035580158 1.3073767e-38
0.043172382 0.075573236 0.029563367 1.3621557e-38
0.042151079 0.078463987 0.027505934 1.2888663e-38
0.042215206 0.11513411 0.031588197 1.095365e-38
0.042437457 0.11821844 0.034202278 1.1692282e-38
0.04239706 0.12112552 0.03564024 1.1967776e-38
0.039570145 0.075849518 0.029899478 1.334966e-38
0.038057804 0.078807555 0.028755784 1.2240439e-38
0.037394039 0.081939042 0.027116835 1.0578413e-38
0.037956998 0.11485187 0.03170085 1.2428026e-38
0.038047843 0.11848544 0.033985794 1.2334763e-38
0.038894206 0.12147173 0.035395622 1.2243258e-38
0.035597749 0.078337245 0.030750334 1.1217991e-38
0.034667671 0.082490742 0.029234231 1.2038381e-38
0.033438101 0.086383246 0.029370248 1.07552e-38
0.033622421 0.10701155 0.030765593 9.746454e-39
0.033679001 0.11090803 0.032417715 1.0018764e-38
0.034698136 0.11457752 0.032806695 1.0033851e-38
0.034541607 0.11801822 0.034787476 1.1506097e-38
0.035597749 0.12079258 0.035699785 1.2609918e-38
0.031064883 0.083475798 0.031414986 1.6378068e-38
0.02989541 0.086141139 0.031071424 1.4991548e-38
0.03010492 0.090231001 0.028476715 1.324342e-38
0.029883713 0.093010843 0.028516233 1.2965045e-38
0.029541567 0.098896496 0.029878557 1.0394344e-38
0.029886812 0.10197623 0.03099972 1.0301393e-38
0.030075714 0.10592596 0.033039689 1.0668769e-38
0.030659348 0.11029866 0.033943772 1.1407424e-38
0.031712443 0.11306696 0.034855306 1.1223072e-38
0.025927603 0.086071506 0.03156817 1.1040449e-38
0.026317671 0.090203702 0.030030489 1.094788e-38
0.026490271 0.094167344 0.029595137 1.1133002e-38
0.026339144 0.097913049 0.030817151 1.2788204e-38
0.026057914 0.10158639 0.032703698 1.4265113e-38
0.027179569 0.104697 0.033945143 1.3621151e-38
0.023294255 0.086679183 0.031900823 1.0494808e-38
0.023119688 0.08967603 0.031497657 9.5681892e-39
0.022597358 0.094087079 0.03162384 9.1986934e-39
0.02215451 0.097710401 0.032420158 9.3863245e-39
0.02253063 0.10110485 0.033090293 1.1600816e-38
0.16178396 0.11261298 0.01490891 1.53765e-38
0.081715479 0.096907608 0.0087543726 1.8683313e-38
0.1167728 0.11007553 0.012291551 1.5377943e-38
0.10977983 0.084358744 0.016506612 8.2799489e-39
0.089583233 0.10229156 0.012769878 1.4366274e-38
0.12850976 0.10754723 0.015085101 1.6019714e-38
0.053604305 0.10814757 0.02641362 9.846595e-39
0.13879633 0.14833876 0.033966005 2.0170689e-38
0.16058415 0.059993461 0.029824376 2.238627e-38
0.16214357 0.06239292 0.029678702 2.2388069e-38
0.16220653 0.14887264 0.039407134 2.2390582e-38
0.157658 0.05971057 0.029581964 2.2663206e-38
0.15863283 0.061460644 0.029016733 2.2839346e-38
0.15798344 0.1504591 0.040072799 2.2662118e-38
0.15668169 0.15173323 0.040575802 2.3120936e-38
0.154085 0.058181331 0.028951943 2.2661059e-38
0.15538555 0.15048657 0.039442301 2.2564183e-38
0.15408221 0.15303394 0.040477335 2.2842908e-38
0.14954044 0.056284279 0.028544843 2.293368e-38
0.15018643 0.057514355 0.029014528 2.2841852e-38
0.15105584 0.1539202 0.03990525 2.2751424e-38
0.1498524 0.15592152 0.041162848 2.201351e-38
0.14629316 0.05627887 0.028591156 2.3024083e-38
0.14759207 0.057571337 0.028723061 2.3025165e-38
0.1456437 0.15498646 0.040107846 2.1642926e-38
0.14660035 0.15623917 0.041246951 2.1369212e-38
0.14239642 0.056272402 0.028646767 2.3022623e-38
0.14238028 0.15366238 0.040671945 2.0538026e-38
0.1423727 0.15558603 0.04123193 2.0537655e-38
0.13848923 0.056203961 0.029030979 2.2929702e-38
0.13912064 0.15364231 0.041052401 1.9893377e-38
0.13373698 0.055827886 0.02872026 2.2655651e-38
0.13326697 0.15750918 0.041587889 1.823705e-38
0.13005674 0.055606708 0.028747678 2.2654581e-38
0.13066533 0.15685874 0.041549683 1.8143081e-38
0.1267933 0.0561845 0.029197872 2.2559497e-38
0.12680945 0.15560026 0.040451884 1.7957969e-38
0.12694871 0.15777557 0.041710317 1.7681744e-38
0.12286042 0.056054071 0.029910862 2.2560569e-38
0.12291271 0.057530284 0.029075325 2.1918799e-38
0.12421162 0.15559594 0.040488958 1.8141997e-38
0.12351084 0.15620075 0.041576505 1.8049803e-38
0.11877048 0.055709437 0.029426455 1.767961e-38
0.11641814 0.15300235 0.040299356 1.8052681e-38
0.11443839 0.05580993 0.029500782 1.4728624e-38
0.11443696 0.15297711 0.040828466 1.9616765e-38
0.10987666 0.056094408 0.029767811 1.6850552e-38
0.11057303 0.05750975 0.029251456 1.6758346e-38
0.10732575 0.056214035 0.029147327 1.3713077e-38
0.10472792 0.060080647 0.029635727 9.5652703e-39
0.10306338 0.062892899 0.030491054 1.0123508e-38
0.10209408 0.066454664 0.030848444 1.0218243e-38
0.10174688 0.070189975 0.031001329 9.0229216e-39
0.10146652 0.074242376 0.03150171 5.7003182e-39
0.1023052 0.078063801 0.03227067 3.7692154e-39
0.10118012 0.084877163 0.033584714 5.6041569e-39
0.10083118 0.15039581 0.040220976 1.4731474e-38
0.10334815 0.1516445 0.041337013 1.5099556e-38
0.099445701 0.074105933 0.032354057 6.8027015e-39
0.098380998 0.085445806 0.033116162 7.167147e-39
0.096844047 0.14517267 0.040676653 1.1053723e-38
0.098188639 0.14907584 0.040608704 1.3169554e-38
0.094242424 0.083142683 0.03348285 1.186544e-38
0.094336614 0.084579229 0.032642066 1.3526431e-38
0.093037695 0.1381249 0.038903177 9.3034335e-39
0.095543243 0.1445244 0.04061985 1.0133204e-38
0.089039154 0.079257421 0.033105195 1.8414991e-38
0.090568885 0.081538573 0.032917559 1.8138311e-38
0.089539997 0.13443974 0.038859785 1.0037421e-38
0.09035629 0.13677397 0.039623559 1.0129614e-38
0.086240709 0.078826934 0.032491326 2.0067716e-38
0.087192588 0.080696411 0.032292783 2.0621589e-38
0.085244216 0.12714431 0.03773582 1.1607258e-38
0.086357571 0.13009542 0.038063824 1.1234161e-38
0.086495981 0.13356642 0.038913906 1.1326006e-38
0.086177349 0.13662639 0.039834619 1.1786272e-38
0.082646385 0.078108229 0.032056808 2.0988591e-38
0.082386605 0.13049434 0.038167775 1.1971027e-38
0.082571752 0.13354363 0.039191782 1.2340155e-38
0.082860269 0.13642704 0.039859354 1.2802564e-38
0.078749649 0.078101739 0.03211242 2.1358099e-38
0.078749649 0.12713349 0.037828505 1.1417861e-38
0.078697413 0.12968001 0.038573682 1.1694434e-38
0.078632616 0.13351256 0.039580762 1.2707871e-38
0.078632608 0.13609695 0.039882064 1.381349e-38
0.074308418 0.07806325 0.032373607 2.1636839e-38
0.073553994 0.080673717 0.032487452 2.3205601e-38
0.074852899 0.12712702 0.037884116 1.1694437e-38
0.074923202 0.12948821 0.038913548 1.2062146e-38
0.075705759 0.13383073 0.039660215 1.3073791e-38
0.072128519 0.074060477 0.03274399 1.7761014e-38
0.071346328 0.078037575 0.032547712 2.1734415e-38
0.07160563 0.1271216 0.037930489 1.2429445e-38
0.070882753 0.12928808 0.038768947 1.2982641e-38
0.068226062 0.075346187 0.032950342 1.9047825e-38
0.067238331 0.077473901 0.032809854 2.2750359e-38
0.06671913 0.12951885 0.038884819 1.3992852e-38
0.06692525 0.13220087 0.039597213 1.4453103e-38
0.060997829 0.12667385 0.038031757 1.408758e-38
0.062233672 0.12974791 0.039104581 1.4270172e-38
0.062372379 0.1321933 0.039662182 1.4087566e-38
0.057317577 0.076775774 0.032267869 2.3295984e-38
0.057101086 0.12279645 0.037636101 1.3259228e-38
0.057748869 0.12593862 0.038370669 1.3810267e-38
0.058000326 0.12945008 0.039279759 1.4270888e-38
0.058469921 0.1321868 0.039717913 1.4547848e-38
0.052616246 0.075320214 0.033173144 2.2278963e-38
0.054070294 0.076770373 0.032314241 2.2832491e-38
0.054070279 0.12257634 0.03765434 1.2890458e-38
0.053950906 0.12573728 0.038807631 1.3812065e-38
0.054242276 0.12862621 0.03936398 1.4455609e-38
0.048713788 0.07143712 0.032776892 1.8506136e-38
0.049634308 0.07450626 0.032785773 1.9795056e-38
0.050173551 0.12256986 0.037709951 1.2889033e-38
0.050067581 0.12574032 0.038752317 1.3534039e-38
0.050014608 0.12829614 0.03938663 1.4178318e-38
0.04611215 0.071432784 0.032814026 1.7120672e-38
0.04650405 0.073370732 0.032228768 1.7120686e-38
0.046276815 0.12269241 0.037780643 1.298372e-38
0.046315685 0.12556544 0.038870096 1.316669e-38
0.042860128 0.071427375 0.032860458 1.4543885e-38
0.042051762 0.07333108 0.032489896 1.3901736e-38
0.042639837 0.12268635 0.037832499 1.2059977e-38
0.042237781 0.12506694 0.038954914 1.2335497e-38
0.03836593 0.073841721 0.032871306 1.2609199e-38
0.038483322 0.12319557 0.037951946 1.2610614e-38
0.038117893 0.12495083 0.038765967 1.2979407e-38
0.035705619 0.075292073 0.033414483 1.0577699e-38
0.033845276 0.078596316 0.033323109 1.453126e-38
0.033287674 0.080606714 0.03306216 1.4346153e-38
0.033287674 0.11931599 0.037574828 1.1598634e-38
0.03452567 0.12208426 0.038215339 1.2885782e-38
0.035145134 0.12443756 0.038648486 1.3440383e-38
0.030596092 0.081172459 0.033670545 1.720676e-38
0.029390931 0.11156765 0.036727905 1.2793237e-38
0.030920818 0.11410049 0.037504494 1.2145745e-38
0.026696488 0.082457229 0.033876717 1.4447726e-38
0.02618067 0.10636933 0.036456108 1.4268004e-38
0.026898295 0.10941318 0.03731823 1.417689e-38
0.023036793 0.082565755 0.034042895 1.2608473e-38
0.021821752 0.085354686 0.034284949 1.067775e-38
0.02159746 0.090264581 0.03435719 9.2898143e-39
0.02159746 0.10252252 0.035786211 1.2983723e-38
0.023121849 0.10504943 0.036562204 1.4361972e-38
0.019616008 0.08950647 0.035102904 9.293396e-39
0.018882126 0.093226403 0.035317183 8.6487146e-39
0.018281296 0.097314328 0.035562694 9.1104116e-39
0.018882126 0.10115935 0.036242008 1.0680653e-38
0.02009578 0.10369453 0.036951482 1.2799327e-38
0.016193345 0.094642624 0.035952628 8.098087e-39
0.015868142 0.096903436 0.036220908 8.5590582e-39
0.016193345 0.099811427 0.036555231 9.8465698e-39
0.11979479 0.1025698 0.009732008 1.7954026e-38
0.07860864 0.093197435 0.0081989765 2.2464431e-38
0.10932899 0.10853515 0.012619197 1.6110103e-38
0.1060863 0.098241225 0.011018515 1.7218254e-38
0.12350827 0.11421201 0.016701281 1.1968869e-38
0.13661848 0.11229049 0.012802005 1.4728625e-38
0.12232095 0.094094723 0.015306652 1.5006996e-38
0.12362259 0.11425397 0.017396033 1.1967425e-38
0.12290986 0.12913179 0.020305693 1.0862524e-38
0.10583818 0.070499867 0.027645946 9.4785019e-39
0.1618956 0.058987379 0.031701863 2.2388789e-38
0.16319254 0.061111756 0.030923843 2.2388431e-38
0.16189431 0.15037021 0.042019665 2.2575337e-38
0.16157651 0.15189455 0.044299603 2.2758291e-38
0.1583081 0.057730451 0.0313555 2.2572455e-38
0.15814492 0.15310848 0.042602837 2.2936913e-38
0.15699841 0.15643471 0.044895113 2.1829098e-38
0.15372874 0.055083707 0.03312695 2.2662135e-38
0.1553762 0.057216465 0.030582786 2.2573887e-38
0.1553762 0.15427345 0.041897655 2.2844339e-38
0.15406188 0.15678848 0.044111788 2.1736908e-38
0.14881998 0.051454738 0.033026576 2.275253e-38
0.15013693 0.053964958 0.032629013 2.2751807e-38
0.15042169 0.1576153 0.042761683 2.1184801e-38
0.14948745 0.15937112 0.04459095 1.9709675e-38
0.14620809 0.051173314 0.032779872 2.275288e-38
0.14623913 0.053776428 0.03132087 2.2933321e-38
0.1459215 0.15779829 0.042948842 2.0352543e-38
0.14620975 0.15934269 0.045306265 1.9341274e-38
0.14317255 0.05120419 0.032072246 2.3020502e-38
0.14232525 0.15745062 0.043463826 2.00756e-38
0.14254859 0.15985881 0.04535234 1.8602646e-38
0.13838087 0.15675792 0.044447005 1.943239e-38
0.13966092 0.15932032 0.045733988 1.851116e-38
0.1350814 0.15671316 0.045496285 1.850936e-38
0.13054977 0.053470001 0.032317638 2.256346e-38
0.13062447 0.15811454 0.042703509 1.7867204e-38
0.1272871 0.053603649 0.032330036 2.2562009e-38
0.12269546 0.053517327 0.032806039 2.2651697e-38
0.12251621 0.15704396 0.043300152 1.7957253e-38
0.11844377 0.053169683 0.032910824 1.8506505e-38
0.11759724 0.15421058 0.042436838 1.7956901e-38
0.11847548 0.15617326 0.045472264 1.7865071e-38
0.11494932 0.15417816 0.043142736 1.8694462e-38
0.11610907 0.15538181 0.045615554 1.7770367e-38
0.11087533 0.051391602 0.033568203 1.7127879e-38
0.11065191 0.053836748 0.031698883 1.6758738e-38
0.11053303 0.15326481 0.04410702 1.8787745e-38
0.10748573 0.053369865 0.032505393 1.5095259e-38
0.10671877 0.15356407 0.045136809 1.6025125e-38
0.10246514 0.058087543 0.03329581 1.1962338e-38
0.1010821 0.061830543 0.033114493 1.0487602e-38
0.10066185 0.064889982 0.032268941 1.0305044e-38
0.10066185 0.078477964 0.033852994 4.1358329e-39
0.10204418 0.081568465 0.035200179 4.0447317e-39
0.10232203 0.15228486 0.044447124 1.5100988e-38
0.10040784 0.059172794 0.034626722 1.3614998e-38
0.098139718 0.062786996 0.034829199 1.3248761e-38
0.097917713 0.065912761 0.033994138 1.0764188e-38
0.097976476 0.069915645 0.033788681 9.1075614e-39
0.097781539 0.073745169 0.034601569 7.44841e-39
0.097856604 0.07731925 0.036024034 6.2512821e-39
0.098150358 0.081427492 0.036146283 5.9750582e-39
0.096753672 0.14641134 0.041829169 1.1786991e-38
0.097316548 0.14895277 0.043124199 1.3076285e-38
0.099796899 0.15212815 0.044968903 1.5100286e-38
0.094589554 0.066438891 0.034802914 1.3065774e-38
0.094052278 0.069439381 0.035663903 1.1406682e-38
0.093906879 0.073530018 0.035947144 9.4723923e-39
0.093938924 0.077478282 0.036071301 8.3649391e-39
0.094117463 0.081005313 0.034577966 9.7417611e-39
0.093464844 0.14120856 0.04160583 9.3913173e-39
0.093586273 0.14518794 0.043746173 1.1878813e-38
0.094870053 0.14853555 0.044872999 1.261495e-38
0.089782238 0.073868908 0.036206067 1.379657e-38
0.090278499 0.077458404 0.035143018 1.491258e-38
0.090240061 0.13863595 0.041016936 1.0404783e-38
0.090018049 0.14108834 0.043543577 1.1326034e-38
0.090141259 0.14457725 0.04458797 1.3168837e-38
0.086015031 0.070846766 0.036195874 1.8779075e-38
0.08607392 0.073534273 0.035949051 1.9703202e-38
0.08660572 0.076759189 0.034359455 2.0069499e-38
0.086657576 0.13830647 0.041030407 1.1878478e-38
0.086215392 0.14115058 0.042487085 1.2985191e-38
0.08607538 0.14459445 0.044217229 1.5287887e-38
0.082089722 0.070840232 0.036251903 2.1265162e-38
0.082176521 0.073563419 0.03578496 2.0620166e-38
0.082423724 0.076506481 0.033887029 1.9975891e-38
0.082163185 0.13810487 0.041071892 1.3261032e-38
0.082349509 0.14117163 0.042097986 1.4180848e-38
0.08229503 0.14478637 0.044491947 1.5563409e-38
