# .PCD v0.7 - Point Cloud Data file format
VERSION 0.7
FIELDS x y z rgb
SIZE 4 4 4 4
TYPE F F F F
COUNT 1 1 1 1
WIDTH 982
HEIGHT 1
VIEWPOINT 0 0 0 0 1 0 0
POINTS 982
DATA ascii
0.11982371 0.05518692 0.023768187 1.1592888e-38
0.11898187 0.057913877 0.022699416 1.0393286e-38
0.11982754 0.099142581 0.018629372 1.0952533e-38
0.11953771 0.103008 0.017471969 1.1967066e-38
0.11946464 0.10640107 0.015824437 1.1600806e-38
0.11923218 0.11090456 0.017057836 1.2245454e-38
0.11903489 0.11352406 0.018001616 1.2431286e-38
0.11650041 0.059183776 0.023760438 1.1314539e-38
0.11644208 0.06215582 0.021369219 1.0303233e-38
0.11555783 0.066976637 0.020667017 1.0029864e-38
0.11481971 0.070883162 0.020911157 9.3823911e-39
0.11396593 0.074463814 0.021581054 8.8352975e-39
0.11586678 0.10068817 0.018918693 1.1041848e-38
0.1154578 0.10310113 0.017778814 1.1594698e-38
0.11594264 0.10654466 0.015200496 1.1874511e-38
0.11584342 0.110522 0.015637577 1.3165262e-38
0.11539334 0.11462636 0.016680479 1.4454147e-38
0.11162853 0.10049394 0.017529011 1.1316673e-38
0.11198893 0.10284257 0.016075313 1.1685806e-38
0.11231552 0.10647424 0.014582932 1.1505368e-38
0.11267596 0.11047821 0.014188647 1.4363103e-38
0.11205441 0.11426835 0.014556885 1.823311e-38
0.10755646 0.09991511 0.0169608 1.1780157e-38
0.10833047 0.1026948 0.015007377 1.1873066e-38
0.10868838 0.10624485 0.013983488 1.1780861e-38
0.1091615 0.11150005 0.013465941 1.6122003e-38
0.10853069 0.11403131 0.013068497 1.9524918e-38
0.10789987 0.11656259 0.012671113 1.5921049e-38
0.10437426 0.10001975 0.016246796 1.2148927e-38
0.10460946 0.10258482 0.014151216 1.2240775e-38
0.10411505 0.10504328 0.013331771 1.2425903e-38
0.10600747 0.11334646 0.012711406 2.1001117e-38
0.10002625 0.10038065 0.016221702 1.3527163e-38
0.10030347 0.10277484 0.014260471 1.4451288e-38
0.10020405 0.1052217 0.0126369 1.6016851e-38
0.09545666 0.099672765 0.015076578 1.4911577e-38
0.095968962 0.10244316 0.013522804 1.7862172e-38
0.097176194 0.10554445 0.012077808 2.0074482e-38
0.0914803 0.099409029 0.013837278 1.7306145e-38
0.09225294 0.10157434 0.012089789 1.9612122e-38
0.087905079 0.099227667 0.012560546 2.0808853e-38
0.088344917 0.10092185 0.011081815 2.1179067e-38
0.084175825 0.098485529 0.011807561 1.9698194e-38
0.080140293 0.098526306 0.011836171 1.1585707e-38
0.079513669 0.10075039 0.0095780492 1.0938855e-38
0.07710132 0.10159511 0.010597348 1.1595738e-38
0.16306603 0.068129219 0.017780721 1.6479629e-38
0.16562125 0.077872947 0.016335547 1.5927524e-38
0.16506863 0.093513414 0.01429975 1.4085771e-38
0.1626163 0.075910419 0.016411364 1.5651296e-38
0.16174038 0.091080293 0.01434654 1.4179759e-38
0.16435599 0.070302278 0.01823771 1.6849479e-38
0.13539495 0.10621276 0.016460598 1.3901374e-38
0.11231552 0.10647424 0.014582932 1.1505368e-38
0.11135048 0.10945277 0.013055801 1.2703234e-38
0.18464077 0.026935935 0.044295847 5.9836958e-39
0.18529974 0.029515639 0.044001877 5.7993354e-39
0.18554434 0.033292599 0.042251885 6.9031648e-39
0.1859735 0.040826052 0.039084315 1.2893335e-38
0.18586546 0.12902538 0.031028569 2.2570677e-38
0.18167986 0.02958988 0.043099642 5.6135106e-39
0.18163876 0.033246409 0.042037368 7.5503292e-39
0.18170194 0.037078224 0.041270971 9.7576182e-39
0.18195385 0.040833253 0.039524794 1.5381145e-38
0.18284197 0.12902229 0.028260887 2.2469822e-38
0.18182926 0.13134326 0.029863775 2.2746412e-38
0.17795232 0.03012725 0.042369962 8.5626903e-39
0.1778145 0.033172164 0.041386247 1.0496251e-38
0.1778364 0.037019469 0.040837824 1.3996783e-38
0.17814064 0.040759221 0.03887552 1.7775402e-38
0.17713094 0.12891142 0.027288496 2.0901427e-38
0.17805326 0.13186601 0.028926015 2.1638269e-38
0.17352094 0.030243535 0.041745543 1.068354e-38
0.17399025 0.033097923 0.040735126 1.2708571e-38
0.1740572 0.036929809 0.039969385 1.5748532e-38
0.17432494 0.040684722 0.038225889 1.8419323e-38
0.17522725 0.043159381 0.036737859 1.9063603e-38
0.17432515 0.13169925 0.027848184 2.0073113e-38
0.16995955 0.03051161 0.041355968 1.2154002e-38
0.17014286 0.033030313 0.040192664 1.3902815e-38
0.17023481 0.036855604 0.039318562 1.5747093e-38
0.17061272 0.040276147 0.038021266 1.7131113e-38
0.1704642 0.13167126 0.027412355 1.9244053e-38
0.16932122 0.13473807 0.029361665 1.9705021e-38
0.16676797 0.030449651 0.040812552 1.2341258e-38
0.16627064 0.032969538 0.039758623 1.3906761e-38
0.16643621 0.036773928 0.038559198 1.6392085e-38
0.16672394 0.039850019 0.038099289 1.7127869e-38
0.16662452 0.13162042 0.026869416 1.8506842e-38
0.16676797 0.13468851 0.028926909 1.9060025e-38
0.16234815 0.032922611 0.039541304 1.4457425e-38
0.16266325 0.036684383 0.037691772 1.6391385e-38
0.16302674 0.039134659 0.035773218 1.7772153e-38
0.16280776 0.13154633 0.026219547 1.8047997e-38
0.16357639 0.13462655 0.028383493 1.8691235e-38
0.1587252 0.03363945 0.039061666 1.5655252e-38
0.15894097 0.036579333 0.036607921 1.6850925e-38
0.15851718 0.03899698 0.034330308 1.8601193e-38
0.15809415 0.12854184 0.024047196 1.7032769e-38
0.15884143 0.13124232 0.025093496 1.7774281e-38
0.1544266 0.036682259 0.036859274 1.7586327e-38
0.15428679 0.038914852 0.033610046 1.8413935e-38
0.15428679 0.12846793 0.023398936 1.6481068e-38
0.15424666 0.13160484 0.025262237 1.8416449e-38
0.15015981 0.036676764 0.036599755 1.8410702e-38
0.15016288 0.03893505 0.034258008 1.9056792e-38
0.15016216 0.12806801 0.022733152 1.684949e-38
0.14990073 0.13146043 0.02479732 1.8508305e-38
0.14605539 0.037224859 0.036059141 1.9793978e-38
0.14605875 0.040016934 0.033979893 1.933373e-38
0.14651066 0.12717608 0.022885859 1.6850921e-38
0.14594573 0.13150027 0.024677932 1.860193e-38
0.14187372 0.037687756 0.035693526 1.9611755e-38
0.14217609 0.040171519 0.034214437 1.9335155e-38
0.1415956 0.042506453 0.031011581 1.9057852e-38
0.14283365 0.12750977 0.022408068 1.6667253e-38
0.14209026 0.13129069 0.024164498 1.8140946e-38
0.13848847 0.04026854 0.033666551 1.8965287e-38
0.13905737 0.042457178 0.030579388 1.8687648e-38
0.13880399 0.12773533 0.021833181 1.6665089e-38
0.13847932 0.13098747 0.023448646 1.8051975e-38
0.13442916 0.040694967 0.033215761 1.8504326e-38
0.13491961 0.043337416 0.030348957 1.8044794e-38
0.13490309 0.12772821 0.021501541 1.5931829e-38
0.13457251 0.1306337 0.023427725 1.5933265e-38
0.13038406 0.04132539 0.033297062 1.8045515e-38
0.13091272 0.043742437 0.031070292 1.7583815e-38
0.13126495 0.046201579 0.029489279 1.7491255e-38
0.13080809 0.12417412 0.019838989 1.1048351e-38
0.13088353 0.12716971 0.021666169 1.1784092e-38
0.13047165 0.1300533 0.022854805 1.0588428e-38
0.1278308 0.041275822 0.032862306 1.7954009e-38
0.12670392 0.043780915 0.031814992 1.6844799e-38
0.12685156 0.047026485 0.029314697 1.6110465e-38
0.12700072 0.12026222 0.019628346 8.0970192e-39
0.12713833 0.123235 0.02058953 6.9006186e-39
0.12682447 0.12727277 0.02186197 6.6287205e-39
0.12655416 0.1300471 0.022520185 7.5506515e-39
0.12304343 0.044721853 0.031643689 1.6662927e-38
0.12315264 0.047480442 0.029759526 1.537435e-38
0.12228103 0.050539345 0.02778548 1.4449877e-38
0.12237488 0.11603507 0.019993305 8.8331423e-39
0.12332299 0.11931489 0.02037847 6.6298093e-39
0.1235835 0.12293281 0.019642115 6.9063625e-39
0.12340145 0.12686539 0.020424485 6.3542972e-39
0.11926198 0.048279956 0.030177236 1.4729696e-38
0.11922777 0.051077712 0.028473854 1.3803793e-38
0.11813948 0.054483198 0.026281118 1.1871244e-38
0.11769179 0.098576255 0.022027135 1.0305719e-38
0.11887273 0.11588155 0.019601226 1.067593e-38
0.11937948 0.11889584 0.020284951 7.2733598e-39
0.12073034 0.12309934 0.020265698 7.8254182e-39
0.12073037 0.12566556 0.01997304 8.0094549e-39
0.11634114 0.04877416 0.030025661 1.5467235e-38
0.11567435 0.051437635 0.028731704 1.5188827e-38
0.11523335 0.054817423 0.027249157 1.3991012e-38
0.11434592 0.058749974 0.02582103 1.3068727e-38
0.11367497 0.066271663 0.023486137 1.1229099e-38
0.11367498 0.076506302 0.022319138 8.3771724e-39
0.1135174 0.079333417 0.02401191 7.9176166e-39
0.11478233 0.083633885 0.025490284 6.81166e-39
0.11378789 0.096339867 0.024161696 9.0160412e-39
0.11511844 0.098664664 0.022424102 1.0029116e-38
0.11309312 0.10113812 0.021452487 1.1041151e-38
0.11170867 0.055530734 0.02828604 1.6385599e-38
0.11099508 0.058736518 0.027530015 1.4176869e-38
0.11041179 0.062863939 0.026375294 1.3164494e-38
0.1105713 0.067075312 0.024816334 1.2242906e-38
0.11080806 0.071471967 0.023533285 1.1044028e-38
0.110612 0.075399809 0.023732364 1.0124587e-38
0.11107929 0.079644725 0.024868727 8.8374275e-39
0.11155379 0.082784057 0.02532202 8.1931399e-39
0.11052796 0.095987134 0.023435473 9.9351445e-39
0.11101127 0.098412938 0.021404147 1.0580161e-38
0.10868137 0.056346849 0.027841032 1.7031677e-38
0.10719195 0.059320696 0.027245045 1.5283587e-38
0.10647318 0.062576056 0.026443541 1.3902086e-38
0.10645285 0.067113757 0.025122762 1.2888998e-38
0.10662803 0.071542434 0.024052322 1.2337617e-38
0.10639465 0.075490944 0.024356008 1.206104e-38
0.10868137 0.078867592 0.025273144 1.0032743e-38
0.10650375 0.094847597 0.022666931 1.1041496e-38
0.10695322 0.098061837 0.020598412 1.1502861e-38
0.1010216 0.059415393 0.026170015 1.4909406e-38
0.10211584 0.06302157 0.025947571 1.417616e-38
0.10232359 0.067152008 0.025427282 1.3163815e-38
0.10243359 0.071613051 0.024568915 1.2244381e-38
0.10301256 0.07486479 0.024496555 1.1874882e-38
0.1025022 0.094727591 0.021718204 1.1777639e-38
0.10294202 0.098110653 0.019408584 1.205459e-38
0.099744976 0.059390604 0.025952637 1.4816491e-38
0.099744976 0.062607855 0.02558583 1.4082527e-38
0.098468333 0.09153831 0.022066891 1.2332609e-38
0.098779917 0.094603129 0.020749986 1.2421938e-38
0.09926483 0.098210767 0.018833876 1.2974379e-38
0.094765335 0.091533244 0.021020353 1.3621899e-38
0.09506163 0.094477713 0.019782603 1.3621189e-38
0.095816702 0.097681761 0.017699778 1.3988896e-38
0.091207966 0.091680408 0.020543158 1.4635667e-38
0.091310561 0.094369464 0.018921077 1.4819e-38
0.091777116 0.097352363 0.017186463 1.5185623e-38
0.087343454 0.094362445 0.018691421 1.9056412e-38
0.087964118 0.097278334 0.016537249 1.9516297e-38
0.083482921 0.094304897 0.01814568 1.9976223e-38
0.084051609 0.096935079 0.015561223 2.0160981e-38
0.079902932 0.094356485 0.017267048 1.7301099e-38
0.079408765 0.096736774 0.014102221 1.343572e-38
0.076937407 0.094900824 0.017459273 1.398638e-38
0.075833648 0.097755685 0.016432881 1.1130121e-38
0.071938545 0.10672642 0.014482856 1.2981565e-38
0.070852995 0.11070567 0.013756931 1.3533309e-38
0.069283277 0.10761176 0.014689803 1.3165594e-38
0.068226457 0.109281 0.014419377 1.3533299e-38
0.16027837 0.11217744 0.015981019 1.4179399e-38
0.16738318 0.084230475 0.016415596 1.5652736e-38
0.17150228 0.070588797 0.020439863 1.7954031e-38
0.12614071 0.11507662 0.015115976 1.6297027e-38
0.17432515 0.13169925 0.027848184 2.0073113e-38
0.18081501 0.02554867 0.046347082 5.7056614e-39
0.17978969 0.028244987 0.045352221 6.1634501e-39
0.18100689 0.13417587 0.033823967 2.2839702e-38
0.1775853 0.026180983 0.046024323 6.9035067e-39
0.17685957 0.028525304 0.045070171 8.0080788e-39
0.17716448 0.13539259 0.033022583 2.2008131e-38
0.17318696 0.026882395 0.04538995 9.0257998e-39
0.1735639 0.028663661 0.04463917 9.4853585e-39
0.17264718 0.13598706 0.032345772 2.0902505e-38
0.1694434 0.028718553 0.044024289 1.0683516e-38
0.16940837 0.13617547 0.03193593 1.9892993e-38
0.16579264 0.029053092 0.043662846 1.1601169e-38
0.16506571 0.13650729 0.031080961 1.952172e-38
0.16186433 0.030478351 0.042005837 1.2703935e-38
0.16152152 0.13587841 0.030337155 1.9150795e-38
0.1590821 0.030486289 0.042546213 1.3623705e-38
0.15770307 0.032010924 0.041113377 1.500772e-38
0.1582316 0.13538404 0.029928148 1.9335175e-38
0.15410569 0.032930382 0.040728509 1.6206261e-38
0.15395305 0.13508545 0.02973491 1.8877786e-38
0.15040927 0.033665091 0.040483654 1.7674935e-38
0.14906049 0.035392519 0.039237142 1.8133763e-38
0.15010627 0.13501076 0.029079914 1.9063978e-38
0.14625949 0.034115084 0.039920866 1.9609221e-38
0.1454754 0.03558106 0.038597345 1.9794693e-38
0.1456354 0.13505335 0.027691245 1.961356e-38
0.14125431 0.035921074 0.038341045 1.9886899e-38
0.14137819 0.1333354 0.026744366 1.8603012e-38
0.14160296 0.13549207 0.027120829 1.9064333e-38
0.13764109 0.037279144 0.037665129 1.9424122e-38
0.13625666 0.039015997 0.03661561 1.9056405e-38
0.13689685 0.1332484 0.025981367 1.8971066e-38
0.13766709 0.13503861 0.026675999 1.9342001e-38
0.13352259 0.03901305 0.03682518 1.8687998e-38
0.13318154 0.13301361 0.02613318 1.436846e-38
0.13471913 0.13471204 0.026460052 1.6579732e-38
0.13087235 0.040279243 0.036564052 1.822812e-38
0.12989911 0.13250807 0.025675774 9.7604754e-39
0.12537339 0.041386079 0.034468234 1.8045853e-38
0.12626082 0.13146196 0.025031388 7.7343295e-39
0.12253767 0.041410014 0.034997582 1.7859318e-38
0.1218608 0.043141022 0.033866584 1.7491965e-38
0.11814296 0.045174196 0.033470035 1.6388127e-38
0.11794034 0.046748817 0.03283 1.5926428e-38
0.1167675 0.092354782 0.028193474 7.0828435e-39
0.11750636 0.095731556 0.02711904 8.5558169e-39
0.114061 0.04818961 0.032354116 1.6204083e-38
0.11320975 0.05083007 0.031293452 1.6844758e-38
0.1143308 0.087718703 0.027848005 6.3513979e-39
0.11436325 0.091823384 0.027839422 6.7154861e-39
0.11454248 0.095281944 0.026837766 8.371755e-39
0.11067674 0.048612062 0.032130659 1.7676361e-38
0.11055139 0.051454552 0.031104147 1.7861825e-38
0.10979539 0.054420725 0.030295134 1.7768522e-38
0.1103929 0.084204122 0.027002275 8.1013114e-39
0.1104859 0.087643847 0.027193367 7.5463468e-39
0.11042145 0.091550916 0.026963711 7.9122384e-39
0.11084688 0.09456972 0.026102901 9.0153448e-39
0.1065094 0.048531156 0.031421125 1.8043688e-38
0.10660845 0.05140958 0.030769646 1.8135514e-38
0.10661024 0.055070251 0.029799461 1.7307561e-38
0.10648774 0.058443673 0.02926594 1.6018625e-38
0.10639909 0.079942308 0.026945293 1.0220016e-38
0.10667478 0.083678938 0.026874721 9.2969973e-39
0.1065094 0.087631613 0.026962757 9.3873811e-39
0.1066754 0.091427051 0.025991321 1.0216028e-38
0.10808823 0.09396857 0.025491357 1.0302486e-38
0.10351746 0.048365355 0.030923963 1.7675291e-38
0.10276353 0.051334932 0.030115008 1.7307227e-38
0.1028651 0.055179484 0.029353738 1.6846975e-38
0.10280663 0.059017561 0.028565645 1.5648419e-38
0.1023265 0.061589599 0.02818954 1.4727538e-38
0.1023265 0.077077813 0.026423514 1.1321679e-38
0.10289931 0.079700902 0.026450217 1.0587355e-38
0.10283172 0.083603904 0.026220441 1.0587728e-38
0.10293309 0.087431632 0.025461078 1.1045833e-38
0.10339347 0.090865843 0.025035441 1.1229475e-38
0.1000981 0.051961273 0.029924154 1.6937008e-38
0.099182189 0.055359587 0.029378712 1.6196932e-38
0.098551065 0.058439381 0.028101802 1.5092384e-38
0.097845152 0.062793285 0.027279317 1.3990693e-38
0.098407447 0.06735152 0.027111888 1.3071262e-38
0.098174691 0.071958877 0.027312279 1.2333713e-38
0.09898746 0.075779699 0.026449502 1.2057829e-38
0.099125519 0.079597048 0.025584221 1.196668e-38
0.099091321 0.083483942 0.025248587 1.2058542e-38
0.09898746 0.087404273 0.025124013 1.2057468e-38
0.099368215 0.090287618 0.024662316 1.2057459e-38
0.095610186 0.056398168 0.028644204 1.6380962e-38
0.094870448 0.059044726 0.027704298 1.5184942e-38
0.095249131 0.062755033 0.026949525 1.4358038e-38
0.095073998 0.067336187 0.026964188 1.3255293e-38
0.094969064 0.071896642 0.026766479 1.3346418e-38
0.094969049 0.075774372 0.026324272 1.3347488e-38
0.095073551 0.07960888 0.02556473 1.2979414e-38
0.095073551 0.083484717 0.025122821 1.2610997e-38
0.095038712 0.087376222 0.024786532 1.2702842e-38
0.094516143 0.090091176 0.023592651 1.3253491e-38
0.091122255 0.059111618 0.027560771 1.6565353e-38
0.090655968 0.062882386 0.027050436 1.5739162e-38
0.090481132 0.067285478 0.026518047 1.5003408e-38
0.090481132 0.071809515 0.026002347 1.4634645e-38
0.090508163 0.075676776 0.025480986 1.4175813e-38
0.090481132 0.079564974 0.025117993 1.3348555e-38
0.090539396 0.08332634 0.024699271 1.2796084e-38
0.090481132 0.087320432 0.024233699 1.3071242e-38
0.085993215 0.067198366 0.025754035 1.5464378e-38
0.08599323 0.071722388 0.025238216 1.4819377e-38
0.086138591 0.075545125 0.024373531 1.408289e-38
0.0860295 0.079463683 0.024248302 1.3715183e-38
0.086313784 0.082392372 0.024076879 1.3348195e-38
0.08599323 0.088008858 0.023381174 1.2977271e-38
0.08617571 0.09102907 0.022500992 1.6386686e-38
0.082146436 0.067123681 0.025099039 1.5464374e-38
0.082146451 0.071647704 0.02458322 1.4727886e-38
0.082146451 0.075525433 0.024141073 1.4449873e-38
0.082512796 0.07922563 0.023782372 1.4265834e-38
0.083428711 0.082013212 0.023622453 1.3622982e-38
0.082787573 0.088463649 0.022776425 1.3249526e-38
0.082432002 0.091145471 0.02202636 1.767673e-38
0.078299671 0.063817561 0.024812579 1.5648419e-38
0.078445256 0.091267526 0.021270156 1.5739553e-38
0.077359021 0.093371995 0.020259261 1.4822959e-38
0.075307727 0.091765314 0.021109819 1.4261533e-38
0.074353993 0.094709978 0.020269215 1.4077502e-38
0.073344246 0.098537922 0.019488275 1.1131206e-38
0.073517874 0.10104153 0.018722236 1.1042579e-38
0.071888357 0.099238962 0.019667923 1.0581278e-38
0.07064487 0.10242718 0.01897639 1.1413537e-38
0.070957109 0.10486387 0.017844737 1.1781589e-38
0.067125678 0.10256259 0.018467486 1.1411733e-38
0.066732764 0.10602018 0.01762253 1.2335116e-38
0.067079872 0.11304081 0.017264843 1.2887581e-38
0.063553661 0.10618632 0.017438173 1.2428751e-38
0.064194798 0.10943021 0.017178893 1.4179362e-38
0.16490412 0.078903794 0.017266333 1.4823692e-38
0.17141017 0.086838119 0.015886784 1.40872e-38
0.17095931 0.081906214 0.015266538 1.3349275e-38
0.17257854 0.086929724 0.017473578 1.6113004e-38
0.13550903 0.12534082 0.019495666 1.6025459e-38
0.16932122 0.13473807 0.029361665 1.9705021e-38
0.11182037 0.080160715 0.025052249 1.7491253e-38
0.10196699 0.057923958 0.027410805 1.5464025e-38
0.17883253 0.019416202 0.051299632 7.9180089e-39
0.1803177 0.022316959 0.049182713 6.535799e-39
0.18039569 0.13744776 0.036635876 2.2753617e-38
0.18080245 0.14050506 0.03647095 2.3041717e-38
0.17496322 0.019341081 0.050640821 7.5460062e-39
0.1765783 0.021890298 0.048926771 6.9935345e-39
0.17619649 0.025055379 0.047138453 7.0882483e-39
0.17651416 0.13804482 0.036011815 2.274606e-38
0.17689787 0.1402923 0.037183285 2.2846891e-38
0.17367345 0.019316044 0.050421178 7.5460062e-39
0.1726062 0.02184087 0.048814595 7.2722892e-39
0.17298615 0.024993055 0.046591818 7.9162209e-39
0.17262466 0.13812859 0.035467565 2.2006326e-38
0.16850799 0.021941327 0.048464954 8.0083983e-39
0.16908827 0.025576286 0.046079934 9.2087309e-39
0.16924924 0.13808201 0.03407383 2.0351821e-38
0.16722459 0.14010452 0.03553623 2.0997904e-38
0.16475047 0.022368196 0.048023582 8.8381618e-39
0.16504483 0.025545698 0.046293736 1.0126035e-38
0.16399717 0.02870195 0.044618547 1.1601172e-38
0.16592339 0.13812202 0.032474399 2.0077048e-38
0.1642132 0.13982515 0.034027517 2.0629149e-38
0.16104536 0.025706474 0.047003865 1.0495534e-38
0.1613557 0.028670058 0.044506907 1.1508266e-38
0.1614289 0.13803478 0.031709135 1.989194e-38
0.16092026 0.13983487 0.033798873 2.0352907e-38
0.15705279 0.0291485 0.045029283 1.32578e-38
0.15690643 0.13990419 0.033779442 2.0445822e-38
0.15338628 0.030078672 0.045286536 1.4638947e-38
0.15349507 0.13745254 0.031428397 1.9708608e-38
0.14955062 0.031981278 0.041752934 1.7586678e-38
0.14955944 0.1374485 0.031090379 1.943274e-38
0.14593853 0.032256056 0.041438937 1.9885444e-38
0.14598775 0.13748004 0.030334592 1.9519565e-38
0.14186609 0.032881819 0.041572928 2.0529388e-38
0.14184022 0.13794653 0.029702246 1.9706815e-38
0.13824037 0.033295829 0.041694582 2.0346805e-38
0.13703027 0.03572949 0.039166033 1.9793976e-38
0.13814673 0.1372973 0.028458416 1.9434547e-38
0.13498034 0.034166615 0.042054176 2.0162381e-38
0.13349779 0.036611266 0.039732754 1.9241523e-38
0.13349669 0.1364163 0.029628932 1.4736547e-38
0.13018394 0.036904886 0.040506303 1.9147545e-38
0.12885612 0.03960067 0.038131773 1.8229546e-38
0.12804131 0.13350317 0.026467204 8.8414072e-39
0.12960342 0.13590792 0.028942466 1.012998e-38
0.12638186 0.037466742 0.040194869 1.8689806e-38
0.12506726 0.039709833 0.038180649 1.8322074e-38
0.12515199 0.13312346 0.026012182 8.1016617e-39
0.12484297 0.1352378 0.02810055 8.6559159e-39
0.1207668 0.039975084 0.0383569 1.8596161e-38
0.11724599 0.04129817 0.038182259 1.8595076e-38
0.11767372 0.043363228 0.035297394 1.7124617e-38
0.11352459 0.044438876 0.036161125 1.7032056e-38
0.11372307 0.046553452 0.034592807 1.6664346e-38
0.11263165 0.090486512 0.028714299 5.4312381e-39
0.10941072 0.04443077 0.036327839 1.7768912e-38
0.10945514 0.047034547 0.034346402 1.7676359e-38
0.1053156 0.044641957 0.035743296 1.8044785e-38
0.10585281 0.046964608 0.03373307 1.8044064e-38
0.10176469 0.044686105 0.034921527 1.7491627e-38
0.10162641 0.047210433 0.032771826 1.7306871e-38
0.098866761 0.045166831 0.034571171 1.6938086e-38
0.098246574 0.047985688 0.032538176 1.7029556e-38
0.097961187 0.051235937 0.031242967 1.6936636e-38
0.097222 0.054589435 0.030149579 1.6288762e-38
0.094997451 0.048992153 0.033467591 1.7581248e-38
0.093812793 0.051537447 0.032632709 1.7305761e-38
0.094470263 0.054813407 0.029649496 1.684265e-38
0.09006764 0.051799625 0.031567752 1.7763891e-38
0.090801299 0.055112019 0.02898252 1.7302913e-38
0.090159237 0.057688497 0.028578043 1.6844446e-38
0.089517161 0.084859893 0.025369108 1.2244001e-38
0.086295664 0.052627649 0.030531049 1.7671327e-38
0.086403489 0.055192351 0.029916823 1.7491241e-38
0.086803317 0.05896385 0.028307617 1.6660766e-38
0.086581975 0.062612012 0.027399719 1.6017203e-38
0.0860928 0.084361926 0.024835289 1.2980131e-38
0.0860928 0.086519375 0.0245893 1.2427694e-38
0.082939684 0.055498868 0.030441761 1.73969e-38
0.082357958 0.059065484 0.029344678 1.6754767e-38
0.082454383 0.06271679 0.026675761 1.6293791e-38
0.0805282 0.080154732 0.024355233 1.3805573e-38
0.082197577 0.083682209 0.024240911 1.307232e-38
0.081972852 0.086816937 0.023844719 1.2150021e-38
0.0805282 0.089863256 0.023248255 1.407502e-38
0.078230441 0.056467518 0.029723287 1.6569287e-38
0.07856831 0.058968894 0.028475165 1.6294489e-38
0.077959925 0.062467732 0.025928974 1.5742051e-38
0.077959895 0.067160182 0.025393903 1.5187795e-38
0.07795991 0.07169082 0.02487731 1.436019e-38
0.077959925 0.075574234 0.024434507 1.3807026e-38
0.078488737 0.079513788 0.024416924 1.3256e-38
0.078036964 0.083578914 0.025237083 1.22458e-38
0.078229725 0.087456658 0.023418009 1.1687935e-38
0.077959925 0.089813396 0.022810936 1.2605617e-38
0.075650901 0.056417443 0.02928412 1.6293067e-38
0.074736565 0.059096105 0.028182745 1.5834594e-38
0.074175164 0.062740691 0.026947081 1.5281792e-38
0.07440418 0.067208931 0.025796235 1.4728256e-38
0.074289694 0.071786076 0.025595009 1.4176159e-38
0.074519917 0.07559292 0.02451998 1.343968e-38
0.074628294 0.079695068 0.025659323 1.2520239e-38
0.074399084 0.083680309 0.025846183 1.1875936e-38
0.074500471 0.087307401 0.024670005 1.178267e-38
0.074107498 0.090709463 0.022044301 1.33482e-38
0.072823361 0.093597084 0.021493554 1.5280709e-38
0.071781576 0.060242765 0.02818054 1.5467601e-38
0.071059003 0.062950984 0.027163625 1.4911908e-38
0.070665747 0.06731271 0.02667129 1.4727906e-38
0.070801944 0.071814701 0.025784433 1.3714486e-38
0.070840955 0.075696185 0.025235057 1.2795035e-38
0.070608199 0.079677574 0.025421798 1.2242572e-38
0.070491791 0.083620377 0.025292575 1.2702083e-38
0.070491791 0.087520823 0.024847865 1.3807029e-38
0.070767254 0.091072857 0.023213804 1.5372185e-38
0.070255101 0.094841689 0.020908713 1.417543e-38
0.069888175 0.098533064 0.020424545 1.1966353e-38
0.067912266 0.064068086 0.027077019 1.4355172e-38
0.067482337 0.068393566 0.026509643 1.3624786e-38
0.066827834 0.075894386 0.025413871 1.2794296e-38
0.066661716 0.079630703 0.024973333 1.2795011e-38
0.066622496 0.08354526 0.024633765 1.3255644e-38
0.066185966 0.087351263 0.023528755 1.4176164e-38
0.066402674 0.0947669 0.020252764 1.2796101e-38
0.066402674 0.098650306 0.019809961 1.1875591e-38
0.065118551 0.10186155 0.019222319 1.1413163e-38
0.063121691 0.079762585 0.02446121 1.2425896e-38
0.062199324 0.083424039 0.023629487 1.2425899e-38
0.061745167 0.08723639 0.022577405 1.2702466e-38
0.062389672 0.09087266 0.020458519 1.2242922e-38
0.062550277 0.094692111 0.019596815 1.1690121e-38
0.062550277 0.098575518 0.019154012 1.1230924e-38
0.062550277 0.10245893 0.018711269 1.1508927e-38
0.061266124 0.10631742 0.018049777 1.2150735e-38
0.062599584 0.11068763 0.018547416 1.3348899e-38
0.062753186 0.11337352 0.020565212 1.3071243e-38
0.058883905 0.080794722 0.023612618 1.1783384e-38
0.058238983 0.083382495 0.023206294 1.2059622e-38
0.058483332 0.087189294 0.022133589 1.214893e-38
0.058539122 0.090763114 0.020811915 1.1318803e-38
0.058451712 0.094717354 0.019567847 1.1412434e-38
0.058451295 0.098605387 0.019124568 1.1412033e-38
0.058369547 0.10252915 0.018889904 1.1874848e-38
0.058260024 0.10638267 0.019183278 1.2426245e-38
0.058883905 0.10939796 0.020351171 1.2611346e-38
0.055981874 0.087564155 0.022340178 1.3160915e-38
0.055229545 0.091341645 0.021779716 1.2609192e-38
0.054431617 0.094983503 0.021056652 1.2610993e-38
0.054369688 0.098909147 0.020768523 1.2334385e-38
0.053979188 0.10259703 0.020025432 1.2056391e-38
0.055444479 0.10673089 0.020062089 1.3899206e-38
0.19577251 0.083482869 0.019345164 9.758295e-39
0.17082126 0.092693046 0.015764534 1.3167042e-38
0.19091317 0.055400342 0.030899525 2.1642938e-38
0.1317542 0.10453116 0.016196728 1.8227038e-38
0.10275695 0.11454937 0.0099713206 1.6660765e-38
0.10032696 0.10969043 0.010106206 1.8778421e-38
0.11388947 0.094072782 0.023076296 1.7581999e-38
0.1792482 0.14172335 0.039808154 2.2859124e-38
0.17566687 0.018182598 0.05395776 8.008048e-39
0.17539284 0.14184999 0.039554238 2.2666438e-38
0.17481211 0.14466116 0.039797306 2.3038801e-38
0.17174774 0.018331766 0.053434908 7.5478069e-39
0.17188162 0.14140014 0.038744628 2.2658164e-38
0.17124932 0.14444028 0.039310038 2.3031621e-38
0.16807188 0.018836927 0.052981615 7.4563133e-39
0.169395 0.020626746 0.051576078 7.4570378e-39
0.16823629 0.14148206 0.038208723 2.1825888e-38
0.16919041 0.14407001 0.0384866 2.2844336e-38
0.16444536 0.019316558 0.052914143 7.9172859e-39
0.1647616 0.020560201 0.051295102 8.1931427e-39
0.16400692 0.14135866 0.0379017 2.0813887e-38
0.16042408 0.022578601 0.050623238 9.4831556e-39
0.15904678 0.024337646 0.049368143 1.058557e-38
0.15997681 0.14208095 0.037804961 2.0811362e-38
0.15642552 0.025800794 0.049642742 1.2062855e-38
0.15623638 0.14185978 0.036504328 2.0536938e-38
0.15250228 0.026590005 0.04976958 1.3442565e-38
0.15214083 0.028470438 0.048216343 1.4178343e-38
0.15242618 0.14105956 0.03559798 2.016817e-38
0.14846396 0.029406715 0.047986031 1.6389583e-38
0.14846434 0.14092615 0.035270274 1.9616434e-38
0.14484107 0.14071442 0.034924746 1.9154375e-38
0.1407319 0.029900141 0.046425939 1.9152216e-38
0.14093743 0.14003602 0.033052385 1.9522061e-38
0.13694055 0.030209623 0.046672821 1.9704672e-38
0.1360262 0.032191526 0.045182884 2.071414e-38
0.1363562 0.13995202 0.033803523 1.9067558e-38
0.13395928 0.030494153 0.046381474 2.0347893e-38
0.13275722 0.032856107 0.044883609 2.0437165e-38
0.13300464 0.14003013 0.03236568 1.3353613e-38
0.13214308 0.14396875 0.033129513 1.2430259e-38
0.1289885 0.033610899 0.044317722 2.0161674e-38
0.12834513 0.03593481 0.04309082 1.9423769e-38
0.12891573 0.14012258 0.03244406 1.1231311e-38
0.12877016 0.14285709 0.032674491 1.1879539e-38
0.12524475 0.033697981 0.044104636 2.0344288e-38
0.12523556 0.13726808 0.031340599 9.4871507e-39
0.12566023 0.13876404 0.032094181 1.0684951e-38
0.12098646 0.034165461 0.043725371 2.0437188e-38
0.12132078 0.036699459 0.042245924 1.9426636e-38
0.12255591 0.13728844 0.031216443 7.5394804e-39
0.11709464 0.034089904 0.043062747 2.0249571e-38
0.11731195 0.036653593 0.042013586 1.9702497e-38
0.11679164 0.039599128 0.040339887 1.9055694e-38
0.11347146 0.036771204 0.04174906 1.9517051e-38
0.11346859 0.04027899 0.040199816 1.8778378e-38
0.11183313 0.042980019 0.039099157 1.7767827e-38
0.10963526 0.037541304 0.041382551 1.9883674e-38
0.10950449 0.040429316 0.040349901 1.878053e-38
0.10795255 0.042904682 0.038438439 1.8137331e-38
0.10671639 0.037811566 0.040848315 1.9515961e-38
0.10558408 0.040361561 0.039794922 1.8872019e-38
0.1053655 0.042854458 0.037997961 1.8229524e-38
0.10179868 0.040682595 0.039380968 1.8503604e-38
0.1009756 0.043062367 0.037625551 1.7674566e-38
0.098932713 0.041583605 0.039075732 1.7674206e-38
0.096760839 0.044101067 0.037733257 1.7305068e-38
0.096155018 0.046630722 0.036489367 1.7305424e-38
0.092975378 0.043949112 0.037592828 1.7950062e-38
0.092717975 0.047715753 0.035900474 1.7951139e-38
0.088554472 0.044651419 0.036935925 1.886988e-38
0.088911101 0.047828093 0.035500586 1.8319567e-38
0.089196444 0.050364144 0.034352899 1.7950432e-38
0.085311279 0.04524231 0.036309123 1.7858953e-38
0.084989235 0.047761783 0.03494513 1.795042e-38
0.085315838 0.050940778 0.033617914 1.767205e-38
0.080936611 0.048381813 0.034685969 1.7583786e-38
0.08125028 0.051565684 0.033412755 1.7584157e-38
0.080465138 0.055084378 0.032308698 1.7397974e-38
0.077743798 0.048582643 0.034623086 1.7769985e-38
0.077554688 0.054701895 0.031850398 1.6751176e-38
0.073314875 0.052313428 0.03322953 1.6199453e-38
0.073340207 0.05515825 0.031582057 1.6108681e-38
0.072380602 0.057861276 0.030597687 1.5836026e-38
0.070392549 0.052798979 0.032874346 1.5188178e-38
0.069288403 0.055337116 0.031827152 1.4819387e-38
0.069500461 0.058985375 0.030355692 1.509344e-38
0.068500042 0.062349699 0.029416621 1.4636052e-38
0.066500708 0.056646571 0.031764388 1.4631399e-38
0.065826401 0.059359856 0.030609369 1.417184e-38
0.065625489 0.067147419 0.028373837 1.3991406e-38
0.064619452 0.074661709 0.027343452 1.3438224e-38
0.062374189 0.063403711 0.030026853 1.4268692e-38
0.061791494 0.067512922 0.028351605 1.3990672e-38
0.062032402 0.072003633 0.027200341 1.3898507e-38
0.062032402 0.075915426 0.02675432 1.2883276e-38
0.060738862 0.07915014 0.026162326 1.2055678e-38
0.06159018 0.1155319 0.022890151 1.2612055e-38
0.060014307 0.11798334 0.023651838 1.1968473e-38
0.057878882 0.067880251 0.028077364 1.3989611e-38
0.057826638 0.072032347 0.027379394 1.3989971e-38
0.058151811 0.075840093 0.026093602 1.2884704e-38
0.058151811 0.079099923 0.025721908 1.1873425e-38
0.058046967 0.11146908 0.022304773 1.2703188e-38
0.057623118 0.11521831 0.022987366 1.2796083e-38
0.056987315 0.11836049 0.023086786 1.2518434e-38
0.054380208 0.068418525 0.028127372 1.3713714e-38
0.053775251 0.072008774 0.027137041 1.3255286e-38
0.053899586 0.075887613 0.02637589 1.2883995e-38
0.054023027 0.079761811 0.025615096 1.1410664e-38
0.054146737 0.083633065 0.0248546 1.1319919e-38
0.053495109 0.08722429 0.02399236 1.2058175e-38
0.052977741 0.091386817 0.02342844 1.095725e-38
0.053301096 0.10736626 0.021662235 1.2432328e-38
0.053921878 0.11105072 0.022753239 1.3070141e-38
0.053365737 0.11507538 0.022836685 1.1776945e-38
0.05309546 0.11828494 0.022424161 1.2423394e-38
0.050933361 0.072690815 0.027249932 1.3164531e-38
0.050409853 0.075906582 0.026452541 1.2699602e-38
0.050472409 0.07980644 0.025848567 1.1777998e-38
0.050796747 0.084059492 0.025419474 9.7429101e-39
0.050534964 0.087623432 0.024797738 8.9127809e-39
0.050127208 0.091666363 0.024053752 9.0035122e-39
0.050012112 0.095399506 0.023480594 8.8220146e-39
0.050096393 0.099282354 0.02282548 8.3628175e-39
0.049750537 0.10336767 0.022235096 8.9149053e-39
0.050436556 0.10694855 0.02209115 9.5602775e-39
0.047041506 0.098769598 0.023605108 1.0293917e-38
0.16624506 0.078847036 0.016315103 1.5283228e-38
0.17539495 0.091174081 0.015435755 1.3350005e-38
0.16289851 0.092023879 0.016179562 1.5929676e-38
0.13338187 0.1128061 0.015452206 1.758741e-38
0.11796995 0.10196801 0.024837017 1.5097741e-38
0.17768392 0.14491186 0.04291898 2.3229306e-38
0.17483787 0.015393883 0.058472574 7.7329114e-39
0.1763829 0.1448866 0.042697489 2.3227877e-38
0.17077711 0.015673291 0.05850625 7.7350834e-39
0.17052823 0.016901489 0.056280911 7.8236805e-39
0.17197916 0.14640735 0.042104959 2.322176e-38
0.16816753 0.015622631 0.058061898 7.5463047e-39
0.16674346 0.01719702 0.056615591 7.088607e-39
0.16663794 0.14583321 0.042221665 2.2751787e-38
0.16555795 0.14907362 0.042395353 2.1829858e-38
0.16308947 0.017906398 0.056244791 7.0893329e-39
0.16207151 0.020671815 0.054392457 8.6537649e-39
0.16402306 0.14267939 0.04081738 2.1547858e-38
0.16299507 0.14568549 0.042112708 2.1918798e-38
0.16242644 0.14914437 0.041847229 2.3039536e-38
0.16033879 0.019416507 0.056279063 8.6534118e-39
0.15887156 0.020996079 0.055079997 9.2966148e-39
0.15910719 0.14558463 0.041340172 2.1087609e-38
0.15913118 0.14950283 0.040784061 2.3047105e-38
0.15794882 0.15197803 0.039730549 2.341769e-38
0.15549693 0.02228605 0.054241419 1.0586622e-38
0.1542653 0.024454772 0.052614689 1.2431266e-38
0.15546706 0.14523764 0.039503813 2.0811374e-38
0.15524308 0.14940174 0.040011585 2.2401379e-38
0.155343 0.15192743 0.039286852 2.341769e-38
0.15155745 0.022645529 0.053987801 1.1785189e-38
0.15135685 0.024933398 0.052262723 1.2891895e-38
0.15150996 0.14521116 0.039051235 2.090501e-38
0.15136835 0.14929138 0.039923191 2.1103465e-38
0.1472909 0.023109064 0.053607523 1.2063921e-38
0.14760372 0.02567257 0.052007616 1.3813471e-38
0.14776012 0.14236365 0.038048387 1.9708276e-38
0.14772582 0.14850821 0.039384186 2.1375702e-38
0.14374939 0.025786519 0.051797926 1.3811685e-38
0.14272413 0.14271152 0.039182425 1.8878507e-38
0.14402893 0.14405213 0.039254665 2.0169965e-38
0.1395438 0.026228119 0.051575303 1.3256021e-38
0.13995391 0.028111435 0.049729347 1.6114795e-38
0.13970929 0.14243017 0.037673295 1.94324e-38
0.13548842 0.02861952 0.050126612 1.7681744e-38
0.13588376 0.14228164 0.036690056 1.9343436e-38
0.13484684 0.14416251 0.036977589 1.8609117e-38
0.13181737 0.029341109 0.049498677 1.9520997e-38
0.13260677 0.14519125 0.035878241 1.4277034e-38
0.13184866 0.14822654 0.035826802 1.4465003e-38
0.12811047 0.030284103 0.049225926 1.9976943e-38
0.1280688 0.031857766 0.047933042 2.0529739e-38
0.12814608 0.14485548 0.034764111 1.2249026e-38
0.12804064 0.14871879 0.034716845 1.003995e-38
0.12445709 0.030557483 0.048819959 2.0163848e-38
0.12374735 0.032123026 0.047497869 2.0529755e-38
0.12407866 0.14103054 0.034407675 1.3440023e-38
0.12407288 0.14475381 0.03471148 1.6670792e-38
0.12433615 0.14844693 0.033952773 4.7920596e-39
0.12048012 0.032505859 0.046686471 2.006805e-38
0.11956412 0.13732956 0.03580153 7.6356389e-39
0.11998104 0.14088108 0.035128057 1.2891942e-38
0.1198903 0.14471091 0.035016239 1.8328528e-38
0.12054272 0.14754204 0.034805894 4.5963571e-40
0.11597595 0.033023406 0.047075927 2.0065183e-38
0.11728074 0.14484812 0.034550428 1.9150719e-38
0.11255002 0.033691961 0.045591891 1.9883678e-38
0.11133116 0.035424765 0.043958664 1.9884392e-38
0.1081472 0.034186706 0.045593023 1.9885815e-38
0.10823575 0.035944887 0.04418242 1.9978378e-38
0.10488525 0.03412338 0.045037627 1.9885462e-38
0.10436656 0.036507107 0.043655157 1.9608158e-38
0.10048592 0.036628034 0.043425977 1.9516689e-38
0.10012032 0.039179221 0.042107582 1.9150054e-38
0.096404105 0.037904587 0.04314369 1.9792563e-38
0.096549094 0.040295523 0.041874826 1.8503604e-38
0.093142122 0.03784126 0.042588294 1.9237224e-38
0.092733547 0.040403098 0.041431427 1.7949353e-38
0.088857651 0.040523686 0.041160524 1.8778033e-38
0.088402569 0.042889077 0.039663494 1.9054281e-38
0.085530847 0.041200925 0.040892422 1.8595448e-38
0.084725142 0.043382727 0.039483547 1.7951513e-38
0.081021309 0.044769783 0.038856626 1.6474227e-38
0.080756843 0.046634715 0.0374071 1.7213567e-38
0.077306643 0.044414304 0.038232267 1.6660772e-38
0.077010527 0.046933133 0.037237525 1.6940938e-38
0.073178828 0.04481931 0.03834945 1.5650211e-38
0.073334813 0.047870062 0.036780238 1.6664348e-38
0.072950631 0.050417669 0.035629392 1.6477827e-38
0.069427073 0.048000522 0.036573648 1.4268353e-38
0.069412977 0.05131213 0.035208941 1.4822261e-38
0.065350085 0.048613183 0.036566615 1.3897774e-38
0.065441638 0.051677097 0.035211802 1.4360203e-38
0.064943343 0.055265501 0.033899784 1.4266564e-38
0.063192874 0.058752999 0.032995939 1.3989594e-38
0.064302713 0.11978893 0.027249038 1.3443958e-38
0.063784361 0.12276496 0.027841449 1.4275881e-38
0.061957642 0.051967066 0.035599053 1.3716979e-38
0.061413378 0.055572338 0.034413218 1.3529715e-38
0.061061412 0.059419468 0.033062935 1.3898818e-38
0.059810162 0.063015282 0.031926513 1.4543128e-38
0.061062291 0.11995763 0.02616024 1.2337249e-38
0.061500981 0.12304947 0.027415216 1.2795738e-38
0.058565199 0.056899287 0.034451485 1.3162368e-38
0.057559609 0.059634723 0.033583224 1.3896341e-38
0.057033807 0.063315995 0.032264292 1.4909052e-38
0.056037188 0.06582734 0.030955136 1.4448793e-38
0.057036936 0.1202915 0.025500953 1.1968818e-38
0.056635797 0.12249531 0.025958478 1.2520565e-38
0.054650843 0.060111515 0.033410072 1.4173653e-38
0.053876817 0.063524418 0.032449722 1.5276768e-38
0.052288949 0.067303814 0.030310512 1.3897365e-38
0.051483572 0.11295301 0.024796307 1.1312694e-38
0.053715855 0.1171196 0.025727332 1.2423382e-38
0.054085612 0.11956103 0.024491668 1.2793241e-38
0.049431682 0.064613692 0.031996548 1.5736287e-38
0.049414515 0.06755086 0.030524015 1.3713726e-38
0.049112409 0.071953163 0.029317617 1.3163785e-38
0.047580451 0.079433933 0.027945042 1.2701385e-38
0.048881471 0.083393693 0.027717948 1.1315956e-38
0.047580451 0.088614441 0.026898265 1.1499603e-38
0.047580451 0.0905817 0.026673973 1.020528e-38
0.047580451 0.10828698 0.024655163 9.8419021e-39
0.049343348 0.11169054 0.025081694 9.3737437e-39
0.049372792 0.11484628 0.025237501 1.011386e-38
0.046513557 0.068243809 0.03073895 1.3622619e-38
0.046359301 0.072383568 0.030070066 1.362261e-38
0.046052635 0.076142035 0.029661655 1.3161294e-38
0.046078622 0.081163019 0.029190779 1.2792169e-38
0.045917869 0.084350571 0.028501928 1.2791432e-38
0.045416713 0.087917939 0.027917445 1.2514833e-38
0.045373917 0.091951907 0.026817918 1.2143906e-38
0.045437455 0.095865324 0.026212454 1.1584644e-38
0.045112193 0.10012423 0.025670767 1.1771556e-38
0.045437455 0.10374002 0.025314569 1.1956644e-38
0.045246601 0.10776235 0.025333524 1.2325428e-38
0.046948493 0.1118548 0.025841296 1.0575524e-38
0.047201306 0.11436632 0.024917662 1.0943247e-38
0.042383611 0.092046656 0.027312577 1.2702109e-38
0.041731209 0.09597826 0.026751637 1.196562e-38
0.041731179 0.099922232 0.02630198 1.1133361e-38
0.041688442 0.10388446 0.025956392 1.0950026e-38
0.042255342 0.1072212 0.025900543 1.0953625e-38
0.038993359 0.09663558 0.026544929 9.2019094e-39
0.038993359 0.099923797 0.026170015 8.1002492e-39
0.038993359 0.10255437 0.025870085 8.3782696e-39
0.17728147 0.067115918 0.019564152 1.5282156e-38
0.17833483 0.072535351 0.018937945 1.5835324e-38
0.11920398 0.10166927 0.023456275 1.4636777e-38
0.061942771 0.086765043 0.023778498 1.3162729e-38
0.16999766 0.014096662 0.06084913 7.0864826e-39
0.16606426 0.014891244 0.060437441 7.5456265e-39
0.1659674 0.15070866 0.045087576 1.8884297e-38
0.16325581 0.015191592 0.059986889 6.812725e-39
0.1610017 0.016922202 0.059741199 8.1917134e-39
0.16317847 0.15080912 0.043829322 2.1748819e-38
0.15835336 0.017999265 0.058523357 8.9289029e-39
0.15483257 0.019102886 0.05817318 9.8501319e-39
0.15401867 0.020702712 0.05708456 1.0402953e-38
0.15117353 0.019373324 0.057766557 1.0311849e-38
0.15036246 0.020973206 0.056678414 1.1048343e-38
0.14789748 0.021951649 0.056907535 1.1692279e-38
0.14638549 0.14938389 0.041095436 1.9809464e-38
0.14281659 0.02314024 0.055214882 1.1419997e-38
0.1415875 0.024418589 0.054516792 1.2708219e-38
0.14281534 0.14609212 0.041195333 2.1091925e-38
0.14325215 0.14896078 0.040943563 2.0262877e-38
0.13888782 0.024383675 0.054395497 1.2341245e-38
0.13923654 0.14479493 0.040640891 2.0262888e-38
0.13499485 0.02562017 0.053446889 1.3168131e-38
0.13524616 0.14576387 0.040097415 1.9620764e-38
0.13426475 0.14904438 0.039554119 1.8877448e-38
0.13103344 0.026210427 0.052832484 1.4641456e-38
0.1298106 0.028147168 0.052060425 1.7961583e-38
0.12693073 0.026167981 0.05281055 1.3535136e-38
0.1269318 0.028618909 0.051510096 1.7956582e-38
0.12296538 0.028981671 0.051222205 1.878274e-38
0.11956006 0.02948945 0.050722837 1.9609957e-38
0.11803371 0.031875748 0.049603999 1.9975489e-38
0.11789575 0.13684596 0.0381217 8.0041117e-39
0.11934224 0.14600088 0.036816835 1.6656416e-38
0.11513692 0.030562397 0.050275326 2.0068058e-38
0.11541662 0.031824935 0.049158394 1.9974426e-38
0.11251611 0.030511513 0.049829006 1.9700367e-38
0.11102027 0.03210175 0.048879087 1.97e-38
0.10727438 0.032391202 0.048710644 1.9885092e-38
0.10374536 0.032966264 0.04778111 1.9884741e-38
0.095582604 0.034123108 0.046156168 1.9608522e-38
0.095788449 0.036060631 0.045289993 2.006879e-38
0.092859775 0.034092795 0.046030402 1.9608864e-38
0.091541529 0.036290634 0.044968903 1.9425193e-38
0.087795168 0.036596093 0.044304073 1.8687629e-38
0.086628646 0.03918048 0.043354452 1.8592931e-38
0.08409515 0.037536964 0.043870628 1.7952622e-38
0.083575368 0.040000588 0.042734325 1.8046593e-38
0.079975814 0.040395468 0.042408764 1.7489822e-38
0.080085903 0.043010674 0.041789234 1.7025977e-38
0.076372474 0.040791839 0.042082429 1.6383829e-38
0.075506002 0.042921767 0.041009426 1.6477099e-38
0.072234645 0.043297946 0.040402293 1.5465812e-38
0.068570718 0.044897638 0.039587975 1.4912631e-38
0.067000464 0.046713851 0.039110065 1.4355877e-38
0.065340906 0.045447223 0.039989352 1.4266208e-38
0.064265743 0.047129307 0.03893131 1.389813e-38
0.060432628 0.048768379 0.038559914 1.3903152e-38
0.059296131 0.051557388 0.037739456 1.3255273e-38
0.059624225 0.124495 0.029479504 1.215253e-38
0.056289673 0.056025483 0.036881626 1.2978699e-38
0.055223584 0.058356866 0.035751224 1.3436806e-38
0.056846917 0.12396836 0.028890312 1.2060323e-38
0.053547144 0.057106942 0.036625683 1.3435001e-38
0.05220288 0.059670031 0.035591006 1.3894906e-38
0.051297933 0.062897407 0.034556389 1.5002694e-38
0.048960626 0.06032031 0.035468221 1.3898499e-38
0.048555076 0.062880896 0.034425557 1.5278556e-38
0.045374185 0.064396054 0.034044504 1.4263336e-38
0.043755233 0.067626201 0.033056617 1.3162724e-38
0.04344666 0.07263802 0.032091558 1.380809e-38
0.04344666 0.077254772 0.031565189 1.3346401e-38
0.04358232 0.080292724 0.031752706 1.2977265e-38
0.04344666 0.083190598 0.030888319 1.3067309e-38
0.044141829 0.11202979 0.028485715 1.2601664e-38
0.044374168 0.1150513 0.028436601 1.2607404e-38
0.041945726 0.069371507 0.032715678 1.3348546e-38
0.041753322 0.071408585 0.032960832 1.3716284e-38
0.04048565 0.084577695 0.031127155 1.3343174e-38
0.040531874 0.088074923 0.030120432 1.2701393e-38
0.039521039 0.09234789 0.029167116 1.233476e-38
0.040150762 0.10878719 0.027809739 1.0399751e-38
0.041098118 0.1110248 0.028330624 1.1319222e-38
0.037822068 0.085202388 0.030709922 1.4083595e-38
0.037592083 0.088793322 0.030005515 1.325491e-38
0.037362069 0.092382364 0.029301345 1.2334386e-38
0.036489069 0.096325472 0.028701186 9.6618142e-39
0.036052585 0.10027705 0.028175294 8.7448787e-39
0.036735266 0.10423823 0.027768493 8.8377932e-39
0.037822068 0.10765879 0.028149426 9.3895391e-39
0.18221863 0.086118355 0.017245889 1.3074486e-38
0.16859698 0.083556451 0.017640233 1.5008799e-38
0.12979692 0.10853206 0.012768328 1.8139496e-38
0.16768248 0.11419444 0.01791966 1.454998e-38
0.10435912 0.078202397 0.029000223 1.5466175e-38
0.17108719 0.013226014 0.063944459 6.8088224e-39
0.16785073 0.011939127 0.066596448 5.9811987e-39
0.16648757 0.013136718 0.063161314 7.2687047e-39
0.16389132 0.013192687 0.065770626 7.1776077e-39
0.16254504 0.01372255 0.062414527 7.0875266e-39
0.15917784 0.015174929 0.06330198 8.1005967e-39
0.15470982 0.015938282 0.06208694 9.2977134e-39
0.15465999 0.017543718 0.060618818 9.665749e-39
0.15092032 0.016225807 0.062166452 9.112962e-39
0.15137453 0.018142309 0.059983909 9.8501529e-39
0.14805362 0.016876493 0.062618911 8.8370996e-39
0.14687772 0.01907023 0.060707211 9.4831949e-39
0.14611782 0.021572921 0.058686078 1.1323861e-38
0.14309156 0.020044442 0.060040355 9.0211545e-39
0.14283238 0.021950722 0.058076322 1.0404069e-38
0.14086112 0.14842604 0.043315232 2.0723142e-38
0.1391765 0.020144545 0.060306787 8.2850174e-39
0.1391865 0.022429328 0.057801425 9.6690337e-39
0.13823277 0.14638789 0.043094337 2.0631309e-38
0.13903147 0.14937408 0.043475211 1.8789184e-38
0.13996097 0.15195461 0.043778837 1.4110972e-38
0.13551542 0.020624358 0.06002903 7.9104784e-39
0.13518804 0.022546187 0.058391929 9.6715364e-39
0.13429025 0.024434384 0.056319833 1.1785908e-38
0.13591859 0.14866607 0.042945921 1.9895526e-38
0.13135275 0.02284649 0.05854702 1.040256e-38
0.13166189 0.024383355 0.055872321 1.187412e-38
0.12825648 0.023144286 0.05848968 1.0949624e-38
0.12771936 0.024306815 0.055201054 1.0675987e-38
0.12482634 0.024303142 0.055723667 1.0215718e-38
0.12285134 0.026254289 0.055160522 1.3347172e-38
0.11928996 0.026240002 0.055568993 1.5741366e-38
0.11852013 0.13408244 0.041097462 6.9978715e-39
0.11852013 0.13540719 0.040946364 7.5485118e-39
0.1153049 0.026832849 0.054927588 1.9796836e-38
0.11589177 0.02937619 0.052583039 2.0347141e-38
0.11640996 0.13679859 0.040934324 8.2885963e-39
0.11570658 0.14079757 0.040527165 1.7040688e-38
0.11495596 0.1435093 0.040428996 2.2571007e-38
0.11147651 0.026932478 0.054397702 1.9794343e-38
0.11154936 0.029638097 0.052059472 1.9608528e-38
0.11147811 0.12898339 0.042166233 9.2969931e-39
0.11142892 0.13224521 0.043147326 9.9402017e-39
0.10713954 0.028056033 0.054287434 1.9511657e-38
0.10786219 0.02991271 0.051647425 1.9149335e-38
0.10771763 0.12214251 0.041616917 8.9278463e-39
0.10771763 0.12479581 0.041314363 1.0126409e-38
0.10765299 0.12881978 0.041071236 1.1601152e-38
0.10845935 0.13185495 0.042679608 1.159936e-38
0.10384002 0.027991973 0.05372566 1.9517406e-38
0.10367063 0.029882338 0.051779032 1.94263e-38
0.10275 0.031770561 0.050043344 1.9885466e-38
0.10396658 0.12194133 0.040311992 1.334963e-38
0.1036381 0.12480469 0.041063488 1.2244013e-38
0.10367833 0.12814219 0.041461408 1.2430921e-38
0.099867985 0.030550174 0.052340388 1.924011e-38
0.099464566 0.032369152 0.049408436 1.970215e-38
0.10113738 0.12201475 0.040496469 1.5277095e-38
0.099621117 0.12477075 0.040601432 1.3809173e-38
0.10054049 0.12770994 0.041786432 1.3441487e-38
0.095567197 0.031093586 0.050923944 1.9331935e-38
0.095522031 0.032954987 0.048661649 1.9424843e-38
0.096226186 0.12543422 0.040280581 1.4363074e-38
0.09394145 0.12758182 0.040662825 1.5560189e-38
0.091508925 0.031036083 0.050570965 1.8781637e-38
0.091261134 0.033441603 0.048483968 1.9333349e-38
0.091301829 0.12753059 0.040213406 1.6020448e-38
0.087342411 0.031662963 0.05046159 1.7951526e-38
0.087713271 0.033399023 0.048285365 1.9057488e-38
0.088317662 0.125944 0.038858414 1.766197e-38
0.087672368 0.12779273 0.039557517 1.5465841e-38
0.08470279 0.031611722 0.050012171 1.7398715e-38
0.084358156 0.033798024 0.047661185 1.7861125e-38
0.083475411 0.035812192 0.046258092 1.776747e-38
0.080080509 0.034932017 0.046794116 1.7582731e-38
0.080353945 0.036867455 0.045769572 1.7583451e-38
0.076124042 0.035436459 0.048096418 1.6569664e-38
0.075964361 0.037319671 0.046322465 1.6292369e-38
0.075152308 0.039183278 0.044438124 1.601649e-38
0.071886837 0.038352203 0.046449661 1.5464011e-38
0.072192788 0.040995881 0.043925226 1.5739843e-38
0.068865091 0.039286815 0.046405375 1.55537e-38
0.067850113 0.041435014 0.044526637 1.5647695e-38
0.069238499 0.043042716 0.042978108 1.5372899e-38
0.064129859 0.042589296 0.044395208 1.5279261e-38
0.063779786 0.044807937 0.042039514 1.4266557e-38
0.062010542 0.046876639 0.041294277 1.3531145e-38
0.060286343 0.043111548 0.044489622 1.4080355e-38
0.05966264 0.045203939 0.042781949 1.3621182e-38
0.060696349 0.046851125 0.041070521 1.3347477e-38
0.056326896 0.045695532 0.043512106 1.3440015e-38
0.056012928 0.049043089 0.040863812 1.2886834e-38
0.056155324 0.052345738 0.039865017 1.2147862e-38
0.05660814 0.12686704 0.031650186 1.2519524e-38
0.052733511 0.049526721 0.041434348 1.233222e-38
0.052002013 0.05330734 0.040621877 1.2976195e-38
0.052390307 0.055988073 0.038851321 1.3619032e-38
0.048149586 0.053843513 0.040589154 1.3895633e-38
0.048557162 0.056634881 0.038712204 1.3803063e-38
