# .PCD v0.7 - Point Cloud Data file format
VERSION 0.7
FIELDS x y z rgb
SIZE 4 4 4 4
TYPE F F F F
COUNT 1 1 1 1
WIDTH 985
HEIGHT 1
VIEWPOINT 0 0 0 0 1 0 0
POINTS 985
DATA ascii
0.15604866 0.04883302 0.036552668 1.8689796e-38
0.15603459 0.051558681 0.034678698 1.868871e-38
0.15751791 0.11138698 0.023563147 1.4087569e-38
0.15764961 0.11496279 0.02401495 1.4455983e-38
0.15270549 0.049059875 0.035513759 1.8873115e-38
0.15172993 0.051454067 0.034260154 1.8781266e-38
0.15133888 0.054047324 0.03235054 1.822988e-38
0.15186498 0.10732315 0.022610605 1.3995356e-38
0.15294334 0.10998488 0.023039579 1.4178697e-38
0.15345481 0.11388149 0.023536086 1.3902826e-38
0.14761344 0.052368425 0.033395648 1.8505037e-38
0.14768122 0.054816335 0.031649411 1.7769625e-38
0.14943513 0.1072608 0.02189666 1.3811336e-38
0.14913376 0.1099987 0.022370696 1.3995016e-38
0.14868179 0.11363191 0.022638202 1.3811356e-38
0.14487955 0.052610911 0.032535851 1.8137352e-38
0.14401314 0.054957576 0.031029105 1.7677079e-38
0.14574523 0.057291009 0.029829741 1.7400122e-38
0.14551833 0.10613105 0.021196485 1.3995373e-38
0.14515528 0.11011914 0.022102892 1.4179417e-38
0.14639619 0.11267994 0.022127986 1.3993226e-38
0.14046675 0.055258848 0.030134737 1.7494481e-38
0.14083618 0.10329948 0.020046175 1.4457792e-38
0.14178029 0.10603624 0.020774543 1.4087922e-38
0.14185435 0.10964523 0.021321058 1.4823342e-38
0.13668352 0.055413522 0.028876722 1.6755473e-38
0.1372408 0.057072766 0.027330935 1.5652361e-38
0.13749138 0.099057384 0.019814849 1.3533298e-38
0.13803613 0.10225696 0.019928455 1.3627644e-38
0.13779896 0.10598869 0.020506859 1.2798258e-38
0.13276502 0.055449389 0.027771294 1.4081103e-38
0.13354114 0.058262974 0.026246727 1.3346366e-38
0.13289109 0.061117388 0.025301397 1.2519146e-38
0.13362274 0.095294274 0.019693494 9.661803e-39
0.13420573 0.098402001 0.020129383 1.0954714e-38
0.13400039 0.10233035 0.020181656 1.1414619e-38
0.13463014 0.1048742 0.020027399 1.1324219e-38
0.12993473 0.055562377 0.027541518 1.3897407e-38
0.1293703 0.058388598 0.026391327 1.3898448e-38
0.12958443 0.06249699 0.025123954 1.3898853e-38
0.12797013 0.066544488 0.023115993 1.1875608e-38
0.12961841 0.0917897 0.01877892 8.9246079e-39
0.13073498 0.094428115 0.019996941 9.8472564e-39
0.13112107 0.098531015 0.02012682 1.113694e-38
0.1315521 0.10354459 0.019349039 1.1411753e-38
0.1268695 0.062779039 0.025321901 1.0589883e-38
0.12616 0.066949464 0.023296952 7.8226156e-39
0.12543383 0.070317432 0.022206426 6.1630942e-39
0.12551689 0.073604725 0.020842493 5.6124274e-39
0.10299462 0.10593825 0.010392487 2.0531546e-38
0.10227177 0.10946315 0.0095394254 2.1270218e-38
0.10270748 0.11265302 0.0090928078 2.2934363e-38
0.097432047 0.10266895 0.0093232989 2.117334e-38
0.098811567 0.10515065 0.0090509653 2.0066601e-38
0.099150419 0.10877068 0.0079091191 1.9056796e-38
0.099043459 0.11303056 0.0073530674 2.0904314e-38
0.099254519 0.11697286 0.007281065 2.2377224e-38
0.094793975 0.10222814 0.0083507895 2.0901748e-38
0.095573694 0.10407872 0.0072426796 1.9054962e-38
0.096400559 0.1105755 0.0054675341 1.6200543e-38
0.09572348 0.11362342 0.0057736635 1.7953e-38
0.095342457 0.11637221 0.0062220097 2.1363857e-38
0.091473728 0.10181015 0.0073471069 1.8688001e-38
0.09235701 0.10373569 0.0060269237 1.7950423e-38
0.09283337 0.10954881 0.0045885444 1.4635731e-38
0.092272937 0.1134193 0.004309833 1.500632e-38
0.092296004 0.11629403 0.0053268671 1.8690178e-38
0.088094085 0.1020562 0.0063820481 1.4634652e-38
0.087976515 0.10403533 0.0045593381 1.5371476e-38
0.088230729 0.11384674 0.0034967661 1.5837114e-38
0.085246325 0.1023562 0.0057426095 1.2973347e-38
0.084823221 0.10469542 0.0038694143 1.4176516e-38
0.084889352 0.10821141 0.0024591684 1.5281415e-38
0.084465861 0.11350625 0.0031406879 1.5005928e-38
0.083766013 0.11607512 0.0028204322 1.5195372e-38
0.16646521 0.082125522 0.022109568 1.3440767e-38
0.17488992 0.077417411 0.027856529 1.3902093e-38
0.18124545 0.097175755 0.027354598 1.2152547e-38
0.1741077 0.095519982 0.027496755 1.3810983e-38
0.19908449 0.11663236 0.039257944 1.6207698e-38
0.19814315 0.12036026 0.039097428 1.7774681e-38
0.19786134 0.12382685 0.039710462 2.0079542e-38
0.1923122 0.049723454 0.050846815 2.0169959e-38
0.19322272 0.052174211 0.049162507 2.0169617e-38
0.19460958 0.12155782 0.037455499 1.9157977e-38
0.19418371 0.12373247 0.03862983 2.0540897e-38
0.18734124 0.046811126 0.050494969 2.0999719e-38
0.18893348 0.049209684 0.049477339 2.1367429e-38
0.19052117 0.051603116 0.048459291 2.1828779e-38
0.19095817 0.12132096 0.036337912 1.8785985e-38
0.19077146 0.12469379 0.036613822 2.0539131e-38
0.18469316 0.046209209 0.049601495 2.0814595e-38
0.18586335 0.048608527 0.047963619 2.1365972e-38
0.18740696 0.1217683 0.034843922 1.8690897e-38
0.18726696 0.12445395 0.035022616 2.0350776e-38
0.18126635 0.04543943 0.048135281 2.016817e-38
0.18248162 0.047633663 0.046777368 2.1179788e-38
0.18496248 0.12170557 0.034125686 1.8416468e-38
0.18363112 0.12433068 0.033842027 1.9611417e-38
0.18355659 0.12696055 0.033815026 1.9892319e-38
0.17795947 0.04554034 0.047016561 2.0170331e-38
0.18013977 0.1246042 0.032767475 1.8232079e-38
0.17229819 0.041509166 0.046509624 1.8140584e-38
0.17357039 0.045032181 0.045541227 2.0075237e-38
0.17548722 0.12454022 0.031373382 1.6114806e-38
0.16901046 0.041226417 0.045444906 1.8878123e-38
0.16951396 0.0441899 0.043706059 1.9797566e-38
0.17114463 0.12425376 0.030467391 1.5560544e-38
0.1722132 0.12694299 0.031491637 1.5838221e-38
0.16547389 0.04130096 0.044434667 1.8695552e-38
0.16584575 0.044095762 0.042628229 1.9244054e-38
0.16753782 0.12094479 0.029062331 1.4731491e-38
0.16750571 0.12409712 0.029777229 1.5006633e-38
0.16853553 0.12684861 0.030410945 1.4914439e-38
0.16180089 0.04206676 0.043729484 1.9061431e-38
0.16202253 0.044700153 0.041907251 1.9060002e-38
0.16399883 0.1206734 0.028584599 1.4640387e-38
0.16407943 0.12370933 0.029295504 1.4917328e-38
0.15826267 0.044868268 0.04150492 1.8874896e-38
0.15803707 0.047006324 0.03959465 1.8780559e-38
0.16108197 0.1204332 0.027934015 1.4457084e-38
0.15960112 0.1223417 0.028559089 1.4824421e-38
0.15434411 0.045284048 0.040569007 1.8965291e-38
0.15474969 0.047423728 0.038538039 1.8965644e-38
0.15651101 0.11931398 0.026948452 1.4364879e-38
0.15676254 0.12151397 0.027861476 1.4640752e-38
0.15066831 0.045189716 0.039488912 1.8872745e-38
0.15111125 0.047746785 0.037544966 1.8964938e-38
0.1528042 0.11860593 0.026028931 1.4272296e-38
0.14688714 0.045772932 0.038607955 1.8872758e-38
0.14707184 0.048164502 0.036593914 1.9240817e-38
0.14673521 0.050897546 0.035517812 1.8689793e-38
0.14939113 0.11577518 0.024580538 1.3536919e-38
0.14845058 0.11854474 0.02494657 1.4363793e-38
0.14818136 0.12129375 0.02534008 1.4824419e-38
0.14261872 0.048448406 0.036244988 1.8687285e-38
0.14268252 0.051493123 0.034332931 1.8228479e-38
0.14432168 0.1145475 0.023289442 1.390354e-38
0.14427826 0.11835756 0.023411393 1.4457785e-38
0.14487785 0.12146059 0.024323821 1.4916619e-38
0.13920799 0.048930846 0.035744905 1.8409979e-38
0.13892546 0.051659055 0.033872902 1.7953306e-38
0.13867155 0.054035597 0.0325436 1.7587041e-38
0.13991505 0.11135072 0.022552133 1.4731862e-38
0.14059523 0.1144385 0.022785306 1.4364171e-38
0.14053276 0.1182607 0.022943497 1.4642172e-38
0.14143899 0.12112071 0.023358822 1.5193883e-38
0.13533372 0.052131489 0.033656776 1.7771435e-38
0.13536093 0.054061763 0.032256842 1.7220789e-38
0.13697872 0.10793034 0.022294044 1.2707514e-38
0.13699982 0.11046777 0.021959364 1.2890123e-38
0.13651496 0.11445066 0.022697866 1.2980868e-38
0.1376819 0.11787897 0.022823572 1.4551061e-38
0.13114139 0.052917592 0.032616436 1.5004138e-38
0.13197175 0.05430226 0.031289935 1.4820096e-38
0.13300419 0.10700306 0.021578133 1.1140183e-38
0.13303196 0.11056162 0.021581769 1.114017e-38
0.13243467 0.11384412 0.021986902 9.756535e-39
0.12868965 0.052854665 0.031895936 1.4451671e-38
0.12782744 0.05486118 0.029793024 1.3439301e-38
0.12812203 0.095786475 0.021846175 1.067809e-38
0.12869015 0.098937012 0.021446168 1.1507874e-38
0.12936181 0.10256057 0.020991504 1.1690488e-38
0.12948313 0.10656606 0.020656586 1.1692283e-38
0.12922195 0.11049146 0.021236897 1.1692268e-38
0.12860206 0.11408126 0.020800054 9.1086194e-39
0.12548855 0.055747397 0.029358327 1.1597924e-38
0.1256673 0.059032954 0.027758539 1.0399702e-38
0.12485361 0.063088797 0.026782393 7.0771318e-39
0.1234754 0.067568012 0.02626729 8.1906428e-39
0.12618807 0.099341147 0.022744536 1.1598644e-38
0.12541142 0.10335176 0.021333754 1.1875244e-38
0.12532917 0.10675941 0.020676196 1.2244386e-38
0.1255309 0.10970385 0.020674765 1.2430578e-38
0.12666485 0.1182253 0.019472599 8.0094843e-39
0.12193272 0.068313263 0.026554763 8.6487483e-39
0.12194517 0.071489789 0.026160598 7.6363942e-39
0.12171021 0.10394422 0.020575762 1.1596859e-38
0.12174419 0.10661226 0.019397438 1.2334068e-38
0.12141341 0.1103845 0.019322813 1.3348923e-38
0.12105304 0.1143069 0.018505991 1.2148593e-38
0.11754099 0.10667051 0.018357038 1.1873437e-38
0.11789295 0.11045141 0.018259883 1.4456714e-38
0.11790976 0.11424864 0.017154694 1.4453445e-38
0.11797625 0.116735 0.016089499 1.2428336e-38
0.11321878 0.10638199 0.017388642 1.1961663e-38
0.11384121 0.11009581 0.017114758 1.5194645e-38
0.11365816 0.1140654 0.016130626 1.6940221e-38
0.11342499 0.11645377 0.01513499 1.4079284e-38
0.10959128 0.10624497 0.015601039 1.3067681e-38
0.10949937 0.11012464 0.015342891 1.6668354e-38
0.10964134 0.11387122 0.014590263 1.9243637e-38
0.10547522 0.10384209 0.015748382 1.5557288e-38
0.10587052 0.10617719 0.014620483 1.5922132e-38
0.10620293 0.10981666 0.013473272 1.8782007e-38
0.10639274 0.11353116 0.012622952 2.246832e-38
0.10192594 0.10304139 0.01448077 1.9703235e-38
0.10289469 0.10562206 0.012538135 1.9795059e-38
0.10354671 0.10933024 0.012062311 2.0901062e-38
0.104137 0.1133594 0.011510015 2.3397825e-38
0.098380089 0.10224118 0.013214052 2.127235e-38
0.10028017 0.10573415 0.011737406 2.0899945e-38
0.10034356 0.10824453 0.011302471 2.0530797e-38
0.10050201 0.11452048 0.010215044 2.3117315e-38
0.099922597 0.11575999 0.0098180175 2.3120557e-38
0.094346911 0.099782117 0.013160944 2.1544621e-38
0.094549507 0.10131166 0.011734426 2.1821901e-38
0.095372528 0.11868957 0.0079303384 2.2746027e-38
0.094549328 0.1206396 0.007332027 1.896202e-38
0.09057042 0.098990448 0.010941267 1.9607446e-38
0.090375572 0.10046246 0.009734273 1.8870586e-38
0.090591073 0.11873176 0.0074222684 1.924729e-38
0.091045231 0.12081761 0.0073130131 1.8320641e-38
0.087587446 0.098874547 0.0098952651 1.352939e-38
0.086477101 0.10086416 0.008498013 1.2516265e-38
0.087051868 0.11799736 0.0058073401 1.8507928e-38
0.087373078 0.12072337 0.0062339902 2.0258199e-38
0.084296137 0.10156081 0.0077210665 1.2514837e-38
0.08469227 0.11725069 0.0050025582 1.7768945e-38
0.15603459 0.051558681 0.034678698 1.868871e-38
0.14259565 0.081836127 0.019751906 1.3167406e-38
0.19443496 0.04840675 0.053382933 1.8420414e-38
0.15054426 0.12244862 0.02579236 1.813987e-38
0.19102775 0.042408176 0.056274831 1.2800786e-38
0.1917178 0.045916878 0.053728044 1.8604793e-38
0.1925934 0.048359491 0.052841842 1.9802239e-38
0.19392136 0.12525368 0.039335728 2.1368863e-38
0.19317052 0.12798035 0.040888071 2.1926364e-38
0.18736383 0.042297907 0.055083454 1.4552147e-38
0.18815529 0.045680441 0.052795768 1.9249812e-38
0.19016103 0.12812895 0.038222969 2.2107877e-38
0.1839066 0.042094961 0.053264499 1.6670139e-38
0.18483268 0.04469531 0.051187873 1.9064335e-38
0.18622845 0.12857351 0.037851393 2.2102116e-38
0.18028322 0.041969098 0.051970363 1.8236357e-38
0.18206239 0.044309221 0.050430775 1.8972492e-38
0.18270718 0.12846223 0.036255598 2.0258942e-38
0.18145166 0.13080561 0.037787259 2.1270207e-38
0.17544988 0.039526433 0.052499175 1.7590996e-38
0.17673284 0.041813456 0.050468028 1.8418967e-38
0.17653769 0.044167437 0.048807442 1.8973936e-38
0.17926845 0.12802765 0.034460545 1.8601202e-38
0.17832433 0.13106522 0.036171496 1.9153284e-38
0.17223772 0.038880818 0.05123353 1.6299563e-38
0.17400587 0.041388132 0.048977911 1.8048038e-38
0.17469612 0.04412017 0.048266292 1.8972495e-38
0.17526394 0.12820029 0.034293175 1.675908e-38
0.17484578 0.13113022 0.035227239 1.8599405e-38
0.16841258 0.038249917 0.048746586 1.6853428e-38
0.17101565 0.12806323 0.032595932 1.6204128e-38
0.17047286 0.1308533 0.034148633 1.7677812e-38
0.16415538 0.038005106 0.048476458 1.721827e-38
0.16355126 0.04005415 0.04567492 1.8603344e-38
0.16634801 0.12815258 0.031852484 1.5468352e-38
0.16625954 0.13023084 0.03265059 1.731118e-38
0.16007589 0.038475342 0.047923803 1.8323886e-38
0.16072512 0.040543281 0.045166552 1.8876325e-38
0.16200095 0.12443448 0.029956162 1.4732945e-38
0.16288812 0.12734133 0.030489743 1.5928609e-38
0.16273212 0.13072053 0.031791627 1.7675633e-38
0.15663573 0.038727187 0.047028124 1.8414282e-38
0.15721227 0.041247584 0.044273138 1.8782696e-38
0.15628049 0.043647557 0.042855084 1.9150401e-38
0.15954551 0.12437148 0.029234707 1.5100283e-38
0.15914902 0.12724727 0.030008495 1.583784e-38
0.15895396 0.1305446 0.031119347 1.7768913e-38
0.15336779 0.041213825 0.043602526 1.9148603e-38
0.15382507 0.043584548 0.042133689 1.9057836e-38
0.15546334 0.12352089 0.028775275 1.4734027e-38
0.15499103 0.12750471 0.030133128 1.6021881e-38
0.15617129 0.13015682 0.03035897 1.7862182e-38
0.14947209 0.041420244 0.043476284 1.9334781e-38
0.15014192 0.04349003 0.041051447 1.8965288e-38
0.15190998 0.12309537 0.027892351 1.4824782e-38
0.15129328 0.12740982 0.029046655 1.65729e-38
0.15247172 0.13006186 0.029271841 1.7221861e-38
0.1458158 0.042172432 0.04264617 1.9151131e-38
0.14630432 0.044568934 0.040240347 1.8873472e-38
0.14854598 0.12326626 0.026453912 1.5102086e-38
0.14760661 0.12714568 0.02794987 1.6757653e-38
0.14877215 0.12996691 0.028184772 1.7677808e-38
0.1428663 0.042487092 0.042238355 1.8874162e-38
0.14231718 0.044972166 0.040301383 1.8411054e-38
0.14225736 0.047067672 0.038051069 1.8411774e-38
0.14455473 0.12348274 0.02492094 1.5194283e-38
0.14433464 0.12616831 0.02675271 1.6022235e-38
0.1384508 0.0451575 0.039681196 1.8042267e-38
0.13818619 0.047803201 0.03670305 1.8413586e-38
0.13857898 0.12005339 0.023757398 1.4550369e-38
0.14054802 0.12284888 0.024104416 1.5286824e-38
0.14066049 0.12596184 0.026487708 1.5654889e-38
0.13526773 0.045615934 0.039051771 1.8136979e-38
0.13397703 0.048223816 0.036959231 1.7861473e-38
0.13602805 0.11620791 0.023691177 1.289549e-38
0.1357455 0.11890066 0.023120046 1.2707871e-38
0.1358774 0.12315548 0.024508297 1.1509314e-38
0.13672242 0.1255891 0.024320602 1.2153215e-38
0.12986797 0.048752569 0.036620736 1.5742401e-38
0.13070554 0.05118122 0.033859491 1.5189256e-38
0.13245192 0.11593042 0.023203611 9.3895545e-39
0.13191459 0.11871202 0.023826241 8.1924294e-39
0.13256481 0.12259003 0.024680972 6.897376e-39
0.12660602 0.049583964 0.03557235 1.4450218e-38
0.12636271 0.051978268 0.034234643 1.3899212e-38
0.12587428 0.054207236 0.031870246 1.2977977e-38
0.12733862 0.1122049 0.02182138 1.1599713e-38
0.12946966 0.11561961 0.021840096 5.7035202e-39
0.12893009 0.11854576 0.021149993 6.5365052e-39
0.12382028 0.053224139 0.033553243 1.2517027e-38
0.12464657 0.054175727 0.031509578 1.2057482e-38
0.12111652 0.059647702 0.032643914 9.6535605e-39
0.12222964 0.063652679 0.029604256 7.7220892e-39
0.12430203 0.096979983 0.024991512 1.0397566e-38
0.12355244 0.099740647 0.024003923 1.1412437e-38
0.12401468 0.1020396 0.02266711 1.1783757e-38
0.12462494 0.11163125 0.021115065 1.2337284e-38
0.12494686 0.11466352 0.020662904 9.5717541e-39
0.12562439 0.11720092 0.020406365 7.7336233e-39
0.1197556 0.065457828 0.030834138 8.4611284e-39
0.11887014 0.068355776 0.029869437 9.5667487e-39
0.1189414 0.071213342 0.028844535 8.7409327e-39
0.12008303 0.10013234 0.024353743 1.1134052e-38
0.12071261 0.10245884 0.02160573 1.1506084e-38
0.12242773 0.11207887 0.020378351 1.2519886e-38
0.12249139 0.11460052 0.019941568 1.0124238e-38
0.11619389 0.1005362 0.023252368 1.1408498e-38
0.11702201 0.10327873 0.021061897 1.1777276e-38
0.11249703 0.10044134 0.022166193 1.187093e-38
0.11333522 0.10318411 0.019978642 1.1870569e-38
0.11260611 0.11182681 0.017492414 1.8240681e-38
0.11263794 0.11308763 0.017273903 2.0717343e-38
0.10858169 0.099895753 0.021228552 1.2055987e-38
0.1092557 0.10316513 0.018635988 1.2698893e-38
0.1113784 0.11179531 0.017131627 1.8150639e-38
0.10466203 0.099712111 0.01991123 1.3527918e-38
0.10510749 0.10223032 0.017594516 1.4269433e-38
0.10049498 0.097087272 0.01971972 1.4724309e-38
0.10074773 0.099193268 0.018037558 1.5647685e-38
0.10130206 0.10145671 0.015993297 1.7858965e-38
0.09864518 0.097039796 0.019176245 1.4994792e-38
0.097069502 0.09908662 0.016335368 1.7675643e-38
0.092274189 0.096502282 0.01710701 2.0531169e-38
0.093265533 0.098410822 0.015557408 2.0619818e-38
0.089437425 0.095825665 0.015058756 2.0069149e-38
0.090248734 0.097824164 0.013880432 2.0714151e-38
0.086428672 0.095391534 0.014344931 1.5267441e-38
0.086148143 0.098093428 0.012872577 1.3060879e-38
0.16161826 0.072209172 0.025500774 1.3071992e-38
0.16038777 0.083190151 0.022486746 1.2336573e-38
0.14854309 0.084267132 0.019263625 1.546583e-38
0.16734651 0.087278493 0.022748888 1.4085411e-38
0.15172993 0.051454067 0.034260154 1.8781266e-38
0.14370678 0.072706342 0.031366169 1.5099919e-38
0.18285468 0.039859079 0.056706131 8.2857027e-39
0.19195838 0.13352069 0.044904292 2.2583257e-38
0.18507724 0.028097346 0.062205374 5.7996885e-39
0.18599781 0.03133861 0.060422957 5.7078474e-39
0.18659878 0.034944795 0.05818522 7.1797391e-39
0.18669489 0.038751848 0.057525575 8.9317587e-39
0.18913597 0.13001263 0.041283369 2.2386978e-38
0.18813568 0.13351545 0.044117332 2.266717e-38
0.18199295 0.028370723 0.061341166 5.70316e-39
0.18214405 0.031297766 0.059750915 6.4411034e-39
0.1823433 0.035075031 0.058774352 8.7484927e-39
0.18278265 0.038744234 0.057065308 1.1326005e-38
0.18471698 0.13314897 0.042104125 2.2106412e-38
0.18371892 0.13607535 0.042806923 2.2384448e-38
0.17790729 0.028826043 0.060463011 7.9176502e-39
0.17821622 0.031283073 0.059287131 8.6538027e-39
0.17848694 0.035035558 0.058101177 1.1328163e-38
0.17893225 0.038707398 0.056393385 1.5287174e-38
0.18144435 0.13319314 0.040228307 2.1546074e-38
0.18076912 0.13585821 0.041436195 2.1915214e-38
0.17542262 0.028762281 0.059732914 9.113332e-39
0.17435125 0.031241097 0.058611929 1.1050155e-38
0.17480257 0.034926027 0.056903601 1.38135e-38
0.17524354 0.038312547 0.055834591 1.6115857e-38
0.17794403 0.1336326 0.03887701 2.0258908e-38
0.17711267 0.13635442 0.04007864 2.0903581e-38
0.17101662 0.031325176 0.057500541 1.1972103e-38
0.1711202 0.034816124 0.05570668 1.4457783e-38
0.17172872 0.03759855 0.05464983 1.5379751e-38
0.17332634 0.1364359 0.038580775 1.9889791e-38
0.16681495 0.032047629 0.056569755 1.2159001e-38
0.16743869 0.034706026 0.054509997 1.4733298e-38
0.16827306 0.036949567 0.051882148 1.6942038e-38
0.17068174 0.1333057 0.036238968 1.7865073e-38
0.1696046 0.13634008 0.037487149 1.8968549e-38
0.16371718 0.032286882 0.055601835 1.2429125e-38
0.16386926 0.034553908 0.053001523 1.5285027e-38
0.16209799 0.036791094 0.050067663 1.7125353e-38
0.16653615 0.13259119 0.034374356 1.7863641e-38
0.16610819 0.13593021 0.036341131 1.8602271e-38
0.15952995 0.034720793 0.052852869 1.6203754e-38
0.15939797 0.036814176 0.049963713 1.7492337e-38
0.1618956 0.13319981 0.033847451 1.7862186e-38
0.16255009 0.13563862 0.035773098 1.8785223e-38
0.15529823 0.035358496 0.052321851 1.7585235e-38
0.15513061 0.037340976 0.049583256 1.8136258e-38
0.15761349 0.13289264 0.032836735 1.8413565e-38
0.15887243 0.1354377 0.03550607 1.8782349e-38
0.15139058 0.03579554 0.051288247 1.8593297e-38
0.15142339 0.038110025 0.049114347 1.9239015e-38
0.15416276 0.13205445 0.03140229 1.804623e-38
0.15203965 0.13526234 0.033498347 1.8782715e-38
0.14789045 0.039034091 0.048334181 1.9701064e-38
0.14737384 0.040215716 0.045053661 1.9610333e-38
0.150363 0.13202673 0.030537963 1.81395e-38
0.14364767 0.038911842 0.048413754 1.9609231e-38
0.14408511 0.040869772 0.045648396 1.93348e-38
0.14714541 0.12893498 0.028944969 1.7309038e-38
0.14637092 0.13138983 0.029964626 1.7863994e-38
0.14092746 0.03935203 0.047522306 1.9150767e-38
0.14033151 0.041434072 0.044849753 1.887274e-38
0.1400598 0.043830521 0.042217016 1.8505752e-38
0.14266557 0.1286979 0.029133499 1.6757324e-38
0.14241433 0.13143975 0.031051755 1.7955493e-38
0.13674483 0.041732624 0.044254661 1.8596879e-38
0.13697228 0.043751284 0.041309834 1.8411038e-38
0.13873771 0.12840247 0.028801382 1.5654911e-38
0.13827744 0.13108414 0.030146062 1.5842163e-38
0.13301113 0.042507194 0.043529868 1.7860751e-38
0.13311324 0.04464706 0.041055083 1.7585249e-38
0.13515124 0.12813619 0.02789247 1.1325261e-38
0.13579279 0.13102037 0.029415965 1.2062463e-38
0.12922201 0.042876624 0.043391228 1.7123181e-38
0.12917972 0.045222037 0.041542232 1.638633e-38
0.12826404 0.047641173 0.040125549 1.6111883e-38
0.13028055 0.12089717 0.025364459 5.9819063e-39
0.13080791 0.12355364 0.02546525 5.614214e-39
0.13118544 0.12804922 0.027401149 6.6287247e-39
0.13026282 0.13111797 0.027041674 7.1779356e-39
0.12549353 0.045704745 0.041413903 1.5927865e-38
0.12545153 0.048310392 0.038459122 1.4820808e-38
0.12419674 0.051028423 0.036180854 1.3712667e-38
0.12764952 0.12135801 0.02661413 5.8036415e-39
0.12821564 0.1241693 0.0262748 6.5347368e-39
0.12831458 0.12764123 0.026312053 6.9024025e-39
0.12248585 0.046528764 0.040720284 1.6293774e-38
0.12170461 0.048901133 0.038999021 1.4635695e-38
0.12144881 0.052296646 0.037249565 1.3153053e-38
0.12115416 0.056505777 0.035341501 1.0673455e-38
0.12072614 0.059754394 0.035155952 9.2876409e-39
0.12117699 0.09303274 0.031921625 7.6363718e-39
0.12155208 0.096206702 0.029871047 9.2922932e-39
0.11810249 0.053216271 0.038202882 1.5187772e-38
0.11767015 0.056332193 0.03668654 1.3254874e-38
0.11716765 0.060184412 0.035251737 1.1780161e-38
0.11771131 0.063836418 0.032870889 1.0858914e-38
0.11720297 0.067326464 0.031146586 1.1226962e-38
0.11749363 0.073378809 0.030845284 8.6494503e-39
0.11870843 0.093606867 0.03108108 8.0015417e-39
0.11867136 0.095978789 0.029817283 9.1086082e-39
0.11830142 0.098437227 0.027438343 1.0396131e-38
0.11329597 0.057173066 0.035750151 1.5373997e-38
0.1131748 0.060198061 0.034763515 1.3626219e-38
0.11366275 0.064502798 0.033160031 1.2611697e-38
0.11408147 0.068826668 0.031708956 1.150642e-38
0.11390495 0.072762616 0.031650662 1.0308602e-38
0.11372957 0.076705508 0.031591535 9.3905943e-39
0.11391413 0.080739357 0.031340957 8.7463305e-39
0.11286026 0.083256789 0.031206787 8.5633868e-39
0.11451247 0.095788337 0.028760135 9.9355214e-39
0.11524582 0.098483659 0.025635362 1.0948231e-38
0.10930178 0.056942709 0.034372747 1.6661136e-38
0.10945091 0.060103111 0.033669233 1.482153e-38
0.10956353 0.064564146 0.03289634 1.3349281e-38
0.10981509 0.068966284 0.031822383 1.2611369e-38
0.10977271 0.072848894 0.031460822 1.2242569e-38
0.10982317 0.076693721 0.030898511 1.1414959e-38
0.10994449 0.080421753 0.030584276 1.0035264e-38
0.11099681 0.083208956 0.030659258 9.2987966e-39
0.10969353 0.093056776 0.028489769 1.1315575e-38
0.11053669 0.095694236 0.027087688 1.1130486e-38
0.11181241 0.098241918 0.023948133 1.1502145e-38
0.10620072 0.057160832 0.033937216 1.6196921e-38
0.10637137 0.059821464 0.033507109 1.5187068e-38
0.10680273 0.064613797 0.032769442 1.3624427e-38
0.10661295 0.069390185 0.031849146 1.2795036e-38
0.10701212 0.07290668 0.031332552 1.2334438e-38
0.10710874 0.076734163 0.030669332 1.1413908e-38
0.1055674 0.08944463 0.027911305 1.1596845e-38
0.10653308 0.091871627 0.027054608 1.1685448e-38
0.10700223 0.095503218 0.025596559 1.1777654e-38
0.10840812 0.097837664 0.023005128 1.1871616e-38
0.10214293 0.089037992 0.026962638 1.2424089e-38
0.10290381 0.091729559 0.025761604 1.2329739e-38
0.10333079 0.095383801 0.024404645 1.2607761e-38
0.1043863 0.097417586 0.021880686 1.288541e-38
0.099960834 0.088663243 0.026379049 1.2976182e-38
0.099037796 0.091703825 0.024965405 1.3621898e-38
0.099755794 0.095216282 0.023014903 1.3897768e-38
0.10191625 0.097354196 0.021154881 1.3990321e-38
0.095426649 0.092454799 0.024128437 1.4634262e-38
0.095846504 0.095216908 0.022318602 1.4725031e-38
0.096358687 0.097211577 0.019521892 1.5555492e-38
0.091525048 0.092834942 0.022753894 1.8228481e-38
0.092128456 0.095121495 0.021226108 1.8502522e-38
0.094506174 0.097164027 0.018977523 1.7213943e-38
0.087657124 0.092166238 0.021437943 2.052687e-38
0.088422149 0.094064407 0.018781066 2.0251375e-38
0.084287882 0.091621973 0.020258188 1.822591e-38
0.084098935 0.094271742 0.017453194 1.4446322e-38
0.082951158 0.097731657 0.016485095 9.5588958e-39
0.081240982 0.095119782 0.019271255 1.2326904e-38
0.080815077 0.098777093 0.017776847 1.0392234e-38
0.080045581 0.10205913 0.017483234 1.1589978e-38
0.077658117 0.10356078 0.01657486 1.2149298e-38
0.077286601 0.10632531 0.015358865 1.4540264e-38
0.1630089 0.089568712 0.022816122 1.3439324e-38
0.14275977 0.089914002 0.018450856 1.3717354e-38
0.14714879 0.073802404 0.025181234 1.6112626e-38
0.19051725 0.1381897 0.046925187 2.2955997e-38
0.18553154 0.02714134 0.065161586 6.5376179e-39
0.18758383 0.13773522 0.046081424 2.2581803e-38
0.18123493 0.025445886 0.065244794 5.9829923e-39
0.18057111 0.026937895 0.063982546 5.8872122e-39
0.18361595 0.13827351 0.04502666 2.2661779e-38
0.17702059 0.027217485 0.063313603 7.3626898e-39
0.17990151 0.13830999 0.043835759 2.2288308e-38
0.17937434 0.14108142 0.043782532 2.2753253e-38
0.17292398 0.02775801 0.062043607 9.0215049e-39
0.17631933 0.13900885 0.04218626 2.1547873e-38
0.17605227 0.1412096 0.042767704 2.210608e-38
0.16993576 0.02829475 0.060827613 9.9459583e-39
0.16860548 0.030756332 0.059455931 1.197138e-38
0.17320439 0.13892889 0.041270912 2.1270562e-38
0.17355666 0.14114556 0.042034388 2.2098894e-38
0.16611028 0.030564435 0.05874598 1.1969938e-38
0.16946647 0.13883296 0.040172577 1.9893385e-38
0.16221833 0.031082638 0.058020115 1.2428039e-38
0.16499424 0.13881376 0.039194286 1.9433831e-38
0.1663838 0.14003262 0.039035618 2.035219e-38
0.15849921 0.031840324 0.056773067 1.3900312e-38
0.16112101 0.1379568 0.038546145 1.9612826e-38
0.15522514 0.032462135 0.056212962 1.5378301e-38
0.15467709 0.033915453 0.054727435 1.6759062e-38
0.15702048 0.13712871 0.037560225 1.9244762e-38
0.15075809 0.034465827 0.053912163 1.8412473e-38
0.15405956 0.13627049 0.03630203 1.8693385e-38
0.1465795 0.035761975 0.053035736 1.9886178e-38
0.14611927 0.037723906 0.051484644 1.9884738e-38
0.14986391 0.13638788 0.03546983 1.8875629e-38
0.14238507 0.037635811 0.051092029 1.988689e-38
0.14507295 0.13437068 0.033698499 1.8509359e-38
0.1387434 0.039011434 0.04957968 1.9057143e-38
0.1411359 0.13377079 0.033161342 1.8326787e-38
0.13420659 0.039606474 0.048647642 1.8688722e-38
0.1339927 0.040737428 0.047320187 1.8689794e-38
0.13739476 0.1336748 0.032062054 1.4459583e-38
0.13126448 0.041178927 0.046426058 1.8043359e-38
0.13366488 0.13291937 0.031009793 9.2051366e-39
0.1273866 0.041563958 0.045804203 1.7952232e-38
0.13065383 0.13248178 0.030442238 8.931414e-39
0.1239228 0.042026915 0.044875801 1.7861805e-38
0.12330192 0.044725575 0.043408155 1.6756175e-38
0.12120172 0.04311461 0.044131696 1.758234e-38
0.12029281 0.045626946 0.043229699 1.6571073e-38
0.1192348 0.048031203 0.041596532 1.5645195e-38
0.11630753 0.046830885 0.041998982 1.6939512e-38
0.11659586 0.049311519 0.04104811 1.6385272e-38
0.11601987 0.052211203 0.039881229 1.6754783e-38
0.11646608 0.086322702 0.033847094 6.9985357e-39
0.11747396 0.089147188 0.034034491 6.7198105e-39
0.11766914 0.09269733 0.033583105 7.4512603e-39
0.11318806 0.046750821 0.041082323 1.7494111e-38
0.11262888 0.049297728 0.040454984 1.7677794e-38
0.11299762 0.053040043 0.039182365 1.7677805e-38
0.11319876 0.055548809 0.038435757 1.6292676e-38
0.11410159 0.085143127 0.03335464 7.7332618e-39
0.11363181 0.089022897 0.033571959 7.6385186e-39
0.11400005 0.092726238 0.032306314 8.5558254e-39
0.10907292 0.049572363 0.039343894 1.7862181e-38
0.10916615 0.052977704 0.038285375 1.7677079e-38
0.1094608 0.055452876 0.037337363 1.7122095e-38
0.1099759 0.085273005 0.032251 9.2040884e-39
0.1098884 0.088926829 0.032471955 9.6643155e-39
0.11050782 0.092229523 0.03115201 1.0489399e-38
0.10548618 0.05329866 0.037448406 1.71221e-38
0.10541949 0.055668853 0.036092103 1.6659335e-38
0.10462227 0.061083086 0.034875274 1.4819013e-38
0.10471922 0.064921834 0.034210145 1.3715188e-38
0.10481614 0.068760566 0.033545017 1.2978344e-38
0.10492921 0.073239096 0.032769084 1.2241874e-38
0.10502616 0.077077843 0.032103956 1.1596493e-38
0.10601762 0.081122242 0.031668723 1.0858548e-38
0.10618708 0.084920444 0.031738639 1.1137651e-38
0.10645407 0.088597842 0.031109333 1.1504631e-38
0.10787347 0.091217197 0.030397415 1.1687215e-38
0.1023491 0.053729542 0.036585391 1.6477087e-38
0.10182837 0.05661004 0.035320759 1.5829573e-38
0.10211417 0.060379349 0.034253895 1.481543e-38
0.10201469 0.064943261 0.033928573 1.3807381e-38
0.10234031 0.069336414 0.032701969 1.2977272e-38
0.10198706 0.073279865 0.031883597 1.2607421e-38
0.1023452 0.077097498 0.031770945 1.2149642e-38
0.10230121 0.081003197 0.031404674 1.214965e-38
0.10230452 0.084890313 0.030938148 1.2057103e-38
0.10245046 0.087789811 0.029398501 1.2148942e-38
0.098489374 0.057258934 0.034795225 1.5738091e-38
0.097946376 0.06044656 0.034056783 1.4908692e-38
0.097435743 0.064915635 0.033096254 1.3988543e-38
0.097548962 0.06940075 0.032319307 1.3252775e-38
0.097527146 0.072997689 0.031027079 1.3529015e-38
0.097743064 0.077089496 0.030987144 1.3256006e-38
0.09784016 0.080933861 0.030321002 1.3070178e-38
0.097937196 0.084778227 0.02965486 1.2885789e-38
0.097480386 0.088210292 0.027838945 1.3254913e-38
0.093100756 0.066085033 0.031591117 1.5276762e-38
0.09318164 0.069288678 0.031036019 1.4724656e-38
0.093375325 0.073092438 0.030170798 1.4357329e-38
0.093375772 0.076977409 0.029703796 1.3898151e-38
0.093472809 0.08082179 0.029037714 1.3436083e-38
0.093569905 0.084666155 0.028371632 1.2883988e-38
0.093811899 0.088442035 0.027408183 1.4266182e-38
0.093864292 0.091177352 0.026223183 1.5095577e-38
0.089357346 0.065988958 0.030491114 1.5647703e-38
0.08943823 0.069192596 0.029936016 1.5187093e-38
0.089535296 0.073036976 0.029269934 1.444954e-38
0.089632332 0.076881357 0.028603911 1.3988556e-38
0.09035334 0.080741726 0.028121114 1.3437532e-38
0.090231627 0.084153615 0.027467847 1.2977637e-38
0.090083569 0.088578649 0.026623666 1.4726812e-38
0.090372354 0.091443963 0.025309265 1.7490869e-38
0.08686173 0.065924905 0.029757798 1.5556211e-38
0.086942613 0.069128551 0.0292027 1.5187818e-38
0.087039679 0.072972924 0.028536618 1.4357693e-38
0.087120563 0.076176561 0.027981579 1.4083246e-38
0.087298512 0.083224587 0.026760399 1.3163121e-38
0.086196274 0.088959105 0.025394559 1.5738455e-38
0.087011397 0.091001473 0.024209559 1.89653e-38
0.082705677 0.088997595 0.024345756 1.4083614e-38
0.0829539 0.090577655 0.023075044 1.6665418e-38
0.079108387 0.092280991 0.022375882 1.4172572e-38
0.078591138 0.095324971 0.020914614 1.2969717e-38
0.078196138 0.099406816 0.020058692 1.1223388e-38
0.07826075 0.10196599 0.019615233 1.1777977e-38
0.076391816 0.09575095 0.021240175 1.3159087e-38
0.075458735 0.099699683 0.020115376 1.0859615e-38
0.074742347 0.10289376 0.018662095 1.1503214e-38
0.074342281 0.10714342 0.018215656 1.35315e-38
0.074252099 0.10978293 0.018064559 1.4179383e-38
0.072153896 0.1007647 0.019068718 1.1225913e-38
0.071646541 0.10328627 0.018343747 1.1410667e-38
0.072619528 0.10685963 0.018105805 1.288757e-38
0.069082946 0.10260681 0.017819107 1.1412102e-38
0.16544966 0.086294733 0.023483217 1.3072701e-38
0.18279639 0.08227513 0.026839435 1.4821178e-38
0.18017244 0.08245305 0.029978216 1.5743492e-38
0.14244306 0.073456116 0.029648125 1.4545667e-38
0.11934766 0.058246717 0.03748852 1.3069797e-38
0.18415596 0.023454316 0.068065464 7.7347037e-39
0.18631001 0.13983861 0.047136426 2.2674741e-38
0.18511569 0.1416676 0.048567653 2.2955633e-38
0.17973766 0.021643199 0.06919241 8.1002352e-39
0.17972788 0.024011806 0.067323923 6.7180238e-39
0.18443556 0.13979051 0.046585679 2.267473e-38
0.18262851 0.14237487 0.046486974 2.2769074e-38
0.18238625 0.14516211 0.046062052 2.322932e-38
0.17551263 0.021913894 0.068412006 6.996389e-39
0.17606649 0.024319462 0.066494942 6.6276303e-39
0.17951483 0.14285159 0.045269728 2.2669687e-38
0.17895848 0.14564672 0.045163155 2.3135679e-38
0.1717473 0.021817259 0.067305624 7.1807732e-39
0.17227456 0.024235025 0.065495968 7.4573881e-39
0.17408642 0.026664734 0.063949883 8.0062936e-39
0.17578533 0.14341602 0.043348253 2.2575332e-38
0.17644256 0.14471537 0.04330951 2.3037044e-38
0.16860951 0.021736734 0.0663836 7.7321267e-39
0.16865464 0.024311595 0.064475179 8.4700827e-39
0.1688574 0.027300037 0.062274218 9.3020294e-39
0.17146769 0.14237297 0.042853475 2.136959e-38
0.16524978 0.025045581 0.064429522 9.0240034e-39
0.16503927 0.027838014 0.062096655 1.0127837e-38
0.16800106 0.1421611 0.042075574 2.0811383e-38
0.16094664 0.028294988 0.062456787 1.1414969e-38
0.16043767 0.030161969 0.059243739 1.2888293e-38
0.16411388 0.14196002 0.041363597 1.9893374e-38
0.15813631 0.029196717 0.061908841 1.2891163e-38
0.15770948 0.030176841 0.059132934 1.3624791e-38
0.16006774 0.13916513 0.039425492 1.9799713e-38
0.16006534 0.14166847 0.041090548 1.9891945e-38
0.15356968 0.031718031 0.057971656 1.5744925e-38
0.15694365 0.13908496 0.038507521 1.9523514e-38
0.15572771 0.14145184 0.040629327 1.9707193e-38
0.15001863 0.031991221 0.057215452 1.8138403e-38
0.152583 0.13874674 0.038326323 1.8785589e-38
0.15280938 0.14112705 0.040081799 1.878523e-38
0.1458455 0.032036066 0.057197332 1.9703593e-38
0.1464081 0.034215592 0.054746985 1.9978758e-38
0.14854582 0.13887247 0.037945867 1.8692325e-38
0.14841649 0.14101431 0.038790941 1.7957287e-38
0.14333707 0.0319717 0.056460321 1.9888318e-38
0.1426053 0.035006322 0.05440712 2.0255312e-38
0.14063796 0.037348844 0.052034557 1.9887969e-38
0.14476089 0.13758582 0.036554515 1.8877423e-38
0.13870898 0.035829648 0.054275572 2.0255321e-38
0.1378344 0.037597522 0.051152825 1.9333733e-38
0.13935164 0.13478598 0.034033895 1.7963045e-38
0.14098755 0.13816014 0.036162853 1.8879586e-38
0.14025825 0.14080495 0.036393821 1.8696284e-38
0.13511199 0.036334589 0.053745985 1.9608881e-38
0.13405383 0.038294978 0.05141145 1.8873474e-38
0.13706923 0.13766894 0.034660816 1.3722016e-38
0.13197419 0.036254056 0.052823961 1.9519188e-38
0.12999502 0.038605995 0.050513506 1.9057494e-38
0.13185379 0.13459355 0.031830788 1.0119548e-38
0.13286918 0.13730672 0.033459008 9.8498026e-39
0.12623072 0.039160945 0.049348533 1.8874543e-38
0.12997937 0.13454545 0.031280041 1.0407238e-38
0.12963027 0.13610193 0.031953633 1.0776017e-38
0.12265852 0.039879367 0.049388051 1.9149312e-38
0.12199071 0.040717788 0.045859635 1.8689074e-38
0.11888865 0.042087354 0.045896709 1.8412469e-38
0.11835521 0.045113243 0.043979764 1.6846229e-38
0.11471599 0.042846538 0.046127796 1.8411037e-38
0.11572221 0.0450956 0.043550193 1.7123179e-38
0.11102059 0.042727046 0.044870019 1.8502519e-38
0.11193547 0.045223318 0.042043805 1.7860018e-38
0.10747048 0.042779543 0.043906748 1.7950783e-38
0.10809714 0.045592345 0.041537464 1.7767824e-38
0.10781434 0.048048981 0.040302813 1.7953671e-38
0.10384181 0.045883186 0.041891873 1.7397258e-38
0.10444227 0.049348988 0.039767444 1.7489095e-38
0.10416266 0.051802762 0.038534164 1.7122466e-38
0.10026172 0.047033347 0.041409612 1.721106e-38
0.10012481 0.049667835 0.040230453 1.7211778e-38
0.10050145 0.052617498 0.037647128 1.6659682e-38
0.09679237 0.050379314 0.039769173 1.7395121e-38
0.096699685 0.053128049 0.037596881 1.6750453e-38
0.096906453 0.056233548 0.035567284 1.6015041e-38
0.092535615 0.053395741 0.037688494 1.7395444e-38
0.092895061 0.056942463 0.036124885 1.6476376e-38
0.093573272 0.060585521 0.034256339 1.5555858e-38
0.09322378 0.063705809 0.033117115 1.5278197e-38
0.089788526 0.054493316 0.036934853 1.7395817e-38
0.088647276 0.057021357 0.036019504 1.6844102e-38
0.089067012 0.060799442 0.034096479 1.610725e-38
0.089474887 0.063609593 0.032015502 1.5923567e-38
0.088037878 0.080886491 0.028462887 1.3530078e-38
0.088573217 0.085602723 0.027770042 1.288614e-38
0.088199884 0.087303154 0.027351141 1.2696023e-38
0.08510372 0.057722218 0.03495276 1.6569317e-38
0.085208297 0.060543999 0.032826304 1.6385621e-38
0.084877163 0.064517595 0.030479014 1.5834591e-38
0.084622175 0.069256313 0.029546142 1.5003065e-38
0.08471939 0.073106311 0.028879046 1.4451678e-38
0.085088938 0.077146523 0.028258979 1.3990328e-38
0.085538596 0.080822356 0.027728558 1.3438605e-38
0.08548364 0.084828757 0.026987791 1.2701015e-38
0.085700601 0.087239005 0.026616752 1.232721e-38
0.081100374 0.058134727 0.03368324 1.6016477e-38
0.081555992 0.064869635 0.030483365 1.5649854e-38
0.082122892 0.069192164 0.028811812 1.4911581e-38
0.081952304 0.073035307 0.028066039 1.4265499e-38
0.082317322 0.076892175 0.027477622 1.3713395e-38
0.081961602 0.080934741 0.027699828 1.3070901e-38
0.082059592 0.084791653 0.02703172 1.2425901e-38
0.082576543 0.087158836 0.025698781 1.1596154e-38
0.078258544 0.061496802 0.032227159 1.5834244e-38
0.077908307 0.065340258 0.031109989 1.5188528e-38
0.078084916 0.069463171 0.029675841 1.4635352e-38
0.078139931 0.073274635 0.02873832 1.3989272e-38
0.078025967 0.07729011 0.028831542 1.3345339e-38
0.077920794 0.081239425 0.028556883 1.260959e-38
0.078018427 0.085106306 0.027886987 1.2331907e-38
0.078358322 0.088666536 0.025814712 1.3437532e-38
0.077675223 0.09088055 0.023562968 1.4820099e-38
0.074623376 0.066556014 0.030227423 1.4819366e-38
0.074073195 0.069363095 0.029423296 1.4635342e-38
0.074664503 0.073394619 0.028826773 1.3807032e-38
0.074546874 0.076773204 0.028357327 1.3253858e-38
0.07407847 0.085189201 0.026695848 1.3530083e-38
0.074047327 0.088717379 0.025307238 1.4728971e-38
0.074480116 0.092129774 0.02261883 1.4911926e-38
0.07405594 0.095917664 0.021571934 1.3347427e-38
0.073495895 0.098468311 0.020943642 1.1507868e-38
0.071336091 0.068833217 0.028834462 1.4176159e-38
0.071515083 0.075922512 0.027606189 1.3898536e-38
0.07064116 0.081052579 0.026417851 1.3715203e-38
0.070333987 0.084995575 0.025401533 1.4175448e-38
0.069906563 0.088482492 0.024113774 1.4636431e-38
0.070416987 0.092172451 0.022104442 1.3805932e-38
0.070827246 0.095884778 0.020849586 1.2426226e-38
0.070841253 0.099316262 0.019998014 1.1319906e-38
0.070292115 0.10771828 0.018738687 1.3346748e-38
0.071929246 0.11061188 0.018280506 1.3807729e-38
0.067187279 0.0783877 0.025868773 1.3254931e-38
0.066624761 0.080949523 0.025237799 1.28883e-38
0.066620559 0.084626324 0.024439216 1.3162374e-38
0.06642884 0.088565536 0.023272693 1.2887232e-38
0.066684514 0.092359655 0.022309899 1.2334784e-38
0.066623956 0.09629368 0.021933675 1.1598641e-38
0.066906124 0.10000313 0.019890785 1.0953989e-38
0.06675303 0.10374502 0.018582404 1.1689755e-38
0.067232847 0.10773259 0.019341111 1.2888656e-38
0.067373306 0.11059564 0.020101011 1.3718051e-38
0.064130872 0.081529565 0.024388433 1.2242213e-38
0.0636172 0.086024828 0.023422301 1.2518801e-38
0.063682258 0.088602759 0.022975683 1.2056758e-38
0.063313335 0.092618681 0.02213943 1.0951857e-38
0.063402832 0.09616334 0.021525323 1.1043671e-38
0.063052565 0.099962287 0.020582676 1.0493689e-38
0.062680542 0.10378285 0.019629478 1.2058522e-38
0.064137906 0.10664824 0.019849062 1.2242574e-38
0.16722551 0.090882249 0.024048507 1.3625875e-38
0.16528633 0.081662081 0.025390387 1.4177967e-38
0.1587666 0.066421598 0.026769936 1.4360563e-38
0.17333977 0.098702975 0.024577141 1.325924e-38
0.16779853 0.10408149 0.024363101 1.3902823e-38
0.1307449 0.054502033 0.036271632 1.5557283e-38
0.17951483 0.14285159 0.045269728 2.2669687e-38
0.18455769 0.14345533 0.05231446 2.3141822e-38
0.18268403 0.14405319 0.051647067 2.2957436e-38
0.16610494 0.023192704 0.067491055 8.193493e-39
0.16383332 0.021600962 0.068866074 7.9183635e-39
0.16296807 0.02405116 0.06710577 8.8388778e-39
0.16603529 0.14650762 0.047293186 2.1642585e-38
0.15957701 0.025282755 0.066859424 9.9434261e-39
0.15927964 0.026893176 0.064784765 1.0954712e-38
0.16251948 0.14595753 0.045460582 2.026037e-38
0.16357593 0.14903575 0.046101987 2.2107936e-38
0.15582314 0.028219394 0.064572573 1.3167038e-38
0.1586853 0.14612389 0.044462621 2.0537676e-38
0.15188472 0.028827496 0.063816547 1.5004852e-38
0.15222359 0.030672602 0.062701583 1.5467263e-38
0.15592328 0.14307594 0.042777061 1.9983431e-38
0.15504131 0.14588034 0.043463171 2.0446556e-38
0.1481002 0.028730363 0.062704504 1.5929309e-38
0.14867803 0.030496731 0.060968935 1.7770697e-38
0.15110719 0.14270198 0.041671991 1.9064692e-38
0.15120628 0.14563158 0.042571545 2.0632382e-38
0.15221415 0.14874417 0.042763472 1.9245512e-38
0.14453524 0.028780989 0.061737299 1.565559e-38
0.14466244 0.030478559 0.06047982 1.8505747e-38
0.14751586 0.14251775 0.041004241 1.8509729e-38
0.14739007 0.14505738 0.041990161 2.0081018e-38
0.14162818 0.029274806 0.061203957 1.6483939e-38
0.14064538 0.031689189 0.059238434 1.9613532e-38
0.13996458 0.034148738 0.057707846 2.0438628e-38
0.14401907 0.14193067 0.039733708 1.8970682e-38
0.14351174 0.14576656 0.040115893 2.0540531e-38
0.14349756 0.14842117 0.039867163 1.6090366e-38
0.13684475 0.032325573 0.058694959 2.0164197e-38
0.13695565 0.034460962 0.057282925 2.0348603e-38
0.14049521 0.14235705 0.038302124 1.906398e-38
0.13992992 0.14551097 0.03850466 1.9804412e-38
0.13964763 0.14844716 0.03800714 1.6106569e-38
0.13319686 0.032621399 0.058082342 2.0163101e-38
0.13330007 0.034976728 0.056174278 1.9885102e-38
0.13627234 0.14202252 0.037455142 1.3352162e-38
0.13594249 0.1455723 0.037891805 1.399717e-38
0.1359418 0.14887473 0.037529886 1.2154054e-38
0.12910214 0.03284023 0.056820571 1.9793257e-38
0.13221505 0.14151818 0.036644399 1.0129992e-38
0.13191721 0.14433637 0.037502229 1.2798256e-38
0.13331059 0.14955464 0.036974609 6.7266993e-39
0.12657735 0.032775424 0.056078672 1.9978385e-38
0.12563676 0.035251833 0.054644048 1.9700718e-38
0.12558672 0.037655376 0.052782357 1.8781637e-38
0.12876189 0.13850325 0.035496771 1.3074787e-38
0.12896723 0.14129525 0.036747873 1.2986938e-38
0.12180477 0.035823666 0.05357343 1.9609594e-38
0.12212259 0.038110949 0.051877856 1.9334432e-38
0.11783856 0.03643804 0.052808166 1.9792562e-38
0.11834362 0.038885586 0.051339567 1.9516317e-38
0.11710486 0.041457526 0.050622523 1.8779824e-38
0.11437881 0.039066873 0.051035345 1.9238662e-38
0.11395338 0.041376643 0.049696386 1.8962767e-38
0.11034587 0.039484821 0.050020874 1.9423048e-38
0.11080188 0.041295774 0.048770428 1.9054929e-38
0.10227695 0.04249502 0.045744359 1.7581655e-38
0.10123655 0.044781722 0.044225991 1.7303633e-38
0.098392636 0.042169757 0.045120299 1.7581653e-38
0.098501533 0.04565572 0.04340291 1.7027775e-38
0.0975582 0.048562951 0.042444408 1.7580927e-38
0.094451696 0.042601883 0.044107974 1.8041191e-38
0.09473601 0.045990422 0.042655528 1.8133026e-38
0.094642788 0.049349405 0.041432083 1.7581283e-38
0.090892941 0.043520272 0.043484986 1.8319201e-38
0.090811133 0.045940258 0.041846156 1.8134817e-38
0.091151267 0.04974243 0.040671885 1.7582351e-38
0.090103507 0.052247263 0.039553165 1.7395098e-38
0.08698824 0.046727262 0.041316032 1.7119959e-38
0.087078989 0.049742796 0.040162444 1.7396905e-38
0.087401778 0.053328469 0.038683832 1.7303277e-38
0.084047824 0.04723148 0.040770888 1.6752251e-38
0.083179832 0.049902953 0.039631605 1.7213961e-38
0.083643615 0.053445153 0.037879169 1.7213245e-38
0.083601058 0.056278989 0.036883354 1.6661877e-38
0.080342412 0.050375447 0.039096415 1.7305443e-38
0.079674006 0.053575076 0.037126958 1.675227e-38
0.080147594 0.056513347 0.035810292 1.6199803e-38
0.075828612 0.054429181 0.036751449 1.573991e-38
0.07608223 0.057166912 0.03518486 1.5648059e-38
0.07605508 0.060499258 0.033868134 1.5741666e-38
0.075308383 0.064140402 0.03298682 1.5372864e-38
0.072755724 0.057587989 0.035263181 1.5093802e-38
0.072297454 0.060987644 0.033599615 1.5184181e-38
0.072479427 0.064877056 0.032127082 1.5002301e-38
0.07171157 0.071153417 0.03064537 1.426801e-38
0.071776867 0.073738851 0.030197382 1.3899229e-38
0.072520465 0.078279503 0.029598415 1.334639e-38
0.073231429 0.081527449 0.029223442 1.307055e-38
0.073942453 0.084775381 0.02884835 1.3160949e-38
0.068453193 0.062010854 0.033179224 1.4448769e-38
0.068617433 0.06542556 0.031728327 1.4635324e-38
0.068605065 0.070046656 0.030372202 1.3898506e-38
0.069259316 0.073674247 0.029457688 1.4173652e-38
0.069203973 0.077709936 0.028711498 1.389887e-38
0.069140464 0.081422456 0.028021336 1.3898517e-38
0.069413513 0.11565834 0.023236811 1.316089e-38
0.06461224 0.066944472 0.031405628 1.4725738e-38
0.064700872 0.069951765 0.030299902 1.4450242e-38
0.065062106 0.073737808 0.02913481 1.4634263e-38
0.065323919 0.077107869 0.027813554 1.3529017e-38
0.066242576 0.11312462 0.021954238 1.33482e-38
0.065922171 0.11628773 0.022572815 1.2611341e-38
0.061725289 0.070256487 0.029680252 1.4357337e-38
0.061121374 0.073700793 0.028318346 1.3989612e-38
0.061645061 0.077420034 0.026860774 1.2701378e-38
0.061538219 0.081042804 0.025820851 1.1783027e-38
0.061811298 0.084740885 0.025233746 1.233405e-38
0.060839623 0.088960685 0.02418071 1.2148221e-38
0.06090489 0.091546111 0.023732781 1.1410649e-38
0.061068088 0.098009683 0.02261287 1.113545e-38
0.062417418 0.10874844 0.021074116 1.2611357e-38
0.062379807 0.11213434 0.021509886 1.2703571e-38
0.063059092 0.11536106 0.022188306 1.2795021e-38
0.057635188 0.074096568 0.027500391 1.3805936e-38
0.057704985 0.077385716 0.026043952 1.3436426e-38
0.057695061 0.08131022 0.025566816 1.1229506e-38
0.057900816 0.085149087 0.024698853 1.1503926e-38
0.05826813 0.088918425 0.023538589 1.251628e-38
0.05836609 0.0927976 0.022866488 1.2513737e-38
0.05846402 0.096676372 0.022194386 1.2516968e-38
0.058508039 0.10057957 0.021619499 1.1780115e-38
0.058575183 0.10447282 0.021003008 1.2610628e-38
0.059039176 0.10849593 0.020994067 1.3347846e-38
0.059173673 0.11137448 0.021749318 1.4631746e-38
0.054535329 0.07756912 0.02647692 1.3900634e-38
0.054633528 0.081458516 0.02580303 1.1411384e-38
0.054731727 0.085347928 0.025129199 1.0757033e-38
0.054605395 0.089051716 0.023539186 9.4731223e-39
0.054621994 0.092971809 0.023011982 9.2865731e-39
0.054946065 0.096577294 0.022633195 1.011703e-38
0.054922491 0.10051882 0.022178352 9.6567765e-39
0.055676758 0.10327489 0.021110892 1.0115606e-38
0.1675669 0.073281042 0.026692748 1.4545662e-38
0.16849029 0.086818494 0.024395823 1.3256726e-38
0.17365119 0.094486333 0.026373863 1.4546746e-38
0.17673078 0.060550846 0.030898392 1.8689797e-38
0.1404117 0.070881464 0.031491637 1.4453465e-38
0.11766934 0.04673636 0.047021985 1.2610642e-38
0.096635461 0.061726436 0.036729217 1.5831741e-38
0.17109489 0.14846578 0.052685916 2.3035944e-38
0.16898391 0.14801806 0.050724506 2.2752871e-38
0.16847491 0.15149349 0.051356554 2.2480247e-38
0.16541538 0.14837945 0.048888028 2.2196142e-38
0.16515522 0.15127113 0.049346745 2.3134633e-38
0.16395266 0.15384299 0.048522711 2.341769e-38
0.15807283 0.02380468 0.069484353 9.2080247e-39
0.16098413 0.14826572 0.047585905 2.0719225e-38
0.16119605 0.15133262 0.048153877 2.3043158e-38
0.16097637 0.15447 0.048156559 2.2774826e-38
0.15424412 0.02480837 0.069307566 1.1784476e-38
0.15349987 0.027231604 0.067235053 1.3535819e-38
0.15747207 0.15114099 0.047312319 2.1193857e-38
0.15824711 0.15369654 0.046846211 2.1571949e-38
0.15039757 0.025380768 0.068232477 1.3076291e-38
0.15096772 0.02716662 0.066491008 1.4271952e-38
0.15275463 0.14805451 0.045167804 2.1736203e-38
0.15374312 0.15097907 0.045993209 1.9163395e-38
0.14653203 0.025301538 0.067269564 1.2892277e-38
0.1471695 0.027069144 0.06537497 1.4455628e-38
0.14958946 0.14797327 0.044237733 2.2478428e-38
0.14957801 0.15087184 0.044769347 1.6210652e-38
0.14293128 0.025574833 0.066498399 1.2891548e-38
0.14288345 0.027344823 0.064575374 1.3812079e-38
0.14601608 0.14748025 0.043683887 2.1557201e-38
0.146018 0.15087971 0.044058442 1.399583e-38
0.13907385 0.028779738 0.063496649 1.5102441e-38
0.13840547 0.030742347 0.062094986 1.9150403e-38
0.13522485 0.029570416 0.063122809 1.7220079e-38
0.13562673 0.030755907 0.061969221 1.9241892e-38
