# .PCD v0.7 - Point Cloud Data file format
VERSION 0.7
FIELDS x y z rgb
SIZE 4 4 4 4
TYPE F F F F
COUNT 1 1 1 1
WIDTH 982
HEIGHT 1
VIEWPOINT 0 0 0 0 1 0 0
POINTS 982
DATA ascii
0.040465415 0.095191538 0.018430591 1.3347844e-38
0.039742552 0.1051954 0.019869387 9.8462237e-39
0.040062025 0.10835992 0.02028054 1.1137672e-38
0.040580779 0.11210538 0.021520793 1.1776582e-38
0.041551545 0.11561032 0.021666348 1.0018352e-38
0.036028259 0.092267454 0.020158112 1.3166677e-38
0.035594046 0.09598583 0.019954562 1.1784105e-38
0.035467044 0.10103575 0.020611167 9.0196706e-39
0.035979263 0.10432506 0.021214366 8.0066004e-39
0.036928512 0.10828437 0.021771848 8.8345941e-39
0.032401063 0.092740372 0.021390796 1.1783754e-38
0.032630853 0.096333891 0.021614313 1.0585564e-38
0.032714136 0.10047517 0.02224791 8.9281728e-39
0.032728739 0.1032491 0.022733748 8.2827795e-39
0.026996724 0.085002139 0.02217412 1.4638578e-38
0.02755864 0.08804749 0.022383153 1.4269808e-38
0.028239213 0.092447728 0.022723496 1.2061059e-38
0.02828379 0.096431561 0.023199201 9.575724e-39
0.028527111 0.10004175 0.023570716 8.191705e-39
0.028899256 0.10318281 0.023847044 8.0987666e-39
0.024000887 0.080330849 0.022478461 1.2426611e-38
0.024266157 0.084468782 0.022777021 1.3164895e-38
0.024482407 0.088273078 0.023078442 1.3165947e-38
0.024540786 0.092239127 0.023431301 1.1785168e-38
0.024590142 0.096209735 0.023670733 9.6664721e-39
0.024656642 0.10016787 0.024136722 7.2722514e-39
0.024756253 0.10344104 0.025092065 8.0084067e-39
0.020547301 0.080930978 0.023563445 1.0310426e-38
0.020578634 0.084254682 0.023612082 1.1044744e-38
0.020603295 0.088084847 0.023506463 1.1229124e-38
0.020685814 0.093531162 0.024019122 9.7565041e-39
0.020568274 0.096000269 0.024356425 8.7420075e-39
0.020838007 0.10009643 0.02536273 7.7292933e-39
0.021565013 0.1033858 0.026019692 8.2839188e-39
0.016717806 0.080864683 0.02467674 8.2835517e-39
0.016728364 0.084212221 0.024384558 8.8378072e-39
0.016772658 0.088191643 0.024510026 9.5732297e-39
0.016429499 0.093018159 0.025202572 8.9285441e-39
0.016906388 0.096101619 0.02544117 8.6501776e-39
0.017011154 0.10003018 0.026475251 8.1895526e-39
0.016447879 0.10263729 0.027426362 8.3732151e-39
0.013213027 0.081133969 0.025735974 6.5339997e-39
0.01309846 0.084275439 0.026023626 7.0875294e-39
0.013617221 0.088103548 0.025948048 8.0091368e-39
0.013049673 0.092046797 0.026656032 7.9165474e-39
0.013123561 0.095999077 0.027235806 8.2839174e-39
0.013204809 0.099947229 0.027929485 8.6494699e-39
0.013256639 0.10258204 0.028354049 8.5583519e-39
0.010525063 0.091976069 0.027853012 7.0867713e-39
0.01061435 0.097256958 0.028474689 7.7325051e-39
0.010636665 0.098577186 0.028630018 7.9154712e-39
0.094441943 0.096445903 0.0090733767 1.8502882e-38
0.094475664 0.098440424 0.0093081594 1.7401932e-38
0.095127635 0.1370011 0.013847172 2.2668231e-38
0.095547535 0.13992736 0.013243794 2.2578557e-38
0.09609241 0.14348216 0.012785912 2.2488545e-38
0.096137322 0.14746027 0.013129532 2.2670043e-38
0.095601194 0.15128914 0.014936507 2.2001997e-38
0.091326274 0.09177497 0.0088133812 1.9705364e-38
0.091628492 0.095809132 0.0084202886 1.8229884e-38
0.091915622 0.099060751 0.010133922 1.6753692e-38
0.090731166 0.10502204 0.011212051 1.5004136e-38
0.090753637 0.10635173 0.011368513 1.4820103e-38
0.091135837 0.12895626 0.014029264 2.2384829e-38
0.091561019 0.13189241 0.013425589 2.2666429e-38
0.092049047 0.13578463 0.012632191 2.2953094e-38
0.092514209 0.13941264 0.012210369 2.2861276e-38
0.093171552 0.14384657 0.012112081 2.2679046e-38
0.093501456 0.14822021 0.012551963 2.2852614e-38
0.093100265 0.15187658 0.01416713 1.7946138e-38
0.092144325 0.15507099 0.015188634 8.1798738e-39
0.087335482 0.088170826 0.0094399452 1.9244057e-38
0.087635852 0.091787353 0.0086298585 1.8506833e-38
0.087646693 0.095785111 0.0087672472 1.6480706e-38
0.087696023 0.099551842 0.010118425 1.491302e-38
0.087988533 0.10368584 0.010918558 1.4820102e-38
0.087957352 0.1074876 0.011802077 1.4175457e-38
0.087836258 0.11117528 0.012814522 1.3344602e-38
0.087211475 0.12490046 0.014680982 2.2090307e-38
0.088488542 0.12838279 0.014314592 2.230234e-38
0.088195391 0.13157895 0.01264745 2.2770156e-38
0.088785864 0.1342406 0.012218058 2.3325847e-38
0.088474125 0.15364824 0.014689982 6.352163e-39
0.08994481 0.15480343 0.01545018 7.9172887e-39
0.083306879 0.084166639 0.0094290376 1.9609238e-38
0.083721407 0.087741807 0.0092799067 1.9333016e-38
0.083643332 0.091774136 0.0088647604 1.749306e-38
0.0835656 0.096018746 0.0092682242 1.6477109e-38
0.084029436 0.099864587 0.010312378 1.5464754e-38
0.083953805 0.10366763 0.010932207 1.4544951e-38
0.084094137 0.10762946 0.011843383 1.3349278e-38
0.084271245 0.11158797 0.012976468 1.4540246e-38
0.083197199 0.11552593 0.014706612 2.1732623e-38
0.083977476 0.11974651 0.013646901 2.2939078e-38
0.085014172 0.1235588 0.013586104 2.2759336e-38
0.08558403 0.12755841 0.013035417 2.2769762e-38
0.085518338 0.13021317 0.012680948 2.2957078e-38
0.08592128 0.15404525 0.01548624 6.7259692e-39
0.085943654 0.15536925 0.015642107 8.2900355e-39
0.079924643 0.08029528 0.010644019 2.0624056e-38
0.079771601 0.083712615 0.0097091794 2.1180517e-38
0.079699054 0.08774884 0.0092927814 1.9706808e-38
0.079748541 0.091728397 0.0096498728 1.7952241e-38
0.081107028 0.096384577 0.0098232627 1.6290934e-38
0.080068059 0.1011647 0.010713816 1.5098133e-38
0.079961203 0.10430644 0.011130452 1.4729335e-38
0.080175139 0.10757874 0.012518406 1.4914468e-38
0.080242388 0.11155643 0.01298666 1.6940261e-38
0.080274917 0.11553977 0.013232589 2.2380162e-38
0.081487596 0.11889265 0.01247263 2.3406162e-38
0.076060764 0.079563737 0.011685789 2.1826245e-38
0.075393461 0.08379066 0.010523856 2.062413e-38
0.075200833 0.08767882 0.010484874 1.9426994e-38
0.076327339 0.091227956 0.010590374 1.9151461e-38
0.076933138 0.10182738 0.011713147 1.6481058e-38
0.076379016 0.10437678 0.012188137 1.6387418e-38
0.075575069 0.10752975 0.01307261 1.6754771e-38
0.075667843 0.11149751 0.013707042 1.7674928e-38
0.076614283 0.11450652 0.013361752 1.9332304e-38
0.072358854 0.079672322 0.012695789 2.1359522e-38
0.071627095 0.083424278 0.011459291 1.9421251e-38
0.071349211 0.086950324 0.011523485 1.8321373e-38
0.072403423 0.11145549 0.014220655 1.7309401e-38
0.067760371 0.076709293 0.014465749 2.1084731e-38
0.067955352 0.079639085 0.012984455 1.9516681e-38
0.068105087 0.083244681 0.01214999 1.8687992e-38
0.069428973 0.08691708 0.012081683 1.8043687e-38
0.064152539 0.076356471 0.014954388 2.1081508e-38
0.064090304 0.079338536 0.013240039 1.8411047e-38
0.063589938 0.082183339 0.013210893 1.62005e-38
0.06052269 0.075348794 0.015252531 1.8690162e-38
0.060416713 0.079436004 0.014386058 1.6385976e-38
0.059890933 0.082913473 0.014383614 1.3438605e-38
0.05590044 0.072073005 0.017370105 1.6665455e-38
0.056617066 0.075319737 0.015926421 1.5834254e-38
0.056628704 0.079335444 0.015949309 1.4911922e-38
0.056585126 0.083377197 0.015525281 1.3897059e-38
0.056449391 0.086976007 0.015889943 1.2609919e-38
0.055425659 0.091307312 0.016720831 1.2143503e-38
0.057321437 0.1353979 0.022023678 1.1504641e-38
0.052896872 0.071799457 0.018216133 1.5743141e-38
0.052821063 0.075215466 0.017491519 1.5558381e-38
0.052782781 0.079268858 0.017067373 1.602079e-38
0.05285003 0.083246544 0.017535627 1.6480681e-38
0.052917279 0.08722423 0.018003821 1.6111173e-38
0.052891627 0.091249421 0.01768899 1.5652305e-38
0.052064158 0.09433756 0.018076956 1.5650161e-38
0.053208172 0.13116497 0.022559047 1.0494429e-38
0.054038286 0.13416581 0.024062991 1.0493726e-38
0.048722602 0.071545281 0.018208265 1.5001996e-38
0.048869573 0.075224586 0.017717183 1.5560179e-38
0.048936829 0.079202272 0.018185437 1.7218966e-38
0.048991665 0.083187819 0.018541694 1.7954026e-38
0.049034066 0.087179944 0.018785715 1.7862185e-38
0.04902491 0.091196507 0.018581688 1.6941682e-38
0.049709767 0.093855597 0.018707275 1.7218612e-38
0.048371568 0.12824647 0.023317635 1.114018e-38
0.050025687 0.13074847 0.024713933 1.0861443e-38
0.051371001 0.13358501 0.02624166 1.0954726e-38
0.043841198 0.068319462 0.020441055 1.4454908e-38
0.045028172 0.071119301 0.019038081 1.4176174e-38
0.045023628 0.075158 0.018835306 1.4545306e-38
0.045090891 0.079135694 0.019303501 1.6295941e-38
0.045098327 0.083153099 0.019211113 1.7217529e-38
0.045117296 0.087158009 0.019230545 1.7399763e-38
0.045427039 0.090340048 0.019530177 1.6661144e-38
0.045104019 0.12421905 0.023780465 1.3163791e-38
0.045836724 0.12687382 0.024357796 1.1231305e-38
0.04643257 0.12984811 0.026704848 1.0309353e-38
0.039984293 0.068252698 0.021562278 1.3259976e-38
0.041201301 0.07103315 0.020381212 1.4268723e-38
0.04117769 0.075091422 0.01995337 1.4821177e-38
0.040978678 0.079072513 0.020395041 1.6018648e-38
0.040603496 0.083083861 0.020402491 1.721753e-38
0.040636756 0.087080449 0.020533025 1.6941288e-38
0.040681548 0.089728445 0.020844877 1.592715e-38
0.039141886 0.11220329 0.024052501 1.2058192e-38
0.039852098 0.114856 0.024432182 1.2052439e-38
0.041681975 0.11862522 0.024970829 9.5613999e-39
0.042590626 0.12284039 0.025046885 1.3164559e-38
0.043165036 0.12647116 0.027247429 1.3165596e-38
0.036770187 0.068197057 0.0224967 1.3998955e-38
0.037328951 0.070986025 0.021276176 1.4915506e-38
0.037331767 0.075024836 0.021071434 1.5100287e-38
0.037214749 0.079019383 0.021333337 1.6205912e-38
0.036745004 0.083029486 0.021350741 1.6943101e-38
0.036796309 0.087013945 0.021649599 1.5286818e-38
0.036841087 0.089661963 0.021961272 1.3993578e-38
0.037210457 0.11150803 0.024532855 1.058667e-38
0.037585847 0.11500101 0.02530098 1.2240435e-38
0.038244851 0.11740629 0.028100967 1.233119e-38
0.032270469 0.068119153 0.023804843 1.3079533e-38
0.033439226 0.070960186 0.021945894 1.4086131e-38
0.033475645 0.074967422 0.022076964 1.4637525e-38
0.033471979 0.079005569 0.021757424 1.6666537e-38
0.033528768 0.082986534 0.022112429 1.7125699e-38
0.03359592 0.086958542 0.022580028 1.5376148e-38
0.033326276 0.08993201 0.023023725 1.2982317e-38
0.032606795 0.10414845 0.02497822 8.4664561e-39
0.033931725 0.10681862 0.024917722 8.8338374e-39
0.034029238 0.11077999 0.025724828 8.6498469e-39
0.034198992 0.11472376 0.027324617 1.2519893e-38
0.029591255 0.070893571 0.023064494 1.2886868e-38
0.029611658 0.074919388 0.022969484 1.4179019e-38
0.029621173 0.078948028 0.022761345 1.6387806e-38
0.029688329 0.082920045 0.023228884 1.5557312e-38
0.030118056 0.086709246 0.023567975 1.4545684e-38
0.030065253 0.090074107 0.023996115 1.2980167e-38
0.030226622 0.095834628 0.024655342 1.0217868e-38
0.03040605 0.10013949 0.025130928 8.5601231e-39
0.030046493 0.10410412 0.025722444 8.3735487e-39
0.030100696 0.10674801 0.026147425 9.2022527e-39
0.030245166 0.11069088 0.027521551 9.5682145e-39
0.030612651 0.11425294 0.029349625 1.242878e-38
0.025771268 0.071066037 0.024495721 1.2243659e-38
0.025736451 0.075053453 0.023683548 1.3627287e-38
0.02619997 0.078447595 0.023701787 1.408794e-38
0.026476748 0.082202636 0.024081409 1.4362347e-38
0.027486194 0.10405979 0.026466846 8.4657695e-39
0.026277866 0.10667326 0.027490973 1.0402961e-38
0.02661762 0.11043726 0.029339492 1.1228816e-38
0.022155229 0.071059734 0.026228309 9.5699913e-39
0.021898061 0.07481423 0.024865627 9.7565111e-39
0.021670785 0.078016222 0.02497524 9.8490739e-39
0.022443786 0.1066024 0.028721571 1.1602215e-38
0.022887107 0.10972572 0.030816793 1.362441e-38
0.018184654 0.071198516 0.028307319 6.7155309e-39
0.018086236 0.074710518 0.026435494 7.7282381e-39
0.018088605 0.07808657 0.026032805 8.2824825e-39
0.018772215 0.10337949 0.028935134 8.1895624e-39
0.018662874 0.10650141 0.030749023 1.2617453e-38
0.014307063 0.071161248 0.029088616 7.7267569e-39
0.01425612 0.074625351 0.027779818 7.452691e-39
0.014070082 0.078300625 0.027235925 6.9924359e-39
0.014359042 0.10350163 0.030242443 8.55764e-39
0.014771719 0.10512097 0.031369448 1.0588074e-38
0.011700261 0.067763038 0.029784799 1.4084304e-38
0.01061634 0.070833832 0.029879451 1.2332931e-38
0.010403488 0.074567981 0.028784394 8.923847e-39
0.010418892 0.078615598 0.028343737 5.9765127e-39
0.010120329 0.082581274 0.028917611 4.8727071e-39
0.010410227 0.08670564 0.029600859 6.2563282e-39
0.010189909 0.090303585 0.029844403 6.6258044e-39
0.0098452903 0.095150888 0.03053993 7.2729548e-39
0.010013472 0.10005118 0.03109175 7.8218575e-39
0.010602534 0.10322037 0.031727672 8.6516279e-39
0.010750111 0.10553151 0.033856452 9.3002231e-39
0.0067797899 0.07457532 0.031012177 1.3161278e-38
0.0066127405 0.078495651 0.030142963 8.0944675e-39
0.0066920444 0.082456574 0.030838788 5.1485401e-39
0.0067774132 0.086410165 0.031648457 5.1524834e-39
0.0068210065 0.090416551 0.031660914 5.7038649e-39
0.0068757385 0.095080003 0.03175056 6.3488517e-39
0.0069608167 0.099038206 0.032560945 6.5339899e-39
0.007035017 0.102336 0.033293426 6.8105922e-39
0.0028079599 0.079729199 0.031758249 1.2061755e-38
0.0029000044 0.082308769 0.03309679 1.0675209e-38
0.0031991974 0.086225919 0.034538925 7.7256765e-39
0.0034656003 0.090503082 0.033936322 5.3368718e-39
0.0030963495 0.094262861 0.034389138 4.9680879e-39
0.0031534359 0.098258615 0.034629345 4.2330494e-39
0.0036564097 0.10178832 0.03526473 4.0490351e-39
0.00046674907 0.087507904 0.035496294 4.8895872e-39
0 0.094502538 0.034812331 2.2076532e-39
0.00011561066 0.097356021 0.034708858 2.393827e-39
0.13904533 0.12464753 0.0047171712 1.9616425e-38
0.13923821 0.12839936 0.0051209331 1.9706837e-38
0.13917211 0.1321467 0.0055998564 1.8604069e-38
0.13948727 0.14312986 0.0068547726 1.8694122e-38
0.13487163 0.11717665 0.0046731234 1.6576454e-38
0.13558951 0.12048255 0.0046935678 1.4821921e-38
0.13572451 0.12433787 0.0047190189 1.4272354e-38
0.13579234 0.12835044 0.0051913261 1.6300268e-38
0.13591287 0.13236232 0.0058811307 1.7037846e-38
0.13566703 0.13637033 0.0066946745 1.7311552e-38
0.13543269 0.14064993 0.0077379346 1.7589206e-38
0.13627297 0.14441296 0.0079535246 1.7863274e-38
0.13617623 0.14826018 0.0084537268 1.8047672e-38
0.13573876 0.15109743 0.0089298487 1.8417179e-38
0.13186783 0.11354558 0.0054572225 1.8416798e-38
0.13155398 0.11640926 0.0049822927 1.7586673e-38
0.13159963 0.12027369 0.004612267 1.5378302e-38
0.13151428 0.12429082 0.0044305325 1.2243988e-38
0.13147905 0.12829858 0.004466176 1.031363e-38
0.13154674 0.13230065 0.0049372911 1.298737e-38
0.13171741 0.13630334 0.005844593 1.5747834e-38
0.13206568 0.14031903 0.0075175762 1.675945e-38
0.13218421 0.14433275 0.0082082152 1.648285e-38
0.13227785 0.14834715 0.008789897 1.6757299e-38
0.13197073 0.15191434 0.0096087456 1.7401942e-38
0.13127497 0.15503639 0.010720074 1.7403737e-38
0.12798351 0.11347833 0.0065864921 1.6576826e-38
0.12787944 0.11617278 0.0062479377 1.6297718e-38
0.12742445 0.12023264 0.0044309497 1.5467961e-38
0.1274921 0.12423303 0.004901886 1.307448e-38
0.12746045 0.12823664 0.0049359798 1.0397956e-38
0.1274533 0.13223596 0.0050789118 9.7601251e-39
0.12764534 0.1362339 0.0060958862 1.2247259e-38
0.12786329 0.14023893 0.0072228312 1.4643269e-38
0.12798128 0.14424464 0.0079128146 1.5193923e-38
0.12834743 0.1482757 0.0096988678 1.6207348e-38
0.12856516 0.15230529 0.010828912 1.6298465e-38
0.12803799 0.15498035 0.011661112 1.6757639e-38
0.12539393 0.11343351 0.0073391795 1.3445473e-38
0.12399877 0.1161056 0.0073760748 1.2153981e-38
0.12389616 0.12013429 0.0070841312 1.1693703e-38
0.12367239 0.12416337 0.0062450171 1.178696e-38
0.12361851 0.12816879 0.0061692595 1.0956479e-38
0.12363748 0.13216785 0.0064210892 9.2973336e-39
0.12363269 0.1361647 0.0065630674 8.1939092e-39
0.12374913 0.14016221 0.0072524548 9.9463282e-39
0.12393826 0.1441666 0.0082710981 1.2617493e-38
0.12427367 0.14819196 0.0099489093 1.3813161e-38
0.12463411 0.15223236 0.011737883 1.473511e-38
0.12438454 0.15580958 0.012832761 1.6668679e-38
0.12086508 0.11670877 0.0088049173 9.9452618e-39
0.12041204 0.12021711 0.0092366338 6.904241e-39
0.12040002 0.12423766 0.0093399882 7.9215991e-39
0.12013062 0.12808715 0.0090457797 9.8533997e-39
0.12003265 0.13209805 0.0087504983 9.9434289e-39
0.1199114 0.13609937 0.0083441734 9.5714136e-39
0.11988389 0.14009488 0.0083760619 8.6501678e-39
0.11999916 0.14409508 0.0090661645 9.3895769e-39
0.12049427 0.14813335 0.011514723 1.1329628e-38
0.12065754 0.15215313 0.012426436 1.3447936e-38
0.12089159 0.15618965 0.013669014 1.4824056e-38
0.12098464 0.15887447 0.014204383 1.5192124e-38
0.11763965 0.13639231 0.012163758 9.666112e-39
0.1173257 0.14006625 0.012444019 9.6660994e-39
0.1168851 0.14423779 0.012953699 8.7416403e-39
0.11673381 0.14807644 0.013191998 9.2959352e-39
0.11680166 0.15208901 0.013664305 1.1511125e-38
0.11720348 0.15574534 0.014777958 1.3445065e-38
0.11086831 0.096447736 0.009509325 1.7949013e-38
0.1136369 0.14535983 0.014698207 1.0402597e-38
0.11298931 0.14802247 0.01498127 1.0582696e-38
0.11326177 0.1518797 0.015607893 1.0129279e-38
0.11381804 0.1560729 0.015959203 1.1510773e-38
0.10711762 0.08803238 0.0093131065 2.2002748e-38
0.1077773 0.091918185 0.0095590353 1.9885466e-38
0.10820246 0.09575095 0.0098547339 1.7861125e-38
0.10817351 0.099747941 0.010703325 1.5373982e-38
0.10765835 0.10377864 0.010823846 1.4452746e-38
0.10782383 0.10777435 0.011790276 1.3532227e-38
0.10723303 0.11111099 0.012372494 1.2705739e-38
0.10915331 0.14812702 0.016350687 1.5373197e-38
0.10910911 0.15196297 0.016251147 1.2151802e-38
0.10909488 0.15560865 0.017285466 1.1783038e-38
0.10372385 0.084064335 0.0099076629 2.3015813e-38
0.10407817 0.08768931 0.0094906688 2.2373661e-38
0.10412466 0.091708519 0.0098535419 2.0162053e-38
0.10419249 0.095720246 0.010325789 1.8410687e-38
0.10428167 0.09972661 0.01090765 1.6201953e-38
0.10432815 0.10374372 0.011270225 1.4913016e-38
0.10439598 0.10775545 0.011742473 1.4082898e-38
0.10441896 0.11157781 0.012860358 1.3620845e-38
0.10405267 0.11440279 0.013707578 1.3619762e-38
0.10428675 0.14474756 0.017011344 2.2647365e-38
0.10516011 0.1478813 0.016906857 2.0809878e-38
0.10514209 0.15188453 0.016936898 1.666499e-38
0.10529549 0.15591064 0.017852128 1.31645e-38
0.099378951 0.080407023 0.010906339 2.2473047e-38
0.10017215 0.083593726 0.010365427 2.2378336e-38
0.10017797 0.087629631 0.010508955 2.1913776e-38
0.1002051 0.091654688 0.010761619 1.9978734e-38
0.10010918 0.095712982 0.010354817 1.8781963e-38
0.10017691 0.099718831 0.010826409 1.6843742e-38
0.10032656 0.10370603 0.011737823 1.6017204e-38
0.10027076 0.10773838 0.011549413 1.5465817e-38
0.10058495 0.11170003 0.013342321 1.5097416e-38
0.10049196 0.11488904 0.01439023 1.5191405e-38
0.099821784 0.13574906 0.017215133 2.2374706e-38
0.10039983 0.14004108 0.017502427 2.3115885e-38
0.10071451 0.14393857 0.015816092 2.3026586e-38
0.10084485 0.14776836 0.015708625 2.3041342e-38
0.10086986 0.15176441 0.01595825 2.1271953e-38
0.101249 0.15581581 0.01809293 1.3162694e-38
0.10156292 0.15853824 0.019850492 1.022287e-38
0.095993899 0.07625974 0.011178851 2.3026604e-38
0.096203692 0.079521686 0.010911405 2.200921e-38
0.096112512 0.083597511 0.010505378 2.1731538e-38
0.096061103 0.08765009 0.01031816 2.1363829e-38
0.095948689 0.09171427 0.0098004341 1.9980536e-38
0.096415319 0.095518559 0.0103302 1.9149674e-38
0.096262686 0.099876434 0.010796964 1.6845897e-38
0.096171267 0.10370518 0.011322618 1.5833892e-38
0.096278451 0.1076958 0.012013853 1.5375795e-38
0.096506916 0.1116689 0.013366878 1.4821196e-38
0.096634217 0.1152522 0.015234768 1.5279663e-38
0.095727183 0.11961363 0.016784787 1.7307217e-38
0.095795117 0.12363103 0.01725775 2.1454233e-38
0.096349724 0.12792668 0.017412245 2.2835703e-38
0.097026609 0.13169152 0.016719997 2.2925045e-38
0.096933968 0.1355342 0.015367746 2.2928628e-38
0.097690098 0.1393782 0.014962137 2.284651e-38
0.098016433 0.14503936 0.015036404 2.2394553e-38
0.09808398 0.14903408 0.015506625 2.2756129e-38
0.097691633 0.15196504 0.016400695 2.1546037e-38
0.097399049 0.15534571 0.018280029 1.0485148e-38
0.092257328 0.076114953 0.011590898 2.182268e-38
0.092091918 0.079556324 0.010720789 2.1544293e-38
0.092004754 0.083626524 0.010313034 2.1545353e-38
0.09197595 0.087662831 0.010233641 2.0626606e-38
0.093253478 0.091709688 0.0098896623 1.9796129e-38
0.092123628 0.10100839 0.011361182 1.6016491e-38
0.09232676 0.10350788 0.011608243 1.5464391e-38
0.092443749 0.10782661 0.012365997 1.4913729e-38
0.092420459 0.11164022 0.013277769 1.4452761e-38
0.092778675 0.11559612 0.015406609 1.4908356e-38
0.092924476 0.11959331 0.016320646 1.9155454e-38
0.092798457 0.12361974 0.015685678 2.2841842e-38
0.092863604 0.1274689 0.015176952 2.2842208e-38
0.093601398 0.13131833 0.014646292 2.2840394e-38
0.09397392 0.13431995 0.014905334 2.2842177e-38
0.08846081 0.072631799 0.013149798 2.0901765e-38
0.088337906 0.075392976 0.012475252 2.0901042e-38
0.088069223 0.079559177 0.010966539 2.1084368e-38
0.088062428 0.083590947 0.010996759 2.0810294e-38
0.088879399 0.086752966 0.010562658 2.0717385e-38
0.089548685 0.10096382 0.012109697 1.5371832e-38
0.089683764 0.10895324 0.013050139 1.426836e-38
0.089314662 0.11249666 0.013592899 1.3436813e-38
0.088621594 0.115572 0.014872432 1.6291632e-38
0.088726997 0.1195651 0.015564561 2.2104642e-38
0.088887163 0.12340669 0.015580893 2.2749657e-38
0.088694617 0.12657425 0.015501261 2.2392378e-38
0.084375314 0.071604818 0.014220178 2.0444048e-38
0.084351383 0.07538034 0.012941539 2.0256771e-38
0.084129401 0.079526164 0.011649907 1.9326177e-38
0.085004337 0.082666881 0.011545837 1.9152586e-38
0.085290216 0.11553307 0.015143871 2.0073081e-38
0.085990213 0.11887315 0.015348554 2.2840387e-38
0.080564722 0.071216717 0.014588952 1.859687e-38
0.080213413 0.075451933 0.012413502 1.8225554e-38
0.080153681 0.078171089 0.012065172 1.9052076e-38
0.076092444 0.068401441 0.016252697 1.840926e-38
0.076582938 0.071207523 0.015054286 1.8781989e-38
0.076330289 0.075394243 0.0134269 1.9983376e-38
0.07261952 0.067205876 0.016729653 2.0440442e-38
0.07265719 0.071170703 0.01584959 1.9886904e-38
0.072464868 0.075327314 0.014550686 2.2100312e-38
0.071141414 0.078015074 0.014685094 2.2837149e-38
0.06890323 0.064260751 0.017850161 2.1722919e-38
0.068839371 0.067012295 0.017390132 1.9790397e-38
0.068781994 0.07110361 0.016976237 1.9976953e-38
0.068759754 0.074893832 0.015449345 2.2282537e-38
0.065018885 0.064193502 0.018979371 2.191123e-38
0.064958908 0.066945113 0.018518329 2.053226e-38
0.064831935 0.071085826 0.017547965 2.1730091e-38
0.064903036 0.074446015 0.016074061 2.2003462e-38
0.061134547 0.064126253 0.020108581 2.1820839e-38
0.061064817 0.066888712 0.019535124 2.1548197e-38
0.060816154 0.071118377 0.017562211 2.0992156e-38
0.057568222 0.06372983 0.021104276 2.182086e-38
0.057185151 0.066821545 0.020662904 1.9424125e-38
0.057350419 0.070630006 0.018342316 1.8136265e-38
0.053568713 0.063500151 0.021827698 1.7305085e-38
0.053187497 0.066848442 0.020787776 1.62016e-38
0.053061523 0.069652729 0.01965332 1.5834266e-38
0.052797519 0.13493827 0.02703917 1.1508252e-38
0.049742386 0.06325084 0.022437871 1.5188893e-38
0.049150161 0.066919729 0.020463347 1.5191034e-38
0.049763136 0.069657892 0.019920349 1.5377586e-38
0.048890084 0.13220827 0.027848482 1.0770309e-38
0.050024919 0.13435736 0.028409243 1.1324222e-38
0.045691557 0.06251847 0.023069561 1.3904988e-38
0.045410424 0.066716641 0.021227539 1.4913385e-38
0.046070106 0.13162607 0.028812647 1.0124237e-38
0.046866715 0.13403326 0.031182945 1.1047254e-38
0.041644879 0.059772626 0.025281787 1.2430208e-38
0.041497797 0.062640555 0.023694813 1.2612086e-38
0.041558728 0.066637814 0.022476971 1.2797215e-38
0.040962674 0.1200904 0.028683543 1.0391147e-38
0.041041583 0.12274884 0.029336274 1.0954382e-38
0.041737169 0.12700981 0.030774236 1.2889005e-38
0.042636551 0.13075708 0.031600058 1.1599699e-38
0.044122726 0.13389444 0.032948554 1.1139809e-38
0.03905531 0.059727788 0.026034713 1.1604035e-38
0.037728854 0.062805094 0.024177492 1.2061061e-38
0.037706584 0.066364288 0.023496509 1.2613508e-38
0.038392797 0.11937673 0.029523492 1.159253e-38
0.038713552 0.12252549 0.030952275 1.0303951e-38
0.039545417 0.12642136 0.032812715 1.2153962e-38
0.040232688 0.12936285 0.034231365 1.279464e-38
0.035142116 0.05935201 0.026872158 9.944166e-39
0.034385331 0.062528692 0.025647283 1.1141263e-38
0.033794522 0.066540301 0.02434516 1.2335504e-38
0.034553953 0.11863589 0.030964673 1.4633892e-38
0.03595645 0.12260726 0.033955455 1.2978667e-38
0.037538387 0.12597635 0.034080267 1.1323485e-38
0.031286646 0.059593298 0.028293133 9.4777817e-39
0.030785579 0.062397338 0.027384758 1.0124962e-38
0.029790509 0.066616952 0.02574569 1.1877034e-38
0.029951658 0.11590624 0.03139466 1.4087192e-38
0.031167284 0.11835733 0.033287883 1.463642e-38
0.033532292 0.12123404 0.034147143 1.4176511e-38
0.028697062 0.059548467 0.02904588 9.0189601e-39
0.027410351 0.062477604 0.029257238 8.7416698e-39
0.025378007 0.11183351 0.03223449 1.3532608e-38
0.027168609 0.11430481 0.033212304 1.3809197e-38
0.028324764 0.11779589 0.035512686 1.4729337e-38
0.023561504 0.062823243 0.03077662 7.3590969e-39
0.02339017 0.066080377 0.030351937 8.6483713e-39
0.021475352 0.069121473 0.028662801 8.2814035e-39
0.022846676 0.11132405 0.033612728 1.4178666e-38
0.024609957 0.11438593 0.036269665 1.4638936e-38
0.025786333 0.11706407 0.036953211 1.5281785e-38
0.020302095 0.062800944 0.031378508 7.7246157e-39
0.019399185 0.066340283 0.031237721 7.0835539e-39
0.018220216 0.069111809 0.029090285 6.1659276e-39
0.021760069 0.11300912 0.036585629 1.4547797e-38
0.015020851 0.066641137 0.030642033 1.0122072e-38
0.014357824 0.06904494 0.030213177 8.7420019e-39
0.009829171 0.067635372 0.031366289 1.3991377e-38
0.0098516829 0.06896694 0.031523049 1.3992816e-38
0.0075502917 0.070196651 0.033047378 1.4359122e-38
0.0042290986 0.077481255 0.034738541 1.4082835e-38
0.0029957443 0.082160056 0.035148978 1.0863907e-38
0.0024195611 0.086143628 0.035806298 9.4766662e-39
0.0022650287 0.089690752 0.036286771 4.5096279e-39
0.00044333935 0.083447054 0.036054313 1.252126e-38
0.00047709793 0.085444406 0.036289394 1.0316539e-38
0.00055592507 0.090104893 0.036838055 2.7579361e-39
0.14718869 0.13320625 0.0065298676 2.0442953e-38
0.14723417 0.13589588 0.0068464875 1.9705761e-38
0.14781111 0.13926691 0.0070909858 1.9335178e-38
0.14734787 0.14261994 0.007637918 1.9058567e-38
0.14340264 0.12070486 0.006105125 2.2010645e-38
0.14400229 0.12460925 0.0061086416 2.1181227e-38
0.14442709 0.12845701 0.006406188 2.0442958e-38
0.14452246 0.13248952 0.0069895387 1.9429883e-38
0.14463365 0.13585085 0.0076025128 1.8966037e-38
0.14469045 0.13921289 0.0079981685 1.8691248e-38
0.14473149 0.14324586 0.0083643198 1.8968537e-38
0.14482689 0.14728174 0.0089479685 1.9153994e-38
0.14487806 0.15030757 0.0093041658 1.9151117e-38
0.13969615 0.11291029 0.0062343478 1.998273e-38
0.14024344 0.11644885 0.0065081716 1.9889107e-38
0.14036503 0.12032636 0.0064818859 2.0905009e-38
0.14126709 0.12404714 0.0060912967 2.1181243e-38
0.14166549 0.12841725 0.006510675 2.0259301e-38
0.14147532 0.13277604 0.0073632598 1.8691241e-38
0.1403988 0.13628224 0.0081084967 1.7128241e-38
0.14061776 0.14003479 0.0084756017 1.7954766e-38
0.14119384 0.14371525 0.0087350011 1.9061464e-38
0.1407927 0.14720412 0.0095368624 1.9797945e-38
0.14079902 0.15107493 0.010461628 1.9890497e-38
0.14008164 0.15492998 0.011275709 1.9801522e-38
0.13605788 0.10915015 0.0068385601 1.9705373e-38
0.13638231 0.11218823 0.0068830252 1.8781274e-38
0.13673207 0.11579642 0.0065820813 1.721791e-38
0.13761121 0.11894938 0.0065364838 1.6390314e-38
0.1379064 0.13640732 0.0085914731 1.7403388e-38
0.13764423 0.14009473 0.0091205835 1.768105e-38
0.13748088 0.15171352 0.011013329 1.8968196e-38
0.13713571 0.15521243 0.01205641 1.9248366e-38
0.13590693 0.15788265 0.012860417 1.9152554e-38
0.1327388 0.10889104 0.0077787042 1.8970329e-38
0.1323584 0.11196884 0.0074807405 1.8694094e-38
0.13364777 0.11485317 0.0071946979 1.8045863e-38
0.13347086 0.15532558 0.012510717 1.8048385e-38
0.13285002 0.15872109 0.013683498 1.7773226e-38
0.13207433 0.16184956 0.014469266 1.6666883e-38
0.12858704 0.10935692 0.0090517402 1.5470898e-38
0.12850916 0.11138958 0.0087991357 1.6300981e-38
0.12947685 0.15606365 0.013471067 1.6939873e-38
0.12930354 0.15909593 0.01436007 1.6573237e-38
0.12947381 0.16180453 0.01522541 1.6390287e-38
0.12598649 0.1093119 0.0098077059 1.1782374e-38
0.12445711 0.11182313 0.010038972 1.0495556e-38
0.12656105 0.15634879 0.014359891 1.7493755e-38
0.12550083 0.15918748 0.015149653 1.6483559e-38
0.12557301 0.16173699 0.016359329 1.6115141e-38
0.11978243 0.096029222 0.0099951625 2.0533692e-38
0.11997613 0.099796936 0.010400653 1.7032057e-38
0.12004434 0.10383137 0.010875523 1.4731854e-38
0.12011822 0.108202 0.011389971 1.4088976e-38
0.12075972 0.11192141 0.01130867 1.0858943e-38
0.12024211 0.1154146 0.011608958 1.0776104e-38
0.11943307 0.11863468 0.011821091 5.8061597e-39
0.1195012 0.12266344 0.012295425 4.4157031e-39
0.1214354 0.16028763 0.016344011 1.5009889e-38
0.12152886 0.16164352 0.01683265 1.4919131e-38
0.11616319 0.092112556 0.010574698 2.209926e-38
0.11661162 0.095718004 0.010652304 2.0164912e-38
0.11667982 0.099751592 0.011127114 1.7030992e-38
0.11679365 0.10377509 0.011820495 1.4546746e-38
0.11686187 0.10780953 0.012295425 1.3996071e-38
0.11693009 0.11184396 0.012770295 1.1414619e-38
0.11699831 0.11587839 0.013245165 9.482462e-39
0.1169967 0.11991942 0.013391614 4.6951318e-39
0.1178356 0.12423499 0.013605356 3.4987886e-39
0.118079 0.12833898 0.013932586 6.2606624e-39
0.11778178 0.13202921 0.014297366 7.7343323e-39
0.11657386 0.13536592 0.015235245 8.378271e-39
0.11604436 0.13938746 0.016145885 9.7586509e-39
0.11594646 0.14273979 0.015798926 1.0585502e-38
0.1174098 0.15905157 0.017633438 1.3629096e-38
0.11876365 0.16262743 0.018462539 1.4551411e-38
0.11127426 0.084857702 0.011116326 2.3113761e-38
0.11225178 0.087755516 0.011185646 2.2284348e-38
0.11262145 0.091623738 0.011201978 2.0901388e-38
0.11292263 0.095507234 0.010890841 1.8961351e-38
0.112623 0.099721417 0.011495411 1.6203033e-38
0.11275836 0.10373661 0.012297988 1.4822969e-38
0.11287197 0.10775864 0.01299125 1.3997158e-38
0.11302928 0.11177643 0.013904333 1.2427687e-38
0.1130975 0.11581084 0.014379263 9.5696017e-39
0.11347372 0.1188423 0.014640868 6.8113027e-39
0.11399964 0.14324869 0.017060935 1.1415287e-38
0.11209656 0.14535818 0.017247498 1.2797887e-38
0.11303455 0.15477212 0.018127501 1.0588831e-38
0.11377958 0.15883721 0.019223988 1.2705716e-38
0.10827475 0.080436423 0.011452436 2.2847957e-38
0.10856438 0.083499044 0.01127702 2.3110176e-38
0.10987853 0.090947486 0.011222839 2.0258911e-38
0.11002611 0.09967646 0.012250364 1.5374717e-38
0.11009424 0.10370521 0.012724578 1.4543878e-38
0.11016237 0.10773398 0.013198853 1.3813109e-38
0.1093346 0.11193431 0.014106333 1.2983372e-38
0.10915343 0.11574925 0.015293479 1.1049405e-38
0.10892279 0.11876352 0.015963912 9.2976798e-39
0.10967421 0.14398435 0.018837571 1.8051221e-38
0.10950535 0.14564896 0.018041968 1.8414603e-38
0.10999089 0.15893123 0.020053506 1.1693721e-38
0.10398635 0.076665036 0.012245595 2.2747876e-38
0.10447495 0.079549946 0.012194097 2.311522e-38
0.10541037 0.082591228 0.011506319 2.3108014e-38
0.10635787 0.11303821 0.014963567 1.1687636e-38
0.10540625 0.11607455 0.016214192 1.2057808e-38
0.10492311 0.11925445 0.017195404 1.2520183e-38
0.10569083 0.14279181 0.019507945 2.2282916e-38
0.1069028 0.14526826 0.018757343 2.2281063e-38
0.10590651 0.15935865 0.021127224 1.0127122e-38
0.1002922 0.075472705 0.012881339 2.3024453e-38
0.10105277 0.078922048 0.012507141 2.3207393e-38
0.10155115 0.11664695 0.016813755 1.5375422e-38
0.10142247 0.1196474 0.018035591 1.6202306e-38
0.1015315 0.12367712 0.018730998 1.767847e-38
0.10094959 0.1277003 0.019394934 2.0257071e-38
0.10095642 0.13173549 0.019538164 2.080412e-38
0.1015728 0.13712084 0.019318759 2.1916192e-38
0.10275611 0.13902271 0.019835055 2.163999e-38
0.10296207 0.14251499 0.019573689 2.2838921e-38
0.10279556 0.15999825 0.022816062 9.8451531e-39
0.096288569 0.071617171 0.01370579 2.2745346e-38
0.09698581 0.074256428 0.013213158 2.311485e-38
0.097986124 0.11692086 0.017891407 1.583319e-38
0.098031543 0.1196067 0.01820749 1.6751886e-38
0.098129995 0.12363302 0.018847406 1.9518839e-38
0.098532222 0.12733141 0.019270658 2.1362009e-38
0.092746906 0.071142994 0.014276683 2.1733712e-38
0.092714995 0.073868781 0.014154077 2.2009944e-38
0.088022448 0.067874022 0.01584214 1.9058567e-38
0.088819228 0.070413895 0.015220881 1.9516702e-38
0.085170843 0.067392394 0.016443193 1.997981e-38
0.085505463 0.069716386 0.015755892 2.0812089e-38
0.081677161 0.06417907 0.017246962 2.026109e-38
0.081851915 0.066924274 0.016949594 2.0256745e-38
0.078157358 0.063580364 0.018204272 1.8871319e-38
0.078378379 0.066482194 0.017895937 1.7949722e-38
0.074306548 0.062900342 0.018986166 1.942376e-38
0.075273819 0.065959185 0.018291295 1.9146832e-38
0.070720434 0.062304646 0.019775927 2.0987508e-38
0.066621587 0.061953217 0.020858169 2.2003802e-38
0.062723525 0.061885737 0.021991313 2.1175128e-38
0.058854297 0.059750699 0.023387194 2.1268415e-38
0.058785811 0.061714731 0.022808731 2.1821586e-38
0.060802668 0.13843204 0.032205522 1.4180469e-38
0.06154155 0.14180665 0.032665372 1.5187802e-38
0.054953478 0.059683174 0.024521172 1.988836e-38
0.055186205 0.061471976 0.023623228 1.9794375e-38
0.054829001 0.13631161 0.032907844 1.3161648e-38
0.051052675 0.059615642 0.02565521 1.6939901e-38
0.050960593 0.061063185 0.024810553 1.6848047e-38
0.05234874 0.13626982 0.034678221 1.243056e-38
0.047116026 0.059583031 0.02645421 1.3903915e-38
0.049635246 0.13622169 0.034417689 1.3074124e-38
0.048447914 0.13620231 0.03581214 1.2520948e-38
0.043435201 0.058741465 0.027149141 1.2888677e-38
0.043769576 0.13477761 0.03595823 1.0955423e-38
0.039229229 0.058175042 0.027891636 1.1232036e-38
0.039111502 0.12798434 0.03648901 1.398923e-38
0.040055238 0.13068298 0.036893368 1.2518413e-38
0.041810565 0.13407245 0.036445439 1.1136196e-38
0.034731098 0.055299833 0.02990526 7.641813e-39
0.035043873 0.057376131 0.029543757 9.1126299e-39
0.035148054 0.12388815 0.037147224 1.3256302e-38
0.036532991 0.12625504 0.037556529 1.1876295e-38
0.03793209 0.12929817 0.038044691 1.2519513e-38
0.031802092 0.057656109 0.030527413 9.1990676e-39
0.032312289 0.1219485 0.038369238 1.4268703e-38
0.027625117 0.057865642 0.032301009 9.2919639e-39
0.026979506 0.060595669 0.032300293 8.6505545e-39
0.02860795 0.11929268 0.0388484 1.4821901e-38
0.029908907 0.12111241 0.038340926 1.4638617e-38
0.023743689 0.060522191 0.033413708 7.3594528e-39
0.023314532 0.11495687 0.039516926 1.5098463e-38
0.024732366 0.11741804 0.040452898 1.5465456e-38
0.019351088 0.11086068 0.0401752 1.4181887e-38
0.020749092 0.11354764 0.040882289 1.4363049e-38
0.016249489 0.10655566 0.040555358 1.3258172e-38
0.017761882 0.1098002 0.041297317 1.3808822e-38
0.014140714 0.10603121 0.04215771 1.1410289e-38
0.15583026 0.13671471 0.0075773001 2.1090129e-38
0.15589878 0.14076617 0.0080541968 2.0904635e-38
0.15594444 0.14346713 0.008372128 2.0348608e-38
0.15633366 0.14718661 0.0087143183 1.9706118e-38
0.15605858 0.15021956 0.0091668963 1.8972495e-38
0.15175316 0.12719351 0.0076032877 2.1641138e-38
0.15215379 0.13158824 0.0080249906 2.0996839e-38
0.15308216 0.135318 0.0077444315 2.0719528e-38
0.15312201 0.13936631 0.0081127286 2.0442586e-38
0.15319046 0.14341483 0.0085892677 1.9796153e-38
0.15328753 0.14746521 0.0091742277 1.8874567e-38
0.15302023 0.15131898 0.0098917484 1.841395e-38
0.15301156 0.15529716 0.010682046 1.8049103e-38
0.14765322 0.11632181 0.0074703097 2.2291559e-38
0.14769891 0.11902278 0.0077883005 2.2381229e-38
0.14904541 0.12309854 0.0077773333 2.2193216e-38
0.14897448 0.12715472 0.0077127814 2.136454e-38
0.14915022 0.13103719 0.0079190135 2.127019e-38
0.14967877 0.13526075 0.0081510544 2.0259267e-38
0.15007314 0.13931218 0.0085325241 1.9706816e-38
0.14953941 0.14354013 0.0092074275 1.9060368e-38
0.14923203 0.14738679 0.0097693205 1.859939e-38
0.14944077 0.15144679 0.010789096 1.8138057e-38
0.14962119 0.15550846 0.011700869 1.7401938e-38
0.14836109 0.15818684 0.012398303 1.648035e-38
0.1436218 0.10950157 0.0078143477 2.2848672e-38
0.14414552 0.11248741 0.0078173876 2.2938353e-38
0.14469188 0.11612362 0.0075263381 2.2474863e-38
0.14584598 0.11967747 0.007886529 2.2286873e-38
0.14622512 0.12374128 0.0077494383 2.1547497e-38
0.14540231 0.15217401 0.011477947 1.8598676e-38
0.14548472 0.15541419 0.011967957 1.7308296e-38
0.14554483 0.15931201 0.013098717 1.6756925e-38
0.14581808 0.16219307 0.013634384 1.6299179e-38
0.14067715 0.10829382 0.0078727603 2.1552549e-38
0.14132807 0.11165752 0.0077012181 2.1647978e-38
0.14216512 0.1149077 0.0078548193 2.1371039e-38
0.14280358 0.15266831 0.012299657 1.9523847e-38
0.1423322 0.15562619 0.012800395 1.896491e-38
0.14164072 0.15939265 0.013581634 1.7218617e-38
0.14190084 0.16212526 0.01477325 1.6577181e-38
0.13708255 0.10726979 0.0084062219 2.0168892e-38
0.13786775 0.15949237 0.014582038 1.8600106e-38
0.13773152 0.16259311 0.016051531 1.6853408e-38
0.13335928 0.1047336 0.010234654 1.8510089e-38
0.13258055 0.10698962 0.0096902251 1.851043e-38
0.13467461 0.16016737 0.015599906 1.804873e-38
0.13282904 0.16601847 0.017907321 1.6759817e-38
0.12788424 0.10517886 0.011892617 1.1872005e-38
0.12900048 0.1072647 0.010772407 1.436415e-38
0.13007072 0.16392706 0.017933846 1.6207338e-38
0.1308704 0.16598456 0.018476725 1.6301336e-38
0.12382998 0.097008131 0.01207763 1.9245461e-38
0.12386423 0.099033862 0.012316048 1.7312227e-38
0.12503901 0.10417155 0.012452483 1.4545653e-38
0.12493425 0.10769987 0.012016416 1.2515554e-38
0.12611988 0.16385216 0.018906772 1.59311e-38
0.12630025 0.16590545 0.019805253 1.6114754e-38
0.11970722 0.084785953 0.011785686 2.2756147e-38
0.12003239 0.087846011 0.011803567 2.2754311e-38
0.12078112 0.091778517 0.011410892 2.2471984e-38
0.12195536 0.095345989 0.01137346 2.0903193e-38
0.12235542 0.099734567 0.011794627 1.6848743e-38
0.12242384 0.10378034 0.012270808 1.4732923e-38
0.12170533 0.10754286 0.012942791 1.4458111e-38
0.1221346 0.16377017 0.019713998 1.5471226e-38
0.1220885 0.16636439 0.02088505 1.6299548e-38
0.1165766 0.083855897 0.012238622 2.257067e-38
0.11695772 0.08749947 0.011991084 2.2842194e-38
0.117857 0.090668701 0.011999846 2.2655298e-38
0.11666568 0.12300484 0.016315103 3.4080153e-39
0.11685916 0.12687024 0.016942441 4.1430566e-39
0.11636025 0.13063934 0.017341018 5.6167167e-39
0.11640585 0.13333653 0.017658532 7.1793803e-39
0.11743362 0.16328433 0.021031022 1.4550346e-38
0.11839562 0.16710031 0.021800339 1.6116215e-38
0.11983999 0.16984388 0.0221802 1.6849838e-38
0.11272793 0.080296904 0.013016522 2.275614e-38
0.11313989 0.083218567 0.012598634 2.2844015e-38
0.11431526 0.086787492 0.012560964 2.2745697e-38
0.11332288 0.12061009 0.017000318 6.1662976e-39
0.11414994 0.12282977 0.018079638 5.3383488e-39
0.11521486 0.12791105 0.018391013 4.5117999e-39
0.11466112 0.13087459 0.01849699 5.1564532e-39
0.11467958 0.13438377 0.018712223 6.8120271e-39
0.11402366 0.13869011 0.019712389 9.0218033e-39
0.11329425 0.14204594 0.019638062 1.1968783e-38
0.11416469 0.16313149 0.022100747 1.3537277e-38
0.11470603 0.16688095 0.023188949 1.4826207e-38
0.10824608 0.076036967 0.014068782 2.2842226e-38
0.10926076 0.078459568 0.01322943 2.2936218e-38
0.10993267 0.1205514 0.017985821 8.1909749e-39
0.10953107 0.12275472 0.019160688 7.2700976e-39
0.10865185 0.12577227 0.020050526 6.4360531e-39
0.11019737 0.13997498 0.021340132 9.2897961e-39
0.11003443 0.14198951 0.020585716 1.537788e-38
0.11045375 0.16290684 0.023378432 1.2339087e-38
0.11150933 0.16609941 0.024160445 1.3904242e-38
0.10513841 0.072382934 0.014530599 2.1823032e-38
0.10522855 0.074760504 0.014046431 2.2193982e-38
0.1063435 0.077886187 0.013803542 2.3299254e-38
0.10663091 0.12058412 0.018956721 9.4763033e-39
0.10580344 0.1230415 0.019500494 1.0950342e-38
0.10594609 0.12640846 0.020338118 1.1040733e-38
0.10536119 0.12977022 0.020979941 1.4357591e-38
0.10577876 0.13873926 0.021883011 1.7492665e-38
0.10676322 0.14125878 0.021453977 1.9616431e-38
0.10690055 0.16265088 0.02433759 1.0037082e-38
0.10115265 0.068263665 0.015192449 2.2466931e-38
0.10137006 0.071148351 0.014958143 2.2099617e-38
0.10237473 0.074446991 0.014543831 2.2560596e-38
0.103264 0.12704211 0.020734906 1.7962546e-38
0.10370008 0.13075562 0.021324992 1.7857027e-38
0.10294753 0.1347207 0.022189081 2.025266e-38
0.10384544 0.16143124 0.024782836 9.6603905e-39
0.098270856 0.067673743 0.015963972 2.2192507e-38
0.097956099 0.070101194 0.015304744 2.2193247e-38
0.10139959 0.16007403 0.026381791 1.0128524e-38
0.093902498 0.064087883 0.016803384 2.2187846e-38
0.09446492 0.066872939 0.016164303 2.1452817e-38
0.089985229 0.064020067 0.01794219 2.0997563e-38
0.090695582 0.066648789 0.0171386 1.9518856e-38
0.086400934 0.063066304 0.018125355 2.0072733e-38
0.087231368 0.065421529 0.01787132 1.998269e-38
0.08142934 0.059821673 0.019932687 2.0347173e-38
0.082824737 0.062248677 0.018922508 2.0069165e-38
0.078817852 0.059776455 0.020691931 1.9606375e-38
0.079019129 0.061571814 0.019803941 1.9516334e-38
0.074900582 0.05970864 0.021830738 1.9977272e-38
0.076079592 0.06118387 0.020617127 1.9336229e-38
0.067066051 0.05957301 0.024108291 2.1818346e-38
0.062654875 0.05863212 0.024934947 2.0806355e-38
0.059163004 0.055385932 0.025908947 1.8322832e-38
0.059175991 0.057429373 0.02598089 2.0070967e-38
0.05913575 0.13841195 0.035051823 1.3906765e-38
0.060088769 0.14090243 0.035427988 1.4636431e-38
0.055245765 0.05531811 0.027047873 1.9148624e-38
0.055219874 0.057397053 0.026785731 1.989051e-38
0.057955794 0.13839552 0.036444604 1.418048e-38
0.051328473 0.055250302 0.02818656 1.8598696e-38
0.051305361 0.057329282 0.027923703 1.7401229e-38
0.047140926 0.054637767 0.029337704 1.4270528e-38
0.047336221 0.057315767 0.028559744 1.3991787e-38
0.047366217 0.13618591 0.038225293 1.1969922e-38
0.043291129 0.054146796 0.030404866 1.1968515e-38
0.043413043 0.056573749 0.029617608 1.2612444e-38
0.044464014 0.13647348 0.039372742 1.1233059e-38
0.040813945 0.051018 0.03074646 1.2426258e-38
0.039867602 0.054404922 0.031176627 9.757286e-39
0.039501287 0.056506038 0.030754805 1.0310819e-38
0.039451458 0.13065609 0.039864719 1.2794285e-38
0.040399678 0.13336867 0.040269554 1.1871946e-38
0.04215052 0.13609561 0.039741576 1.0399354e-38
0.036870621 0.055112295 0.031354129 7.8168983e-39
0.036893427 0.056460887 0.031512916 8.9282499e-39
0.037286922 0.12926766 0.040678024 1.1692999e-38
0.03916005 0.13334481 0.041329205 1.224039e-38
0.034197412 0.12471363 0.041373849 1.3440001e-38
0.029566396 0.1217128 0.042187035 1.482262e-38
0.026257277 0.11895628 0.04281795 1.5373626e-38
0.026759904 0.12052931 0.043388426 1.5741317e-38
0.021597635 0.11551681 0.043236017 1.4361261e-38
0.016987421 0.11070187 0.04452008 1.3535459e-38
0.018320289 0.11343004 0.04420203 1.3717326e-38
0.014302585 0.10683909 0.044657528 1.1600789e-38
0.015680723 0.10863674 0.045173943 1.3624786e-38
0.047452405 0.11392561 0.022092462 9.4810074e-39
0.045281604 0.095140994 0.021385789 1.3347494e-38
0.029640377 0.078929149 0.022986591 1.5374712e-38
0.030136622 0.09087266 0.024073124 1.2519896e-38
0.030226272 0.1021218 0.025426745 8.4668359e-39
0.13775882 0.12767835 0.0075640082 1.6850934e-38
0.13742027 0.1490069 0.010730088 1.8601925e-38
0.10831683 0.10747603 0.012046397 1.8506472e-38
0.10940958 0.1108409 0.011634827 1.5469067e-38
0.10734395 0.11597948 0.012270093 1.620519e-38
0.10600536 0.11909802 0.012822628 1.5651659e-38
0.1041401 0.11693124 0.014490783 1.6205193e-38
0.10217746 0.12176119 0.015050054 1.6112261e-38
0.097299956 0.10645178 0.015137792 1.6940947e-38
0.10452687 0.097694077 0.013559341 1.4730056e-38
0.10811626 0.10598142 0.017555416 2.0260024e-38
0.1060352 0.11197419 0.018745542 1.4915159e-38
0.10548341 0.13009447 0.021158874 1.5562322e-38
0.09633588 0.11404349 0.021521509 1.7035668e-38
0.1020421 0.11322805 0.02054733 1.7679591e-38
0.15382627 0.11594336 0.010862172 2.2571736e-38
0.15377903 0.11904263 0.0095074773 2.2657809e-38
0.15359062 0.12312882 0.0090146661 2.2286141e-38
0.15398434 0.12720221 0.0091992021 2.1366712e-38
0.15447479 0.13100187 0.0095816255 2.0999356e-38
0.15530622 0.15227371 0.011737466 1.850866e-38
0.15471449 0.15598659 0.012366235 1.8142729e-38
0.15418047 0.1597077 0.013212204 1.7495206e-38
0.15461063 0.1631535 0.015024424 1.7402297e-38
0.14876318 0.10803832 0.011375189 2.2395622e-38
0.14972895 0.11119399 0.010580063 2.2480989e-38
0.1501036 0.11471981 0.010752916 2.2476675e-38
0.15033054 0.11900023 0.0098126531 2.2654583e-38
0.15042043 0.16304451 0.015188932 1.5468331e-38
0.15084308 0.16649921 0.017004311 1.5287906e-38
0.15060064 0.17006531 0.018445492 1.6207729e-38
0.14539546 0.10322161 0.011770546 2.2578947e-38
0.14589298 0.10666546 0.011114538 2.2670044e-38
0.1463221 0.11053929 0.0096688867 2.2479186e-38
0.14679718 0.11354107 0.009478271 2.2751101e-38
0.14759859 0.16094042 0.015057683 1.6296668e-38
0.14637265 0.16340749 0.015894115 1.5653448e-38
0.14669299 0.16656128 0.017323852 1.4641826e-38
0.14708164 0.17052837 0.019066393 1.5653835e-38
0.14657965 0.1732586 0.020014644 1.6207366e-38
0.14068985 0.097022198 0.01238811 2.2475945e-38
0.14144978 0.099561736 0.01177758 2.2753959e-38
0.14188188 0.1034129 0.011296749 2.2384466e-38
0.14299649 0.1066636 0.010796845 2.2387729e-38
0.14241821 0.16423541 0.01697886 1.5837097e-38
0.14270562 0.16698997 0.018281758 1.5375066e-38
0.14297825 0.17042673 0.019556105 1.4917332e-38
0.1432924 0.1732017 0.020970285 1.5377586e-38
0.13772559 0.096630991 0.01320821 2.1547898e-38
0.13763687 0.099792004 0.011523366 2.1918096e-38
0.13752338 0.10389275 0.011243701 2.0721362e-38
0.13882303 0.16451165 0.018065572 1.6576456e-38
0.13869351 0.16690688 0.019096792 1.6391722e-38
0.13898674 0.1703473 0.020482004 1.6022951e-38
0.1393477 0.1731334 0.022117078 1.6114777e-38
0.13409233 0.095548451 0.014139235 1.9338401e-38
0.13365206 0.099734098 0.012450039 1.8416827e-38
0.13319826 0.10281315 0.012144625 1.7771823e-38
0.13588259 0.16479921 0.018961847 1.6850557e-38
0.13491821 0.16695726 0.019718826 1.6942756e-38
0.13497305 0.17026207 0.021297216 1.6666884e-38
0.13508004 0.1733994 0.023399413 1.7035657e-38
0.12870631 0.087977707 0.014787853 2.2837171e-38
0.12957418 0.091865182 0.014660895 2.1543907e-38
0.12990054 0.095539287 0.014199913 1.8873465e-38
0.12976944 0.099655792 0.013810635 1.6018644e-38
0.12980354 0.10359455 0.013365686 1.4361272e-38
0.13035765 0.16707285 0.020858645 1.630025e-38
0.13096178 0.17017606 0.022111595 1.6391392e-38
0.13139531 0.17365873 0.024160564 1.6668329e-38
0.12513477 0.084063828 0.01535368 2.2572106e-38
0.12582418 0.08732406 0.014385939 2.2934403e-38
0.12567475 0.091456503 0.013887465 2.2559846e-38
0.12579218 0.095386326 0.013795912 2.0441134e-38
0.12602642 0.099828526 0.014028609 1.6573242e-38
0.12631813 0.10235557 0.014103234 1.4914796e-38
0.12675679 0.16701052 0.021905482 1.6207323e-38
0.12693042 0.170086 0.02281481 1.6206638e-38
0.12730527 0.17355438 0.024645925 1.6114791e-38
0.12141915 0.079973049 0.015240431 2.2479542e-38
0.12192144 0.083033592 0.014725685 2.2572467e-38
0.12235004 0.087095611 0.013813138 2.2755396e-38
0.12283849 0.090110496 0.013620198 2.2840034e-38
0.12414368 0.16730374 0.022706628 1.6483212e-38
0.12292788 0.17000121 0.023626685 1.6850558e-38
0.1235395 0.17399852 0.025803208 1.7587403e-38
0.1181572 0.079232097 0.015172124 2.2476309e-38
0.11834405 0.082360744 0.013985753 2.2479928e-38
0.11874545 0.17074004 0.024918795 1.6851284e-38
0.11985343 0.17409872 0.02677834 1.8050902e-38
0.11440863 0.07164225 0.016971052 2.2397068e-38
0.11512711 0.075017884 0.016912341 2.2388795e-38
0.11472692 0.078244738 0.015589237 2.2662141e-38
0.11424505 0.12380849 0.02027005 5.5230918e-39
0.11481004 0.12625524 0.020404816 4.5118055e-39
0.11433666 0.12922555 0.02090776 3.6827623e-39
0.11445115 0.13599691 0.021704853 7.3641289e-39
0.11568975 0.17054205 0.025579512 1.6209523e-38
0.11652829 0.17426336 0.028338552 1.759099e-38
0.11017809 0.066971533 0.017112374 2.2572114e-38
0.11101905 0.07081911 0.016230464 2.2575348e-38
0.11103746 0.074812189 0.015592933 2.2664669e-38
0.11215713 0.077740729 0.015230715 2.2663232e-38
0.11162625 0.12376315 0.021031439 6.6250995e-39
0.11169391 0.12647073 0.021460354 5.3372446e-39
0.11182844 0.13053255 0.022268891 4.0497652e-39
0.11191928 0.13459775 0.022857487 5.608812e-39
