# .PCD v0.7 - Point Cloud Data file format
VERSION 0.7
FIELDS x y z rgb
SIZE 4 4 4 4
TYPE F F F F
COUNT 1 1 1 1
WIDTH 985
HEIGHT 1
VIEWPOINT 0 0 0 0 1 0 0
POINTS 985
DATA ascii
0.11266948 0.080142826 0.013227522 9.2937491e-39
0.11265679 0.083224997 0.013612986 1.002918e-38
0.1125774 0.087360457 0.012960374 1.1872721e-38
0.11218619 0.090506032 0.012264967 1.353404e-38
0.11186863 0.13287067 0.020719469 1.1970309e-38
0.11214083 0.13556758 0.021220624 1.215362e-38
0.11257657 0.13893917 0.023204803 1.261243e-38
0.11298846 0.14150217 0.025374055 1.2886882e-38
0.10926708 0.083507419 0.014326811 9.4766956e-39
0.10868053 0.087537497 0.014267504 1.2795717e-38
0.10869305 0.091572344 0.012919247 1.7124928e-38
0.10742281 0.10137618 0.015027285 1.1601155e-38
0.10742283 0.10388713 0.015526056 1.1416749e-38
0.10742281 0.11267546 0.017271519 8.1927966e-39
0.1074864 0.11491252 0.019077539 8.0076738e-39
0.10745461 0.118819 0.019172609 8.6548663e-39
0.10767686 0.1237298 0.019434929 1.0221449e-38
0.10834375 0.12788941 0.020470083 1.1415339e-38
0.10871425 0.13145868 0.02129513 1.1876316e-38
0.10874686 0.13511123 0.022701323 1.2707152e-38
0.10896361 0.13853776 0.02452451 1.3719846e-38
0.11011767 0.14111741 0.02566123 1.4364848e-38
0.10501405 0.084245235 0.015012026 4.4110213e-39
0.10499178 0.087519526 0.015151501 1.3993907e-38
0.10492624 0.091658533 0.014440835 2.2013864e-38
0.10488236 0.10131468 0.015336931 1.1785921e-38
0.10493495 0.10355563 0.017030954 1.1602212e-38
0.10496889 0.10695027 0.01849997 9.3034279e-39
0.10628995 0.10949774 0.01986593 8.5587288e-39
0.10628995 0.11580314 0.021118283 7.3616136e-39
0.1051647 0.11880046 0.021122336 7.2701424e-39
0.10495487 0.1229648 0.021339893 8.2864369e-39
0.10497016 0.12730789 0.022543132 8.83495e-39
0.10498416 0.1310254 0.023622215 8.9300057e-39
0.10499391 0.1347661 0.024592221 9.5800512e-39
0.10628995 0.13787207 0.02550149 1.2157563e-38
0.1017113 0.087907776 0.01557076 1.6859926e-38
0.10170676 0.091194004 0.013728976 2.3408684e-38
0.10107165 0.10122246 0.015801311 1.2061775e-38
0.10150531 0.10213071 0.019008756 1.160223e-38
0.10242212 0.11969094 0.021353006 6.7194728e-39
0.10219102 0.12233968 0.022524834 7.7346897e-39
0.10246225 0.12706022 0.023838997 8.0105773e-39
0.097083911 0.10234746 0.018995464 1.1782671e-38
0.093065247 0.10294056 0.018640518 1.2060348e-38
0.08903046 0.10379352 0.01912117 1.2153249e-38
0.089060649 0.10598269 0.021093369 1.1784823e-38
0.085193709 0.10460459 0.018484175 1.2337636e-38
0.08458785 0.10664414 0.021134794 1.2245807e-38
0.080753222 0.10686477 0.020180404 1.2430208e-38
0.08044935 0.10929416 0.022584915 1.2428413e-38
0.076756634 0.10708524 0.020926118 1.1878821e-38
0.077156082 0.10966887 0.023418903 1.2153973e-38
0.073123127 0.10723616 0.021563113 1.1595428e-38
0.073480956 0.10978457 0.024078727 1.1783763e-38
0.069950894 0.1080021 0.021089673 1.3899205e-38
0.068441749 0.10907307 0.024233282 1.3531138e-38
0.065475054 0.11019303 0.024146497 1.2977618e-38
0.064823031 0.11227736 0.025670409 1.0957599e-38
0.060170092 0.10726318 0.022181809 1.0583797e-38
0.061661065 0.10912211 0.024074435 1.0854637e-38
0.05659356 0.10376532 0.022625029 8.3754054e-39
0.056433707 0.10641518 0.023257136 9.0207832e-39
0.057274163 0.10915381 0.025419176 1.0768902e-38
0.053985775 0.082757547 0.020923197 1.7121035e-38
0.053115025 0.085143954 0.020296693 1.6385274e-38
0.052779712 0.10304528 0.022965133 8.3768277e-39
0.052802742 0.1063316 0.022929907 9.2069681e-39
0.052878164 0.10953782 0.025611997 1.0862535e-38
0.052391835 0.11297418 0.02712661 1.1876313e-38
0.049512178 0.082271367 0.021650195 1.6849458e-38
0.048925541 0.085738271 0.021043122 1.4915177e-38
0.048966482 0.102953 0.023429692 9.5731905e-39
0.04899203 0.10623938 0.023394287 9.3891888e-39
0.048975416 0.10991193 0.024582446 1.0218941e-38
0.049366906 0.11342856 0.027109623 1.1233457e-38
0.049093723 0.11613393 0.028257489 1.1969233e-38
0.045684464 0.082178742 0.022116542 1.4361282e-38
0.044946529 0.085861206 0.022567928 1.3163096e-38
0.044742309 0.090362668 0.021121681 1.0677419e-38
0.045181312 0.10300843 0.023235321 9.9398318e-39
0.045544237 0.10633527 0.023850083 9.3899062e-39
0.045181319 0.10991357 0.024606705 9.7568544e-39
0.045142621 0.11349669 0.026236534 1.0402622e-38
0.044890441 0.11659379 0.02846545 1.132492e-38
0.043770604 0.11933433 0.029738665 1.150966e-38
0.041401073 0.086849153 0.02358681 1.3899922e-38
0.041285843 0.090587303 0.022973955 1.2885085e-38
0.040947206 0.094326869 0.022047341 1.3898846e-38
0.041158907 0.10270184 0.023683906 1.196738e-38
0.040100388 0.10602416 0.024477899 1.3164511e-38
0.041370615 0.10982135 0.025071084 1.1782657e-38
0.041359365 0.11354221 0.026039839 1.205998e-38
0.041252546 0.11688519 0.028886318 1.2058863e-38
0.041218802 0.11927254 0.030049682 1.2243254e-38
0.037391074 0.087652877 0.024254322 1.1211189e-38
0.037428595 0.090334862 0.024097204 1.1221609e-38
0.037471943 0.094296947 0.024079621 1.0853902e-38
0.037136495 0.098628804 0.023384452 8.4600228e-39
0.037471943 0.10184892 0.025579572 1.0120264e-38
0.037521131 0.10581717 0.025448322 1.0857856e-38
0.037818588 0.10916342 0.027298331 1.2150736e-38
0.038065597 0.11302824 0.028523862 1.1969915e-38
0.038156621 0.11642407 0.029871702 1.2057436e-38
0.033563361 0.090082392 0.025221705 1.4257895e-38
0.033576719 0.093917906 0.025753438 1.1397357e-38
0.033583373 0.097725391 0.026394725 9.0042493e-39
0.033936486 0.10129304 0.027254283 8.2717317e-39
0.034413956 0.10439524 0.027956724 7.8107662e-39
0.031011559 0.092542812 0.02603358 1.4349778e-38
0.031011559 0.098848224 0.027285933 1.278998e-38
0.10599754 0.10927498 0.0075303316 1.4637141e-38
0.13850215 0.10000196 0.012278855 1.5558028e-38
0.13632198 0.11517034 0.014133692 1.5283958e-38
0.13528636 0.11390612 0.014947355 1.5743496e-38
0.13365796 0.10738669 0.013110042 1.7310807e-38
0.13215673 0.11211345 0.014198124 1.4086488e-38
0.13121848 0.11370319 0.014318347 1.4730784e-38
0.13114689 0.12194985 0.015892804 1.5929318e-38
0.12984021 0.11766155 0.016735137 1.5192842e-38
0.1285689 0.099039808 0.01243639 1.6204827e-38
0.10628995 0.10949774 0.01986593 8.5587288e-39
0.1452665 0.096297011 0.010691464 2.081426e-38
0.14385989 0.099833444 0.011041462 1.8691601e-38
0.15794206 0.10341032 0.013299763 1.8413205e-38
0.1564433 0.10647549 0.013510466 1.813841e-38
0.15641832 0.10632391 0.013976216 1.8602288e-38
0.16321388 0.11150417 0.014383674 1.9522435e-38
0.16479823 0.11591436 0.016030252 2.0261093e-38
0.16893545 0.12749867 0.01961571 2.2674384e-38
0.16817051 0.13158806 0.021209717 2.3050347e-38
0.16552794 0.088485524 0.012412846 2.2662854e-38
0.16542469 0.092476234 0.012419462 2.1362754e-38
0.16578627 0.096045062 0.011918247 2.0349689e-38
0.16639215 0.10063565 0.011520386 1.9979449e-38
0.16639215 0.10442449 0.012272894 1.9794344e-38
0.16639215 0.10695039 0.012774587 1.9335157e-38
0.16639215 0.11705399 0.014781296 2.0259294e-38
0.1660727 0.11957216 0.01532191 2.0626273e-38
0.16595991 0.12409532 0.017115235 2.1274533e-38
0.16568992 0.12829095 0.018716514 2.2108625e-38
0.16545482 0.13172385 0.020439148 2.2481007e-38
0.16512963 0.13495867 0.021921933 2.2943423e-38
0.16435994 0.13778688 0.023266017 2.2482812e-38
0.16178924 0.085002124 0.013107777 2.265601e-38
0.16145101 0.088821337 0.011169493 2.1825898e-38
0.16191986 0.092949703 0.010560274 2.0438647e-38
0.1616829 0.13222453 0.018684506 2.0724254e-38
0.16155005 0.13551086 0.021229267 2.1554703e-38
0.16131875 0.13861755 0.023473799 2.229409e-38
0.15536246 0.081670523 0.013260126 2.1458194e-38
0.15706071 0.08448115 0.013136148 2.1730464e-38
0.15770313 0.088301033 0.010171115 2.1729756e-38
0.15872537 0.13328677 0.01897651 2.035042e-38
0.15740971 0.13608009 0.02072531 1.9801558e-38
0.15714017 0.13909602 0.023156345 2.0261827e-38
0.15686204 0.14184016 0.025020778 2.1736236e-38
0.15150638 0.077765927 0.012973011 2.0531549e-38
0.15257461 0.080619007 0.012890697 2.034824e-38
0.15264079 0.084478438 0.012792766 2.0255687e-38
0.15233639 0.08766596 0.010724783 2.044042e-38
0.15297529 0.13693646 0.02042973 1.8324983e-38
0.15250187 0.13920617 0.022424459 1.869595e-38
0.1525279 0.14233728 0.024934709 2.1277764e-38
0.15150638 0.14573354 0.026472449 2.2748574e-38
0.14875205 0.076791823 0.0131284 2.0714491e-38
0.14882749 0.080498025 0.012827575 1.9703589e-38
0.14868328 0.084632292 0.012297213 1.9703592e-38
0.14869022 0.13947445 0.021733344 1.8234234e-38
0.1487558 0.14276557 0.024519086 1.9988096e-38
0.1485607 0.14542505 0.026270568 2.1461769e-38
0.14489597 0.076698482 0.013598323 2.053047e-38
0.14497709 0.080404833 0.013296783 1.9979819e-38
0.14500894 0.084364638 0.012795031 1.9795064e-38
0.14466962 0.14052428 0.022194326 1.6942049e-38
0.14480627 0.14283535 0.02400583 1.8235309e-38
0.14479375 0.14600331 0.026348889 2.017355e-38
0.14122352 0.075399697 0.013805449 2.0990713e-38
0.14100139 0.079870433 0.013600826 2.062267e-38
0.14128619 0.083611637 0.013373911 2.0254257e-38
0.14096533 0.14274238 0.024473906 1.731334e-38
0.14108407 0.14634691 0.026430428 1.9526036e-38
0.14058086 0.14864516 0.028434634 1.9709703e-38
0.13672478 0.072326481 0.013764977 2.2746429e-38
0.13733749 0.07496959 0.013869822 2.265313e-38
0.13734344 0.079552501 0.013534069 2.1273067e-38
0.13668339 0.083182514 0.011816978 2.0717024e-38
0.13710371 0.14268547 0.02472347 1.6668702e-38
0.13721552 0.14628839 0.026680529 1.8787393e-38
0.13736746 0.14856738 0.028826177 1.9249423e-38
0.13351139 0.072248697 0.01415652 2.2927563e-38
0.13344511 0.07499212 0.01391077 2.265205e-38
0.13332185 0.07916905 0.013272107 2.1733329e-38
0.13359538 0.08258155 0.012088776 2.0074174e-38
0.13319859 0.1433498 0.024551034 1.6760536e-38
0.13335964 0.14621252 0.027039707 1.7957624e-38
0.13314778 0.14886047 0.028905213 1.8233495e-38
0.12960276 0.072332293 0.013983369 2.2466222e-38
0.12955797 0.07501559 0.013951182 2.2189647e-38
0.12940744 0.079302773 0.012881219 2.0343922e-38
0.12959163 0.14344302 0.024683893 1.7683935e-38
0.12947837 0.14618923 0.027070105 1.8604792e-38
0.12961543 0.14909257 0.029398799 1.8879942e-38
0.12572512 0.072327539 0.014131188 2.1638226e-38
0.12568392 0.075009465 0.014098227 2.1085784e-38
0.12568094 0.079220295 0.012680531 1.9975472e-38
0.12550269 0.14384924 0.025282502 1.786866e-38
0.12560111 0.14616643 0.027100086 1.851115e-38
0.12608351 0.14868949 0.029766023 1.8603694e-38
0.12157049 0.071842566 0.014817834 2.0070935e-38
0.12154382 0.075178742 0.014096916 2.016419e-38
0.12130421 0.078615502 0.012857914 1.8965661e-38
0.1203915 0.14282343 0.025726199 1.5473749e-38
0.12176059 0.14607389 0.027568161 1.8698418e-38
0.12194318 0.14819407 0.03070575 1.9160806e-38
0.11738257 0.071491361 0.015021682 1.5649169e-38
0.11713523 0.074851394 0.014506221 1.546657e-38
0.11655812 0.077959374 0.013328731 1.4637524e-38
0.11677108 0.14279595 0.026179314 1.2526022e-38
0.11731058 0.14588578 0.028608263 1.5472343e-38
0.11773484 0.14848743 0.030783415 1.8607345e-38
0.11291806 0.07124871 0.016052783 9.8440587e-39
0.11285362 0.074728221 0.015553355 9.293012e-39
0.11272473 0.07818234 0.013858557 8.8331143e-39
0.1125126 0.14289951 0.027561188 1.3349648e-38
0.11284642 0.14571625 0.029539406 1.4088655e-38
0.11345984 0.14824283 0.031789958 1.54705e-38
0.10941096 0.071347803 0.017030299 1.1134048e-38
0.10905042 0.074401915 0.016883433 1.0489736e-38
0.10892843 0.078836828 0.015268445 9.6606959e-39
0.10803948 0.081963032 0.01520294 9.2886974e-39
0.10761355 0.13962743 0.026709914 1.4088616e-38
0.10880525 0.14209509 0.028590202 1.4455264e-38
0.10921264 0.14530599 0.03097409 1.4641091e-38
0.11037499 0.14791408 0.032115459 1.4825128e-38
0.10651891 0.075406671 0.018202782 9.6631931e-39
0.10614128 0.079844654 0.017847896 6.8051664e-39
0.1050799 0.082922935 0.016282141 4.2277091e-39
0.10441905 0.10797636 0.020828187 8.0073333e-39
0.10496265 0.11035642 0.022773087 7.1757832e-39
0.10495169 0.11388861 0.023219168 6.5339871e-39
0.10441905 0.11681701 0.022584081 6.5339955e-39
0.10472942 0.13833031 0.027698278 1.0315423e-38
0.10533245 0.14150877 0.030069351 1.2153257e-38
0.10587624 0.14462915 0.032032847 1.3626945e-38
0.10099883 0.10342309 0.021178901 1.0681337e-38
0.1013038 0.10618064 0.02303499 8.284597e-39
0.10230137 0.10950013 0.024481118 6.8073384e-39
0.10199341 0.11354661 0.025666237 5.2436126e-39
0.10132152 0.11749034 0.025751948 5.9776099e-39
0.10053593 0.12245579 0.025370002 8.4736602e-39
0.10059778 0.12676643 0.025386631 8.7488542e-39
0.1012488 0.13051182 0.026390553 5.4291067e-39
0.10125688 0.13426575 0.02736342 4.9699236e-39
0.10130827 0.13783437 0.029435515 6.7166043e-39
0.10160284 0.14072016 0.030975878 8.3771752e-39
0.097759463 0.10337971 0.022299767 1.0863573e-38
0.097492903 0.10587154 0.024483681 9.298749e-39
0.098806769 0.11841439 0.027721643 6.1634361e-39
0.097607799 0.12190992 0.027633786 7.5452748e-39
0.097473755 0.12627493 0.027967691 7.9137322e-39
0.097484611 0.13001812 0.029052317 6.993166e-39
0.09827885 0.13346328 0.03036648 6.5361731e-39
0.098789543 0.13692111 0.030885816 7.0879232e-39
0.094835594 0.10395557 0.021243453 1.1231292e-38
0.09359768 0.1061393 0.023317933 1.0585198e-38
0.09288913 0.10916674 0.026429057 9.6650316e-39
0.09345112 0.12167256 0.029047132 8.0987961e-39
0.093655743 0.12597458 0.029533148 7.8236441e-39
0.094173729 0.12926453 0.030258 8.1927966e-39
0.089753956 0.10733478 0.023928106 1.1323852e-38
0.089788474 0.10951483 0.026068926 1.0771741e-38
0.089645945 0.11313692 0.027705312 9.7583062e-39
0.08884526 0.11658527 0.028620124 9.2977022e-39
0.089809276 0.12010226 0.029196501 8.931421e-39
0.090773292 0.1261601 0.03027761 9.4849563e-39
0.091094635 0.12902632 0.030806184 9.3013021e-39
0.08716882 0.10755886 0.022930264 1.1785185e-38
0.085659333 0.109606 0.025069058 1.150789e-38
0.085944772 0.11313628 0.027731717 1.0864309e-38
0.085953198 0.11683288 0.029035568 1.0221075e-38
0.086210281 0.11988811 0.029609859 9.7608117e-39
0.081702098 0.11049414 0.025086343 1.1600813e-38
0.08208397 0.1132028 0.027434886 1.1047637e-38
0.082092963 0.11682898 0.029067159 1.0587362e-38
0.081582993 0.12003019 0.030224204 1.0495894e-38
0.076520525 0.110669 0.024896741 1.2061407e-38
0.07797718 0.11307283 0.027449787 1.1416046e-38
0.078237541 0.11682416 0.029097974 1.1046887e-38
0.078240491 0.12114084 0.030611277 1.0956128e-38
0.078240804 0.12556016 0.031631708 1.0956163e-38
0.078241065 0.12935045 0.032498598 1.160045e-38
0.078241073 0.13316172 0.033255577 1.2337304e-38
0.078883752 0.13571811 0.033681929 1.280005e-38
0.071835279 0.11034513 0.025425851 1.1782329e-38
0.073572159 0.11319333 0.028106391 1.1507158e-38
0.073744796 0.11670424 0.029700339 1.1323513e-38
0.073744766 0.12115309 0.030541062 1.1599364e-38
0.073744796 0.1255863 0.031464458 1.1968155e-38
0.074128933 0.12917885 0.032677174 1.2520959e-38
0.069702603 0.1100132 0.025972545 1.1874871e-38
0.069264054 0.11307511 0.02812016 1.1324218e-38
0.069257826 0.11673935 0.029533625 1.1507861e-38
0.069255166 0.12111765 0.030717432 1.2060333e-38
0.06925258 0.12550861 0.031846702 1.2980881e-38
0.069887139 0.12885356 0.033329666 1.2981225e-38
0.066724092 0.11085288 0.026174128 1.1139109e-38
0.065620437 0.11359647 0.027445972 1.1233097e-38
0.065416902 0.11673592 0.029562891 1.1692629e-38
0.065416902 0.1211693 0.03044349 1.2338006e-38
0.065410569 0.1255201 0.031764984 1.3350008e-38
0.065232351 0.12894551 0.033680677 1.316561e-38
0.061357357 0.11021781 0.026727736 1.0676346e-38
0.061589852 0.11302727 0.028397858 1.0956516e-38
0.061572179 0.11664286 0.030031383 1.1324944e-38
0.061566755 0.1210283 0.031159878 1.1969956e-38
0.061551802 0.12532222 0.032785118 1.2797182e-38
0.061531439 0.12894604 0.034534812 1.3348217e-38
0.061531439 0.13148686 0.035039485 1.3717734e-38
0.056417942 0.079530001 0.024340391 1.9980889e-38
0.056501724 0.082189113 0.021775842 1.8139128e-38
0.058205448 0.11022572 0.027128577 1.0954362e-38
0.057751007 0.11293395 0.028865576 1.0772475e-38
0.057724342 0.11652772 0.030610085 1.1323484e-38
0.057703257 0.12080595 0.032289982 1.1509331e-38
0.057684034 0.12510417 0.033916652 1.2613518e-38
0.057675369 0.12885271 0.035004675 1.3443997e-38
0.058960728 0.13142465 0.035352767 1.3811363e-38
0.053546473 0.078953803 0.024076045 2.016061e-38
0.053946137 0.081074804 0.021878242 1.8596866e-38
0.05458504 0.11055909 0.027653337 1.1599374e-38
0.054575093 0.11301619 0.028485119 1.1600092e-38
0.053898275 0.11654647 0.030527651 1.224472e-38
0.053845875 0.12066397 0.033007264 1.2430916e-38
0.053840861 0.12507306 0.034054816 1.2704298e-38
0.053837672 0.12850074 0.034833848 1.3351457e-38
0.050019301 0.078867957 0.024505794 1.8783442e-38
0.050323457 0.11729066 0.03076297 1.2706428e-38
0.050022565 0.12071697 0.032731533 1.3350372e-38
0.050000601 0.12504265 0.034192681 1.3257821e-38
0.049975388 0.1280922 0.035486579 1.3442571e-38
0.04617174 0.07877484 0.024974644 1.5471565e-38
0.043723777 0.082511321 0.023458362 1.3437155e-38
0.046279363 0.11793576 0.0301705 1.1785555e-38
0.046036705 0.12083161 0.031882763 1.1969227e-38
0.046159983 0.12499166 0.034440815 1.2522405e-38
0.04636424 0.12781668 0.036231697 1.3165998e-38
0.042517535 0.078482002 0.026714921 1.5008417e-38
0.041770548 0.082274795 0.024429381 1.4544563e-38
0.040529281 0.084959909 0.024349332 1.3718402e-38
0.04173848 0.12134586 0.032861292 1.2518787e-38
0.042441987 0.12463149 0.035453796 1.2888671e-38
0.039680384 0.078870684 0.027356863 1.381854e-38
0.038456917 0.081667632 0.026893318 1.1956642e-38
0.037296645 0.085348636 0.025520921 1.1944773e-38
0.036057003 0.10947919 0.029785752 6.8923972e-39
0.035979427 0.11236173 0.031737864 5.9697346e-39
0.036318272 0.11654836 0.032184005 8.8374583e-39
0.038070351 0.12069948 0.033928037 1.251986e-38
0.03891968 0.12411708 0.036234438 1.2979437e-38
0.035415247 0.082238108 0.028223515 1.4811438e-38
0.033761084 0.085818619 0.027138352 1.6937343e-38
0.032223612 0.1018087 0.028747797 1.0755935e-38
0.033012263 0.10519055 0.03034693 9.7461135e-39
0.033760831 0.10824956 0.031593621 9.4673658e-39
0.033977307 0.11203815 0.033297062 1.0396144e-38
0.033946633 0.11574149 0.03455013 1.1506434e-38
0.030715749 0.085339367 0.029263556 1.5173452e-38
0.029734053 0.089579523 0.028046906 1.2417627e-38
0.029456161 0.093515173 0.028221667 1.1408139e-38
0.029456176 0.096992493 0.028912306 1.2053147e-38
0.029577009 0.1008174 0.030255914 1.352862e-38
0.029525258 0.10444318 0.031781733 1.3897764e-38
0.029931881 0.10818104 0.033385754 1.3713763e-38
0.031059235 0.11154118 0.034790933 1.2978002e-38
0.031968251 0.11425586 0.035361767 1.2798966e-38
0.027469501 0.086197674 0.030358851 1.0585207e-38
0.026479974 0.088601172 0.03066802 9.6632575e-39
0.025991648 0.092962027 0.030715406 9.0150112e-39
0.025793038 0.096763924 0.031385541 9.0164504e-39
0.025630623 0.10039994 0.032156885 1.0491233e-38
0.025663614 0.10430194 0.032471061 1.2798245e-38
0.025775172 0.10780655 0.033837855 1.4084322e-38
0.026826814 0.11063775 0.035294414 1.4452737e-38
0.023613423 0.089280412 0.03145951 9.662526e-39
0.022970751 0.092440903 0.032168686 8.9264029e-39
0.022328056 0.096236646 0.033003867 8.7419977e-39
0.02169393 0.10005747 0.033728957 9.2951897e-39
0.021904811 0.10385323 0.033799767 1.1786603e-38
0.023399204 0.10769635 0.035144329 1.3992854e-38
0.019114673 0.097429276 0.033647835 8.3750088e-39
0.018793344 0.099962339 0.034191668 8.6534244e-39
0.018150643 0.10280524 0.034837723 1.0496622e-38
0.081944242 0.100674 0.0078199506 1.3438957e-38
0.09972541 0.11105378 0.017826557 1.3532593e-38
0.10393165 0.098686174 0.014164686 1.4359465e-38
0.11992542 0.1029823 0.010680616 1.6479976e-38
0.13046686 0.1206968 0.015525997 1.2336938e-38
0.12225228 0.12503542 0.019331932 1.1415696e-38
0.078926519 0.1026924 0.024111152 1.3625863e-38
0.069223084 0.11285907 0.023773193 1.3715189e-38
0.083424591 0.10301702 0.023603141 1.3251331e-38
0.1647525 0.081135124 0.015046477 2.2209809e-38
0.16633654 0.083686069 0.014765561 2.2393841e-38
0.16681507 0.13574542 0.024946749 2.3231144e-38
0.16575915 0.13835952 0.026079237 2.2862365e-38
0.1624932 0.080761433 0.015258431 2.2574986e-38
0.16204338 0.082597911 0.014652848 2.266393e-38
0.16294578 0.13947612 0.026177824 2.267186e-38
0.16137078 0.14208066 0.027374089 2.2578584e-38
0.15571532 0.07581228 0.015133977 2.2650288e-38
0.15760443 0.079788491 0.015273571 2.2469838e-38
0.1594651 0.08253552 0.014967024 2.265637e-38
0.1580019 0.14318079 0.027539909 2.2476682e-38
0.15726453 0.14501046 0.028681576 2.2667522e-38
0.15243176 0.073313475 0.014539957 2.2376904e-38
0.15323819 0.075723663 0.014916539 2.1820504e-38
0.15430856 0.078588232 0.014836192 2.0441886e-38
0.15366399 0.14355475 0.027821183 2.1919548e-38
0.1533687 0.14571394 0.029109359 2.2385188e-38
0.14918806 0.073279202 0.014772773 2.1638978e-38
0.14979658 0.074656546 0.014626801 2.1358815e-38
0.14923313 0.14651464 0.02974081 2.2472325e-38
0.14501309 0.072814912 0.015380621 2.1728293e-38
0.14592916 0.074562952 0.015098095 2.0990017e-38
0.14592916 0.14719003 0.029522955 2.173368e-38
0.14506432 0.14860708 0.030941248 2.1366698e-38
0.14178836 0.072099313 0.015646935 2.1636459e-38
0.14176413 0.14928067 0.030722618 2.026359e-38
0.13760993 0.07078439 0.01608628 2.2837893e-38
0.13727212 0.14977117 0.031645775 1.9248356e-38
0.13376784 0.070176974 0.016794741 2.3114462e-38
0.13399148 0.15012303 0.032233953 1.804911e-38
0.129572 0.068480402 0.016989231 2.274352e-38
0.12984093 0.070261374 0.016623974 2.2651327e-38
0.12986881 0.15052283 0.032904088 1.851152e-38
0.12602168 0.06743744 0.017231762 2.2283989e-38
0.12594755 0.069619775 0.016647339 2.2007029e-38
0.1257342 0.14992319 0.033240199 1.8233843e-38
0.1221486 0.067343712 0.017703712 2.1548581e-38
0.12233797 0.069404989 0.017061889 2.0902848e-38
0.12177449 0.14943442 0.033285141 1.9156469e-38
0.11795276 0.066923141 0.0181517 1.6852737e-38
0.11821273 0.068795502 0.017463267 1.712932e-38
0.11909372 0.14946307 0.033716023 2.0171413e-38
0.1147252 0.06684503 0.018544972 1.2062868e-38
0.11434531 0.068701893 0.017934561 1.1416056e-38
0.11436372 0.14934862 0.03429234 1.6580793e-38
0.11117487 0.06835413 0.019294441 1.0857468e-38
0.10923834 0.069583297 0.019783854 1.1598605e-38
0.10789963 0.1462696 0.034157097 1.4457063e-38
0.11051285 0.14835423 0.034925103 1.5102805e-38
0.10403222 0.14235353 0.033869207 1.1415723e-38
0.1048225 0.14536744 0.034778655 1.2983751e-38
0.10665628 0.14735848 0.035558224 1.4180845e-38
0.10068047 0.10939908 0.027748525 6.5285977e-39
0.10016481 0.11295426 0.028519928 5.4262032e-39
0.10016482 0.11550258 0.029026031 5.6088106e-39
0.10114074 0.14192434 0.034407079 9.3917069e-39
0.10233948 0.14390485 0.035076678 1.1051221e-38
0.09759739 0.10899985 0.028402209 7.2694011e-39
0.097604409 0.11277762 0.029379964 5.7971381e-39
0.097429231 0.11652601 0.029704273 6.0730131e-39
0.096297406 0.11923145 0.03025651 6.9949779e-39
0.096627347 0.13353026 0.033311546 7.8261763e-39
0.097236022 0.13717745 0.034289122 8.1017038e-39
0.097870402 0.14003336 0.035010755 8.9275128e-39
0.094685979 0.10931772 0.028491616 7.7275108e-39
0.093725532 0.11275248 0.029523849 7.4537938e-39
0.093719132 0.11662072 0.030064642 7.3641051e-39
0.093933985 0.12087311 0.030882001 7.8229224e-39
0.09307456 0.12998381 0.032800317 8.3772032e-39
0.093733847 0.13308772 0.033904135 8.7459844e-39
0.093907394 0.1366822 0.035052598 9.4806823e-39
0.094391525 0.13940546 0.035532176 1.0221433e-38
0.090625189 0.11680067 0.030492246 8.4693863e-39
0.089851722 0.12124151 0.031472266 9.1158122e-39
0.089078248 0.12517267 0.032351017 1.049696e-38
0.089483395 0.12944181 0.033147633 1.0496968e-38
0.089863084 0.13299423 0.034375846 1.0497322e-38
0.089614719 0.1364826 0.035556674 1.1418919e-38
0.088581897 0.13926485 0.036240101 1.2891524e-38
0.085800141 0.12188974 0.032114208 1.012782e-38
0.085984305 0.12535262 0.03277868 1.0680651e-38
0.085984312 0.1291751 0.033537865 1.1232385e-38
0.085989907 0.13293955 0.034627259 1.1693362e-38
0.085999846 0.13665031 0.036047876 1.2523835e-38
0.085815415 0.14010936 0.036758244 1.3719871e-38
0.082485221 0.12162748 0.032482028 1.0403706e-38
0.082116902 0.12525903 0.033249915 1.0496269e-38
0.082116902 0.1290815 0.034009159 1.0957605e-38
0.082116894 0.13290398 0.034768343 1.215435e-38
0.082124785 0.13659474 0.036299407 1.3075932e-38
0.081965387 0.14022124 0.037268162 1.4088649e-38
0.078066796 0.1369444 0.03637743 1.2614937e-38
0.078511894 0.13953155 0.037568569 1.3537624e-38
0.074381337 0.13267791 0.035931587 1.2889391e-38
0.074380718 0.13640732 0.037243128 1.3074508e-38
0.075026125 0.13893677 0.037891984 1.3443287e-38
0.069870099 0.13005927 0.035754502 1.252167e-38
0.070509918 0.13250652 0.036844432 1.3073764e-38
0.070507526 0.13627535 0.037935734 1.3625523e-38
0.067291811 0.12999687 0.036068678 1.298194e-38
0.066638708 0.13241284 0.037316203 1.3350374e-38
0.066634446 0.13618162 0.038407683 1.3902101e-38
0.066634439 0.13873367 0.038914561 1.4177985e-38
0.062959 0.13275467 0.037458956 1.3811003e-38
0.062945783 0.13572776 0.038784802 1.390321e-38
0.058419488 0.13242428 0.03805995 1.3904271e-38
0.059211038 0.13504493 0.039122224 1.4364168e-38
0.05309546 0.076009616 0.027657866 2.2276091e-38
0.053755887 0.12966926 0.037718177 1.3534769e-38
0.054202273 0.13221706 0.038914859 1.3259624e-38
0.056306228 0.13465562 0.039412856 1.4179776e-38
0.049862921 0.07588838 0.028214455 1.9978748e-38
0.049888469 0.12957567 0.038189411 1.3903903e-38
0.050026014 0.13185841 0.03926754 1.4178688e-38
0.046623521 0.075724006 0.028934598 1.6391355e-38
0.045698777 0.12915573 0.038636684 1.3443675e-38
0.04597801 0.13121557 0.040037811 1.4086891e-38
0.04210493 0.076252654 0.029611945 1.4455253e-38
0.04086452 0.12553477 0.038529873 1.3440787e-38
0.042142615 0.12807412 0.039100707 1.3349649e-38
0.043395959 0.13051507 0.040225744 1.3261014e-38
0.037613533 0.078185096 0.030050933 1.1942963e-38
0.037641682 0.1248197 0.038796067 1.3163823e-38
0.038249567 0.12789932 0.040015638 1.3623721e-38
0.03823185 0.13039008 0.04085505 1.3991787e-38
0.034379423 0.080614626 0.031114399 1.674577e-38
0.034041651 0.12042777 0.038526595 1.2151444e-38
0.034385271 0.12400013 0.039616585 1.288651e-38
0.034358777 0.12774429 0.040820122 1.3439332e-38
0.030485682 0.081713557 0.032168269 1.646707e-38
0.029906854 0.083222315 0.031513929 1.4812196e-38
0.029262289 0.1118753 0.03728646 1.3530453e-38
0.030356944 0.11514691 0.038311362 1.3257427e-38
0.030496329 0.11938918 0.039478719 1.3163812e-38
0.030485682 0.12382247 0.040531754 1.3439324e-38
0.031453945 0.12735498 0.041110754 1.3901391e-38
0.027903639 0.081651062 0.032482922 1.3990693e-38
0.026458792 0.08390823 0.032674074 1.2242559e-38
0.026684009 0.11194029 0.037626028 1.454566e-38
0.026791595 0.11469182 0.038929403 1.4546011e-38
0.027903639 0.11929387 0.039959371 1.4177598e-38
0.027903639 0.12312196 0.040719688 1.3714832e-38
0.023062281 0.085042953 0.033769846 1.2055284e-38
0.022285149 0.087576583 0.033549666 1.0306096e-38
0.021527454 0.090664461 0.034053445 9.0189839e-39
0.021849751 0.10755487 0.037367284 1.4085411e-38
0.022773154 0.11096711 0.038498878 1.5007361e-38
0.022739537 0.11406478 0.039574921 1.5650915e-38
0.019854926 0.088214755 0.034549236 9.4781362e-39
0.018920958 0.09179765 0.03495115 8.0969772e-39
0.01874084 0.095264167 0.035613656 8.006955e-39
0.017660052 0.099489972 0.036296189 8.4690345e-39
0.018605739 0.10423723 0.037376106 1.2246174e-38
0.01903794 0.10682416 0.038477302 1.3349655e-38
0.01951196 0.10952057 0.039081156 1.4179408e-38
0.015177779 0.091915861 0.036133587 8.2813656e-39
0.015387207 0.095266759 0.036479115 6.9002599e-39
0.015697181 0.09936893 0.036863267 8.0984668e-39
0.01563888 0.10304669 0.038285971 1.0588105e-38
0.011120267 0.092218697 0.036707699 8.1880966e-39
0.012411304 0.094036385 0.036905169 7.4491163e-39
0.0075054094 0.092131212 0.037148178 9.2018842e-39
0.0072472021 0.093911394 0.037534475 8.7416431e-39
0.0046651438 0.092572868 0.037595689 1.0579773e-38
0.0046651438 0.093848899 0.037849128 9.7532559e-39
0.056266107 0.092506319 0.0094716549 1.4451692e-38
0.075679176 0.091781944 0.0062083602 1.656354e-38
0.074072793 0.092998296 0.006693244 1.7677073e-38
0.10575815 0.12516442 0.019820213 1.3628383e-38
0.09884911 0.10438789 0.016413391 1.3165967e-38
0.086767256 0.096727386 0.015635848 1.5926437e-38
0.12837742 0.11960699 0.016269445 1.4638957e-38
0.11772952 0.10452545 0.013862193 1.5197151e-38
0.072992802 0.11470394 0.027127981 1.6018272e-38
0.10028926 0.12475015 0.026544571 1.2705367e-38
0.086881973 0.11739926 0.029358208 1.0401527e-38
0.1652759 0.1443059 0.031636417 2.3417689e-38
0.16181299 0.071918219 0.017697692 2.2487825e-38
0.16246757 0.075363398 0.016586781 2.239743e-38
0.16203892 0.078770578 0.015947938 2.2764406e-38
0.16333169 0.14242363 0.02894038 2.2771966e-38
0.16240355 0.14526775 0.031457543 2.2769445e-38
0.16138014 0.14806211 0.032875896 2.2486754e-38
0.15618578 0.06835936 0.017703652 2.302299e-38
0.15770721 0.071592808 0.016714752 2.2842932e-38
0.15844616 0.075558096 0.015993297 2.2657826e-38
0.15971169 0.078203097 0.01613003 2.2939805e-38
0.15811928 0.14653349 0.030490339 2.2574614e-38
0.15757176 0.1488689 0.032876432 2.2478809e-38
0.15349343 0.067878917 0.017093182 2.3019406e-38
0.15346432 0.071220398 0.015828073 2.2651701e-38
0.15389356 0.14706865 0.030544698 2.2754681e-38
0.15329894 0.14916372 0.032962501 2.2660689e-38
0.15229002 0.1516926 0.034748375 2.2476654e-38
0.14947668 0.067209676 0.017811477 2.2926134e-38
0.14940439 0.070835486 0.016314685 2.2649896e-38
0.15066126 0.14699042 0.030938625 2.2840759e-38
0.14954947 0.14926517 0.033243597 2.2015315e-38
0.14969285 0.15162975 0.035064816 2.1922406e-38
0.14575133 0.066943973 0.018287718 2.2648109e-38
0.14583093 0.070495576 0.01717937 2.2281109e-38
0.14583093 0.15007484 0.032985032 2.145854e-38
0.14578032 0.15220174 0.035502851 2.1365636e-38
0.14060274 0.064131707 0.01883781 2.3021544e-38
0.14176166 0.0671193 0.017800391 2.2558054e-38
0.14161083 0.070097625 0.016812861 2.2099943e-38
0.14161083 0.15060505 0.03280288 1.9986279e-38
0.14182621 0.15283881 0.035502315 1.9892655e-38
0.13670696 0.064037412 0.019312501 2.3110148e-38
0.1378741 0.0670252 0.018274128 2.292649e-38
0.139025 0.07003504 0.017127991 2.2745322e-38
0.13837855 0.15052682 0.033196807 1.9619654e-38
0.13788423 0.15282544 0.035428286 1.9524943e-38
0.13670696 0.15516596 0.037412047 1.8879571e-38
0.1341098 0.063974544 0.019629002 2.3019738e-38
0.13394874 0.067051902 0.018320084 2.3203062e-38
0.13385335 0.069909871 0.017758191 2.3295621e-38
0.13394874 0.1528125 0.035353422 1.8417886e-38
0.1341098 0.15510309 0.037728548 1.8325685e-38
0.12999432 0.06307672 0.019531786 2.2652397e-38
0.13029778 0.066281453 0.018309891 2.2927192e-38
0.13007171 0.15270245 0.035936832 1.8051245e-38
0.13021404 0.15500881 0.038203239 1.7865031e-38
0.12626885 0.062686324 0.019681513 2.2283967e-38
0.12609583 0.065888435 0.017942071 2.2284e-38
0.12621941 0.15254396 0.036849916 1.7959055e-38
0.12761685 0.15494594 0.03851974 1.7958691e-38
0.12238427 0.062561378 0.020262837 2.1087968e-38
0.12221707 0.065794557 0.018414736 2.1272724e-38
0.12286355 0.15015131 0.035087407 1.8050805e-38
0.12238827 0.15168545 0.038020849 1.8050874e-38
0.11722815 0.05971548 0.020921409 1.4454228e-38
0.11898479 0.065716326 0.018808603 1.8145261e-38
0.11769187 0.15002614 0.035717607 2.0079194e-38
0.11873509 0.15151356 0.038141191 2.0352547e-38
0.11463097 0.059652612 0.02123791 1.1598297e-38
0.11454231 0.062649265 0.020246208 1.0864309e-38
0.11381312 0.065591156 0.019438803 1.0865762e-38
0.11510604 0.14996356 0.036032736 1.7594206e-38
0.1142787 0.15116785 0.038945138 1.7867588e-38
0.11070599 0.062279135 0.021686018 1.2607739e-38
0.11042446 0.066265434 0.020589113 1.1595757e-38
0.11030811 0.1493765 0.037551284 1.5287206e-38
0.1113845 0.15070258 0.039732993 1.5842174e-38
0.10813803 0.067196459 0.023558617 1.261023e-38
0.10809036 0.068747982 0.022845447 1.2148542e-38
0.10554086 0.074834615 0.025404632 7.3597653e-39
0.10554086 0.07675986 0.025787055 5.5176744e-39
0.10677745 0.14886996 0.038582802 1.4458149e-38
0.10127182 0.14477274 0.036754072 1.1141976e-38
0.10291207 0.14805122 0.039480567 1.3352881e-38
0.097328424 0.14154646 0.036612749 9.9455771e-39
0.098642722 0.14431979 0.03905189 1.1049781e-38
0.099372566 0.14688222 0.040495753 1.2704262e-38
0.092479989 0.1379149 0.03650558 1.1046549e-38
0.093604103 0.14077003 0.037517369 1.1881706e-38
0.094664931 0.14385112 0.039929628 1.4734355e-38
0.090217389 0.13690171 0.036590934 1.1602236e-38
0.090055764 0.14057174 0.037340343 1.3170283e-38
0.090195127 0.14407617 0.039970756 1.6300614e-38
0.08666186 0.14160776 0.037976027 1.4460304e-38
0.08602272 0.14407827 0.039004266 1.5469782e-38
0.086052708 0.14684549 0.041559219 1.6389218e-38
0.08342956 0.14152953 0.038369894 1.4456005e-38
0.082136646 0.14405403 0.039035082 1.5193218e-38
0.082161337 0.14686415 0.042158604 1.6113715e-38
0.077934667 0.14107707 0.038976014 1.3904258e-38
0.078257889 0.14396015 0.039507747 1.4548922e-38
0.078008734 0.14661977 0.042738795 1.4730442e-38
0.074194446 0.14039321 0.039314032 1.4087574e-38
0.074377425 0.14372618 0.040866077 1.4732218e-38
0.074807532 0.14684835 0.043429315 1.3899936e-38
0.070498377 0.1399025 0.039912999 1.4455988e-38
0.070667014 0.14300153 0.042920709 1.5009526e-38
0.071777567 0.14589347 0.043794692 1.463461e-38
0.066616736 0.14042944 0.040623426 1.4550719e-38
0.066845506 0.14246917 0.043533862 1.5009176e-38
0.062096432 0.13717952 0.040208042 1.4088676e-38
0.062717617 0.1395326 0.041966617 1.4178332e-38
0.063012101 0.1421517 0.044161797 1.4824416e-38
0.058595128 0.1365163 0.040930867 1.4549277e-38
0.058812745 0.1393095 0.04321599 1.4824059e-38
0.05879169 0.14172867 0.044612348 1.5102075e-38
0.053629048 0.073838025 0.030754745 2.2553428e-38
0.054823764 0.13588534 0.040872216 1.4180492e-38
0.054912291 0.13915983 0.044022799 1.501023e-38
0.055545218 0.14165011 0.045007944 1.5745645e-38
0.049701571 0.069632635 0.031444371 1.9981621e-38
0.050886862 0.072746515 0.030500054 2.1267334e-38
0.051090866 0.13556045 0.041737199 1.3903885e-38
0.051180229 0.1389 0.044501007 1.4548529e-38
0.046937071 0.068762958 0.031181574 1.7215746e-38
0.046919912 0.072730035 0.030562639 1.7126425e-38
0.044642054 0.075418085 0.030152142 1.4551768e-38
0.046581425 0.13297033 0.041337252 1.4360214e-38
0.046919346 0.13520381 0.042970955 1.426944e-38
0.047438867 0.13796589 0.045046151 1.4179044e-38
0.043406092 0.068556979 0.031257689 1.3625132e-38
0.042866126 0.072527274 0.030944526 1.4453106e-38
0.041409753 0.075339854 0.030546069 1.44513e-38
0.042042285 0.13153288 0.041920304 1.3992478e-38
0.043228716 0.13500795 0.044808567 1.4361639e-38
0.040178597 0.068974316 0.032519817 1.2244005e-38
0.039357856 0.072173342 0.032378495 1.2148224e-38
0.038393296 0.075827196 0.031846941 1.2323621e-38
0.038848504 0.13146371 0.043338537 1.4269822e-38
0.038988225 0.13386925 0.045559704 1.4638596e-38
0.036301591 0.072817609 0.033431828 1.2681589e-38
0.035104536 0.075768784 0.033484638 1.5180933e-38
0.033652268 0.079624727 0.032379687 1.8315976e-38
0.03531345 0.13123001 0.044473708 1.4541721e-38
0.036715686 0.13349336 0.04577291 1.4459227e-38
0.031861484 0.076644555 0.034839928 1.9238631e-38
0.030734651 0.079246521 0.033554792 1.7948281e-38
0.029644214 0.12770438 0.042436719 1.3809892e-38
0.03198614 0.13047288 0.045258462 1.4176876e-38
0.028309651 0.07694301 0.035092294 1.6939525e-38
0.02632606 0.079737365 0.034100592 1.5186379e-38
0.025248297 0.11584136 0.040637374 1.5006263e-38
0.025876433 0.11900362 0.041442752 1.4453463e-38
0.026108958 0.12355186 0.042940378 1.3256019e-38
0.026595242 0.12694323 0.044212818 1.3255294e-38
0.028274864 0.12943858 0.04603672 1.3439304e-38
0.02287852 0.079683959 0.035810888 1.5093436e-38
0.02237229 0.082958907 0.034881711 1.2427296e-38
0.022662453 0.11577877 0.040952444 1.5833858e-38
0.022957243 0.11856565 0.043295085 1.4637145e-38
0.023105569 0.1229586 0.045062065 1.3164164e-38
0.023729816 0.1264407 0.046016991 1.2978704e-38
0.019834042 0.080033436 0.037293255 1.5465443e-38
0.018831074 0.083560973 0.036451519 1.334096e-38
0.018007942 0.087296844 0.035885096 1.0028422e-38
0.017490767 0.10798623 0.040059805 1.3258891e-38
0.018599004 0.11093394 0.040504932 1.4086495e-38
0.018672742 0.11413924 0.042502046 1.3625513e-38
0.020205066 0.11787511 0.044762194 1.3901373e-38
0.021132633 0.12220646 0.045504987 1.3163066e-38
0.014916711 0.083727956 0.038444519 1.5835628e-38
0.014796443 0.087180793 0.037524462 1.0862452e-38
0.014258496 0.090017468 0.036900342 9.1100627e-39
0.013612039 0.095752344 0.038121283 6.7154833e-39
0.013551831 0.098798543 0.039418936 8.0044733e-39
0.013935275 0.10310806 0.039541304 1.0314403e-38
0.014786221 0.10636203 0.041449666 1.1971031e-38
0.014698237 0.1099948 0.043209672 1.2800419e-38
0.015035711 0.11359048 0.044272542 1.243057e-38
0.010869391 0.086978972 0.038438499 1.150284e-38
0.011026196 0.090258703 0.037357688 8.7430697e-39
0.010864593 0.095206633 0.038360894 7.5441804e-39
0.010858513 0.098485366 0.040839314 8.1917386e-39
0.010942571 0.10252422 0.040717721 9.8534053e-39
0.010837808 0.10612564 0.042587698 1.1141248e-38
0.010743931 0.10847826 0.044094265 1.1696933e-38
0.0069802478 0.087526277 0.039039791 1.0677742e-38
0.0067733899 0.090038002 0.038366258 9.6621477e-39
0.0071474388 0.095595881 0.038909018 8.1906596e-39
0.0069479197 0.098340869 0.041534185 8.5590666e-39
0.0070813298 0.10247897 0.040969372 9.484229e-39
0.0069257692 0.1059836 0.043283284 1.0031304e-38
0.0074974597 0.10839969 0.044489861 1.0772106e-38
0.0036534593 0.087889358 0.040389478 9.5721283e-39
0.0029482469 0.090509489 0.039971769 9.2933526e-39
0.0031070784 0.095018879 0.039306223 8.834566e-39
0.00315281 0.098446339 0.041122675 8.6508936e-39
0.0031975806 0.10238495 0.041442752 8.7437941e-39
0.0031408668 0.1056201 0.044232786 9.1115131e-39
0.00040984899 0.091016799 0.041421473 8.0069353e-39
0.00016569346 0.094787955 0.039632916 7.8218308e-39
3.6410987e-05 0.098618507 0.040410101 7.9140335e-39
0 0.10237966 0.041504145 7.8232742e-39
0.00040984899 0.10512596 0.044223785 8.1906288e-39
0.063043825 0.10198128 0.010837495 1.3717382e-38
0.057390228 0.092960447 0.0094195008 1.5282484e-38
0.085719995 0.091252729 0.0085740089 2.3303504e-38
0.083631501 0.095441699 0.010159731 1.5933625e-38
0.081320494 0.098600641 0.010590672 1.7123106e-38
0.10854231 0.09724021 0.013316691 1.5097042e-38
0.097213492 0.1105922 0.016415775 1.3810259e-38
0.1272388 0.11491728 0.014978468 1.2336218e-38
0.061572179 0.11664286 0.030031383 1.1324944e-38
0.098184466 0.11129119 0.02542901 1.5008449e-38
0.099748909 0.10631022 0.0294981 1.8783436e-38
0.098769441 0.12271447 0.031422555 1.7404074e-38
0.10031317 0.12818196 0.029435694 1.104764e-38
0.082676336 0.13153642 0.036352217 1.4000046e-38
0.16358405 0.14651781 0.034344733 2.2674737e-38
0.16317555 0.14914839 0.035561144 2.2578573e-38
0.15665627 0.063413665 0.020771265 2.284398e-38
0.15871739 0.066101298 0.020390272 2.2752537e-38
0.15967695 0.069189012 0.019480944 2.2664293e-38
0.15938216 0.14991815 0.035809159 2.2571383e-38
0.1582337 0.15191928 0.037269473 2.2753959e-38
0.15404397 0.063350439 0.021089613 2.2930798e-38
0.15396935 0.064822823 0.020706534 2.3021557e-38
0.15511866 0.15017463 0.036143303 2.2846879e-38
0.15409316 0.15273887 0.037809849 2.2201133e-38
0.15003601 0.062838808 0.020639539 2.3205236e-38
0.15121156 0.065122426 0.019745529 2.3111606e-38
0.14999965 0.15314727 0.038238347 2.1556136e-38
0.14881939 0.15488312 0.039931118 2.0168932e-38
0.14590311 0.062405363 0.020520449 2.3017967e-38
0.14610457 0.15367231 0.039007187 2.0997917e-38
0.14686015 0.1548357 0.040169895 2.0076682e-38
0.14236376 0.062094003 0.021145403 2.3020465e-38
0.13706404 0.059066564 0.022389472 2.3020453e-38
0.13827848 0.061955333 0.0217821 2.3017949e-38
0.13823283 0.15591715 0.039936423 1.9064681e-38
0.1341043 0.058742762 0.022443175 2.2835005e-38
0.13433808 0.06130901 0.021810353 2.2742795e-38
0.13430957 0.15670404 0.040418386 1.8142018e-38
0.1331456 0.15837669 0.042610347 1.7497729e-38
0.13049337 0.058403194 0.022576332 2.283608e-38
0.13106476 0.060632914 0.021919429 2.2560929e-38
0.13042656 0.15656331 0.041224718 1.7957264e-38
0.13183945 0.15834507 0.042769492 1.7222943e-38
0.12656541 0.05771029 0.022764981 2.2470891e-38
0.12653065 0.15579787 0.041761935 1.8234574e-38
0.127921 0.15825024 0.043246984 1.8324987e-38
0.12265857 0.057584152 0.023348987 2.1365976e-38
0.12255945 0.15324832 0.040877879 1.7866858e-38
0.12279096 0.1555263 0.042328417 1.77743e-38
0.11890173 0.057351738 0.02370733 1.6850229e-38
0.11832675 0.15282407 0.041329741 1.9799371e-38
0.11873578 0.15489651 0.043059409 1.8602269e-38
0.11483093 0.05673407 0.024228692 1.2707513e-38
0.11500572 0.15255061 0.041696131 1.9158686e-38
0.11507465 0.154698 0.043346763 1.8789535e-38
0.11110505 0.057637393 0.024953485 1.5096656e-38
0.11067414 0.1519787 0.042571545 1.676267e-38
0.11118133 0.15454616 0.044220746 1.8512949e-38
0.10767569 0.058355272 0.025970697 1.5192099e-38
0.10698615 0.06113717 0.025811493 1.3622261e-38
0.10681833 0.064867288 0.026473761 1.2240028e-38
0.10632406 0.068918288 0.027212501 1.0676297e-38
0.10562867 0.072386235 0.026961982 9.1990073e-39
0.10696623 0.15146981 0.0432989 1.5655971e-38
0.10702261 0.15387152 0.045024395 1.7776847e-38
0.10375725 0.072461158 0.029268742 5.0595969e-39
0.10375725 0.076334074 0.03003794 2.941268e-39
0.10228913 0.080113664 0.030152619 3.7656645e-39
0.10175979 0.082987353 0.030584991 1.3258577e-38
0.10306405 0.15134275 0.043996215 1.5286834e-38
0.10049187 0.080773443 0.031333208 6.8881218e-39
0.10049187 0.082709908 0.031717837 1.6572563e-38
0.09885636 0.14829803 0.042897105 1.3809205e-38
0.099166155 0.15118234 0.044914663 1.5930775e-38
0.095209718 0.14743742 0.043188035 1.6668333e-38
0.095241688 0.1511364 0.045060217 1.7403023e-38
0.090042681 0.077293113 0.031965494 2.2464387e-38
0.090042681 0.079229578 0.032350123 2.3109421e-38
0.091736734 0.14778244 0.043696523 1.8050165e-38
0.091323368 0.15107396 0.045315862 1.832532e-38
0.086124234 0.073325351 0.031673789 2.2375773e-38
0.086992398 0.076401025 0.032003462 2.2280375e-38
0.087753028 0.078914523 0.032320678 2.2923275e-38
0.086527258 0.14808545 0.044416487 1.6942773e-38
0.087577686 0.15078755 0.045975983 1.767924e-38
0.083511941 0.073262125 0.031992197 2.2461531e-38
0.083502777 0.076042205 0.031746387 2.2466567e-38
0.08349295 0.078846157 0.031391323 2.2750724e-38
0.083492324 0.14839058 0.045203984 1.6667606e-38
0.083766103 0.15004188 0.046593189 1.703602e-38
0.079593495 0.073167294 0.03246969 2.254871e-38
0.07975094 0.075815767 0.032076836 2.2744969e-38
0.079061575 0.14804609 0.045559824 1.5468369e-38
0.079263896 0.14972432 0.047203064 1.602332e-38
0.073720641 0.14756095 0.045934439 1.3714097e-38
0.075936005 0.14985237 0.0475474 1.4636795e-38
0.069813542 0.14424829 0.04577142 1.5193206e-38
0.070788346 0.14695045 0.046570003 1.4727916e-38
0.071756594 0.14914507 0.048552692 1.4912295e-38
0.066232011 0.14383981 0.046143889 1.5283962e-38
0.066978142 0.14658439 0.047736108 1.5930768e-38
0.062382631 0.14349073 0.046973169 1.5285034e-38
0.063183881 0.14625964 0.048478365 1.6116572e-38
0.05899094 0.071722299 0.034564018 2.3030906e-38
0.058982 0.074474812 0.034312725 2.3118415e-38
0.058734342 0.14279491 0.04727143 1.5193555e-38
0.059357233 0.14599848 0.049112976 1.5378299e-38
0.053470515 0.068016633 0.034755468 2.3296349e-38
0.054962762 0.071314856 0.034451067 2.3022656e-38
0.056138657 0.075050145 0.033759713 2.2469101e-38
0.054650247 0.14296184 0.047436595 1.5285043e-38
0.054791555 0.14558464 0.049480677 1.4733305e-38
0.051154926 0.068097681 0.03403753 2.1546791e-38
0.052231565 0.070450246 0.033340991 2.2369742e-38
0.04962682 0.139898 0.047464311 1.4548524e-38
0.050917156 0.14245114 0.04815048 1.5192818e-38
0.050881237 0.14487037 0.049662888 1.5008443e-38
0.047592841 0.065937921 0.035087109 1.7490905e-38
0.046761617 0.13931377 0.047711253 1.3993951e-38
0.04697115 0.14221457 0.049516499 1.4087199e-38
0.048245914 0.14470312 0.050648391 1.4452037e-38
0.041715167 0.06579566 0.035803378 1.2793557e-38
0.041812614 0.13584717 0.047649562 1.491408e-38
0.043093964 0.13838014 0.048447013 1.3809185e-38
0.043300889 0.14129123 0.050186157 1.3624437e-38
0.038828835 0.067284077 0.035437226 1.1866969e-38
0.037905514 0.070103526 0.035086751 1.0017705e-38
0.039468355 0.13527554 0.047833025 1.4914088e-38
0.039154947 0.13819361 0.049479604 1.3899575e-38
0.039755955 0.14062472 0.050913692 1.3073051e-38
0.036490574 0.068251163 0.036952853 1.1761474e-38
0.034826912 0.070711762 0.03628248 1.4538102e-38
0.035116173 0.13449566 0.048614621 1.4268008e-38
0.03553956 0.13705571 0.050225258 1.3902086e-38
0.032603092 0.071514428 0.037579715 1.8873422e-38
0.031107269 0.074212402 0.03717494 1.9240784e-38
0.030525401 0.13128319 0.048172772 1.4360187e-38
0.031484872 0.1339581 0.049738407 1.4454537e-38
0.027240381 0.074405715 0.038172781 1.6847687e-38
0.027280383 0.13066459 0.048754573 1.3347481e-38
0.027381651 0.13331059 0.050514698 1.3625884e-38
0.023516163 0.075334713 0.038804591 1.5926054e-38
0.022711203 0.12723236 0.048357964 1.2795748e-38
0.023495294 0.13006064 0.049961984 1.2612783e-38
0.020407699 0.075262174 0.040039957 1.8965559e-38
0.019395322 0.077843368 0.039174139 1.7490143e-38
0.018695578 0.1188754 0.047206819 1.3165248e-38
0.019276604 0.12256008 0.048158765 1.2980104e-38
0.019599855 0.12613809 0.049448073 1.2797498e-38
0.020509973 0.12955278 0.050895572 1.2059961e-38
0.015852392 0.07866165 0.040754139 2.0342468e-38
0.01576525 0.081152797 0.040085673 1.8226259e-38
0.01573626 0.11777462 0.047705591 1.2337295e-38
0.015678719 0.12215531 0.049267769 1.1969586e-38
0.015798233 0.12577395 0.050485075 1.1044026e-38
0.012326822 0.079285085 0.042205036 1.9052832e-38
0.011602432 0.081932545 0.041795254 1.6844796e-38
0.011206955 0.1100053 0.046393633 1.197278e-38
0.011671811 0.11334577 0.047255218 1.1693347e-38
0.011757784 0.11753297 0.048932016 1.2062115e-38
0.011871099 0.12178542 0.050318718 1.1416011e-38
0.012326822 0.12446916 0.05117929 1.1049049e-38
0.0079792514 0.082075313 0.042667806 1.4359059e-38
0.0072998554 0.084809631 0.041884243 1.1507188e-38
0.0079180822 0.10985777 0.047123432 1.1048328e-38
0.0078857914 0.11301026 0.04809612 1.0860325e-38
0.0079838187 0.11633348 0.049673259 1.1415684e-38
0.0038885996 0.082429811 0.04338479 1.0679176e-38
0.0037416443 0.085141942 0.04281199 9.941994e-39
0.0039976984 0.10909641 0.047582984 1.0030965e-38
0.0039399713 0.11284788 0.048906088 1.0214974e-38
0.0041633993 0.11555752 0.050443292 1.021855e-38
0.0012781993 0.082366645 0.043702841 8.9260442e-39
0.00069762766 0.085737348 0.043761015 8.2799713e-39
0.00013682246 0.088497967 0.043524146 7.9129671e-39
0.00071584433 0.10897128 0.048202097 8.8370996e-39
0.0012603179 0.11264987 0.049891055 1.0215313e-38
0.066439487 0.10270327 0.0098316669 1.316238e-38
0.080317818 0.10214177 0.012790859 1.2333667e-38
0.0761896 0.10258135 0.013144195 1.361831e-38
0.10442966 0.11245257 0.017491817 1.4180832e-38
0.049070559 0.095409334 0.019178629 1.1965241e-38
0.13225394 0.11644907 0.014932811 1.3348928e-38
0.097319894 0.10412413 0.023280978 1.6754765e-38
0.07796412 0.11959307 0.026165247 1.325637e-38
0.052313916 0.11421411 0.031406581 1.1504285e-38
0.10608458 0.072498024 0.024015605 2.1189525e-38
0.15712675 0.058423147 0.023829937 2.2658894e-38
0.15918835 0.061153412 0.023364007 2.2662142e-38
0.15927404 0.15326534 0.040545821 2.1925615e-38
0.15449932 0.058359548 0.024150133 2.2751801e-38
0.15442376 0.060491368 0.023898244 2.2841477e-38
0.15439835 0.15586798 0.042616427 1.9526001e-38
0.15050411 0.057754755 0.02402246 2.284184e-38
0.15034187 0.060118139 0.022971213 2.2933316e-38
0.15057345 0.15600601 0.042628884 1.952568e-38
0.1505582 0.15824457 0.044488013 1.9062879e-38
0.14634208 0.057476848 0.024127543 2.2932228e-38
0.14772201 0.060054734 0.023290455 2.3022279e-38
0.14626887 0.15613791 0.042998493 1.9154011e-38
0.1465829 0.15949294 0.044897079 1.7405171e-38
0.14241964 0.05734162 0.024744153 2.3021183e-38
0.14248228 0.059927911 0.023929 2.3296686e-38
0.14280978 0.15671542 0.043110967 1.860047e-38
0.14264366 0.1593976 0.045377076 1.7221845e-38
0.13880762 0.056802452 0.024801016 2.3021539e-38
0.13986242 0.059864506 0.024248242 2.3018306e-38
0.13920745 0.15695192 0.043614268 1.8690879e-38
0.13887039 0.15896797 0.045525074 1.8236015e-38
0.13413683 0.05397138 0.025857747 2.3205584e-38
