# .PCD v0.7 - Point Cloud Data file format
VERSION 0.7
FIELDS x y z rgb
SIZE 4 4 4 4
TYPE F F F F
COUNT 1 1 1 1
WIDTH 977
HEIGHT 1
VIEWPOINT 0 0 0 0 1 0 0
POINTS 977
DATA ascii
0.084404081 0.075853378 0.025218427 1.3531874e-38
0.085477501 0.079306446 0.024851203 1.2703561e-38
0.084404081 0.083571739 0.024053931 1.3254214e-38
0.084296539 0.08658623 0.023000121 1.5277434e-38
0.079895735 0.063537382 0.026430845 1.564948e-38
0.079895735 0.06803976 0.025751591 1.4818656e-38
0.080131412 0.071701929 0.024977446 1.4267246e-38
0.080861807 0.07545694 0.024770916 1.3624068e-38
0.079895735 0.084762886 0.023228526 1.4531321e-38
0.080024511 0.086889885 0.022488415 1.7585241e-38
0.076289058 0.063718461 0.025886953 1.5281063e-38
0.076031446 0.067958117 0.02521044 1.4452393e-38
0.076031446 0.071174107 0.024725199 1.4176533e-38
0.07667549 0.084694855 0.022777557 1.4347283e-38
0.076664612 0.086927146 0.021758378 1.8142366e-38
0.072167143 0.065303691 0.025057435 1.4636445e-38
0.073455244 0.069190085 0.024655581 1.3808119e-38
0.071893692 0.086857736 0.021255732 1.3443651e-38
0.071192771 0.089532487 0.020241082 1.2786797e-38
0.068623587 0.087831311 0.02094686 1.5095621e-38
0.068025261 0.090704866 0.020340145 1.4265845e-38
0.067575842 0.094322421 0.019255698 1.1504628e-38
0.067334145 0.097158022 0.018537939 1.1137669e-38
0.064438552 0.095370673 0.019414246 1.1505724e-38
0.064438552 0.098586656 0.018929064 1.1046185e-38
0.064163119 0.10219599 0.018053293 1.2518818e-38
0.06347549 0.10478357 0.016834795 1.3168115e-38
0.060390234 0.095009483 0.01888895 1.1690821e-38
0.060574263 0.098505013 0.018387914 1.1323126e-38
0.060610577 0.10234153 0.017700791 1.2521314e-38
0.060683221 0.1048677 0.017103195 1.3536186e-38
0.057998061 0.094591402 0.018609405 1.1414589e-38
0.057998061 0.098450579 0.018027127 1.1691902e-38
0.17118761 0.077312365 0.011807561 1.4821895e-38
0.1711731 0.085794948 0.010610819 1.3258891e-38
0.15472861 0.10893469 0.013957143 1.4640392e-38
0.084140837 0.10242897 0.0068715215 1.5647358e-38
0.12999065 0.11427016 0.015170038 1.427518e-38
0.10502163 0.093972676 0.020458281 1.076636e-38
0.1753121 0.021776527 0.047418773 5.1567952e-39
0.1750541 0.13075936 0.03093946 2.256274e-38
0.17457119 0.13278893 0.033628285 2.2476305e-38
0.17092176 0.019092899 0.048799932 6.6290456e-39
0.17053914 0.021804519 0.046730936 7.6435646e-39
0.17083299 0.13378102 0.032035291 2.2197209e-38
0.17068426 0.13658857 0.03249836 2.2662145e-38
0.16696961 0.019323934 0.048636794 7.8257979e-39
0.16757217 0.021613002 0.046334922 8.6555544e-39
0.16721772 0.13371184 0.030903697 2.191879e-38
0.163059 0.019255441 0.048257351 8.6551844e-39
0.16314954 0.022197887 0.046379268 9.6686329e-39
0.16345532 0.13450202 0.030501008 2.1087261e-38
0.1599478 0.019448049 0.048293293 9.298784e-39
0.15930803 0.022340905 0.046516836 1.0588451e-38
0.15892929 0.025424059 0.044522047 1.206142e-38
0.15920708 0.13479793 0.030103266 2.0536944e-38
0.15566242 0.022791032 0.047004998 1.1231669e-38
0.1553032 0.025731675 0.045123696 1.2246537e-38
0.15550922 0.1343047 0.030056715 2.0444018e-38
0.15160096 0.026487559 0.045500815 1.3902433e-38
0.15134707 0.13411295 0.02959162 2.072168e-38
0.14770167 0.026856333 0.045353591 1.5469057e-38
0.14731942 0.028399467 0.042410314 1.6668672e-38
0.14783703 0.13365221 0.028903008 2.0074876e-38
0.14367223 0.028917588 0.042626917 1.8321009e-38
0.14368199 0.13317785 0.028124094 1.9616033e-38
0.13985088 0.029469214 0.042200685 1.9886536e-38
0.14004554 0.13339862 0.027278185 1.8970683e-38
0.1358386 0.029770769 0.042218864 2.034536e-38
0.13549456 0.032443888 0.040106535 2.0070198e-38
0.13591945 0.13301384 0.027037084 1.9527458e-38
0.13232094 0.030072756 0.04273349 2.0530474e-38
0.13162056 0.032490119 0.039953232 1.9610313e-38
0.12990463 0.12980548 0.024616838 1.6947798e-38
0.13242897 0.13227263 0.026036143 1.8698799e-38
0.12922369 0.030904464 0.042504907 1.9976938e-38
0.127951 0.033095479 0.040241122 1.9240087e-38
0.12700216 0.12942207 0.024258971 1.1878105e-38
0.12815692 0.13155782 0.026144922 1.3627333e-38
0.12444019 0.034102447 0.040724456 1.8963507e-38
0.12333649 0.036322132 0.038290799 1.8227387e-38
0.12301305 0.12946209 0.024192333 1.0307904e-38
0.12404111 0.13172135 0.0265522 9.1187227e-39
0.11947133 0.037053443 0.03915894 1.7769632e-38
0.12012324 0.12907019 0.02468878 7.3694847e-39
0.11885855 0.13031793 0.026021659 3.9557885e-39
0.1152184 0.037610285 0.038465798 1.7677798e-38
0.1153923 0.039641492 0.036141455 1.7124623e-38
0.11194846 0.037871741 0.038979471 1.7861103e-38
0.11167526 0.03996288 0.036241591 1.7218235e-38
0.11069119 0.082091115 0.031106532 4.1423041e-39
0.11060673 0.084734626 0.031036079 5.7067249e-39
0.11081851 0.088458292 0.02965349 6.9024039e-39
0.11184484 0.090775572 0.027918696 8.0041005e-39
0.10793027 0.041097946 0.036725581 1.7401899e-38
0.10752192 0.043401256 0.034957707 1.7215002e-38
0.10861987 0.081689499 0.028827667 6.6279694e-39
0.1081965 0.084546082 0.028919697 7.0867741e-39
0.10815915 0.08775308 0.027846932 7.1775516e-39
0.10460648 0.042029709 0.037300587 1.7861113e-38
0.10375167 0.043745689 0.035216987 1.7587386e-38
0.099423915 0.041920215 0.036574841 1.7677442e-38
0.099703074 0.043930374 0.034560561 1.7861107e-38
0.096832618 0.041865468 0.036211967 1.7494473e-38
0.09618102 0.044382118 0.033951402 1.7491261e-38
0.095075041 0.046619833 0.0321787 1.7121407e-38
0.092077419 0.045053892 0.03443712 1.7304706e-38
0.092180833 0.047990315 0.032692313 1.6844091e-38
0.091850072 0.050416529 0.031144023 1.6291277e-38
0.089058757 0.04558301 0.034537673 1.7671696e-38
0.088215113 0.048300222 0.033715069 1.7209288e-38
0.088440806 0.051264703 0.03052783 1.6750456e-38
0.083876193 0.049031816 0.033275127 1.7672778e-38
0.084689617 0.051583238 0.030169368 1.7305087e-38
0.08378765 0.055077232 0.029286087 1.6658615e-38
0.08378765 0.058942065 0.028702974 1.6200861e-38
0.083895147 0.080737703 0.025430083 1.2885081e-38
0.080088168 0.049231321 0.032361984 1.7674918e-38
0.080353022 0.051702559 0.031119168 1.7399054e-38
0.08035323 0.055577025 0.030534625 1.6936977e-38
0.080618888 0.059326924 0.029098988 1.6477445e-38
0.079595208 0.076567307 0.025443375 1.3623711e-38
0.080885202 0.079815254 0.02513814 1.3254564e-38
0.08024019 0.083022319 0.024561882 1.2880751e-38
0.077397972 0.051806286 0.031928658 1.7492326e-38
0.076302081 0.055808775 0.031040251 1.7029547e-38
0.076270729 0.059468813 0.029181123 1.6202309e-38
0.074435279 0.062287234 0.026858807 1.5376487e-38
0.076370239 0.073278479 0.025477707 1.3992133e-38
0.076546133 0.075741626 0.025131285 1.3623712e-38
0.076743513 0.07988511 0.025442243 1.3163445e-38
0.076370239 0.08326263 0.023971379 1.2233959e-38
0.074435279 0.086120375 0.023263097 1.4649003e-38
0.07253933 0.05655586 0.030516207 1.6295226e-38
0.072302014 0.05921609 0.028378546 1.5926451e-38
0.071855307 0.063345328 0.026329696 1.4912304e-38
0.071694046 0.067865536 0.025624573 1.3991423e-38
0.072500288 0.071908437 0.025130093 1.3713054e-38
0.072199702 0.07627061 0.026325941 1.2980148e-38
0.072249636 0.080144063 0.02680254 1.224329e-38
0.07207866 0.083614573 0.023984551 1.205387e-38
0.073145285 0.08609312 0.023082435 1.2346646e-38
0.068652391 0.056473739 0.029971898 1.5925363e-38
0.068521619 0.059054829 0.028414607 1.5281789e-38
0.068273157 0.063618354 0.026924431 1.4727538e-38
0.068048865 0.068242431 0.026918292 1.4082888e-38
0.06867896 0.072140567 0.026477158 1.3346062e-38
0.068573967 0.07607159 0.026209414 1.2335132e-38
0.06832847 0.08008109 0.026363909 1.2150031e-38
0.06836462 0.083543636 0.024533391 1.2702495e-38
0.068630338 0.085997723 0.022450149 1.5001993e-38
0.065737188 0.056735635 0.029514849 1.5004853e-38
0.065033421 0.059665851 0.028461337 1.4544946e-38
0.064835921 0.063422926 0.028036475 1.4269093e-38
0.064959794 0.068364561 0.027649045 1.3622283e-38
0.064626634 0.072609 0.026960969 1.2702485e-38
0.064441532 0.076117188 0.026405215 1.2518794e-38
0.064441532 0.07999897 0.0258196 1.3346041e-38
0.06451273 0.083841249 0.025023103 1.4727539e-38
0.064511105 0.08746957 0.023113549 1.5554426e-38
0.064115405 0.091055445 0.02104044 1.3712672e-38
0.06411539 0.093632005 0.020651698 1.2333332e-38
0.060986489 0.07582853 0.025953889 1.2520954e-38
0.060770571 0.079921402 0.02530545 1.3624772e-38
0.060393959 0.083869256 0.024349451 1.427014e-38
0.060298234 0.087230846 0.022370756 1.3532947e-38
0.060245425 0.090973683 0.020498514 1.270318e-38
0.060890421 0.093563862 0.020200133 1.1966702e-38
0.059600458 0.10706352 0.017978668 1.3349597e-38
0.060890436 0.10966734 0.017770588 1.2246529e-38
0.05703786 0.076145604 0.025340497 1.2242538e-38
0.056667671 0.079834729 0.024730921 1.2426596e-38
0.056589112 0.083506964 0.023910284 1.2519517e-38
0.055909604 0.087531179 0.022311985 1.1321345e-38
0.05630073 0.090933032 0.020166636 1.1135491e-38
0.055730507 0.094743125 0.019283175 1.049552e-38
0.056130141 0.098668195 0.01900357 1.1416397e-38
0.056284934 0.10248169 0.018961072 1.2244364e-38
0.056917146 0.10652796 0.019973338 1.3163787e-38
0.057963341 0.1102694 0.020324767 1.2337619e-38
0.054076403 0.07719212 0.024758458 1.2335082e-38
0.054076403 0.079779975 0.024367988 1.2701019e-38
0.053752482 0.0839784 0.023688197 1.1873398e-38
0.052621186 0.087481089 0.022827446 1.1229497e-38
0.052528188 0.091165356 0.021236897 1.1597197e-38
0.052810401 0.09488108 0.019865572 1.141496e-38
0.052640945 0.098851569 0.019752979 1.1968503e-38
0.053325385 0.10298512 0.020419002 1.2335119e-38
0.048634723 0.09131036 0.021849096 1.1406366e-38
0.048634708 0.095192157 0.021263421 1.1041157e-38
0.049078941 0.098713614 0.020795703 1.2151431e-38
0.17227614 0.073907129 0.012562454 1.5558744e-38
0.17843442 0.058803171 0.020830214 1.9520271e-38
0.1787391 0.066623092 0.017764688 1.8322807e-38
0.16143607 0.080516689 0.016974151 1.5653455e-38
0.12145448 0.090336181 0.011827111 1.6757283e-38
0.093788654 0.10554106 0.0090322495 2.1640789e-38
0.1250242 0.046438992 0.024238586 1.6942395e-38
0.10301153 0.074818701 0.029316366 1.3071612e-38
0.087835729 0.062915228 0.025846183 1.528108e-38
0.17424926 0.13458082 0.035354674 2.2477402e-38
0.17439131 0.13704899 0.035130382 2.276369e-38
0.16998006 0.015363302 0.054006517 7.1818774e-39
0.17035101 0.01770591 0.052429438 6.7197993e-39
0.17025103 0.13802516 0.034875333 2.2483503e-38
0.1697748 0.14039227 0.035369098 2.3038457e-38
0.1661728 0.015312757 0.053851843 7.3651939e-39
0.16645277 0.017623547 0.051883519 7.4562867e-39
0.16630888 0.13787231 0.034572005 2.2385887e-38
0.16654259 0.14056242 0.035391271 2.3033409e-38
0.16256604 0.015836529 0.053026438 7.6413996e-39
0.16237657 0.017620295 0.052321613 8.1023596e-39
0.16274685 0.13745067 0.034040391 2.1642954e-38
0.16350183 0.14071509 0.034932673 2.3031974e-38
0.15828907 0.016315345 0.052954435 8.2871516e-39
0.15828623 0.018539269 0.051188588 9.2073086e-39
0.15814735 0.13741753 0.033641934 2.0904634e-38
0.15698588 0.13992667 0.034118414 2.0902502e-38
0.15479119 0.019555934 0.051147461 1.0032413e-38
0.15382804 0.021711979 0.049798965 1.1232737e-38
0.154506 0.13775134 0.03341049 2.0811718e-38
0.15112156 0.020068299 0.05136168 1.1511831e-38
0.15064278 0.022580124 0.05000627 1.2705699e-38
0.15021008 0.025066551 0.048434258 1.3715905e-38
0.15066487 0.13693407 0.032643199 2.0628065e-38
0.14680333 0.022925727 0.050020278 1.4088991e-38
0.14658609 0.025337942 0.048129559 1.528359e-38
0.14650071 0.136327 0.032138348 2.0259637e-38
0.14304575 0.026458196 0.048091888 1.7586311e-38
0.14292642 0.13538626 0.03142792 1.9707895e-38
0.13895254 0.026871614 0.047571003 1.924514e-38
0.13522288 0.026961826 0.047431767 1.9794711e-38
0.13656624 0.028671369 0.045936227 2.0713424e-38
0.12727441 0.029858857 0.045301795 2.0068414e-38
0.12747033 0.13359249 0.028803885 1.2521356e-38
0.12876976 0.13491762 0.028790057 1.279975e-38
0.12325907 0.030473307 0.045120358 1.9977998e-38
0.12318814 0.032632597 0.043677866 1.9331568e-38
0.12357208 0.13351011 0.028257966 1.0405148e-38
0.12292239 0.13479409 0.027971208 1.1970257e-38
0.11950177 0.030572109 0.045044005 1.988581e-38
0.1195133 0.0335728 0.043435276 1.9149696e-38
0.11837444 0.036073193 0.042213976 1.9147526e-38
0.11959347 0.13286135 0.028126478 8.012378e-39
0.11528391 0.0310243 0.044575989 1.9701791e-38
0.11550222 0.033536196 0.043320298 1.9517393e-38
0.1157756 0.036018282 0.04185003 1.8870939e-38
0.11202595 0.030955456 0.044119656 1.9424837e-38
0.11154202 0.033475958 0.042989135 1.9242242e-38
0.11155251 0.036253482 0.041209698 1.8506471e-38
0.10769176 0.033602186 0.042844176 1.9423055e-38
0.10786417 0.037198856 0.040992856 1.8687247e-38
0.10590047 0.04040996 0.040283859 1.8228071e-38
0.10355523 0.034680881 0.042344451 1.9698924e-38
0.10370082 0.037224099 0.041414082 1.8779808e-38
0.10318789 0.040824741 0.039905787 1.813663e-38
0.099645674 0.037201203 0.041404188 1.868905e-38
0.099723756 0.040766343 0.039345443 1.7953301e-38
0.096061915 0.038101584 0.040755093 1.8134463e-38
0.095318601 0.040737309 0.039116085 1.7399763e-38
0.093685552 0.04333774 0.037581921 1.7396533e-38
0.093129754 0.038364999 0.040295362 1.7490884e-38
0.091702938 0.040897593 0.039368391 1.6936636e-38
0.090899557 0.043793067 0.037795186 1.7489092e-38
0.087265402 0.041494749 0.038983285 1.8041544e-38
0.087046146 0.04432942 0.037502825 1.7951146e-38
0.085889071 0.047714956 0.035804868 1.7583445e-38
0.083030045 0.041730635 0.038341045 1.8504314e-38
0.082997233 0.044532672 0.036892235 1.8319592e-38
0.083290219 0.047530286 0.035460591 1.7950436e-38
0.080097884 0.04199405 0.037881374 1.7768884e-38
0.079293579 0.044601403 0.03622371 1.7857873e-38
0.079391971 0.047577694 0.034895122 1.7767467e-38
0.07513839 0.045038395 0.035860538 1.8043702e-38
0.075290442 0.048226103 0.034890771 1.7676352e-38
0.074844018 0.052023537 0.033572972 1.6938447e-38
0.074194342 0.054605193 0.033090353 1.6661132e-38
0.071844354 0.045290239 0.036202013 1.7770358e-38
0.071292996 0.048412569 0.03514117 1.694022e-38
0.071491748 0.05199749 0.033437192 1.6477102e-38
0.071335614 0.055063881 0.032611787 1.6294142e-38
0.067934796 0.049112029 0.035065472 1.6200518e-38
0.067416489 0.051986516 0.033422649 1.6018272e-38
0.067437351 0.054981522 0.032065868 1.6110825e-38
0.063439339 0.052165143 0.033577859 1.4817954e-38
0.063515633 0.055567563 0.03179878 1.4448089e-38
0.06293276 0.058692917 0.030860722 1.3991416e-38
0.06293276 0.065181389 0.029881775 1.3807392e-38
0.063149303 0.068646483 0.029390037 1.3346058e-38
0.063149303 0.071241871 0.028998435 1.2886523e-38
0.059844136 0.056244783 0.032319784 1.4172904e-38
0.059609309 0.059617996 0.031153083 1.4175792e-38
0.059873328 0.06404791 0.029699802 1.3899198e-38
0.059900761 0.068577856 0.028935134 1.3806676e-38
0.059900731 0.072470941 0.02834779 1.3069831e-38
0.059034497 0.076778278 0.027573824 1.2888284e-38
0.059467614 0.080247954 0.027112365 1.353401e-38
0.057943702 0.11310638 0.023979545 1.261423e-38
0.056640506 0.057115994 0.032240212 1.4358018e-38
0.055991262 0.06016627 0.031278491 1.4451651e-38
0.05575259 0.064062543 0.029788315 1.3899922e-38
0.056002527 0.068495497 0.028389275 1.3898849e-38
0.056002527 0.072388582 0.027801931 1.2423723e-38
0.054703116 0.075605355 0.027130425 1.2149227e-38
0.055136234 0.10827316 0.022263825 1.2977604e-38
0.055185571 0.11011464 0.022503793 1.2795736e-38
0.05182299 0.064223371 0.029642284 1.3992464e-38
0.052028686 0.068446897 0.028054357 1.3438947e-38
0.052104264 0.072306223 0.027256012 1.2702817e-38
0.051941842 0.076033659 0.026670396 1.2334735e-38
0.051454544 0.080078661 0.025990307 1.2519147e-38
0.051324606 0.083709463 0.025423884 1.2425491e-38
0.050804883 0.086553402 0.024920344 1.1965604e-38
0.051129729 0.10375472 0.022371709 1.2795374e-38
0.051680773 0.1074438 0.023170769 1.3162699e-38
0.04882139 0.064759575 0.029967189 1.3531138e-38
0.048340812 0.068573751 0.02881211 1.3713387e-38
0.047670409 0.072470561 0.02818495 1.2518788e-38
0.048455119 0.076321535 0.027319133 1.1044401e-38
0.048086256 0.080446064 0.026911557 1.0214633e-38
0.047937915 0.084038906 0.025683463 1.1503549e-38
0.048167616 0.087816104 0.024465621 1.1779784e-38
0.047556341 0.10075941 0.022311807 1.242725e-38
0.047899693 0.10355041 0.022847831 1.2977571e-38
0.048495591 0.10737555 0.023490965 1.1968489e-38
0.045085698 0.084761009 0.025903702 8.6354794e-39
0.044032782 0.088105656 0.024993002 9.0064101e-39
0.044174165 0.091581501 0.02423352 8.7298078e-39
0.043957114 0.095506333 0.023610353 8.4557783e-39
0.044329196 0.099413462 0.02307415 8.3639105e-39
0.044008732 0.10283724 0.023124456 9.0125099e-39
0.17515446 0.077565379 0.01242274 1.509741e-38
0.17856869 0.062423803 0.019452035 1.9518471e-38
0.17887315 0.072089382 0.016107976 1.6479613e-38
0.17901871 0.081999175 0.014562786 1.380846e-38
0.15930423 0.078625195 0.0149436 1.5467986e-38
0.1568879 0.054545879 0.019492924 1.841357e-38
0.15353842 0.081603497 0.014959455 1.6020796e-38
0.15502152 0.066356562 0.015435338 1.6112643e-38
0.15425216 0.088883288 0.013423502 1.4179777e-38
0.11391726 0.099039175 0.014827669 1.7126782e-38
0.17229843 0.1394648 0.038424015 2.2674729e-38
0.17229843 0.14077002 0.038227081 2.3046387e-38
0.16943455 0.01225562 0.058738291 7.7343309e-39
0.16553392 0.012815148 0.057924926 7.6424842e-39
0.16576363 0.014024775 0.056413412 7.550667e-39
0.16532798 0.1414929 0.037119687 2.3220665e-38
0.16214223 0.012793701 0.05812335 7.3640883e-39
0.16138162 0.014316414 0.056507826 7.6406836e-39
0.16118927 0.13923007 0.036868334 2.1826598e-38
0.16079161 0.14122316 0.037532151 2.2567371e-38
0.158732 0.015642881 0.055502594 8.1006009e-39
0.15624395 0.017905068 0.056507409 8.9307301e-39
0.15839271 0.13942903 0.037459135 2.1549285e-38
0.15773828 0.1407223 0.037170291 2.1456384e-38
0.15250291 0.019050274 0.054777324 1.0214652e-38
0.14980763 0.019026469 0.054803491 1.1139471e-38
0.15008013 0.13899538 0.035312653 2.0260363e-38
0.14998919 0.14160472 0.036365151 2.0906829e-38
0.14602491 0.02019164 0.053336859 1.2615321e-38
0.14550577 0.021428145 0.052394986 1.3537261e-38
0.14602491 0.13908172 0.035399735 2.0350756e-38
0.14562762 0.14158684 0.036035061 2.1182671e-38
0.14093143 0.02524719 0.051163673 1.7220076e-38
0.14206588 0.13838813 0.035107613 1.9985579e-38
0.14313665 0.14198273 0.035910308 2.1648664e-38
0.13824025 0.023509163 0.052674711 1.5099923e-38
0.13824624 0.02522184 0.051123381 1.7219392e-38
0.13396153 0.023979269 0.052399576 1.5471219e-38
0.13390674 0.025495708 0.050886095 1.8047333e-38
0.1299904 0.026416562 0.050441623 1.9796858e-38
0.12628756 0.027008012 0.049992263 2.043863e-38
0.12524793 0.028831519 0.04837662 2.0253163e-38
0.12624848 0.13751057 0.032761693 1.1045522e-38
0.12572265 0.14142781 0.033500016 1.1789523e-38
0.12255079 0.027313448 0.050006926 2.0621225e-38
0.12247702 0.028839521 0.048659503 2.0804525e-38
0.12258592 0.13773939 0.03258568 1.2156109e-38
0.12282032 0.140899 0.033164024 1.280437e-38
0.11823277 0.027573951 0.049604475 2.0620872e-38
0.11814573 0.029107593 0.048339188 2.0896007e-38
0.11851622 0.13757208 0.032538772 1.538258e-38
0.11430058 0.027490877 0.049053848 2.015989e-38
0.11454642 0.029357851 0.047785878 2.0251721e-38
0.11298984 0.14200029 0.031589925 1.3795835e-38
0.11057797 0.029726662 0.047332108 2.025208e-38
0.11036837 0.13801792 0.03181535 2.2850807e-38
0.11064804 0.1410048 0.030269802 1.6107905e-38
0.11078817 0.14347467 0.029349804 9.2236268e-41
0.10564354 0.032333009 0.045040548 1.9885098e-38
0.10287088 0.030611351 0.046537459 2.0346062e-38
0.10294139 0.032963999 0.044898748 2.016097e-38
0.09922719 0.031099394 0.046350539 2.025316e-38
0.098929778 0.033567332 0.044573605 1.9607799e-38
0.094852209 0.033540823 0.044561088 1.969927e-38
0.094871283 0.036565423 0.043063462 1.8598305e-38
0.091121614 0.033717535 0.044648707 2.0253509e-38
0.090858102 0.037176572 0.043085873 1.8226653e-38
0.089960039 0.039833032 0.041662693 1.7030283e-38
0.087430596 0.03477715 0.044106066 1.9055343e-38
0.086965531 0.037309349 0.042976499 1.8134111e-38
0.087346122 0.0397778 0.041296661 1.7857168e-38
0.084153786 0.034707919 0.04364723 1.8687632e-38
0.0831545 0.037629835 0.042625546 1.8780188e-38
0.082952484 0.040069669 0.041134059 1.8779476e-38
0.079784662 0.038106263 0.042508721 1.8228082e-38
0.079105437 0.040619411 0.040719032 1.7583069e-38
0.075167209 0.041151553 0.04074949 1.6842648e-38
0.075583488 0.043444969 0.039058685 1.7396902e-38
0.071097508 0.041611455 0.040565431 1.6661137e-38
0.071104839 0.043768473 0.039134502 1.7214684e-38
0.067988098 0.041784018 0.040264308 1.6201238e-38
0.067669824 0.044838674 0.038481057 1.657146e-38
0.067415014 0.047514386 0.037274837 1.6294151e-38
0.063234985 0.045371391 0.038872123 1.4172919e-38
0.063571841 0.048512571 0.037368238 1.5003401e-38
0.060560629 0.045335911 0.038664639 1.4174004e-38
0.05949454 0.048716784 0.037746549 1.4267273e-38
0.05934003 0.052129149 0.036005676 1.4265849e-38
0.057939559 0.055471875 0.034717143 1.40818e-38
0.058266133 0.11509267 0.026790202 1.3074862e-38
0.056628436 0.049834318 0.037422776 1.2978702e-38
0.055501223 0.05235254 0.036313951 1.3805944e-38
0.055322677 0.055727348 0.034984708 1.3990327e-38
0.054236501 0.059526861 0.033574998 1.4819359e-38
0.054278091 0.11304475 0.025915205 1.2520585e-38
0.055538177 0.1151104 0.026737392 1.2062474e-38
0.052696258 0.053678229 0.036279619 1.3436447e-38
0.051668316 0.05660788 0.035398662 1.4083609e-38
0.05119431 0.059988767 0.033707917 1.5004465e-38
0.049444348 0.062471144 0.032444417 1.4084662e-38
0.050751299 0.10948699 0.025538266 1.3346732e-38
0.05065465 0.11215917 0.025413096 1.3071231e-38
0.051609442 0.11568158 0.026088536 1.2152132e-38
0.048764065 0.05752214 0.035136521 1.4910167e-38
0.047728777 0.06009347 0.034430087 1.5371461e-38
0.046885833 0.064073771 0.032449067 1.3621906e-38
0.045523465 0.068914451 0.03091073 1.3622646e-38
0.045523465 0.076745823 0.029729187 1.113335e-38
0.045523465 0.080661505 0.029138446 1.0114462e-38
0.046394765 0.10808972 0.025125086 9.9330103e-39
0.047421128 0.1124366 0.025637686 1.0860712e-38
0.047642916 0.11627685 0.025544107 1.2794668e-38
0.043829575 0.064711288 0.032788038 1.3622254e-38
0.043156132 0.069050886 0.031742752 1.3254567e-38
0.043388233 0.072867893 0.030519187 1.269852e-38
0.043155834 0.076896064 0.030559063 1.2057096e-38
0.043534145 0.080855228 0.030186236 1.0760236e-38
0.043148875 0.084245928 0.028512955 1.0392916e-38
0.041602582 0.087104812 0.027604759 1.1958799e-38
0.041602582 0.092978336 0.026718616 9.5552805e-39
0.041602582 0.097546645 0.026029408 9.6578821e-39
0.041602582 0.1008097 0.025537074 1.1038992e-38
0.043388233 0.10552216 0.025592566 9.1029133e-39
0.043719262 0.10834263 0.026163042 1.020388e-38
0.04430756 0.112144 0.026257455 1.1130138e-38
0.040899679 0.065864451 0.032751501 1.3530766e-38
0.040899679 0.06913694 0.032257795 1.3438241e-38
0.040899679 0.073063932 0.031665325 1.3161647e-38
0.040899679 0.075681917 0.031270385 1.279574e-38
0.040899679 0.082226895 0.030282915 1.2146768e-38
0.040114328 0.084936477 0.029323936 1.2607042e-38
0.039346457 0.088518701 0.027919471 1.2423705e-38
0.039346755 0.092440046 0.027327955 1.2691332e-38
0.039346755 0.096360125 0.026736498 1.2600567e-38
0.03922832 0.10034708 0.026458621 1.269633e-38
0.039765328 0.10413251 0.026304662 1.2143891e-38
0.036967486 0.086070813 0.029139757 1.2793929e-38
0.035865232 0.088805355 0.028441668 1.2334745e-38
0.035775796 0.092525937 0.027654707 1.1046534e-38
0.03577581 0.096451052 0.027062595 9.9369479e-39
0.036729082 0.10008662 0.026735723 1.0584482e-38
0.036967486 0.10308776 0.026572406 1.0949334e-38
0.032707632 0.092853032 0.027506411 9.3845224e-39
0.033035278 0.095805191 0.027107954 9.0171678e-39
0.17502519 0.068396933 0.013787508 1.7125711e-38
0.16501707 0.011716824 0.061080754 7.8254574e-39
0.16051425 0.14401168 0.041157365 2.293833e-38
0.1556875 0.01682727 0.059654474 8.376483e-39
0.15800261 0.14247006 0.040349185 2.20117e-38
0.15261592 0.016324166 0.059290528 9.2033388e-39
0.15324397 0.018007416 0.058104992 9.387765e-39
0.15305471 0.14245179 0.040324271 2.0815721e-38
0.14943466 0.0163665 0.058828413 1.0310407e-38
0.14864323 0.01791022 0.057460725 1.0865038e-38
0.14844736 0.14419496 0.039401352 2.2107912e-38
0.14778917 0.14681035 0.038912594 2.3415517e-38
0.14549951 0.018681549 0.057506919 1.1602952e-38
0.14601421 0.14387986 0.038078964 2.1832376e-38
0.14551637 0.14615828 0.037809908 2.1193857e-38
0.14120722 0.020465277 0.057031751 1.2800762e-38
0.14009896 0.021667987 0.055670023 1.3992856e-38
0.1407562 0.14245602 0.037540734 2.1648298e-38
0.14131004 0.14588302 0.03761375 1.8606985e-38
0.13708788 0.021954693 0.055450857 1.3903887e-38
0.1368127 0.13974717 0.037384629 1.9615708e-38
0.13752785 0.14235461 0.037604392 2.0818902e-38
0.13802126 0.14515653 0.037252307 1.6204886e-38
0.13341768 0.022227462 0.055139422 1.3440748e-38
0.13347206 0.14138299 0.036914647 2.0725647e-38
0.12945873 0.022805531 0.054541886 1.4640374e-38
0.12958294 0.025384095 0.053603232 1.8419335e-38
0.12923113 0.1415292 0.036438465 1.8329303e-38
0.12566094 0.022895828 0.054055333 1.5195357e-38
0.12563942 0.025300775 0.053050995 1.8972143e-38
0.12684044 0.14295024 0.035983801 1.2711854e-38
0.12556377 0.14550579 0.035245121 1.3082106e-38
0.12177122 0.023454249 0.053592682 1.5561998e-38
0.12143302 0.02573701 0.052382708 1.9427728e-38
0.12112284 0.14261904 0.034908414 1.1593605e-38
0.1216846 0.14602783 0.035036385 7.9248739e-39
0.11767206 0.025820218 0.052171946 1.9428445e-38
0.1175881 0.14213064 0.034271598 1.5465792e-38
0.11840966 0.14526579 0.033916235 3.3262524e-39
0.11395316 0.026110016 0.052021265 1.9792546e-38
0.11500144 0.13481691 0.035515249 6.2506529e-39
0.11368631 0.13807324 0.034835577 1.7780085e-38
0.11414936 0.14174348 0.033983409 1.6572511e-38
0.11006829 0.027317621 0.051027238 2.0162781e-38
0.10855091 0.028878026 0.050063789 2.0620139e-38
0.10632294 0.027616128 0.050956547 1.9518804e-38
0.10513514 0.028855763 0.050088644 1.9701783e-38
0.10138649 0.029155143 0.050017297 2.0254582e-38
0.097856537 0.030470222 0.048972785 2.0160613e-38
0.094245002 0.030716874 0.048146009 1.9975138e-38
0.090147853 0.031114735 0.04709059 1.9887254e-38
0.088833362 0.03305611 0.046609402 2.0069149e-38
0.086577117 0.031142883 0.047596335 1.9517051e-38
0.085934743 0.033306316 0.04644841 1.9332294e-38
0.081950784 0.033455953 0.046074033 1.8411768e-38
0.081603616 0.036185272 0.045101821 1.8687275e-38
0.078119516 0.034214392 0.045581102 1.7860394e-38
0.07787919 0.036981754 0.044448256 1.7952218e-38
0.074071422 0.034822613 0.045250118 1.6937007e-38
0.074340254 0.037356913 0.043998241 1.6755832e-38
0.074373841 0.039970808 0.043495238 1.6747567e-38
0.070401877 0.037495852 0.0439381 1.592465e-38
0.070430338 0.039887488 0.042943001 1.6293416e-38
0.06748949 0.038627483 0.043733299 1.5740601e-38
0.065996081 0.04068844 0.042357326 1.5738817e-38
0.06517233 0.043714695 0.041612506 1.5464052e-38
0.062632427 0.042110004 0.042256832 1.4727899e-38
0.062436238 0.043697685 0.04156363 1.3898857e-38
0.058206886 0.04519219 0.040800571 1.426762e-38
0.057285309 0.047486342 0.039913833 1.4085359e-38
0.057698339 0.11724239 0.030214846 1.3720225e-38
0.055641979 0.045607723 0.040983319 1.4820075e-38
0.054409087 0.048606262 0.039588273 1.279394e-38
0.054490954 0.11777499 0.02941978 1.1878085e-38
0.050774634 0.052943371 0.038770854 1.3435004e-38
0.050055563 0.055210173 0.037713051 1.3340325e-38
0.050601304 0.11831089 0.0286116 1.2335841e-38
0.047743678 0.05398605 0.038588047 1.2423022e-38
0.046817064 0.056525134 0.037561536 1.3897453e-38
0.0454548 0.059707634 0.036375582 1.5187788e-38
0.042953283 0.060603365 0.036611676 1.5462919e-38
0.041511297 0.062906228 0.035328209 1.4081078e-38
0.041511297 0.07997214 0.032753408 1.1782294e-38
0.041511297 0.11016568 0.028198063 1.1770852e-38
0.039845347 0.061707057 0.036291957 1.3254543e-38
0.038442343 0.064623877 0.035140216 1.371553e-38
0.038225025 0.069400609 0.033877671 1.3807027e-38
0.038165838 0.073365577 0.033441305 1.3621545e-38
0.038629353 0.077595681 0.033428729 1.3069806e-38
0.038496435 0.081167527 0.032779694 1.27003e-38
0.037567794 0.084483497 0.031507969 1.2885769e-38
0.038225025 0.10615797 0.028332055 1.2513033e-38
0.038945913 0.10797564 0.028927207 1.2695638e-38
0.033263415 0.081287682 0.032395065 1.3806268e-38
0.034505248 0.085047372 0.031750321 1.2976881e-38
0.033624262 0.087682076 0.030460596 1.2518056e-38
0.034150064 0.10108336 0.028514028 8.9292896e-39
0.035097718 0.10481397 0.028257191 1.00324e-38
0.035896182 0.10763622 0.028796911 1.1505025e-38
0.031508207 0.086070977 0.031422079 1.3254539e-38
0.030931205 0.08921998 0.030481219 1.2151068e-38
0.030155241 0.092956357 0.029678762 9.568548e-39
0.030593216 0.096907206 0.029145479 8.650179e-39
0.031799316 0.10054559 0.028769195 8.6519755e-39
0.1779983 0.084699839 0.011753619 1.3901374e-38
0.15714949 0.080695517 0.013816714 1.5467621e-38
0.14815062 0.091144703 0.012578011 1.4455635e-38
0.13117723 0.10766805 0.015708625 1.6114778e-38
0.1810984 0.04916814 0.029815197 2.2012457e-38
0.070401877 0.037495852 0.0439381 1.592465e-38
0.16041923 0.011889007 0.064141452 7.2701144e-39
0.15762338 0.012550987 0.064492404 7.5456069e-39
0.15729676 0.014386415 0.062296033 7.9154684e-39
0.15767872 0.14656773 0.043046772 2.239236e-38
0.15346962 0.013091858 0.063373208 8.6516265e-39
0.15399636 0.015415359 0.061668098 8.6509049e-39
0.15399636 0.14286193 0.042440057 2.0999734e-38
0.15389247 0.1463035 0.042473435 2.2955992e-38
0.14941488 0.013344556 0.062856495 9.4824592e-39
0.15003589 0.014672481 0.061212957 9.7579447e-39
0.15016985 0.14652997 0.041630507 2.3231858e-38
0.14561054 0.014319692 0.06301564 9.4824592e-39
0.14573151 0.01601949 0.060801804 1.0405125e-38
0.14170685 0.017075248 0.061700284 1.0218233e-38
0.14145485 0.018995758 0.059331656 1.1514336e-38
0.13778961 0.017648492 0.062074125 9.2987882e-39
0.13701394 0.020056482 0.058944166 1.1972834e-38
0.1361742 0.14578143 0.03944701 1.7314796e-38
0.1342099 0.018102482 0.06149298 9.2984014e-39
0.13367 0.019790325 0.059322417 1.1418218e-38
0.13419396 0.14310277 0.03956753 2.0916126e-38
0.13370427 0.1462931 0.040548205 1.6210649e-38
0.13089356 0.14303303 0.039105356 2.1093359e-38
0.12581904 0.019824665 0.059009969 1.0955356e-38
0.12759316 0.14560014 0.03824532 1.5750027e-38
0.12206145 0.020119615 0.058938026 1.0589091e-38
0.12231252 0.021557756 0.056203485 1.1232011e-38
0.11877477 0.021571532 0.056716144 1.048622e-38
0.11796194 0.023136452 0.055597484 1.4544967e-38
0.11418794 0.023439698 0.05560714 1.7768214e-38
0.1130714 0.025317751 0.054312646 2.0065179e-38
0.11299682 0.13152373 0.041342676 7.3615659e-39
0.11345235 0.13332075 0.038685441 7.5445391e-39
0.1130714 0.13738284 0.037405193 1.3354376e-38
0.1130714 0.14001969 0.037007391 2.110125e-38
0.11100808 0.021584474 0.057644546 1.8786633e-38
0.10977757 0.023722839 0.055978477 1.9980514e-38
0.11043108 0.025701441 0.053876579 2.0073792e-38
0.11080047 0.13433123 0.040093899 1.0586982e-38
0.10976543 0.13692725 0.038634717 1.8791722e-38
0.10587499 0.024061374 0.055854797 1.9609598e-38
0.10638487 0.026526906 0.05351299 1.9424122e-38
0.10573195 0.12209357 0.040958881 9.2072764e-39
0.10527734 0.12544057 0.040746272 1.0124597e-38
0.10139591 0.025022566 0.055749118 1.9331958e-38
0.10237965 0.027117498 0.053020477 1.9610675e-38
0.10224919 0.11892433 0.039661586 9.2969931e-39
0.10224918 0.1215649 0.039263189 1.1049416e-38
0.1021404 0.12541801 0.039833546 1.2519873e-38
0.098633766 0.02485387 0.055378973 1.9241903e-38
0.098193556 0.027110055 0.05327332 1.9792902e-38
0.097889557 0.028952233 0.051589906 2.0069841e-38
0.098505527 0.1179961 0.03841418 1.4175766e-38
0.098223612 0.1215326 0.038918495 1.2797169e-38
0.09808135 0.1249193 0.040202856 1.3074862e-38
0.09414649 0.027808622 0.053882003 1.9513458e-38
0.094259113 0.029534742 0.050982058 1.9884024e-38
0.094135433 0.12154917 0.038784325 1.4176903e-38
0.095098257 0.12452526 0.039835036 1.4084714e-38
0.0900729 0.028324686 0.052607834 1.9424128e-38
0.089968592 0.030103296 0.050281763 1.9792898e-38
0.091672838 0.11870085 0.038180411 1.7026319e-38
0.091672838 0.12068131 0.037881613 1.5369318e-38
0.085817546 0.028996632 0.052918375 1.9058228e-38
0.085795462 0.030421004 0.050402164 1.942521e-38
0.081840083 0.028912596 0.052361369 1.8688715e-38
0.082153738 0.030567251 0.050113916 1.8781264e-38
0.078525543 0.028842576 0.051897228 1.7861825e-38
0.078206331 0.030701086 0.050379574 1.7768914e-38
0.078087151 0.032489099 0.048220098 1.7767852e-38
0.074315026 0.03125269 0.049471498 1.7400482e-38
0.074685961 0.03333196 0.047946215 1.7398337e-38
0.069907725 0.032632694 0.050091088 1.5833526e-38
0.070377767 0.034236781 0.047465026 1.5924653e-38
0.066197544 0.035107724 0.048310935 1.5556223e-38
0.066535771 0.037518695 0.045806825 1.55555e-38
0.063278645 0.036464825 0.04856348 1.5645905e-38
0.062216967 0.038548104 0.046638072 1.5921755e-38
0.06224522 0.040724076 0.044708669 1.546186e-38
0.058498293 0.039712973 0.046571732 1.5003023e-38
0.058486149 0.041902788 0.044605315 1.4175437e-38
0.056964606 0.043908544 0.043471932 1.3899208e-38
0.058166787 0.12060527 0.032966435 1.5379743e-38
0.053997934 0.040240936 0.046664536 1.3806268e-38
0.054078326 0.042634383 0.045548975 1.3806653e-38
0.053664193 0.045816436 0.042711377 1.3993931e-38
0.054259241 0.12143735 0.032817543 1.2428403e-38
0.050904334 0.04370641 0.045698643 1.3256e-38
0.050499454 0.046157472 0.043228149 1.260847e-38
0.05042854 0.049333774 0.041921556 1.2239326e-38
0.049703717 0.051665619 0.041261673 1.3986738e-38
0.050522149 0.12124991 0.032412827 1.2428039e-38
0.047206521 0.046984747 0.044163764 1.2700666e-38
0.046338946 0.050105527 0.042620301 1.3343894e-38
0.047063395 0.052708514 0.040726185 1.3343161e-38
0.042468265 0.051330805 0.042931616 1.4079656e-38
0.042547926 0.054140426 0.041012585 1.3895996e-38
0.04310292 0.057019547 0.039508522 1.4452391e-38
0.038758248 0.054957531 0.04185307 1.3620145e-38
0.038602099 0.05778905 0.039769292 1.3898138e-38
0.03914243 0.060451634 0.038423479 1.39903e-38
0.038790986 0.11164225 0.031671405 1.2881814e-38
0.0347085 0.061899863 0.039868116 1.2704615e-38
0.034163207 0.064673007 0.038094819 1.2428408e-38
0.034521878 0.068484224 0.036549807 1.3440034e-38
0.034476995 0.073117964 0.03597188 1.3988538e-38
0.034917891 0.077194117 0.035292447 1.3896331e-38
0.034521878 0.080349945 0.034759641 1.3529326e-38
0.034521878 0.082986772 0.03436178 1.3160905e-38
0.034584075 0.10918871 0.03118366 1.1324217e-38
0.034773558 0.11133418 0.033185184 1.3256344e-38
0.031459004 0.065583974 0.039612889 1.1778384e-38
0.031361729 0.068967044 0.037862897 1.2886868e-38
0.030718207 0.072945654 0.037812531 1.3989262e-38
0.030817777 0.076504149 0.035944223 1.4450595e-38
0.031010866 0.080132611 0.034417152 1.4175786e-38
0.030781418 0.083786689 0.033705413 1.3713733e-38
0.029901326 0.10134693 0.030929983 8.2831999e-39
0.030659854 0.10450924 0.030901968 9.2058611e-39
0.030494899 0.10838199 0.031996429 1.0310792e-38
0.030133188 0.11189816 0.032435536 1.2889737e-38
0.027039617 0.077627845 0.03716284 1.3715907e-38
0.026768714 0.080419056 0.035000682 1.3624794e-38
0.027112931 0.084759384 0.033776045 1.3255989e-38
0.026635826 0.088406764 0.032925308 1.2059233e-38
0.026725084 0.092133261 0.032302976 9.84656e-39
0.026415765 0.096098505 0.031733334 8.0987863e-39
0.026891112 0.10016895 0.031698048 7.6378081e-39
0.026400089 0.10439759 0.032351613 8.1956356e-39
0.027481556 0.10720793 0.032763362 1.1508204e-38
0.023504108 0.081966691 0.036001861 1.2889373e-38
0.023504108 0.088587008 0.035003066 1.1504269e-38
0.023358732 0.092790149 0.033837438 9.200829e-39
0.023172647 0.096193366 0.033807993 7.6385438e-39
0.023504108 0.099179514 0.033404946 5.8886513e-39
0.19166435 0.070098653 0.015800297 1.141388e-38
0.18494764 0.077968501 0.013764501 1.2242218e-38
0.1590946 0.081169903 0.015473664 1.5930755e-38
0.15710677 0.057384789 0.018205762 1.7953307e-38
0.13210866 0.10027086 0.015979409 1.7313693e-38
0.1056933 0.084532864 0.029031336 1.2796474e-38
0.10155118 0.080519758 0.024442732 1.5466182e-38
0.14335789 0.01380026 0.066005766 1.003491e-38
0.15270518 0.0094943196 0.069412768 8.0098416e-39
0.15324688 0.011957828 0.06616807 8.5601456e-39
0.14875484 0.0096208863 0.069452107 8.6569977e-39
0.1490045 0.011966135 0.066921115 9.1147599e-39
0.14479232 0.010191806 0.06910491 8.1009709e-39
0.14498261 0.012556378 0.066426218 8.7456172e-39
0.14063369 0.015669182 0.063801587 9.2941387e-39
0.13686672 0.01399317 0.066987693 7.7304017e-39
0.136825 0.015979525 0.063975334 8.1009821e-39
0.13246867 0.0144796 0.066897273 7.0878825e-39
0.13270925 0.016608141 0.064567804 7.4573895e-39
0.12058027 0.016849346 0.064269602 7.8261777e-39
0.12071812 0.019226253 0.060412526 1.0955026e-38
0.1169699 0.017235979 0.063921154 8.56014e-39
0.11700414 0.02016779 0.06061399 1.1226973e-38
0.11243998 0.017723493 0.063539207 1.0863195e-38
0.11311781 0.02049562 0.060380816 1.3897392e-38
0.11208805 0.13042343 0.042400062 7.6392571e-39
0.10910185 0.017986342 0.063021421 1.3718406e-38
0.10879797 0.020294681 0.060459137 1.8600463e-38
0.10839438 0.12672353 0.043961287 7.4584839e-39
0.10876654 0.13100561 0.043879211 8.4683003e-39
0.10798442 0.13469386 0.043823659 1.1414977e-38
0.10507402 0.020569615 0.060139656 1.8969969e-38
0.10611339 0.12698233 0.042063475 9.8458705e-39
0.10499531 0.13070738 0.04315716 1.09536e-38
0.10534979 0.13500378 0.043808103 1.5012769e-38
0.10068749 0.020609017 0.0610376 1.7498461e-38
0.10162798 0.023367301 0.057462156 1.9333018e-38
0.10080257 0.12753311 0.041219771 1.3991043e-38
0.10098869 0.12997076 0.042751193 1.3906007e-38
0.096461117 0.021038212 0.060580254 1.6300609e-38
0.096862078 0.023644302 0.057010114 1.8690166e-38
0.097110763 0.12702039 0.041176915 1.4177616e-38
0.09721449 0.12965763 0.042683363 1.5282512e-38
0.093746498 0.021662358 0.060267568 1.6115526e-38
0.093015596 0.024107344 0.057524264 1.8413569e-38
0.09283635 0.026592858 0.055307806 1.8961007e-38
0.092994422 0.12650621 0.041533053 1.5928246e-38
0.092145965 0.12991354 0.043451011 1.7493402e-38
0.08840552 0.021549515 0.059519649 1.1696271e-38
0.088652536 0.024138611 0.058256447 1.6760169e-38
0.089239195 0.026612915 0.055810988 1.8689083e-38
0.090180933 0.12333087 0.040332437 1.5466924e-38
0.089331836 0.12612364 0.040470362 1.6851638e-38
0.088839293 0.12995934 0.04261297 1.869195e-38
0.084588796 0.024073705 0.057911277 1.5470893e-38
0.085392192 0.027146585 0.054668784 1.8783079e-38
0.083920836 0.12343214 0.04044193 1.7028789e-38
0.085250437 0.12611589 0.040227413 1.73108e-38
0.084651381 0.12996837 0.040922284 1.8967116e-38
0.0805545 0.023998708 0.057458222 1.2889429e-38
0.081406265 0.027062371 0.054110587 1.7215407e-38
0.08126165 0.12337596 0.04006964 1.8867279e-38
0.08113271 0.1261352 0.040088773 1.6758699e-38
0.08058621 0.12923551 0.041472077 1.7956568e-38
0.077376112 0.024841044 0.057102799 1.2706837e-38
0.076745421 0.027407162 0.05506891 1.6017227e-38
0.076846778 0.12628257 0.040474057 1.7760996e-38
0.07638827 0.12930754 0.041540921 1.7215057e-38
0.073009476 0.028572328 0.055029273 1.6111575e-38
0.072256923 0.0301359 0.051825762 1.6850893e-38
0.069255829 0.031072587 0.0532974 1.5558024e-38
0.065768942 0.031398475 0.053332508 1.4360567e-38
0.064290702 0.033945434 0.050110042 1.4360204e-38
0.061636776 0.032488056 0.053524673 1.3527932e-38
0.061230525 0.035121717 0.050260246 1.4633918e-38
0.057155728 0.035605751 0.051609993 1.4358049e-38
0.057239026 0.038134024 0.048723459 1.4818998e-38
0.057652205 0.1226436 0.035777211 1.6393185e-38
0.057462215 0.12591025 0.037392795 1.7035661e-38
0.057522118 0.12912175 0.038356066 1.6569654e-38
0.053553164 0.035970397 0.05194366 1.4453868e-38
0.053803459 0.038542472 0.048322976 1.417507e-38
0.053548023 0.12525162 0.035689652 1.3349648e-38
0.052353829 0.12946647 0.038074553 1.4824053e-38
0.051018566 0.036761388 0.051869869 1.3532952e-38
0.049968094 0.038984276 0.049341261 1.2886144e-38
0.049131274 0.042504668 0.04698801 1.2792504e-38
0.04972142 0.12541923 0.035470903 1.2889362e-38
0.048348099 0.1287151 0.037614167 1.3905683e-38
0.0473492 0.040567532 0.049748719 1.2700666e-38
0.045482114 0.043456472 0.049045444 1.2883611e-38
0.044837832 0.046553575 0.045625925 1.3068368e-38
0.046692327 0.12264559 0.03522855 1.3260284e-38
0.045731515 0.12587851 0.036354125 1.3810606e-38
0.046015829 0.12842476 0.036302567 1.2983032e-38
0.043007106 0.044593006 0.049540818 1.2792532e-38
0.041496709 0.047030553 0.046020269 1.3345672e-38
0.041387826 0.049704395 0.04445219 1.3805217e-38
0.037991077 0.050779961 0.04499507 1.3343897e-38
0.036984444 0.053954601 0.043435693 1.3068385e-38
0.037330151 0.11381709 0.034606814 1.3990677e-38
0.034550518 0.051970743 0.047216654 1.2056747e-38
0.033763915 0.054766111 0.044469178 1.2424809e-38
0.033554524 0.058568344 0.042560339 1.2519165e-38
0.033089668 0.061131112 0.041539729 1.2244364e-38
0.033278316 0.11336402 0.035048187 1.3720193e-38
0.03013745 0.055705793 0.045408189 1.1413175e-38
0.029830635 0.058648281 0.043149829 1.1231294e-38
0.029467791 0.061840616 0.041765153 1.1228429e-38
0.029287159 0.064882249 0.040720999 1.1317412e-38
0.028774649 0.068664141 0.039785206 1.2146094e-38
0.028442711 0.072303481 0.039188564 1.3254595e-38
0.02932784 0.11187959 0.033344507 1.2798622e-38
0.026337385 0.05925785 0.044259906 1.0124213e-38
0.025348723 0.062074065 0.043352962 1.0213898e-38
0.025960863 0.065161116 0.041272581 1.0859276e-38
0.025500327 0.069049276 0.040052474 1.1320633e-38
0.025622904 0.072979696 0.039136648 1.2426614e-38
0.025344729 0.07643687 0.038121343 1.3347486e-38
0.025621355 0.10887314 0.0332672 1.2431249e-38
0.026428074 0.11196461 0.033597231 1.3720552e-38
0.022533298 0.062384687 0.043924272 9.4791844e-39
0.022343099 0.065551318 0.042543828 9.7586593e-39
0.021472722 0.069262594 0.041372776 1.0033125e-38
0.02184552 0.073099524 0.039825916 1.1415684e-38
0.021863163 0.077139989 0.038391948 1.2520976e-38
0.02135697 0.080738038 0.037667215 1.261207e-38
0.021735877 0.08487127 0.036970198 1.2241484e-38
0.020952344 0.088812791 0.036135733 1.1322398e-38
0.020932376 0.092469819 0.035274625 9.3859448e-39
0.020857185 0.097017892 0.034781992 6.9938862e-39
0.021544248 0.10088242 0.034144163 5.8914917e-39
0.021969497 0.10458217 0.033975184 7.2711724e-39
0.018145144 0.069821663 0.042003453 9.2944624e-39
0.017973036 0.073254816 0.040723264 1.0583403e-38
0.017848581 0.077062525 0.040017426 1.1597212e-38
0.017348558 0.081213199 0.039319575 1.2334047e-38
0.017634273 0.085214041 0.038756967 1.2237499e-38
0.017474502 0.089143284 0.03780067 1.1137659e-38
0.017441362 0.092815317 0.035539567 9.2923016e-39
0.017441332 0.0967988 0.034938574 7.6352844e-39
0.017712712 0.10065701 0.03468734 7.0860524e-39
0.017753869 0.10540969 0.03598243 7.8203945e-39
0.014432788 0.073592566 0.041073084 9.7540042e-39
0.013801515 0.077237412 0.039978743 1.0861055e-38
0.01388669 0.081198432 0.039166391 1.2241135e-38
0.014015198 0.089132346 0.037647426 1.0675606e-38
0.013367355 0.092771508 0.035189688 9.1129256e-39
0.013196498 0.096840121 0.035005391 8.2810279e-39
0.013848245 0.10128059 0.035790682 8.1909581e-39
0.014521807 0.10444231 0.036431551 8.0991198e-39
0.010427058 0.081508808 0.039305031 1.0404414e-38
0.010681748 0.085067131 0.037783265 9.1118592e-39
0.010584474 0.10042929 0.035706997 7.8218238e-39
0.19324607 0.070713125 0.015707135 1.0217117e-38
0.10575959 0.08416599 0.024673641 8.7409439e-39
0.10236636 0.070796125 0.024333656 1.5466533e-38
0.068480998 0.044555768 0.040824592 1.6571082e-38
0.13192953 0.012653481 0.069649041 4.8795118e-39
0.12785432 0.013422698 0.069204628 4.4181651e-39
0.12478195 0.0088575296 0.069708705 8.2759706e-40
0.12400039 0.013341282 0.068664968 2.9473581e-39
0.11618474 0.013993807 0.06719178 1.4722532e-39
0.11507644 0.01604956 0.066212237 6.1644759e-39
0.11180571 0.01611707 0.066346407 7.2686669e-39
0.10753739 0.017136335 0.065223813 1.1412102e-38
0.10379031 0.017411727 0.064900935 1.1966374e-38
0.10257892 0.019351512 0.063924074 1.676339e-38
0.10257892 0.13569203 0.046371639 1.7591723e-38
0.10031042 0.018049207 0.064817071 1.2246571e-38
0.098561868 0.019266643 0.063361585 1.3901801e-38
0.099813923 0.13304073 0.046716094 1.5199985e-38
0.1005339 0.1350047 0.047203898 1.6855953e-38
0.09695816 0.017978396 0.064347684 1.0484088e-38
0.095883816 0.019210055 0.062986553 1.1694447e-38
0.095817193 0.13226727 0.046175241 1.5928924e-38
0.095617265 0.13445443 0.046582639 1.6574675e-38
0.094276339 0.01792172 0.063972056 9.2937631e-39
0.092347935 0.020222105 0.06253171 1.1966387e-38
0.092222363 0.13198885 0.045787513 1.703278e-38
0.089183837 0.020292033 0.062502027 1.0306496e-38
0.089097351 0.13281432 0.045215368 1.9520982e-38
0.089583188 0.13432693 0.045737684 1.9794696e-38
0.08552444 0.020802747 0.06160295 9.6622037e-39
0.085700825 0.13211474 0.045004666 1.952063e-38
0.081505179 0.021163896 0.06097281 9.1969194e-39
0.08086729 0.13191092 0.044853866 1.9339827e-38
0.082208201 0.13417113 0.044704854 1.9431663e-38
0.076174125 0.023565356 0.060527921 1.0675649e-38
0.076693952 0.13181484 0.043862045 1.8047684e-38
0.073492318 0.025517389 0.059849262 1.2615339e-38
0.072300732 0.02678331 0.058976948 1.4638233e-38
0.073071033 0.13087478 0.043042362 1.8324976e-38
0.068713531 0.028570831 0.058091342 1.4635729e-38
0.070240855 0.13115966 0.043104708 1.8229891e-38
0.065344125 0.028952979 0.057397902 1.1966027e-38
0.062094629 0.029293977 0.057647109 1.1776239e-38
0.06057629 0.030884482 0.056678951 1.3070897e-38
0.060071439 0.12774169 0.041823447 2.099504e-38
0.059412807 0.12967211 0.042118788 1.9335528e-38
0.05689165 0.032033078 0.055977941 1.4545638e-38
0.056730986 0.13162416 0.041440189 1.6479964e-38
0.054049179 0.033141382 0.055914283 1.3351783e-38
0.052925587 0.034385204 0.054884791 1.2890479e-38
0.053375036 0.13051942 0.040717661 1.5098851e-38
0.049687669 0.036286883 0.053793669 1.2242593e-38
0.048936084 0.13089702 0.040178061 1.465011e-38
0.044831514 0.040253937 0.053010285 1.2700656e-38
0.043662071 0.042177193 0.052042007 1.343571e-38
0.045134336 0.13056418 0.03932637 1.2895885e-38
0.040754437 0.043756239 0.052068174 1.261209e-38
0.037958324 0.044853598 0.05184269 1.1510395e-38
0.03271246 0.051395096 0.049763858 1.1137317e-38
0.030271888 0.053929515 0.048351109 1.1231658e-38
0.024063021 0.05854933 0.047275484 9.3902397e-39
0.020943224 0.059970021 0.046716511 8.283895e-39
0.019756675 0.062275149 0.046266794 8.007657e-39
0.019559711 0.065069795 0.045136094 8.5594113e-39
0.017844737 0.062506914 0.046298504 7.2708361e-39
0.016765445 0.065960951 0.04536742 7.8229294e-39
0.015862435 0.068832651 0.044379294 8.4654108e-39
0.01336199 0.070013233 0.044319689 8.0044354e-39
0.011971951 0.073601589 0.04276216 9.2004703e-39
0.012520105 0.10601675 0.038154423 8.2845956e-39
0.011140227 0.071069613 0.044046402 7.4487575e-39
0.010134518 0.07339184 0.043551981 6.6247772e-39
0.0098518133 0.077902853 0.041809559 9.2065701e-39
0.010231346 0.1061508 0.038368165 7.8239804e-39
0.1942229 0.070060432 0.015605032 9.8483592e-39
0.16052799 0.091896839 0.012024224 1.2798988e-38
0.164156 0.027075164 0.040935874 1.3166365e-38
0.093027651 0.045198746 0.036516845 1.7399056e-38
0.11240381 0.013372596 0.069978535 2.0229019e-39
0.10880557 0.014048837 0.068935513 4.3220375e-39
0.10785852 0.015688617 0.068297148 7.9130063e-39
0.10424343 0.014346562 0.069003284 7.264725e-39
0.10449684 0.015617594 0.06782639 8.8352905e-39
0.10315216 0.14047867 0.048795819 2.1005119e-38
0.10087705 0.013603047 0.068633258 6.1634011e-39
0.10008986 0.016093288 0.067531943 8.556931e-39
0.09956634 0.1372695 0.048766434 1.8333589e-38
0.1012729 0.13962781 0.048995495 2.0263958e-38
0.10180748 0.14179316 0.048404932 2.2109303e-38
0.096592188 0.016287979 0.067001641 8.0966717e-39
0.096697688 0.13577646 0.048580825 1.6854847e-38
0.096164048 0.13789573 0.049206078 1.8052683e-38
0.091963589 0.017281443 0.066393077 8.6480252e-39
0.09306708 0.13355109 0.048396528 1.6479222e-38
0.091963589 0.13555664 0.048548758 1.7032421e-38
0.08848986 0.017691154 0.065986931 8.188119e-39
0.08781752 0.13597673 0.048044801 1.997943e-38
0.084858179 0.0179299 0.065175414 8.7383949e-39
0.083654314 0.019877389 0.064198554 9.1961627e-39
0.084232777 0.13478959 0.047284842 1.9890853e-38
0.080005318 0.021230765 0.06449306 9.1061321e-39
0.079620302 0.13326702 0.046513498 1.9432731e-38
0.077603281 0.1332244 0.046231031 1.878523e-38
