# .PCD v0.7 - Point Cloud Data file format
VERSION 0.7
FIELDS x y z rgb
SIZE 4 4 4 4
TYPE F F F F
COUNT 1 1 1 1
WIDTH 975
HEIGHT 1
VIEWPOINT 0 0 0 0 1 0 0
POINTS 975
DATA ascii
0.054304242 0.090718091 0.017000198 1.0494094e-38
0.05473946 0.094180614 0.016279459 1.0032759e-38
0.054663189 0.096853524 0.015738726 1.0309684e-38
0.052004144 0.045897871 0.035101593 1.2056731e-38
0.051009178 0.049407214 0.033527076 1.2794312e-38
0.050128728 0.053109616 0.031641662 1.2793593e-38
0.050188638 0.056091011 0.030151904 1.3160575e-38
0.049524829 0.072843611 0.023781776 1.3348178e-38
0.050055876 0.075574279 0.022745252 1.3071242e-38
0.050686494 0.079204708 0.021366894 1.2057089e-38
0.050852448 0.082772672 0.020011008 1.1964915e-38
0.050852448 0.086495608 0.018595815 1.2059262e-38
0.050637111 0.090632856 0.017175376 1.2060333e-38
0.050840825 0.094209105 0.016733468 1.1597219e-38
0.047441632 0.057514697 0.030138075 1.3345682e-38
0.046082497 0.0606803 0.02910924 1.2793915e-38
0.046143964 0.064280719 0.027384162 1.3068012e-38
0.046358347 0.068152487 0.026320457 1.2976897e-38
0.047441632 0.071796209 0.024709105 1.2612066e-38
0.046807766 0.079179913 0.021722198 1.2609555e-38
0.046807766 0.082904637 0.020306289 1.2610275e-38
0.046807766 0.086629331 0.018890381 1.325742e-38
0.046954095 0.090099096 0.017826676 1.261206e-38
0.048015594 0.093119115 0.017140031 1.1320273e-38
0.04402703 0.062046468 0.028940916 1.2791069e-38
0.04402703 0.067017496 0.02705121 1.3435769e-38
0.04402703 0.07695958 0.023271859 1.3712661e-38
0.043694645 0.079755485 0.022208154 1.3346395e-38
0.043362275 0.083172798 0.020908177 1.2977966e-38
0.04402703 0.085658908 0.019964933 1.3162349e-38
0.14662792 0.070132554 0.0085846782 1.3443267e-38
0.15699197 0.066239953 0.0093817115 1.5468344e-38
0.15029418 0.067245752 0.010674834 1.4730421e-38
0.15290906 0.064504445 0.01251173 1.2615677e-38
0.15236279 0.046795294 0.019346118 1.4454555e-38
0.14311764 0.044324353 0.02204293 1.325852e-38
0.13171589 0.061697006 0.014892519 1.2615309e-38
0.14086884 0.036160946 0.028683782 1.1232719e-38
0.084731013 0.06547302 0.019191921 1.4178327e-38
0.098534115 0.066964328 0.01847291 1.4362712e-38
0.10182977 0.08131507 0.014881074 1.1414631e-38
0.097680546 0.044750735 0.028858185 1.0678126e-38
0.0672592 0.040056229 0.034154832 1.1227346e-38
0.07522729 0.043152049 0.031573474 1.4360217e-38
0.10002171 0.077210516 0.021351874 1.3261405e-38
0.10866734 0.024827763 0.043088734 8.465422e-39
0.12798026 0.027587265 0.045480847 8.1016954e-39
0.15937233 0.0087447912 0.052302063 6.1681011e-39
0.1594691 0.11325073 0.012736142 1.9059667e-38
0.15960874 0.11677986 0.012732208 2.0445111e-38
0.15560079 0.0061267912 0.054665685 4.6936898e-39
0.15563376 0.0082627535 0.052546382 5.2486503e-39
0.15561554 0.11335376 0.013310373 1.906326e-38
0.15623951 0.11660239 0.013860166 2.0998313e-38
0.15157405 0.006254524 0.055081546 3.866792e-39
0.15161896 0.008982569 0.052618265 4.9702571e-39
0.15058534 0.010801107 0.050854266 5.7060397e-39
0.1517691 0.11358094 0.013391733 1.9522792e-38
0.1528919 0.11659935 0.013852119 2.0723448e-38
0.14833915 0.0066992044 0.055616796 4.3266884e-39
0.14740711 0.0097455382 0.05338639 6.0748096e-39
0.14697519 0.012493938 0.050468266 6.810616e-39
0.14676313 0.014702752 0.049360573 7.0854036e-39
0.14761421 0.11382005 0.01275456 2.0165283e-38
0.14619668 0.11659321 0.013836026 2.0629159e-38
0.14371838 0.010130107 0.053497434 6.9978393e-39
0.14342289 0.012943178 0.050937295 7.1804719e-39
0.14365202 0.015530795 0.049037337 7.364482e-39
0.14365202 0.018023431 0.048089683 7.5492208e-39
0.14365202 0.11399016 0.011609137 1.9795793e-38
0.14325055 0.11622623 0.012362659 2.0352204e-38
0.13952462 0.010062024 0.05383873 5.8010968e-39
0.13960186 0.013339937 0.050928771 6.9035165e-39
0.13960186 0.017084241 0.049505472 7.1804411e-39
0.13965204 0.019266099 0.047606289 7.8258091e-39
0.13965204 0.11398649 0.011599541 2.0075247e-38
0.13957976 0.11713538 0.011947572 2.0626631e-38
0.13567562 0.010549903 0.054118097 4.1455383e-39
0.13552077 0.0137427 0.05219084 5.4334031e-39
0.13559614 0.017080575 0.049495816 6.1688255e-39
0.13498539 0.11398223 0.011588275 2.0077405e-38
0.13561457 0.11677861 0.011240244 1.9890854e-38
0.13146721 0.010814264 0.05400604 1.6577207e-39
0.13149501 0.013806909 0.052393079 3.9589835e-39
0.13137734 0.017152473 0.050259173 4.6961926e-39
0.1329854 0.018013671 0.048064053 5.4348464e-39
0.12678055 0.010497063 0.054113686 2.2998405e-39
0.12749454 0.013735354 0.052171469 2.1176058e-39
0.12755525 0.017210558 0.049899697 3.7749677e-39
0.12691712 0.020192862 0.048288763 4.7866113e-39
0.12647676 0.023032993 0.046271861 6.0726838e-39
0.12765208 0.025486723 0.045208573 7.271227e-39
0.12498543 0.11397308 0.011564255 1.1605845e-38
0.12757289 0.11637375 0.011906922 1.6485032e-38
0.12365463 0.010113552 0.053448558 3.5891542e-39
0.12348165 0.013731301 0.052161992 1.287506e-39
0.12357904 0.017069593 0.049466908 2.3027327e-39
0.12341214 0.020657733 0.048102438 4.5121811e-39
0.1233266 0.023744792 0.046714723 5.890438e-39
0.1216521 0.025481239 0.045194149 7.0861043e-39
0.12228128 0.11315686 0.012401879 1.1509715e-38
0.12417457 0.11674744 0.012646973 1.4090443e-38
0.11950375 0.01359269 0.051728308 3.0345342e-39
0.11955626 0.017135367 0.049668491 1.3804163e-39
0.1197641 0.020453811 0.048169911 4.2344927e-39
0.11945638 0.023262501 0.046432734 6.2588295e-39
0.11831878 0.10648906 0.014390826 1.1055145e-38
0.11881984 0.10940883 0.01371026 1.1327793e-38
0.11911254 0.11379731 0.013754487 1.1878468e-38
0.11896947 0.1182372 0.013136089 1.5655929e-38
0.11552925 0.017199963 0.04987061 1.4708099e-39
0.11556764 0.02018252 0.048261523 3.2192856e-39
0.11565211 0.022983104 0.04612726 6.0748068e-39
0.11485589 0.10277161 0.017399132 7.9165964e-39
0.11627655 0.10545948 0.01531142 9.9427297e-39
0.11545374 0.11001176 0.015540063 1.1140177e-38
0.11569952 0.11313257 0.014639676 1.1784109e-38
0.11673773 0.12032127 0.012337744 2.2840288e-38
0.11138155 0.018305868 0.051102877 7.350441e-40
0.11150181 0.021012425 0.048648 3.0348958e-39
0.11165214 0.023602605 0.045880735 5.0595969e-39
0.1127206 0.1128076 0.015182912 1.1594331e-38
0.11004251 0.12281847 0.011370003 2.3402943e-38
0.1109352 0.12448815 0.010737777 2.1283131e-38
0.10763224 0.01842761 0.051046312 9.197969e-40
0.10762724 0.021270573 0.048895836 3.7702902e-39
0.10734673 0.023601919 0.046297073 5.2382442e-39
0.1075882 0.094712853 0.019551039 6.7194405e-39
0.10602538 0.1190598 0.012787759 1.3065187e-38
0.10602538 0.12156314 0.011836171 1.8144216e-38
0.10870348 0.12469473 0.010653079 2.3401485e-38
0.10325614 0.021345615 0.049122691 5.7942584e-39
0.10360135 0.023755103 0.046335459 7.2686725e-39
0.10298549 0.025464162 0.045149207 9.0185733e-39
0.10365215 0.092766106 0.019567072 8.1941951e-39
0.10344892 0.095480502 0.020674288 8.0090863e-39
0.10267778 0.097778469 0.020868361 8.1917022e-39
0.10267778 0.11530176 0.014207125 1.1413912e-38
0.10337031 0.1177046 0.013057888 1.1781977e-38
0.10343847 0.12115392 0.011033714 1.6298851e-38
0.10296471 0.12513652 0.010469377 2.2206182e-38
0.10267778 0.12781838 0.0094490647 2.1461777e-38
0.099400871 0.021212518 0.049251795 6.4385643e-39
0.099575229 0.024087772 0.04642725 9.1111361e-39
0.099652171 0.025461122 0.04514122 9.8465572e-39
0.099674255 0.094671726 0.020512879 9.2080247e-39
0.097991131 0.098400027 0.020619214 1.012784e-38
0.098325886 0.11060405 0.015980899 1.0956506e-38
0.099162787 0.11404687 0.014674485 1.0955825e-38
0.099450275 0.11729771 0.012250781 1.1505395e-38
0.099544846 0.12064004 0.010029674 1.3621247e-38
0.099544846 0.12438434 0.0086063147 2.1561555e-38
0.099354021 0.12896311 0.0087670684 2.1470416e-38
0.095595665 0.023747817 0.046316326 9.0175056e-39
0.095652185 0.025457457 0.045131564 9.84619e-39
0.094985515 0.092758179 0.019546211 1.0406215e-38
0.095665284 0.095024675 0.020367682 1.0314386e-38
0.095145658 0.098866791 0.020433962 1.0772839e-38
0.094643518 0.10277778 0.018945813 1.0864322e-38
0.095121749 0.10689083 0.017383635 1.1047271e-38
0.095363289 0.11009094 0.015692413 1.1232e-38
0.095514014 0.11324728 0.01306653 1.1139824e-38
0.095539138 0.11689207 0.011443377 1.1599018e-38
0.095652178 0.12017789 0.0091248155 1.4174745e-38
0.095652193 0.12391683 0.0077034831 2.0265427e-38
0.095615134 0.12781215 0.0065791011 2.3416234e-38
0.094852179 0.13114476 0.0049536824 2.1192026e-38
0.091678485 0.021595821 0.049798012 8.0944731e-39
0.091324896 0.024217516 0.046813726 9.0164364e-39
0.092318855 0.025454417 0.045123577 9.6621575e-39
0.091652192 0.092755139 0.019538164 1.1233464e-38
0.091454901 0.09532854 0.02034241 1.1141999e-38
0.091429144 0.098546296 0.019356847 1.1141618e-38
0.091295913 0.10277471 0.018937767 1.0956856e-38
0.091295913 0.10652971 0.017510355 1.1323132e-38
0.09153343 0.10939983 0.014280438 1.2057813e-38
0.091533437 0.11314413 0.012857139 1.1322787e-38
0.09157344 0.11673716 0.011134744 1.1597928e-38
0.0916522 0.1201742 0.0091151595 1.2978723e-38
0.091652192 0.12266687 0.0081676245 1.5284322e-38
0.092985526 0.12765336 0.0062757134 2.341769e-38
0.087507449 0.025163457 0.047895432 9.2015535e-39
0.08725664 0.027170196 0.044992208 9.4813704e-39
0.088318877 0.092752099 0.019530177 1.1418925e-38
0.087611027 0.094761908 0.019120812 1.1418942e-38
0.087527737 0.098163217 0.018540859 1.1326742e-38
0.08736261 0.10248402 0.018324316 1.1326023e-38
0.087362602 0.10623425 0.016898692 1.1324226e-38
0.08752773 0.10939616 0.014270842 1.1225916e-38
0.08761134 0.1128419 0.01224798 1.0584855e-38
0.087842681 0.11607569 0.010662735 1.0769237e-38
0.08898554 0.11892545 0.0095825195 1.1962731e-38
0.08393117 0.02641657 0.047944129 9.1111599e-39
0.083565116 0.027532876 0.045022547 9.2962659e-39
0.082318902 0.029184222 0.043678164 1.0034185e-38
0.083652221 0.09586364 0.018334508 1.1786281e-38
0.083543405 0.098712504 0.018142641 1.1326733e-38
0.08340589 0.10228881 0.01791209 1.114127e-38
0.083261654 0.10652235 0.017491043 1.0583751e-38
0.083492681 0.10949039 0.014461577 1.1226626e-38
0.083637759 0.11273849 0.012038469 1.1870909e-38
0.084318891 0.11580539 0.010755718 1.1596133e-38
0.079380423 0.027963087 0.046273947 9.8465474e-39
0.079271287 0.029893637 0.043400168 1.0124945e-38
0.078890324 0.095948309 0.018289268 1.2428769e-38
0.079516336 0.098779947 0.01828438 1.1877376e-38
0.079244524 0.10213786 0.019146681 1.1047973e-38
0.079780139 0.10701984 0.017292321 1.223826e-38
0.079105787 0.10925984 0.013715923 1.4450944e-38
0.079985566 0.11175087 0.012285054 1.4265494e-38
0.075818896 0.029281706 0.046404779 1.0213912e-38
0.07470949 0.031752467 0.043750763 1.0030242e-38
0.074763365 0.034162611 0.041764915 1.0583777e-38
0.074985586 0.095232546 0.018550515 1.2798646e-38
0.075272448 0.098522186 0.01890552 1.1969932e-38
0.075609975 0.10293919 0.018832088 1.0677405e-38
0.075385176 0.1060282 0.016468585 1.2885426e-38
0.075617321 0.10811812 0.01392144 1.6111157e-38
0.074318923 0.13573739 0.0031512976 1.5574573e-38
0.071372703 0.032293916 0.044486642 9.8436719e-39
0.071553394 0.035007283 0.042148292 1.0398306e-38
0.07031893 0.036651179 0.040806651 1.0951118e-38
0.071059674 0.094813526 0.01869905 1.2339087e-38
0.071394436 0.09862572 0.019122958 1.1785202e-38
0.070540741 0.10212991 0.01912576 1.1323865e-38
0.07142964 0.10910475 0.013668478 1.0955074e-38
0.071875378 0.11668071 0.011993468 1.0860736e-38
0.071899638 0.12118396 0.010103405 1.2240425e-38
0.071122624 0.12417951 0.0086058378 1.5193555e-38
0.070763372 0.12680215 0.0065380931 1.6397897e-38
0.069652267 0.13074782 0.005035162 1.6129964e-38
0.07298559 0.13573617 0.0031480789 1.5206157e-38
0.067427613 0.032922 0.04512012 9.9366018e-39
0.067499228 0.035115778 0.042452455 9.7554574e-39
0.066985607 0.036648139 0.040798664 1.1686507e-38
0.066985607 0.092732579 0.019478858 1.2246881e-38
0.066985615 0.094602078 0.018768191 1.1786616e-38
0.0673972 0.098430365 0.01909709 1.1416411e-38
0.066746786 0.10233507 0.019037306 1.1138767e-38
0.06786266 0.10775995 0.016978204 9.8480524e-39
0.068013795 0.10919592 0.015362978 8.7463599e-39
0.064515054 0.033908799 0.045042574 1.0030239e-38
0.06357082 0.035890207 0.043430984 1.0032402e-38
0.063652292 0.037268251 0.040553749 1.0765984e-38
0.064318955 0.092730135 0.01947242 1.1601889e-38
0.06346181 0.094865918 0.018658221 1.0956516e-38
0.063541368 0.098618537 0.019104064 1.0864323e-38
0.063030608 0.10226786 0.018747032 1.0678858e-38
0.061836965 0.10650277 0.017439485 1.0402293e-38
0.061836965 0.10963193 0.016250014 9.7569231e-39
0.061836965 0.11276108 0.015060484 9.1140578e-39
0.059825316 0.036637068 0.043136775 9.4792138e-39
0.059249535 0.039217427 0.04117614 9.4774383e-39
0.059652291 0.041626722 0.038886011 1.0489431e-38
0.058318973 0.044118136 0.037935197 1.1131555e-38
0.059652306 0.096464843 0.018039882 1.0041353e-38
0.059597798 0.098477036 0.017631412 9.669349e-39
0.059487827 0.10188189 0.017050087 1.022003e-38
0.059415564 0.10582083 0.016027927 1.0404417e-38
0.059269369 0.10996115 0.015404522 9.7611887e-39
0.059382059 0.11380187 0.014658093 9.2087408e-39
0.056480795 0.037656426 0.04359585 9.661817e-39
0.055292614 0.039852709 0.041806698 1.039507e-38
0.055567227 0.042419344 0.039108217 1.1409595e-38
0.055385642 0.044613987 0.037738621 1.1962728e-38
0.055652313 0.098953843 0.017082691 9.941973e-39
0.055519968 0.10178247 0.016839206 1.0402974e-38
0.055482134 0.10562253 0.015617073 1.0494422e-38
0.055292606 0.10985956 0.015194476 9.8530284e-39
0.055677369 0.11350647 0.014760196 9.392039e-39
0.052133307 0.040760472 0.041690767 1.150213e-38
0.051259719 0.04290621 0.039599121 1.2056014e-38
0.05165232 0.045150638 0.037524343 1.2332228e-38
0.050319001 0.047849774 0.036494613 1.2701026e-38
0.051385656 0.098451406 0.017261982 1.2244361e-38
0.051476426 0.10187456 0.017030776 1.2428754e-38
0.051467426 0.10590094 0.016569972 1.2243288e-38
0.051794134 0.10962275 0.016225815 1.2060686e-38
0.047505796 0.043864727 0.039988577 1.0769953e-38
0.047500685 0.046271443 0.037978232 1.150644e-38
0.047394395 0.049115732 0.036540151 1.2242206e-38
0.046985671 0.052832007 0.034591496 1.2886509e-38
0.046985671 0.05594781 0.033407032 1.3713751e-38
0.046319008 0.092713684 0.019429147 1.1780528e-38
0.047385678 0.09545657 0.018389404 1.1228072e-38
0.047304839 0.098422348 0.018178761 1.122731e-38
0.047695994 0.10206297 0.017865717 1.1233093e-38
0.048119992 0.10536551 0.017120898 1.1515413e-38
0.043983042 0.047241077 0.039917946 1.1596118e-38
0.04350622 0.05311054 0.035308063 1.3162008e-38
0.043106392 0.057339609 0.0329386 1.3252405e-38
0.04231903 0.060928851 0.031500757 1.2884704e-38
0.041519031 0.063794643 0.030409098 1.3346018e-38
0.042197824 0.068463266 0.028636217 1.3252043e-38
0.042985693 0.072146326 0.027238369 1.2793583e-38
0.042585686 0.075137109 0.026100278 1.3713754e-38
0.041652367 0.078999877 0.024629414 1.3901373e-38
0.040985718 0.08273825 0.023206472 1.3532219e-38
0.041874588 0.086893469 0.021629393 1.2979765e-38
0.043136507 0.090872318 0.020884514 1.2336208e-38
0.043592945 0.094589323 0.020313323 1.159686e-38
0.044676632 0.098409563 0.019042432 1.0028433e-38
0.039742753 0.050783575 0.038559616 1.2149979e-38
0.039384454 0.053796589 0.036610961 1.2701019e-38
0.039022118 0.056857765 0.034414709 1.3437907e-38
0.038791701 0.060675621 0.032657146 1.306946e-38
0.038985714 0.064041585 0.030308306 1.4267257e-38
0.038985714 0.068403721 0.028650045 1.4265836e-38
0.038985714 0.07214269 0.027228773 1.3714107e-38
0.038985714 0.075258493 0.026044309 1.4083965e-38
0.038985714 0.078997463 0.024622977 1.3717714e-38
0.038985714 0.082736403 0.023201644 1.3716977e-38
0.038856044 0.086749256 0.022389174 1.3532577e-38
0.039599136 0.090108782 0.02254045 1.3256725e-38
0.036395147 0.058290482 0.035696745 1.3254587e-38
0.036017016 0.061370432 0.033669114 1.3991043e-38
0.035520196 0.064449698 0.031748295 1.4633527e-38
0.0353636 0.068331838 0.0302127 1.4726826e-38
0.035386324 0.072034508 0.028686404 1.3805584e-38
0.035519257 0.07551831 0.026649237 1.2885786e-38
0.035453618 0.079394072 0.025532365 1.2609176e-38
0.035453632 0.083138376 0.024109006 1.3626216e-38
0.035371587 0.08724016 0.023886681 1.3900638e-38
0.031923443 0.076527357 0.028324068 1.1224852e-38
0.032085493 0.079460531 0.026353657 1.1597929e-38
0.032648101 0.083407104 0.024712265 1.2891527e-38
0.032378003 0.086449236 0.024981499 1.3349646e-38
0.14821258 0.061574757 0.011932135 1.5375071e-38
0.14727925 0.068728507 0.0091915727 1.4271241e-38
0.14935379 0.049161926 0.018354952 1.4363427e-38
0.14489877 0.051532 0.017168343 1.4915169e-38
0.13510557 0.04156518 0.023604631 1.3166689e-38
0.15856175 0.023401126 0.035031676 7.736133e-39
0.10608237 0.072207034 0.015620947 8.6541264e-39
0.0988006 0.058271945 0.0232535 1.2337637e-38
0.10120581 0.034844786 0.035866797 1.1322763e-38
0.095258549 0.089424759 0.021357477 1.4085044e-38
0.15955108 0.11986718 0.01441139 2.1274875e-38
0.15533128 0.11898914 0.014784455 2.1921311e-38
0.15544306 0.12248847 0.016612887 2.2840757e-38
0.15133129 0.11874345 0.014771223 2.1181595e-38
0.15123993 0.12345397 0.015922427 2.2287586e-38
0.14649124 0.0064286292 0.056784391 4.1419524e-39
0.14764059 0.11874011 0.014762342 2.0812826e-38
0.14719272 0.12350756 0.01602453 2.1826604e-38
0.14343889 0.006967485 0.057403207 4.3256234e-39
0.14213316 0.009244889 0.055701852 5.9865446e-39
0.14374231 0.11904797 0.013965964 2.0903943e-38
0.14370057 0.12351477 0.016088724 2.1735127e-38
0.13894406 0.12298784 0.015053272 2.1274865e-38
0.13536546 0.0070581734 0.057703018 2.1158065e-39
0.13475795 0.0092381537 0.05568409 2.9480657e-39
0.13532989 0.12286583 0.014393449 2.0077413e-38
0.13385624 0.12640271 0.015422165 2.0259259e-38
0.13132405 0.0071201921 0.05790621 1.7466737e-39
0.13140558 0.0092351139 0.055676103 1.2889297e-39
0.13132343 0.12265813 0.013985813 1.7497745e-38
0.13048482 0.12639961 0.015414059 1.8140593e-38
0.1281873 0.0069759488 0.056525946 4.0522483e-39
0.12791911 0.010234654 0.055286467 1.747031e-39
0.12738274 0.11953443 0.013736069 1.6942775e-38
0.12725513 0.12290856 0.014473736 1.574638e-38
0.1271134 0.12639654 0.015406013 1.3904989e-38
0.12282351 0.11877814 0.014010966 1.3906053e-38
0.12322254 0.12290528 0.014463902 1.1508239e-38
0.1230677 0.12639284 0.015396178 8.9296497e-39
0.11956054 0.11806491 0.014273167 1.3996068e-38
0.11925893 0.12249324 0.013658702 1.3715839e-38
0.11884476 0.12577847 0.013478458 8.8309689e-39
0.11397326 0.10322738 0.019897997 7.548523e-39
0.11397326 0.10698774 0.018468618 8.8360318e-39
0.11497897 0.11544937 0.015254736 1.1780165e-38
0.11528541 0.11842096 0.014482558 1.7039614e-38
0.11509307 0.12247357 0.01325351 2.0723793e-38
0.11524624 0.12540886 0.012325346 1.3254149e-38
0.11120117 0.10365671 0.020796895 7.1797236e-39
0.11116024 0.10761705 0.019766808 8.5590736e-39
0.11124063 0.11099118 0.017533481 1.0306114e-38
0.11112375 0.11466244 0.015543282 1.1317398e-38
0.11128156 0.1183168 0.014273405 1.5376185e-38
0.11142588 0.12204197 0.013140023 2.2117955e-38
0.11167949 0.12567815 0.012070596 1.962146e-38
0.10592757 0.020492777 0.051326394 3.6784547e-39
0.10659805 0.096953422 0.022262692 6.9023843e-39
0.10720458 0.09974578 0.021916032 6.718e-39
0.10717261 0.10365301 0.020787239 7.6374508e-39
0.10710952 0.10771054 0.01995784 8.9257023e-39
0.10717261 0.11118436 0.017924309 1.021571e-38
0.10723675 0.11465111 0.015893459 1.1320272e-38
0.10743614 0.11810604 0.014224112 1.196459e-38
0.10793899 0.12202355 0.01273638 1.9160925e-38
0.10659804 0.12578264 0.011303663 2.1930322e-38
0.10592757 0.12828889 0.010349035 1.676848e-38
0.10458663 0.02049154 0.051323175 4.1379993e-39
0.10340847 0.099937916 0.021425068 8.188126e-39
0.10318963 0.10345784 0.020375013 9.2033486e-39
0.10315555 0.10736662 0.019245625 1.0032756e-38
0.10320114 0.11093488 0.017413855 1.0677052e-38
0.10343723 0.11414063 0.015720546 1.1322779e-38
0.10458663 0.12640747 0.011060536 2.2206532e-38
0.10324566 0.12974879 0.0097867846 1.7780101e-38
0.099222839 0.096946657 0.02224493 9.2980805e-39
0.099605963 0.099633008 0.021224916 9.5753765e-39
0.099222839 0.10321388 0.019862533 1.0313281e-38
0.099222839 0.10697421 0.018433094 1.0495856e-38
0.1000274 0.1104846 0.017100871 1.0862515e-38
0.10056378 0.11449611 0.015577435 1.1323884e-38
0.096540935 0.10070455 0.020809054 1.0588808e-38
0.095391542 0.10321042 0.019853354 1.0863963e-38
0.095870465 0.10571769 0.018901527 1.1047278e-38
0.089836195 0.021104783 0.051049471 8.5543806e-39
0.086975515 0.019843131 0.055372536 9.4745461e-39
0.087001957 0.022113562 0.051965773 9.3841413e-39
0.085813358 0.024234712 0.049848557 9.4791802e-39
0.083959259 0.020469636 0.055553913 1.0579453e-38
0.082754925 0.02263701 0.053538144 1.0305027e-38
0.082902417 0.025218725 0.049772203 9.4774159e-39
0.078632303 0.023457482 0.053868532 1.0673455e-38
0.078850634 0.02608788 0.051145792 9.5713954e-39
0.079108603 0.10444894 0.019337714 1.0950726e-38
0.07843814 0.10632849 0.018621325 1.1591097e-38
0.075193577 0.02424331 0.054095268 1.0582341e-38
0.074644327 0.026477367 0.052293658 1.1318093e-38
0.074379407 0.028692573 0.048389971 1.0488704e-38
0.073744819 0.10256386 0.020039499 1.1230942e-38
0.070473582 0.027390406 0.052886009 1.0948952e-38
0.07093174 0.029525176 0.048747361 9.9355116e-39
0.071254477 0.10336742 0.01972723 1.104548e-38
0.070392452 0.10569441 0.018840194 1.0582002e-38
0.07016895 0.1190643 0.013757288 1.1969929e-38
0.07016895 0.12115338 0.012963116 1.2798987e-38
0.067102171 0.02801761 0.052638233 1.0764901e-38
0.066818602 0.029702395 0.049263 1.0027721e-38
0.066369608 0.031737581 0.04694289 1.0120308e-38
0.067263559 0.10339358 0.019706309 1.1046566e-38
0.066826381 0.10664892 0.018620431 1.0399432e-38
0.066472702 0.11129484 0.016914427 9.0218552e-39
0.067040071 0.11446545 0.01549679 8.8374695e-39
0.066920832 0.11857858 0.014764905 1.0034561e-38
0.066954419 0.12224096 0.013135076 1.2153602e-38
0.062557958 0.030170813 0.050618529 9.8465614e-39
0.062809683 0.03291367 0.046753466 1.0121701e-38
0.061676294 0.03612034 0.045263946 9.6632281e-39
0.063687712 0.10443482 0.01930058 1.0677768e-38
0.063355543 0.10706609 0.018605113 1.0309018e-38
0.063355543 0.11100754 0.017106831 9.3888328e-39
0.063184865 0.1146186 0.015427947 8.9289365e-39
0.062876321 0.11862502 0.014854968 9.8490795e-39
0.062887415 0.12268636 0.01436615 1.1878071e-38
0.063730761 0.12633857 0.015253425 1.4916609e-38
0.058867611 0.030787364 0.051027775 9.7543545e-39
0.058811001 0.033352599 0.047496736 9.8454684e-39
0.058323912 0.036117271 0.045255899 9.294461e-39
0.0585474 0.11487553 0.015317559 9.3005847e-39
0.058939345 0.11836982 0.014346838 1.0403306e-38
0.058609962 0.12242022 0.014945865 1.1694075e-38
0.055639356 0.031788811 0.051173091 1.0490136e-38
0.054611817 0.03368032 0.048430443 1.0490468e-38
0.05469732 0.03679426 0.045657158 9.5678123e-39
0.054301076 0.11508051 0.015227914 9.7568544e-39
0.05481942 0.11861828 0.014835477 1.1600078e-38
0.05476357 0.12250435 0.015402496 1.2705712e-38
0.051263794 0.034157991 0.0489766 1.0671989e-38
0.050674021 0.037261069 0.046464205 9.8458467e-39
0.050472088 0.040136203 0.043884814 1.122591e-38
0.049607754 0.10818228 0.017837226 1.3997504e-38
0.050412327 0.11119127 0.016695619 1.3442171e-38
0.050811686 0.11479935 0.01615715 1.2795375e-38
0.050676323 0.119187 0.016331315 1.3809176e-38
0.051593646 0.12254578 0.016661823 1.5744182e-38
0.048896521 0.034934059 0.049958885 9.8426027e-39
0.047300667 0.038229927 0.048166692 1.0122092e-38
0.046602339 0.041101754 0.045230687 1.1133361e-38
0.04625538 0.043000177 0.042606175 1.1136574e-38
0.045584917 0.10379156 0.019495249 9.9326726e-39
0.046417683 0.10748979 0.018448353 9.7471799e-39
0.046824336 0.11093247 0.017378449 9.3791485e-39
0.046582386 0.11529395 0.01714617 8.9195758e-39
0.047592878 0.11959296 0.017505825 1.0301047e-38
0.044850826 0.039342344 0.048272014 1.1225923e-38
0.042967513 0.042233989 0.046365261 1.1132952e-38
0.042715028 0.044597208 0.04305917 1.0951098e-38
0.042009041 0.047174469 0.041007757 1.1226259e-38
0.041562065 0.04926309 0.040212512 1.1685809e-38
0.041467428 0.096478641 0.022798717 1.2612073e-38
0.042043626 0.09982869 0.022061825 1.1964551e-38
0.042547464 0.10397843 0.021436572 1.1226287e-38
0.042464629 0.10794249 0.020404935 1.1314878e-38
0.042831719 0.11157846 0.01912564 1.1039012e-38
0.043036997 0.11580423 0.018773019 1.1224478e-38
0.044850826 0.1187579 0.018083155 1.0023425e-38
0.040805116 0.043120325 0.046824694 1.1043259e-38
0.039108634 0.045542389 0.044829547 1.1131558e-38
0.038993925 0.047788054 0.041621983 1.0948952e-38
0.038266182 0.050154269 0.040292561 1.1229085e-38
0.037539229 0.053019762 0.038773358 1.1230872e-38
0.038534388 0.092796534 0.024083376 1.2980508e-38
0.038933173 0.096182108 0.024203539 1.288865e-38
0.038942173 0.10074943 0.024021089 1.3070886e-38
0.03887783 0.10467029 0.022887051 1.3255272e-38
0.038910002 0.10837677 0.021299839 1.3073026e-38
0.039488405 0.11216664 0.020395756 1.316344e-38
0.036374867 0.046361133 0.045224071 1.1317387e-38
0.035508797 0.048611686 0.044187725 1.0029511e-38
0.035032496 0.05140245 0.042055845 1.030533e-38
0.035395607 0.05451259 0.03891319 1.131988e-38
0.034600392 0.058092445 0.037015259 1.3070904e-38
0.033851609 0.061477125 0.03554827 1.3807371e-38
0.033516377 0.066803932 0.033522427 1.4726073e-38
0.033516377 0.089365929 0.024945736 1.3991395e-38
0.035013556 0.092170864 0.025106192 1.3807379e-38
0.03543891 0.097056478 0.025236845 1.3624067e-38
0.035497919 0.10091227 0.024365783 1.3622629e-38
0.036085129 0.1048837 0.023333192 1.2980494e-38
0.036422268 0.10835055 0.022016168 1.2153589e-38
0.036085129 0.1111865 0.020937204 9.8462181e-39
0.032254562 0.055824935 0.041543722 1.1505716e-38
0.031153738 0.059003532 0.03984338 1.187344e-38
0.030927822 0.062844127 0.038051724 1.2516645e-38
0.030848503 0.06598857 0.034627318 1.2886482e-38
0.030765906 0.069435865 0.032870948 1.2610272e-38
0.030811563 0.073111922 0.031235874 1.1411396e-38
0.029828772 0.076514751 0.0298208 1.0399036e-38
0.029828772 0.080901802 0.028153121 1.1136598e-38
0.030129597 0.084416896 0.026996076 1.1873458e-38
0.030512795 0.08857426 0.026040733 1.3257089e-38
0.031551793 0.092964917 0.025979221 1.4636413e-38
0.031432673 0.097176254 0.025893629 1.5099906e-38
0.032376558 0.10078347 0.024881601 1.4454895e-38
0.028382465 0.059719056 0.040213287 1.1778007e-38
0.02838248 0.063499421 0.038776159 1.1593627e-38
0.027198523 0.066659272 0.037304282 1.1690091e-38
0.026958212 0.070263445 0.03486377 1.1041133e-38
0.026601464 0.073453963 0.032045186 9.6632281e-39
0.026647761 0.077131838 0.030409455 9.3895517e-39
0.02662462 0.080941111 0.029080272 1.0401541e-38
0.02713275 0.085022181 0.028362393 1.1230229e-38
0.02692382 0.089201152 0.027842999 1.2521342e-38
0.027941808 0.092861295 0.027452946 1.3719139e-38
0.028668016 0.096052945 0.026669621 1.4365204e-38
0.023380116 0.071274579 0.035539329 9.2029814e-39
0.02288574 0.074098587 0.033572972 8.836008e-39
0.022957072 0.077742934 0.031831264 9.204087e-39
0.022957072 0.0815157 0.030396998 1.0127848e-38
0.023439765 0.085648686 0.029778183 1.1047623e-38
0.023548827 0.089383066 0.028656125 1.1784829e-38
0.024622321 0.092267573 0.028097451 1.2797559e-38
0.019902334 0.072094202 0.035753071 7.7278766e-39
0.019349486 0.074398428 0.034281313 7.7293059e-39
0.019398496 0.078089535 0.032640636 8.4661591e-39
0.019349486 0.081956059 0.03140837 9.2037339e-39
0.019713864 0.085682899 0.03040868 1.0126395e-38
0.016530916 0.079654515 0.032869875 7.9144258e-39
0.016530916 0.080915064 0.032390654 8.1910113e-39
0.16652584 0.066193253 0.011535704 1.583605e-38
0.16521537 0.060947835 0.014179885 1.5837849e-38
0.15063915 0.035576656 0.029426217 8.2885851e-39
0.0992864 0.084560364 0.013828456 1.0220372e-38
0.098301731 0.058881521 0.023234725 1.0037795e-38
0.087547228 0.11378786 0.0078299642 1.4547843e-38
0.15267389 0.12608013 0.017736256 2.2751077e-38
0.14861675 0.1260764 0.017726481 2.2197533e-38
0.14654846 0.12780079 0.01813519 2.2292939e-38
0.14185487 0.12543815 0.017950535 2.1642217e-38
0.14316276 0.12779772 0.018127024 2.2200046e-38
0.1405025 0.12543693 0.017947257 2.1458542e-38
0.13911729 0.12763992 0.017819226 2.1825877e-38
0.13505106 0.12830767 0.017643273 2.0903559e-38
0.13132773 0.12862074 0.01751399 1.8972146e-38
0.1269287 0.12924924 0.017262995 1.3257089e-38
0.12260729 0.12885958 0.017238796 9.9369675e-39
0.12149426 0.13157561 0.016631246 1.3720967e-38
0.1191042 0.12952209 0.01676333 1.049952e-38
0.12013999 0.13157436 0.016627967 1.3818959e-38
0.085055053 0.019831717 0.057939112 1.0301776e-38
0.08228568 0.020616636 0.058167994 1.0947165e-38
0.079545051 0.020692259 0.058399081 1.1684729e-38
0.078969359 0.022354394 0.056963384 1.14103e-38
0.076802984 0.021400899 0.058389723 1.1685833e-38
0.075900123 0.023087949 0.057745934 1.1134442e-38
0.071656711 0.024687544 0.057126164 1.030541e-38
0.070855103 0.026139364 0.055502236 1.0581279e-38
0.068000153 0.025190562 0.05692488 1.0483704e-38
0.067173064 0.026705563 0.055490851 1.0948262e-38
0.06352032 0.027941674 0.055408299 1.1046172e-38
0.062913321 0.12868032 0.016857326 1.6121984e-38
0.063417032 0.131055 0.01559937 1.7503161e-38
0.058007523 0.029919982 0.054029703 9.4784599e-39
0.059197322 0.12645501 0.018406212 1.3812045e-38
0.05521863 0.031133682 0.054095507 1.0122767e-38
0.055190586 0.12629786 0.018098295 1.3258531e-38
0.051453233 0.032372206 0.053881764 1.0122048e-38
0.049893275 0.033704937 0.052568555 1.0488314e-38
0.05095274 0.12534696 0.01834625 1.4547469e-38
0.047053725 0.03553164 0.052668691 9.7525497e-39
0.045836121 0.038125664 0.050876915 9.2952093e-39
0.046226382 0.12192068 0.019380927 9.4763495e-39
0.04836309 0.12454623 0.019101977 1.3343559e-38
0.044300243 0.03656204 0.052536905 1.0030594e-38
0.043233141 0.038980082 0.051258206 1.0858935e-38
0.042455196 0.041282892 0.049667418 1.1409979e-38
0.041778997 0.11839396 0.020352721 1.2240418e-38
0.043007433 0.1210148 0.020073056 1.2605254e-38
0.039230064 0.043002591 0.049646735 1.1133353e-38
0.037721872 0.045070946 0.048214376 1.1865161e-38
0.038398072 0.11459848 0.021786213 1.113766e-38
0.038967848 0.11737666 0.021326005 1.086071e-38
0.039560258 0.12010753 0.020765066 1.1777307e-38
0.036174551 0.044150054 0.049630046 1.1131539e-38
0.034918696 0.046190113 0.048316121 1.1319186e-38
0.033664733 0.048859611 0.046763003 1.0672376e-38
0.033664733 0.10574529 0.025138617 1.3071585e-38
0.03420569 0.10979095 0.023602188 1.0865371e-38
0.034767404 0.11381918 0.022378206 8.9246317e-39
0.035091117 0.11681208 0.022005498 8.3753858e-39
0.031434581 0.05047524 0.047212541 1.0120263e-38
0.031002194 0.053030521 0.045838773 1.0397911e-38
0.029945701 0.056124926 0.04399091 1.0767796e-38
0.030148551 0.1022025 0.026475668 1.4087908e-38
0.030869335 0.10593486 0.025534332 1.3349258e-38
0.030824304 0.10982653 0.024292588 1.1140537e-38
0.031242281 0.11327496 0.023161232 9.0178951e-39
0.032111719 0.116303 0.022190809 8.833836e-39
0.028048858 0.056801677 0.044798315 1.0491932e-38
0.026174605 0.060321361 0.042652786 1.1593592e-38
0.026091427 0.06376937 0.041074395 1.1042584e-38
0.025550485 0.067814082 0.039535344 1.1508912e-38
0.02622667 0.094993383 0.029205322 1.3536184e-38
0.026603401 0.098575979 0.028513074 1.3814196e-38
0.027236298 0.1018672 0.027664959 1.372236e-38
0.028048858 0.10490611 0.026512027 1.3076275e-38
0.023308888 0.061228007 0.043102622 1.0026305e-38
0.023308888 0.064392775 0.041899621 9.6596814e-39
0.022702441 0.068063796 0.040145874 1.0214256e-38
0.022773772 0.070467114 0.038875818 9.8458341e-39
0.02149336 0.091828763 0.030395269 1.1970296e-38
0.022622719 0.094620228 0.029604733 1.2523829e-38
0.023118511 0.098080218 0.028914928 1.298659e-38
0.023986027 0.10110468 0.027945876 1.3167391e-38
0.01947175 0.071562737 0.03916347 8.0952214e-39
0.017887026 0.08719033 0.0321486 9.9423611e-39
0.018690765 0.090745121 0.031274974 1.1047977e-38
0.01873818 0.094770372 0.03033936 1.1600803e-38
0.01992318 0.097303241 0.029379785 1.2430208e-38
0.015183181 0.073246688 0.038511515 6.9888528e-39
0.014555708 0.075691253 0.037342727 6.8970145e-39
0.014477178 0.079171002 0.03558892 7.1772195e-39
0.014477164 0.083281398 0.034026325 8.0066046e-39
0.014555916 0.087081432 0.033012927 8.9267743e-39
0.014892966 0.090788275 0.03184253 1.0309692e-38
0.011797488 0.080206096 0.035856664 6.4396475e-39
0.011797473 0.083370864 0.034653604 7.0839351e-39
0.011797488 0.086535603 0.033450603 8.0041075e-39
0.12775065 0.058177531 0.013525128 1.5189251e-38
0.1626461 0.085884929 0.0064225197 1.5376159e-38
0.16124162 0.09225893 0.0060107708 1.6665805e-38
0.11556548 0.085499197 0.0069093108 9.8515626e-39
0.11613829 0.088337541 0.0068423748 8.2885627e-39
0.095431365 0.030511975 0.034294486 1.1047969e-38
0.14674209 0.015769869 0.046547651 7.3626884e-39
0.13532989 0.12286583 0.014393449 2.0077413e-38
0.15121198 0.12888345 0.020232677 2.2384451e-38
0.14745852 0.13002601 0.02023375 2.2384082e-38
0.14305899 0.13014606 0.01973027 2.2753578e-38
0.14166933 0.13172528 0.019839346 2.2660674e-38
0.13898344 0.13014233 0.019720495 2.2101764e-38
0.13894933 0.13172284 0.01983285 2.2563477e-38
0.13628335 0.12998521 0.019416213 2.1549662e-38
0.13455778 0.13180375 0.019255042 2.1739091e-38
0.13085099 0.13124973 0.018920541 1.9345964e-38
0.12677673 0.131246 0.018910766 1.3075911e-38
0.12266545 0.13242853 0.018984735 1.132351e-38
0.11990941 0.1342479 0.018820465 1.5850902e-38
0.082282864 0.018106222 0.062866807 1.1044701e-38
0.083317809 0.019493133 0.061272562 1.0854592e-38
0.079109542 0.017891452 0.062939703 1.1500321e-38
0.078904018 0.01980646 0.061141312 1.1959868e-38
0.075936206 0.018100426 0.062851489 1.2053157e-38
0.075089157 0.020932421 0.061314046 1.1500357e-38
0.073811173 0.023927569 0.059560657 1.0856774e-38
0.071856223 0.021910429 0.06139195 1.0859299e-38
0.070718639 0.023685947 0.05991143 1.0765662e-38
0.06689509 0.024607286 0.060174763 1.094646e-38
0.063364573 0.02531381 0.059860826 1.1595044e-38
0.062267408 0.027090684 0.058326483 1.1136925e-38
0.061588362 0.12991691 0.019236505 1.6491828e-38
0.061429597 0.13165191 0.019646287 1.7136852e-38
0.058960423 0.028676331 0.058249474 1.0308944e-38
0.0587909 0.12951156 0.019917727 1.4551064e-38
0.057893619 0.13266566 0.019251168 1.4923107e-38
0.057349615 0.13609755 0.017945111 1.5946276e-38
0.054629616 0.02994591 0.058289945 9.9383632e-39
0.053439818 0.030891016 0.056857526 9.8461746e-39
0.054713763 0.12950784 0.019907892 1.5103858e-38
0.055173613 0.13240895 0.01934129 1.5197892e-38
0.055989616 0.1360963 0.017941833 1.5946634e-38
0.050416827 0.03146103 0.05684644 9.569243e-39
0.050890848 0.12942341 0.020036459 1.5477704e-38
0.047578543 0.032635897 0.056712925 1.0121685e-38
0.045879498 0.035493314 0.055622041 1.0212061e-38
0.045924902 0.12557408 0.021111667 1.3067707e-38
0.047435567 0.12809572 0.02060312 1.5936914e-38
0.042451456 0.03702718 0.055207849 1.0490485e-38
0.041217014 0.039131373 0.053691387 1.0767094e-38
0.042483017 0.12483868 0.021649122 1.3805626e-38
0.039052755 0.039988831 0.054072618 1.0674181e-38
0.03782177 0.042936668 0.052235484 1.0948614e-38
0.038161293 0.12196133 0.022196174 1.0123539e-38
0.038989678 0.12400392 0.022491813 1.2516284e-38
0.036949679 0.041370943 0.053898096 1.0399388e-38
0.035396054 0.043520272 0.052648842 1.0581617e-38
0.033068448 0.046740726 0.050776362 1.076819e-38
0.03442654 0.11910158 0.023272991 8.5615581e-39
0.034891039 0.12144032 0.022813141 9.5728682e-39
0.035589695 0.12400082 0.022483706 1.1047296e-38
0.031509712 0.048993453 0.050985515 1.1772618e-38
0.03035225 0.05033505 0.049402535 1.0396137e-38
0.028994173 0.052449584 0.048594952 1.0213173e-38
0.029673219 0.11528882 0.024709284 8.5586994e-39
0.030737445 0.11818963 0.023966074 8.6508782e-39
0.032869682 0.12145585 0.023443639 1.0678497e-38
0.028109714 0.050897211 0.050252438 9.5728612e-39
0.026852906 0.053895652 0.048574209 9.8447397e-39
0.02620858 0.057645142 0.046968877 1.0307523e-38
0.026278004 0.10386053 0.029044271 1.3169186e-38
0.026779592 0.10737526 0.027923465 1.2246513e-38
0.02692233 0.11091635 0.026542127 1.0034199e-38
0.027045175 0.11452362 0.025706232 8.3757459e-39
0.028789714 0.11700273 0.025125146 7.825442e-39
0.023838058 0.058248222 0.047267914 1.0027702e-38
0.023561805 0.060061425 0.045686483 1.0396504e-38
0.022203729 0.10068312 0.030240893 1.2894037e-38
0.023367807 0.10358584 0.029140651 1.2522025e-38
0.023420423 0.10732013 0.028434575 1.1508961e-38
0.024165705 0.11102363 0.027385294 9.6643197e-39
0.020057678 0.062146753 0.045418978 8.9210612e-39
0.019813061 0.065423816 0.043943346 8.2746016e-39
0.018771872 0.069006085 0.042451322 8.1848946e-39
0.019293502 0.099773705 0.030578613 1.2614611e-38
0.019390523 0.10340968 0.029672146 1.205998e-38
0.019269735 0.10618845 0.029209912 1.1599359e-38
0.015447333 0.069573581 0.042812407 7.0828365e-39
0.015575081 0.072440684 0.041111529 7.2665215e-39
0.015025228 0.095598698 0.032153904 1.0863603e-38
0.015388221 0.099454254 0.03080821 1.2428765e-38
0.015313506 0.10340557 0.029662549 1.20614e-38
0.015019745 0.10729688 0.028776824 1.0955047e-38
0.011563897 0.073889583 0.040931702 7.2647292e-39
0.010582894 0.076682359 0.039689064 7.7267401e-39
0.010320425 0.080043435 0.038054109 5.7038719e-39
0.009980917 0.084168881 0.036484897 6.4407125e-39
0.010320425 0.088294953 0.034917355 8.4679247e-39
0.01116924 0.091945469 0.033532023 1.0401138e-38
0.011595756 0.099463075 0.031286895 1.2338011e-38
0.012016684 0.1032148 0.029892385 1.0678474e-38
0.012469769 0.10618219 0.029193461 1.0399692e-38
0.0083897859 0.076939791 0.040298462 7.2650501e-39
0.0081080347 0.084784389 0.037048101 5.6087952e-39
0.0077486038 0.088313192 0.035794795 5.7020698e-39
0.0077097714 0.09219414 0.034497857 6.9034619e-39
0.16652428 0.07353279 0.008864522 1.4731496e-38
0.14639296 0.072400898 0.0089421868 1.344401e-38
0.14375769 0.052231044 0.016899407 1.6021163e-38
0.094975956 0.042559236 0.029978573 1.4360198e-38
0.055431575 0.10575485 0.015883505 1.021929e-38
0.16652584 0.066193253 0.011535704 1.583605e-38
0.011797488 0.080206096 0.035856664 6.4396475e-39
0.14694586 0.13497666 0.023134828 2.285119e-38
0.14303397 0.13491184 0.022643566 2.2849756e-38
0.13878173 0.13519177 0.022079766 2.3122762e-38
0.13801362 0.13917118 0.022347867 2.0548837e-38
0.13500832 0.1348781 0.021190107 2.2574614e-38
0.13462709 0.13885322 0.021746218 1.9995666e-38
0.13063532 0.13479352 0.021317124 1.9344889e-38
0.13048127 0.13916424 0.022329688 1.6118792e-38
0.12651861 0.1349462 0.021604359 1.2799031e-38
0.1233925 0.1347647 0.020773232 1.0585978e-38
0.12245958 0.13725835 0.020179391 1.6039178e-38
0.081178568 0.014944658 0.069414556 7.6385312e-39
0.082263909 0.017526552 0.067009687 1.1042909e-38
0.0785897 0.014609188 0.068346262 1.1505711e-38
0.078752838 0.016794115 0.066208601 1.168614e-38
0.074563205 0.011246294 0.069019139 1.389954e-38
0.074422851 0.014738351 0.06876111 1.3531859e-38
0.07420142 0.017639816 0.065874577 1.2514495e-38
0.073386319 0.020411149 0.06410563 1.1595055e-38
0.070907176 0.014935255 0.06938988 1.3437149e-38
0.071123108 0.018316805 0.066500366 1.2700664e-38
0.070106201 0.021464944 0.064409256 1.1594702e-38
0.068852894 0.019413903 0.06768173 1.2977972e-38
0.066634707 0.022527173 0.065575123 1.1869851e-38
0.065203488 0.024228096 0.062632143 1.140888e-38
0.063374817 0.023249358 0.066208601 1.2056384e-38
0.061863787 0.025390476 0.063250899 1.168724e-38
0.061112076 0.13449529 0.02070415 1.750532e-38
0.060953319 0.13751671 0.020624936 1.6404024e-38
0.060635775 0.023886919 0.065958738 1.1963465e-38
0.058825366 0.02639538 0.06339556 1.1409944e-38
0.057020664 0.028045028 0.061158657 1.0584111e-38
0.059407316 0.13417503 0.020821214 1.5941232e-38
0.058986031 0.13727894 0.02017504 1.6128156e-38
0.054891288 0.028840363 0.061385334 1.0214619e-38
0.054293044 0.13448906 0.020687759 1.5022169e-38
0.054124765 0.13751045 0.020608544 1.6130305e-38
0.051200636 0.029515326 0.061787307 9.9372716e-39
0.051565424 0.13384914 0.020923495 1.2623659e-38
0.052417912 0.13698211 0.020091534 1.6404027e-38
0.04780221 0.03059271 0.062304437 9.5706877e-39
0.04593049 0.032822683 0.06038177 1.0122777e-38
0.047133073 0.13097677 0.022003174 1.5668587e-38
0.043501049 0.034156367 0.060759664 1.048939e-38
0.042995304 0.036082372 0.058332205 1.0489386e-38
0.042018801 0.12746638 0.023323536 1.5553796e-38
0.043362439 0.13006878 0.022456884 1.5574963e-38
0.043678164 0.13300228 0.02149117 1.1886806e-38
0.039148018 0.037938491 0.059702218 1.0123492e-38
0.03905417 0.12739864 0.024678409 1.4093025e-38
0.039769977 0.13110188 0.02386111 1.6497659e-38
0.035984442 0.039226174 0.060059786 9.5695975e-39
0.034906492 0.040823609 0.056908786 9.4766914e-39
0.033835962 0.043321535 0.0552876 1.0120637e-38
0.034809664 0.12696934 0.024134576 1.3271891e-38
0.031875879 0.043062866 0.058590055 9.7496588e-39
0.031062245 0.045876831 0.056983232 9.8426055e-39
0.030087888 0.048509166 0.054375172 9.5656949e-39
0.030279607 0.12273282 0.02658844 1.1139109e-38
0.031875879 0.12627262 0.026958883 1.26164e-38
0.02758345 0.049847662 0.054572642 8.2814077e-39
0.026230901 0.051777631 0.052587092 9.4777971e-39
0.025653139 0.11470333 0.028130174 8.1924238e-39
0.026330546 0.11934909 0.027894378 7.8240042e-39
0.023658752 0.053296536 0.054677188 9.0185761e-39
0.023532093 0.055397451 0.05173862 9.4745054e-39
0.022243634 0.057971239 0.04968679 9.6599953e-39
0.021561727 0.11151257 0.029331863 1.0033077e-38
0.022755057 0.11486003 0.028062642 8.3746361e-39
0.022817671 0.11856228 0.028581202 8.190249e-39
0.020919725 0.057134479 0.053210676 9.6582086e-39
0.019658148 0.05983156 0.051647127 9.5685466e-39
0.018383801 0.062294304 0.048567712 8.8306536e-39
0.017470315 0.065615714 0.046767712 7.7210593e-39
0.018834129 0.10832304 0.030536771 1.1324207e-38
0.018785939 0.11096978 0.029768288 1.0495162e-38
0.018689334 0.11499044 0.028715074 9.2944526e-39
0.019149944 0.11911359 0.028728306 9.0189391e-39
0.015355766 0.067599148 0.04743427 7.4476771e-39
0.013948098 0.068987876 0.046011031 7.082821e-39
0.01493752 0.11123332 0.02941978 1.0035256e-38
0.014742702 0.11469334 0.028103948 9.2969749e-39
0.014980406 0.118772 0.028693855 8.8385163e-39
0.012702614 0.068648338 0.048811257 7.2668564e-39
0.011446342 0.070768327 0.045862257 7.2672277e-39
0.010536209 0.073449701 0.044305503 7.542765e-39
0.0092874765 0.10130286 0.033179164 1.1325261e-38
0.00962843 0.1048089 0.031847298 9.8461816e-39
0.010378525 0.1078054 0.03071028 8.5590175e-39
0.010599926 0.11096209 0.029748678 8.2838684e-39
0.010422051 0.11513019 0.028995752 7.822191e-39
0.011637464 0.11840746 0.028466582 8.1009373e-39
0.0058725923 0.082031876 0.041137278 6.3467064e-39
0.0056468397 0.085269064 0.039692163 4.9641489e-39
0.0051960796 0.089188457 0.037773013 4.5053315e-39
0.0051960796 0.093012869 0.036319196 4.6922311e-39
0.0064811558 0.096977472 0.035172224 7.8218476e-39
0.0064809322 0.10080329 0.033717871 7.1757874e-39
0.0063767135 0.10481879 0.032666683 6.1616229e-39
0.0070660412 0.10799834 0.031430185 6.0708636e-39
0.0070466101 0.11122507 0.03029269 6.3478008e-39
0.0069294572 0.11527452 0.029287875 6.6225898e-39
0.0072245151 0.11856917 0.029819369 6.8105586e-39
0.0038007349 0.082721829 0.043436825 6.2548779e-39
0.0026636571 0.08665663 0.041510105 4.1372721e-39
0.0026699752 0.089996547 0.039598644 4.1412111e-39
0.0026699752 0.093831658 0.038140774 3.3114617e-39
0.0025903732 0.097805887 0.036986351 4.7869533e-39
0.002431199 0.10128275 0.03637737 5.1474709e-39
0.0025681555 0.10422722 0.035258472 5.0549236e-39
0.0038007349 0.10832483 0.033704162 4.5074923e-39
0.0041431189 0.11184555 0.032366753 5.0599416e-39
0.0039376915 0.11626187 0.030687392 5.7949969e-39
0.0044855028 0.11856666 0.029812753 5.8893365e-39
0.00037692487 0.090399593 0.040508807 4.1458971e-39
0.00037693977 0.093599975 0.039292216 2.2108748e-39
0.00037693977 0.096800357 0.038075626 4.0479589e-39
0.11314065 0.1083785 0.015263021 1.5471212e-38
0.067105561 0.019077688 0.068874478 1.316202e-38
0.062959701 0.020867974 0.069965601 1.2885085e-38
0.062798582 0.022112638 0.068243921 1.2424449e-38
0.05837813 0.023646936 0.068896592 1.2054597e-38
0.058419876 0.025479391 0.066417038 1.1779804e-38
0.055869304 0.025132939 0.069751263 1.1964561e-38
0.054569602 0.027070045 0.067406535 1.1043329e-38
0.046762779 0.03059645 0.064439774 9.6639652e-39
0.043520465 0.032120854 0.066793382 8.7438278e-39
0.041962788 0.033796892 0.063209951 1.0029492e-38
0.038884595 0.032411948 0.066937447 1.15021e-38
0.039164528 0.034857929 0.064785838 9.5692248e-39
0.037848502 0.037638918 0.061738133 9.5731877e-39
0.037162796 0.1292963 0.026893795 1.5112599e-38
0.037505642 0.13154 0.026041806 1.6588411e-38
0.036653101 0.03530401 0.065475285 1.0307886e-38
0.035207853 0.038550809 0.063095927 9.8458159e-39
0.035405293 0.13021195 0.028680563 1.5115467e-38
0.034932405 0.13233981 0.027442455 1.6588053e-38
0.032457963 0.0405588 0.063822865 1.0576911e-38
0.03059198 0.043436885 0.061653793 9.8429236e-39
0.030305684 0.044682637 0.059039772 9.9304795e-39
0.0305347 0.12899706 0.028701007 1.3824326e-38
0.027891651 0.046562403 0.060190797 9.3819875e-39
0.02644217 0.049298674 0.058344245 7.0785611e-39
0.027117759 0.1253475 0.028902173 1.3078838e-38
0.027043954 0.12778273 0.028725088 1.3545223e-38
0.023805499 0.051590592 0.059248805 9.3834154e-39
0.022682473 0.053392649 0.05784744 9.2933834e-39
0.021652952 0.055640876 0.056989968 9.0149986e-39
0.022762865 0.12159157 0.02978301 8.4639913e-39
0.023074478 0.12495837 0.030405998 1.0959035e-38
0.023069203 0.12904021 0.029760659 1.2341977e-38
0.019428626 0.057192147 0.057196498 9.7514861e-39
0.018105969 0.060318053 0.055737197 9.5678221e-39
0.019334286 0.12158844 0.029774785 9.2037297e-39
0.018974662 0.12490508 0.030296087 1.0498766e-38
0.018582657 0.12880483 0.029780567 1.0494834e-38
0.014776781 0.065918505 0.053064108 8.1845219e-39
0.014082208 0.067259312 0.051482737 7.7235452e-39
0.015220016 0.12158468 0.029764831 9.1176213e-39
0.014678076 0.12525228 0.030984402 1.0037439e-38
0.011335537 0.068540514 0.050988138 7.3587003e-39
0.01083146 0.12106788 0.029949248 8.1935056e-39
0.010625616 0.12509826 0.030675113 9.4817417e-39
0.011800885 0.12807438 0.030497968 1.0036002e-38
0.007080093 0.12116644 0.030757368 6.9956771e-39
0.0071185976 0.12523809 0.031563282 8.1960111e-39
0.0019517541 0.083508253 0.04527247 6.2570401e-39
0.0015057772 0.085678071 0.043376565 4.3180858e-39
0.0015057772 0.10618895 0.035579562 4.9648775e-39
0.0018486381 0.10907361 0.034483969 4.2312571e-39
0.0019580722 0.11302963 0.033408403 4.6918766e-39
0.0018486381 0.11612424 0.031803787 4.9677502e-39
0.002819702 0.12097403 0.03091383 5.0624527e-39
0.00078378618 0.083009809 0.047598422 9.2112e-39
0.00013436377 0.087599725 0.042642295 3.7710049e-39
0.00013436377 0.095932275 0.039474785 2.7601054e-39
0.00013436377 0.099137098 0.038256466 4.6925982e-39
0.00013436377 0.10170093 0.037281871 5.4269081e-39
0.00013436377 0.10490578 0.036063612 5.1514086e-39
0.00013436377 0.10746962 0.035088956 5.1514044e-39
0.045873716 0.03091234 0.069666386 9.5692374e-39
0.039267376 0.032277048 0.069396794 1.0492254e-38
0.035746783 0.033054471 0.068824232 1.2608097e-38
0.034273773 0.036323234 0.067577541 1.141134e-38
0.033445194 0.038645983 0.066692293 1.1136172e-38
0.032064259 0.03929013 0.066443622 1.2790296e-38
0.027921408 0.045095086 0.064225554 1.1497437e-38
0.022345066 0.051308066 0.062115908 9.8440404e-39
0.019032076 0.055218428 0.061066031 1.0396128e-38
0.018038869 0.057058841 0.060720265 1.0395772e-38
0.016656011 0.059642822 0.059734166 9.8429572e-39
0.016873822 0.060574979 0.058310628 9.5671018e-39
0.013890326 0.065457046 0.057516336 8.8317004e-39
0.014802396 0.13027805 0.031808138 1.1143054e-38
0.012730971 0.067025334 0.055847168 8.1852296e-39
0.011124596 0.068686038 0.056281269 7.7249689e-39
0.0014446229 0.081603318 0.051344275 7.0882231e-39
6.1795115e-05 0.082894653 0.050849557 9.6689314e-39
0.018725738 0.052695781 0.065857589 1.2148191e-38
0.017607048 0.055176795 0.063574135 1.1321647e-38
0.015393227 0.056627542 0.064799607 1.1779385e-38
0.015168667 0.059160233 0.063122988 1.0487588e-38
0.014190391 0.063355297 0.06088376 9.3845014e-39
0.012782201 0.061433762 0.064391792 9.8436186e-39
0.011853933 0.064035922 0.06340009 9.476676e-39
0.01114212 0.06720379 0.060054183 8.369632e-39
0.0090597421 0.069798231 0.059062243 7.6324075e-39
0.0071318895 0.072083503 0.058544815 7.1757482e-39
