# .PCD v0.7 - Point Cloud Data file format
VERSION 0.7
FIELDS x y z rgb
SIZE 4 4 4 4
TYPE F F F F
COUNT 1 1 1 1
WIDTH 977
HEIGHT 1
VIEWPOINT 0 0 0 0 1 0 0
POINTS 977
DATA ascii
0.15319578 0.11473194 0.009093225 1.8048031e-38
0.15333216 0.1176644 0.010377169 1.8693393e-38
0.14991072 0.043073911 0.020371974 2.2838941e-38
0.1485543 0.11190721 0.0086010695 1.6020813e-38
0.14928058 0.11471331 0.0092772841 1.7034598e-38
0.14940859 0.11830506 0.010530233 1.7497001e-38
0.14604801 0.041188229 0.021363735 2.2193226e-38
0.14595278 0.043034922 0.020112455 2.2283616e-38
0.14661035 0.11192051 0.0088013411 1.5653455e-38
0.14536917 0.11469465 0.0094608665 1.5653471e-38
0.14549075 0.11829717 0.010769546 1.6849134e-38
0.14212179 0.040534321 0.021521211 2.1548221e-38
0.14238067 0.042735551 0.020523727 2.1546063e-38
0.1414043 0.11518456 0.008905828 1.6667261e-38
0.14156669 0.11892585 0.010867894 1.7127512e-38
0.1382381 0.041241635 0.022168338 2.0997569e-38
0.13822919 0.042538751 0.021995783 2.0903931e-38
0.1375155 0.11534029 0.0092892647 1.6758372e-38
0.13762635 0.11883698 0.010725856 1.7217187e-38
0.13638395 0.12167142 0.011602759 1.8418594e-38
0.13433313 0.04126833 0.02257061 2.0810297e-38
0.1342594 0.042467285 0.02140379 2.0531912e-38
0.13362849 0.11523773 0.009706974 1.6207715e-38
0.13374111 0.11890978 0.011345267 1.7678156e-38
0.13378064 0.12168922 0.01187098 1.8323526e-38
0.13009068 0.040948901 0.022800803 1.9702886e-38
0.13036014 0.042493943 0.021805465 1.988476e-38
0.13006236 0.11558495 0.010031164 1.6023334e-38
0.12985396 0.11898302 0.011964858 1.7585964e-38
0.13117735 0.12170702 0.012139201 1.8321739e-38
0.12634827 0.040151734 0.023169577 1.9612481e-38
0.12646088 0.042520609 0.022207201 1.9795085e-38
0.12714422 0.11592774 0.010288656 1.694744e-38
0.12590764 0.11882333 0.011494875 1.7310824e-38
0.1251 0.12218092 0.012707472 1.8691252e-38
0.12260416 0.040380608 0.023473859 1.9885818e-38
0.1225616 0.042547267 0.022608876 2.0163129e-38
0.12197392 0.11868711 0.011133015 1.6757656e-38
0.11896001 0.040815938 0.02382338 1.9795052e-38
0.11831508 0.042849842 0.022502661 2.0069496e-38
0.11808224 0.11871374 0.011534095 1.6299555e-38
0.11946248 0.12178712 0.013346076 1.6944575e-38
0.11448212 0.043961231 0.021738231 1.9517034e-38
0.11336768 0.046287086 0.021035731 1.915148e-38
0.11418454 0.11601634 0.0116238 1.4183356e-38
0.1141945 0.11876385 0.012044132 1.455178e-38
0.11083958 0.044536028 0.023223221 1.9335516e-38
0.11077131 0.04695053 0.02121681 1.9060351e-38
0.10952616 0.1150151 0.0122419 9.6675483e-39
0.11029885 0.11876695 0.012335956 9.2970114e-39
0.11033681 0.12242679 0.013870955 9.2026521e-39
0.10695117 0.044596735 0.023957253 1.8048752e-38
0.10688783 0.046331387 0.021703303 1.7771444e-38
0.10643535 0.11219518 0.012940347 8.6541447e-39
0.10642259 0.11482386 0.012815475 8.1902882e-39
0.10643371 0.11902544 0.013830006 8.5565442e-39
0.10643616 0.12261167 0.014386892 9.7579517e-39
0.10332257 0.044811737 0.024914324 1.6297e-38
0.10250619 0.047491308 0.022003591 1.5374348e-38
0.10038138 0.050250027 0.021855414 1.3993207e-38
0.10254745 0.11222176 0.01334095 7.450952e-39
0.10270563 0.11477043 0.013617456 6.9964198e-39
0.10046346 0.045391049 0.025539577 1.5094884e-38
0.099353507 0.047939662 0.024806976 1.3992848e-38
0.098446712 0.051721428 0.023381174 1.3257427e-38
0.097110413 0.054792244 0.021587849 1.1413157e-38
0.098845646 0.089335248 0.018815517 8.0048376e-39
0.097184978 0.092003316 0.017109871 8.6498315e-39
0.096504621 0.052495051 0.024493754 1.1138374e-38
0.095177352 0.05568536 0.023697853 9.2012046e-39
0.093474433 0.059256945 0.022237957 8.093062e-39
0.092521295 0.062571928 0.021024168 7.8136248e-39
0.094997898 0.079343036 0.018523455 5.1524932e-39
0.09455204 0.092225745 0.018295646 8.8331227e-39
0.092303924 0.094212383 0.01681453 1.0395783e-38
0.09257336 0.057118449 0.024791002 9.5742737e-39
0.090731025 0.059959549 0.024399638 1.0953604e-38
0.090293989 0.063638166 0.022851825 1.0311452e-38
0.090542026 0.067903712 0.021657825 8.4682596e-39
0.090643108 0.072237253 0.021549404 7.5470712e-39
0.090098187 0.09253937 0.01929605 1.0119557e-38
0.089711994 0.094230101 0.017081618 1.0947885e-38
0.085831791 0.091974825 0.019589782 1.1500308e-38
0.086472064 0.094252259 0.017415345 1.1868381e-38
0.081072569 0.08919099 0.021696389 1.2235754e-38
0.081934839 0.091982529 0.01988101 1.2514851e-38
0.078040034 0.088967785 0.021872342 1.3437516e-38
0.078053325 0.091249809 0.019706309 1.4083966e-38
0.073983938 0.088453829 0.022024632 1.4726819e-38
0.074174315 0.091164023 0.019444764 1.5647703e-38
0.070240915 0.088344812 0.022597313 1.5739892e-38
0.070531175 0.091138422 0.02030021 1.6657529e-38
0.066500865 0.088525578 0.022919595 1.8414648e-38
0.066342831 0.090852633 0.021990895 2.136487e-38
0.062430639 0.089046746 0.023315251 2.0261435e-38
0.062471416 0.090766802 0.021728635 2.2649521e-38
0.05878938 0.089190245 0.023606896 1.8319189e-38
0.057987414 0.090572849 0.020868182 1.7580887e-38
0.054602679 0.089804307 0.024365544 1.6935928e-38
0.054680832 0.092075273 0.02213794 1.5274188e-38
0.054297403 0.095730007 0.021431327 1.1769373e-38
0.053393852 0.098998263 0.020218611 1.1405987e-38
0.051208004 0.092905998 0.024100661 1.6017207e-38
0.050671533 0.096257776 0.023572922 1.3435001e-38
0.050733715 0.099862739 0.021506429 1.123022e-38
0.050131757 0.10224904 0.020122826 1.0957582e-38
0.050233487 0.11188501 0.019668698 1.3348566e-38
0.048067693 0.093740135 0.024518311 1.4911933e-38
0.04690982 0.096504286 0.024268985 1.2795038e-38
0.046769205 0.10009234 0.023014843 1.1139062e-38
0.04681199 0.10377169 0.021391273 1.1230936e-38
0.046736915 0.1078036 0.021648645 1.2981218e-38
0.047165506 0.11138619 0.022251725 1.3625526e-38
0.04348518 0.097662628 0.024469972 1.1414626e-38
0.043187156 0.10044405 0.024128854 1.1139104e-38
0.043237731 0.1036863 0.023520947 1.1323491e-38
0.044069167 0.10738651 0.023108602 1.2153976e-38
0.14863536 0.065999687 0.0045908093 1.712607e-38
0.14222836 0.071674824 0.0052865744 1.500665e-38
0.14222492 0.079481795 0.0039045215 1.3809547e-38
0.12941012 0.11356188 0.0089496374 1.6667967e-38
0.09076117 0.10260738 0.010911167 1.4179032e-38
0.086723231 0.10416064 0.009809494 1.6940953e-38
0.14212179 0.040534321 0.021521211 2.1548221e-38
0.16336483 0.040772144 0.023338377 2.2573908e-38
0.16341481 0.043549534 0.021851063 2.2580739e-38
0.16218521 0.12235008 0.01288718 2.2483502e-38
0.15753087 0.037582759 0.024709523 2.2015313e-38
0.15856174 0.040224921 0.023419201 2.265962e-38
0.15899438 0.042854141 0.021823764 2.2574253e-38
0.15811028 0.1194194 0.012012422 2.154965e-38
0.15829058 0.12281369 0.01265049 2.2290819e-38
0.15379658 0.03670821 0.024876535 2.1183761e-38
0.15411532 0.040088471 0.023377061 2.2381583e-38
0.15351945 0.12006588 0.012234032 1.9058236e-38
0.15360942 0.12291819 0.013026476 2.0260382e-38
0.15032913 0.036317281 0.025514603 2.0630952e-38
0.15019542 0.04011507 0.023781002 2.2287222e-38
0.14958292 0.12070788 0.012388229 1.8322804e-38
0.14966144 0.12354966 0.01312691 1.9889439e-38
0.14640251 0.03634413 0.025919139 2.1090125e-38
0.14626613 0.039475393 0.024105847 2.2012074e-38
0.1456666 0.12073465 0.012791693 1.7402302e-38
0.14574748 0.12293601 0.013672113 1.8415391e-38
0.14243287 0.03632132 0.025771379 2.0629491e-38
0.14231333 0.038805533 0.024099112 2.1455663e-38
0.14177458 0.12282035 0.013424456 1.8783446e-38
0.13791932 0.033803042 0.027253449 2.034968e-38
0.13850896 0.036348145 0.026175618 2.0444037e-38
0.13841572 0.039513584 0.02474767 2.0719554e-38
0.13804808 0.12376784 0.014192104 1.9245835e-38
0.13662833 0.12643862 0.014996648 2.0348582e-38
0.13595548 0.033816472 0.027455807 2.0167817e-38
0.13461348 0.036414828 0.027022362 2.0074174e-38
0.13450864 0.039555792 0.025317192 2.0351841e-38
0.13394266 0.123943 0.014305651 1.9522424e-38
0.13400988 0.12645654 0.015266538 2.034895e-38
0.13071856 0.033852275 0.027995348 1.9796494e-38
0.13066116 0.036401801 0.026984155 1.9889049e-38
0.13083409 0.03942294 0.02541256 1.9889069e-38
0.12985536 0.12374251 0.014666677 1.915331e-38
0.13008219 0.1264834 0.015671194 2.0441531e-38
0.12679087 0.033879135 0.028400004 1.9796858e-38
0.12671964 0.036398612 0.027056158 1.9704316e-38
0.12795347 0.038903717 0.025578499 1.9521363e-38
0.12654346 0.12408133 0.015176952 1.9339846e-38
0.12484525 0.12651919 0.016210616 1.9800806e-38
0.1241724 0.033897031 0.028669715 2.0071294e-38
0.12279742 0.036425214 0.027460217 2.0070215e-38
0.12273172 0.038939413 0.02611649 1.9885822e-38
0.12199557 0.12402467 0.015536487 1.8419687e-38
0.12288141 0.1265326 0.016412973 1.9708594e-38
0.11889394 0.036492161 0.028307855 1.9887616e-38
0.11849685 0.039316807 0.026759744 1.9611028e-38
0.11809106 0.12379599 0.015755594 1.7868681e-38
0.11764449 0.12656842 0.016952455 1.8516922e-38
0.11585671 0.037432831 0.029061198 1.9517427e-38
0.11492614 0.040387597 0.027748346 1.9331578e-38
0.11487225 0.042895626 0.026404202 1.9515584e-38
0.11433002 0.12362309 0.016000628 1.4275546e-38
0.11568065 0.12658185 0.017154872 1.5842517e-38
0.1112151 0.040867563 0.028939307 1.9333369e-38
0.11098665 0.043020796 0.027805686 1.9427347e-38
0.11042216 0.12509565 0.016885877 9.4781754e-39
0.11172117 0.12638949 0.01657784 9.6701197e-39
0.10736406 0.04131772 0.029424191 1.8139491e-38
0.10706463 0.043047611 0.028209686 1.8050163e-38
0.10778648 0.1242457 0.016259193 9.9365934e-39
0.10317094 0.041868236 0.029786408 1.7032047e-38
0.10282275 0.043451596 0.029103637 1.6574644e-38
0.10390144 0.11971937 0.017268538 7.6413996e-39
0.099437021 0.044451777 0.02932179 1.5371825e-38
0.097870246 0.047564764 0.027546823 1.3529369e-38
0.095285386 0.045801822 0.029741764 1.5003777e-38
0.095261313 0.048326958 0.02861768 1.3988899e-38
0.094858088 0.051984105 0.027558625 1.1318813e-38
0.093900301 0.055396866 0.026911855 1.0300746e-38
0.095638543 0.090190008 0.024105728 7.6356795e-39
0.094310045 0.091251001 0.022580504 8.0966325e-39
0.09220989 0.049335923 0.029926836 1.7123535e-38
0.091688365 0.05255368 0.029405713 1.5097709e-38
0.091124572 0.056020427 0.028131187 1.2794976e-38
0.089961886 0.058797125 0.027880728 1.2879649e-38
0.089854389 0.074286506 0.024805665 7.8207855e-39
0.090979375 0.077172771 0.025190234 6.9946219e-39
0.090251476 0.080123916 0.025335968 7.178995e-39
0.090625808 0.089326799 0.024573267 8.5554484e-39
0.091045484 0.091301411 0.023082256 9.1075516e-39
0.086070284 0.053726565 0.029977679 1.7677768e-38
0.087362751 0.056287151 0.029162705 1.5467958e-38
0.087339826 0.060048927 0.027422309 1.3716592e-38
0.087152258 0.063751876 0.026622474 1.2243609e-38
0.087281585 0.068506733 0.026268959 9.7575663e-39
0.087252244 0.073019475 0.025358379 9.0200461e-39
0.08722461 0.076971993 0.025170565 8.74452e-39
0.087194204 0.081013709 0.025534689 8.1924182e-39
0.087166712 0.084958643 0.025235236 8.7412788e-39
0.087143257 0.088723287 0.02383256 1.0121325e-38
0.088432759 0.091206968 0.022690177 1.021175e-38
0.082169473 0.049839426 0.030902982 1.87834e-38
0.083193555 0.053224396 0.030343831 1.832208e-38
0.083437979 0.056300927 0.029456019 1.7398334e-38
0.083419338 0.060102876 0.028047919 1.4823319e-38
0.083392493 0.064010575 0.027528107 1.3350696e-38
0.083360404 0.06857805 0.027004957 1.2335834e-38
0.083334863 0.073045835 0.025762022 1.0956863e-38
0.083309308 0.076932907 0.02513206 1.0124234e-38
0.083273888 0.08097215 0.025497019 1.0398644e-38
0.083247468 0.084879428 0.024977088 1.0858545e-38
0.083393171 0.088477165 0.023579121 1.14989e-38
0.07922595 0.049533401 0.031249881 1.80469e-38
0.079534933 0.052454013 0.030714393 1.7583085e-38
0.079517975 0.056288783 0.029527068 1.6105825e-38
0.079494238 0.060171399 0.028784811 1.4637501e-38
0.079467386 0.064079717 0.028264821 1.3440748e-38
0.079238817 0.068748564 0.027352095 1.261097e-38
0.078765996 0.073073179 0.026205063 1.2334767e-38
0.078740276 0.076964155 0.025602818 1.2056391e-38
0.078708887 0.080917969 0.025415301 1.214857e-38
0.078685567 0.084782586 0.024647236 1.2146064e-38
0.078668766 0.087371245 0.024218082 1.2698525e-38
0.076389134 0.052749071 0.031114638 1.6660071e-38
0.075745717 0.056539837 0.030420899 1.5645202e-38
0.075567223 0.060225401 0.029411197 1.4174749e-38
0.075545371 0.064106539 0.02866888 1.3622287e-38
0.075192884 0.068633884 0.027846456 1.4175429e-38
0.074195735 0.073108315 0.026703596 1.4452037e-38
0.074809462 0.077088863 0.026670814 1.3440039e-38
0.07479021 0.080944449 0.025819063 1.2977627e-38
0.074117608 0.08480072 0.025035024 1.3436453e-38
0.075405166 0.087393552 0.024554312 1.3896346e-38
0.071641847 0.057739023 0.030940592 1.5828861e-38
0.071644589 0.060252432 0.029815257 1.5737392e-38
0.07162337 0.064133361 0.029073 1.5830662e-38
0.071481958 0.068478644 0.028229833 1.5556954e-38
0.07093443 0.073115051 0.026928902 1.5187444e-38
0.071536802 0.077144891 0.027228892 1.4266568e-38
0.071247689 0.081185967 0.026729703 1.3347842e-38
0.070201278 0.084827498 0.025438488 1.3807033e-38
0.067716397 0.057439711 0.03138864 1.7210357e-38
0.067074552 0.060256306 0.030064344 1.6936623e-38
0.0670477 0.064164639 0.029544353 1.6476736e-38
0.067027003 0.068681091 0.028625607 1.5832096e-38
0.066991031 0.073260516 0.028164506 1.5188884e-38
0.066958204 0.077192396 0.02781111 1.4175807e-38
0.066766113 0.080927134 0.026962698 1.3256354e-38
0.066284955 0.08485426 0.025842011 1.3622262e-38
0.064961642 0.087464958 0.025630236 1.6844465e-38
0.063786477 0.057792734 0.031749904 1.7029914e-38
0.063132748 0.060344834 0.030969322 1.7030609e-38
0.062844284 0.064379483 0.029952526 1.6755457e-38
0.062440701 0.068755627 0.029409111 1.5833177e-38
0.062413577 0.073299751 0.028691471 1.4359136e-38
0.062382534 0.077223673 0.028282523 1.3623007e-38
0.06235569 0.081131995 0.027762473 1.3071271e-38
0.062368635 0.084881037 0.026245415 1.3253842e-38
0.062350757 0.08748281 0.025899231 1.6845177e-38
0.059181757 0.06108572 0.031787992 1.7030977e-38
0.058993988 0.064194262 0.031115115 1.65725e-38
0.058518704 0.068782449 0.02981317 1.5096328e-38
0.058487378 0.073342159 0.029206514 1.3989981e-38
0.058460526 0.077250496 0.028686523 1.3989615e-38
0.058433674 0.081158817 0.028166533 1.325527e-38
0.058411665 0.085049227 0.027535796 1.3897787e-38
0.058105845 0.08783704 0.026293039 1.6754031e-38
0.055443898 0.065242514 0.031620562 1.6021127e-38
0.05457969 0.068853885 0.030551195 1.500449e-38
0.054559685 0.073384583 0.029721797 1.4449891e-38
0.054538514 0.077277303 0.029090583 1.4449873e-38
0.054511663 0.081185639 0.028570592 1.4912285e-38
0.054484796 0.08509396 0.028050601 1.6203018e-38
0.054505099 0.088213995 0.02678597 1.7306479e-38
0.050757188 0.06933485 0.031357467 1.5003389e-38
0.05060488 0.073490724 0.030682087 1.4817949e-38
0.05057212 0.077419698 0.030272663 1.5464391e-38
0.050583541 0.081229314 0.029085755 1.6756534e-38
0.050562788 0.085120767 0.028454721 1.6939859e-38
0.05057409 0.088918626 0.027269363 1.749124e-38
0.049917791 0.092120707 0.026571095 1.6661848e-38
0.050360486 0.11634271 0.024073958 1.3627311e-38
0.047555644 0.070079997 0.031793356 1.537038e-38
0.046821453 0.073727012 0.031381786 1.6017936e-38
0.046632029 0.07747905 0.030899644 1.6479979e-38
0.046667643 0.081239253 0.029378712 1.6295235e-38
0.046640784 0.085147589 0.028858781 1.6293438e-38
0.046662416 0.088927075 0.027562082 1.592465e-38
0.046487648 0.092631981 0.026859283 1.5002694e-38
0.045326404 0.095404163 0.026609182 1.2794692e-38
0.045858476 0.11296168 0.024205327 1.3809903e-38
0.046397626 0.11650604 0.025140285 1.3260678e-38
0.042464003 0.074376494 0.031747878 1.5836042e-38
0.042727269 0.077456087 0.030970514 1.5004862e-38
0.042745635 0.081266075 0.029782772 1.4176515e-38
0.042772289 0.085050151 0.02848506 1.3901729e-38
0.042760216 0.088917583 0.027743578 1.4083607e-38
0.042733397 0.092820257 0.027224362 1.3162385e-38
0.042522635 0.096352503 0.026773751 1.1689424e-38
0.041378807 0.099984035 0.026406884 1.0310805e-38
0.041776698 0.10540144 0.025640905 1.150896e-38
0.042232051 0.10867511 0.025445461 1.2705349e-38
0.042712029 0.11231919 0.025379062 1.3164529e-38
0.043753654 0.11533217 0.026135564 1.2429126e-38
0.039453674 0.074266613 0.032075465 1.5005206e-38
0.0389851 0.077601388 0.031044185 1.3343542e-38
0.038823631 0.081292897 0.030186832 1.1966348e-38
0.038862281 0.085059211 0.02877754 1.2519875e-38
0.038843889 0.088944361 0.028147042 1.2334047e-38
0.038817082 0.092847019 0.027627826 1.1226273e-38
0.038790267 0.096749678 0.02710861 1.086038e-38
0.038763467 0.10065235 0.026589394 1.0218909e-38
0.038694829 0.10465959 0.026623964 1.1875569e-38
0.038781449 0.10853629 0.026800692 1.2520243e-38
0.039413452 0.11188293 0.027048171 1.2428773e-38
0.035120953 0.078310594 0.031782091 1.3252752e-38
0.034856778 0.081405208 0.031147599 1.2427289e-38
0.034847591 0.085281223 0.030404687 1.2336913e-38
0.03483887 0.089154512 0.029662192 1.2982652e-38
0.034811985 0.093063474 0.029142082 1.2057069e-38
0.034784719 0.096973047 0.028621972 1.2702485e-38
0.034748558 0.10090224 0.028212786 1.270353e-38
0.034854718 0.10472287 0.028099239 1.3162708e-38
0.035952035 0.10755791 0.027986348 1.3809879e-38
0.032208078 0.080839172 0.031949401 1.2610983e-38
0.032176718 0.085405499 0.03134197 1.103506e-38
0.032149825 0.089319497 0.030821204 1.1503227e-38
0.032122936 0.093233481 0.030300438 1.1865873e-38
0.032105014 0.095842794 0.029953241 1.1129407e-38
0.032078128 0.099756792 0.029432476 9.1926034e-39
0.10849572 0.10128717 0.0041555166 1.5928247e-38
0.14221443 0.085208982 0.0030456781 1.4271601e-38
0.14224523 0.091125265 0.0036410093 1.4732944e-38
0.13001034 0.095651805 0.007406354 1.3535467e-38
0.12922892 0.0933844 0.0083047748 1.3995733e-38
0.099941842 0.085457399 0.021406531 1.6571459e-38
0.10270563 0.11477043 0.013617456 6.9964198e-39
0.15925616 0.036416933 0.028066993 2.1278832e-38
0.16100049 0.03904951 0.026181161 2.3025168e-38
0.1583682 0.12528932 0.015527904 2.2750725e-38
0.15819108 0.12734357 0.016285717 2.2474867e-38
0.15422367 0.032847676 0.029019177 1.9896978e-38
0.15539819 0.035656989 0.027893364 2.0540181e-38
0.15384212 0.1254514 0.015367985 2.1545377e-38
0.15396723 0.12774415 0.016569674 2.1641875e-38
0.15073463 0.030120488 0.030471087 1.7960518e-38
0.15060948 0.032642562 0.02890712 1.9435287e-38
0.14996195 0.12829247 0.01629293 2.0995792e-38
0.14649203 0.029592764 0.030577004 1.749594e-38
0.14662956 0.032633077 0.028871179 1.869269e-38
0.14596401 0.12550528 0.016179621 2.034717e-38
0.14603585 0.12836851 0.016916156 2.0533367e-38
0.14278743 0.029465612 0.030708551 1.7867217e-38
0.14267144 0.032642011 0.029056013 1.9157597e-38
0.14202495 0.12553221 0.016585469 1.9336621e-38
0.1420823 0.12837115 0.01721406 2.0443312e-38
0.13885918 0.030175116 0.03136003 1.7772177e-38
0.13893417 0.032307994 0.029666305 1.9061455e-38
0.13830929 0.12858833 0.01770401 2.0718097e-38
0.13559133 0.030224025 0.032031119 1.8045165e-38
0.13468674 0.032606293 0.030792296 1.9245851e-38
0.13422032 0.12919039 0.018428802 2.0717035e-38
0.13092886 0.032169107 0.031579494 1.90593e-38
0.13023387 0.12906976 0.018183053 2.0902146e-38
0.1273192 0.032535117 0.032074749 1.9335528e-38
0.12644027 0.12853067 0.018311322 2.0352558e-38
0.12633792 0.13132317 0.019469917 2.0630205e-38
0.12275912 0.033392627 0.032129645 2.0162772e-38
0.11901982 0.034103021 0.031206191 2.0071286e-38
0.11515374 0.034300219 0.033610165 1.9886181e-38
0.11463995 0.03634268 0.031699955 1.9424862e-38
0.11428584 0.12861355 0.019563675 1.2709676e-38
0.1144748 0.13132925 0.020364106 1.2063951e-38
0.11116114 0.036881644 0.032891035 1.9424853e-38
0.11044924 0.039395127 0.031389177 1.9242263e-38
0.11052383 0.12858622 0.020465553 8.6466505e-39
0.11184852 0.1320783 0.020874858 9.7640922e-39
0.10738845 0.037107732 0.033661366 1.9056786e-38
0.10684825 0.039793316 0.032217324 1.8504327e-38
0.10790354 0.12729329 0.02091068 1.1234185e-38
0.10360688 0.037987594 0.034317136 1.8594722e-38
0.10323898 0.04017606 0.032879353 1.749089e-38
0.099482194 0.041274238 0.033581853 1.7398676e-38
0.097944096 0.044059951 0.032064974 1.58353e-38
0.098545894 0.085865512 0.027424693 5.7053306e-39
0.098962814 0.088674128 0.026836634 7.1775853e-39
0.095678978 0.041978259 0.034607351 1.7585236e-38
0.095324382 0.044160653 0.033168972 1.6294851e-38
0.094841301 0.081831947 0.027504086 4.9684564e-39
0.095042482 0.085452721 0.027844071 5.7035188e-39
0.094827235 0.088939786 0.02696538 7.0832022e-39
0.092713907 0.042326573 0.034868956 1.8044065e-38
0.091540881 0.045058925 0.033991456 1.7952591e-38
0.090912931 0.048268605 0.032401919 1.8136975e-38
0.091557816 0.081854388 0.027842402 6.6265302e-39
0.091097116 0.085390925 0.027698994 6.9913653e-39
0.091950223 0.088367715 0.026761293 7.4491023e-39
0.087425828 0.045591909 0.034474611 1.9058934e-38
0.087407336 0.048746068 0.032871425 1.9519543e-38
0.087546751 0.052471939 0.03202039 1.7679936e-38
0.083317034 0.045127962 0.034963906 1.9150034e-38
0.083632387 0.048599634 0.033198774 1.8967076e-38
0.083777443 0.051679987 0.032518148 1.8874885e-38
0.079794616 0.045765068 0.035143256 1.8319567e-38
0.07978949 0.048040938 0.034028053 1.813731e-38
0.075568333 0.046380255 0.036108851 1.7950782e-38
0.075579494 0.048850726 0.034312069 1.7581656e-38
0.074581809 0.052397046 0.033378005 1.6844454e-38
0.074233323 0.055343274 0.033020198 1.6105817e-38
0.071617916 0.046407264 0.036515832 1.8591485e-38
0.07161735 0.048960198 0.035498381 1.8040106e-38
0.071619228 0.052768815 0.033861578 1.7303985e-38
0.071602806 0.056015451 0.033203661 1.6474937e-38
0.068984292 0.046425272 0.036787152 1.8779822e-38
0.067663401 0.049010795 0.036127746 1.8318484e-38
0.067654312 0.052883316 0.035047293 1.7948981e-38
0.067645483 0.055981029 0.034228146 1.7395463e-38
0.064570874 0.049954522 0.036773801 1.8225914e-38
0.06368389 0.052985016 0.036122561 1.7950052e-38
0.063687056 0.056186099 0.035017788 1.7397262e-38
0.059717052 0.053705487 0.036776662 1.7676389e-38
0.059737831 0.056866977 0.03533721 1.7307222e-38
0.059763145 0.059367348 0.033985913 1.7214304e-38
0.055762116 0.054388594 0.037096322 1.6938808e-38
0.05578199 0.056920554 0.035966635 1.6847322e-38
0.055433962 0.060535733 0.034424484 1.7030985e-38
0.054918785 0.063761726 0.033901632 1.6482108e-38
0.051977169 0.05715828 0.036738813 1.6569673e-38
0.051839147 0.060811583 0.035292566 1.6479962e-38
0.051836472 0.064683467 0.03432405 1.5742361e-38
0.050518077 0.067280814 0.03388828 1.5280702e-38
0.047834218 0.058379259 0.037386477 1.5276778e-38
0.047849324 0.060934637 0.036479652 1.5370039e-38
0.047856092 0.064796552 0.03539896 1.546295e-38
0.047446862 0.068392128 0.034058869 1.5463303e-38
0.046794288 0.12055762 0.028416812 1.4548187e-38
0.044301711 0.061465118 0.037340999 1.5093072e-38
0.043867901 0.064909279 0.036474466 1.6200525e-38
0.043911777 0.069344282 0.034721673 1.5924287e-38
0.04391478 0.072886571 0.033824801 1.6111192e-38
0.042767335 0.11747846 0.028790891 1.2706061e-38
0.043803237 0.12035407 0.029262125 1.233692e-38
0.040324222 0.065428764 0.037224174 1.6293043e-38
0.039933946 0.069438711 0.03562963 1.5465089e-38
0.039977953 0.072586387 0.034274161 1.5375057e-38
0.039345764 0.11418186 0.029029608 1.2887591e-38
0.039575908 0.11734708 0.029681146 1.2889012e-38
0.040168058 0.12010293 0.029927135 1.2337547e-38
0.036221281 0.070076168 0.036690891 1.4634973e-38
0.036004074 0.073968664 0.034840465 1.417544e-38
0.036011927 0.076538652 0.034157753 1.371446e-38
0.035319939 0.10975361 0.030124903 1.3808105e-38
0.035690323 0.11335245 0.030168593 1.2056385e-38
0.035587933 0.1173206 0.030648589 1.159326e-38
0.03424244 0.12014343 0.030537546 1.003167e-38
0.032209311 0.071082771 0.037311316 1.3897767e-38
0.03196995 0.074154466 0.036361873 1.3622263e-38
0.031869169 0.077766702 0.034804404 1.3990345e-38
0.031049907 0.082133174 0.033925176 1.2147876e-38
0.030696921 0.085733622 0.033480227 1.1126519e-38
0.030669954 0.089658961 0.032958031 1.0754514e-38
0.030642994 0.093584284 0.032435775 1.0210302e-38
0.031122375 0.097803384 0.032024443 9.8386707e-39
0.031061213 0.10180236 0.031901538 8.1751963e-39
0.031462073 0.10562128 0.031175256 8.7316098e-39
0.031717453 0.10957833 0.031762481 9.7493463e-39
0.032643728 0.11326556 0.031623721 9.284764e-39
0.029281702 0.075564101 0.037016094 1.325494e-38
0.028752562 0.078424558 0.036485732 1.3347854e-38
0.028621793 0.082052723 0.035709858 1.2612427e-38
0.028624423 0.085933328 0.034852207 1.1598269e-38
0.028582588 0.08989282 0.034496188 1.0575876e-38
0.028540697 0.093854159 0.034139454 9.4756489e-39
0.028513685 0.097787976 0.033616304 9.745403e-39
0.028442971 0.10181294 0.033592343 9.6506907e-39
0.02813505 0.10556406 0.033122599 1.0112756e-38
0.1407799 0.079570174 0.0056581497 1.6576872e-38
0.12675428 0.070328176 0.010968566 1.6757988e-38
0.098509125 0.086396039 0.011569202 1.4176871e-38
0.057360284 0.094277173 0.019423604 1.2230698e-38
0.1017227 0.081724793 0.02017045 1.4082901e-38
0.097110413 0.054792244 0.021587849 1.1413157e-38
0.030669954 0.089658961 0.032958031 1.0754514e-38
0.071058281 0.084687233 0.028910518 1.4911213e-38
0.10075681 0.086400196 0.021296263 1.4179026e-38
0.15912338 0.029836439 0.032341719 1.1511123e-38
0.15950136 0.032872412 0.031473815 1.7408066e-38
0.15872014 0.12953536 0.01877749 2.2478119e-38
0.15472962 0.029345747 0.032622635 1.5840017e-38
0.15617883 0.032216597 0.031653225 1.9250175e-38
0.1541847 0.13026704 0.018745303 2.2199327e-38
0.15102485 0.026404213 0.033980727 1.4275917e-38
0.1509528 0.028329853 0.033054411 1.611695e-38
0.15030055 0.13183461 0.019953549 2.2010307e-38
0.14705738 0.026431344 0.034389555 1.5103863e-38
0.14729418 0.028000567 0.033140659 1.6300253e-38
0.14625207 0.13163719 0.01938653 2.1458563e-38
0.14306444 0.026433941 0.034465969 1.4637518e-38
0.14300449 0.027700916 0.033626616 1.6209527e-38
0.14230683 0.13204989 0.019994855 2.1642199e-38
0.13978365 0.026481066 0.035138786 1.4730056e-38
0.13903818 0.028385997 0.033947229 1.6482504e-38
0.13832846 0.13169135 0.020202875 2.2376892e-38
0.13510585 0.028889813 0.034795642 1.7218267e-38
0.13436668 0.13171844 0.020611048 2.108546e-38
0.1311352 0.029794872 0.035087347 1.8229907e-38
0.13042948 0.13251682 0.021420538 2.0811002e-38
0.1275257 0.03018887 0.035916865 1.8690889e-38
0.12646988 0.031761754 0.03480202 1.9427734e-38
0.12648661 0.13331525 0.022230744 2.0262494e-38
0.12454783 0.030538689 0.036179662 2.0164222e-38
0.12319969 0.03183851 0.035807848 2.0532631e-38
0.12250413 0.13326681 0.022312939 2.0815298e-38
0.11922318 0.032510061 0.035962284 2.0439709e-38
0.11852355 0.13321835 0.022395074 1.8239619e-38
0.11525854 0.032537173 0.036370754 2.0068777e-38
0.11455925 0.13378774 0.022798717 1.1694801e-38
0.11128425 0.033208705 0.036524892 1.9883666e-38
0.10928435 0.13057402 0.0233711 1.0401204e-38
0.11062576 0.13210586 0.024040997 8.6652892e-39
0.10759097 0.034063868 0.037267685 1.9609589e-38
0.1059735 0.035849679 0.036385596 1.9240094e-38
0.10797279 0.12926705 0.023682237 1.2155758e-38
0.10468327 0.034627948 0.037697375 1.9609589e-38
0.10332626 0.036745068 0.036541045 1.9334072e-38
0.099363811 0.037913341 0.037303686 1.9149339e-38
0.098683074 0.039847311 0.036608636 1.8138766e-38
0.09539865 0.038644899 0.038125098 1.9243298e-38
0.095113844 0.040398087 0.036905944 1.8414275e-38
0.092753664 0.038662974 0.038397551 1.9147883e-38
0.091247737 0.041096289 0.037721515 1.8505399e-38
0.090072058 0.043853972 0.036967695 1.8414285e-38
0.087442994 0.041929666 0.037836432 1.8966741e-38
0.087430865 0.043872032 0.03723979 1.8874898e-38
0.083483353 0.041308675 0.038443744 1.9057485e-38
0.084789664 0.043890093 0.037511885 1.8782694e-38
0.079953045 0.041793156 0.038971245 1.8412857e-38
0.079174876 0.044257466 0.03804636 1.8138765e-38
0.07578782 0.044820827 0.039134383 1.7950427e-38
0.072871 0.045388002 0.03956461 1.8781253e-38
0.066927597 0.046695266 0.039500356 1.8779476e-38
0.064926989 0.046760131 0.04020679 1.8686943e-38
0.063186735 0.048862871 0.039092124 1.8317781e-38
0.059642732 0.049372289 0.039843142 1.8134121e-38
0.059644055 0.051957596 0.039046407 1.8134831e-38
0.055646904 0.050118137 0.040722191 1.7770704e-38
0.055677738 0.052642677 0.03936702 1.7214318e-38
0.052559581 0.05035888 0.041010916 1.739868e-38
0.051834147 0.053575281 0.040402472 1.6568224e-38
0.050372746 0.05596878 0.039473534 1.6569306e-38
0.049929738 0.12045237 0.03089416 1.6304239e-38
0.048341502 0.054780427 0.040857792 1.5465119e-38
0.047954034 0.056844603 0.040216327 1.5465117e-38
0.047248054 0.12189259 0.031487405 1.482373e-38
0.044570312 0.058320407 0.040776372 1.5187452e-38
0.04285923 0.060406577 0.039660931 1.4633543e-38
0.042994443 0.12277441 0.032115877 1.2061056e-38
0.039723523 0.061386976 0.040531754 1.4636773e-38
0.038870297 0.064381644 0.039543748 1.6016103e-38
0.039133649 0.12230891 0.032202721 1.1968117e-38
0.037045997 0.06276457 0.040963888 1.4911927e-38
0.035907842 0.065507829 0.040208161 1.5647704e-38
0.034854908 0.068401068 0.039761543 1.5000518e-38
0.0354122 0.11923571 0.032565892 1.168471e-38
0.03602444 0.12065148 0.032820046 1.1773296e-38
0.031736083 0.069783777 0.040238798 1.4173992e-38
0.03080488 0.11405315 0.033991516 9.8411916e-39
0.032780051 0.11793777 0.033013105 1.0486927e-38
0.028434917 0.071320131 0.040207446 1.380379e-38
0.027597979 0.074436262 0.039750755 1.3346024e-38
0.026712529 0.078283116 0.039708614 1.3347487e-38
0.026421152 0.082451135 0.038420737 1.2887223e-38
0.026394032 0.086399108 0.037895441 1.2519528e-38
0.026366919 0.090347081 0.037370205 1.2150003e-38
0.026339784 0.09429507 0.036844969 1.2332965e-38
0.026312664 0.098243043 0.036319673 1.2424065e-38
0.026285544 0.10219102 0.035794377 1.2513032e-38
0.026253909 0.10679698 0.035181582 1.3436771e-38
0.027321819 0.11053874 0.035004795 1.2143545e-38
0.028766971 0.11289825 0.03511852 1.1133012e-38
0.025053024 0.076024741 0.040436745 1.3623345e-38
0.025043957 0.077342629 0.040261388 1.3623707e-38
0.024998702 0.083932027 0.039384723 1.2887239e-38
0.02498059 0.086567789 0.039034069 1.261067e-38
0.024948895 0.091180354 0.038420379 1.2242912e-38
0.024926275 0.094475076 0.037982106 1.2610984e-38
0.023576602 0.098437756 0.037592232 1.2332955e-38
0.023559786 0.10237092 0.036955237 1.2057073e-38
0.023542985 0.10630326 0.036318302 1.0767441e-38
0.024822138 0.10963069 0.035965681 1.1692228e-38
0.02026584 0.099119291 0.037845194 1.1598996e-38
0.020913512 0.10109159 0.037514091 1.0403683e-38
0.020886354 0.10504521 0.03698802 8.0952354e-39
0.15733007 0.093778789 0.0019999146 1.5098505e-38
0.15294939 0.050866801 0.011998475 2.2010636e-38
0.15299432 0.05444194 0.010529518 2.1268059e-38
0.14910719 0.054429147 0.010597229 2.062445e-38
0.13067234 0.083345726 0.0072931051 1.6392828e-38
0.12234367 0.068862915 0.013272762 1.6111906e-38
0.076623753 0.09692046 0.017321467 9.9380283e-39
0.082637876 0.084260404 0.024113059 1.5189953e-38
0.08039026 0.086751923 0.023427069 1.5095966e-38
0.076353244 0.069292516 0.026559353 1.786073e-38
0.099188775 0.04692075 0.029186368 1.8503605e-38
0.091640301 0.059473578 0.027074933 1.7307217e-38
0.080157161 0.068815321 0.03030777 1.6295228e-38
0.063199997 0.055585463 0.036332071 1.6293068e-38
0.15657955 0.022867929 0.038186848 7.8251127e-39
0.15655762 0.025889777 0.036010087 1.0405472e-38
0.15649635 0.027836505 0.035248935 1.2154646e-38
0.15582162 0.13302134 0.021756589 2.2662518e-38
0.1560436 0.13557531 0.02392751 2.2765139e-38
0.15217504 0.020130325 0.039771557 8.2882362e-39
0.15274352 0.022718906 0.038464725 9.6679294e-39
0.15288785 0.025566425 0.036181152 1.2432375e-38
0.15219139 0.13343331 0.02233243 2.2473073e-38
0.15204769 0.13560264 0.02433908 2.2574604e-38
0.14884514 0.02015309 0.040114641 9.6707979e-39
0.14875269 0.022746202 0.038875878 1.11434e-38
0.14861341 0.025295317 0.037084341 1.3357547e-38
0.14786816 0.13377436 0.022651613 2.2013899e-38
0.14484923 0.020180412 0.04052633 9.9448905e-39
0.144761 0.022773493 0.03928715 1.132853e-38
0.14460342 0.02529867 0.037162483 1.3446486e-38
0.14449656 0.13364607 0.02234298 2.1550373e-38
0.1421853 0.020198625 0.04080081 1.0311525e-38
0.14083394 0.023028292 0.040562689 1.1510053e-38
0.13993371 0.025636949 0.037264585 1.3903871e-38
0.13919143 0.13368234 0.022889555 2.1918792e-38
0.13999039 0.1354562 0.024597704 2.1644016e-38
0.13816205 0.024207909 0.040682673 1.316381e-38
0.13647179 0.025988761 0.039403081 1.4825473e-38
0.13521259 0.13370955 0.023299456 2.127271e-38
0.13602149 0.13555963 0.025334537 2.1458526e-38
0.13262326 0.027999725 0.037708461 1.703426e-38
0.13322316 0.13372315 0.023504436 2.0996147e-38
0.13225879 0.13599421 0.025126636 2.1089402e-38
0.12848338 0.027369127 0.040048718 1.7952238e-38
0.12863988 0.028687757 0.038030446 1.8230271e-38
0.12803727 0.13561423 0.026157022 2.0075613e-38
0.12478574 0.02756688 0.040947497 1.970323e-38
0.12433463 0.029727839 0.038592279 1.979472e-38
0.12435646 0.13589397 0.026164114 2.0722409e-38
0.1214851 0.028303701 0.04186815 2.0713453e-38
0.12070219 0.030115817 0.039340556 2.0714871e-38
0.11965954 0.13569818 0.02566433 1.9344872e-38
0.11638056 0.030321803 0.040824771 2.0805979e-38
0.11582111 0.13678364 0.026207924 1.2979821e-38
0.11251655 0.030143458 0.041540027 2.0713794e-38
0.1097952 0.1334428 0.025977075 1.1054436e-38
0.11186114 0.13699701 0.026681483 1.1324948e-38
0.11161432 0.14030328 0.027913034 1.3626968e-38
0.10883142 0.028390214 0.043171823 2.0713401e-38
0.10878167 0.030275781 0.041572452 2.0621221e-38
0.10805979 0.03213245 0.039708734 1.9975498e-38
0.10672928 0.12927872 0.026852667 1.1880245e-38
0.10738615 0.13272859 0.026999116 1.3353904e-38
0.10806014 0.1370268 0.027819276 1.3443972e-38
0.10805633 0.14121245 0.028161168 1.6768438e-38
0.10803809 0.14386709 0.027808011 1.6847271e-38
0.10496033 0.031156447 0.042189956 2.0621952e-38
0.10440603 0.033830293 0.040114939 1.9701788e-38
0.10339057 0.036129154 0.0396595 1.9518465e-38
0.10412353 0.12909813 0.029288888 8.4733351e-39
0.10489832 0.13282572 0.028799832 1.1602945e-38
0.10542887 0.13592137 0.029142022 1.3165932e-38
0.10214423 0.032417707 0.043328166 2.0444732e-38
0.10061304 0.034830462 0.042150378 2.016348e-38
0.10206429 0.036138225 0.039796054 1.9611379e-38
0.09698502 0.035082564 0.043218195 2.0805989e-38
0.09631101 0.037058622 0.040270925 1.9978381e-38
0.092797667 0.03579976 0.043847203 2.016206e-38
0.092437968 0.037878316 0.04081738 1.9793976e-38
0.088801771 0.035827082 0.044258952 2.0345363e-38
0.088787131 0.038255963 0.041399896 1.9426283e-38
0.08811108 0.040198404 0.040703237 1.933516e-38
0.085071355 0.035985306 0.044625461 2.0345e-38
0.084805459 0.038283203 0.041810274 1.9517034e-38
0.086121663 0.040212002 0.040908277 1.9793269e-38
0.080805406 0.036545377 0.044993937 1.9885462e-38
0.080819458 0.038340781 0.042554736 1.9148975e-38
0.079490244 0.040257346 0.041591406 1.8597609e-38
0.076648578 0.03894813 0.043836832 1.8781979e-38
0.076823682 0.041833233 0.041826844 1.7949739e-38
0.074889392 0.12219396 0.034152389 1.8489943e-38
0.072795376 0.039254662 0.045464098 1.8780187e-38
0.072821006 0.042381104 0.043014824 1.804117e-38
0.072497755 0.044600334 0.041737258 1.8503951e-38
0.073552877 0.12286673 0.034201443 1.7849988e-38
0.069060393 0.04007655 0.045742393 1.8871682e-38
0.068651624 0.042953331 0.043878794 1.914718e-38
0.069177493 0.045283835 0.041990995 1.8870584e-38
0.065460443 0.040632065 0.046042264 1.9057869e-38
0.06479954 0.043225791 0.045087874 1.8871665e-38
0.064504266 0.046051938 0.04313463 1.8779839e-38
0.060967986 0.043696512 0.046099246 1.6845173e-38
0.060484145 0.046471927 0.043170333 1.7490537e-38
0.057045329 0.044140469 0.046447635 1.6570011e-38
0.056590501 0.046329405 0.044173598 1.7306857e-38
0.056225825 0.048345972 0.042927563 1.767564e-38
0.054111369 0.044691432 0.046678841 1.6386703e-38
0.053115118 0.046658058 0.044896543 1.6753336e-38
0.05257627 0.04870132 0.043259323 1.7398323e-38
0.05356425 0.12433065 0.036083162 2.1275235e-38
0.048565254 0.047790412 0.045623779 1.4818295e-38
0.049109057 0.050093826 0.043433547 1.5464378e-38
0.048635133 0.052891288 0.043108582 1.5465107e-38
0.04900014 0.12271963 0.035251737 1.7035325e-38
0.048006926 0.12432873 0.034886062 1.6205553e-38
0.045488395 0.048627902 0.046034336 1.4081091e-38
0.044870179 0.051174838 0.044743776 1.4083613e-38
0.044900548 0.054389205 0.043465376 1.5004494e-38
0.044564102 0.056685667 0.043024182 1.4819754e-38
0.043994725 0.12573451 0.035368741 1.2889744e-38
0.040928431 0.051556285 0.046877325 1.4912275e-38
0.040675566 0.055036474 0.044916689 1.4080383e-38
0.041086644 0.058095019 0.043342054 1.4172926e-38
0.040336646 0.12609135 0.035701215 1.2247585e-38
0.037604753 0.056307193 0.046840787 1.3344267e-38
0.036758997 0.059089232 0.045711398 1.3711968e-38
0.036240786 0.061698545 0.043218732 1.426836e-38
0.035784099 0.12259997 0.035627127 1.0946781e-38
0.032658983 0.06301938 0.044555426 1.4267636e-38
0.032630775 0.065952331 0.043024957 1.5830994e-38
0.031219579 0.068671241 0.042807996 1.4911538e-38
0.029900264 0.11592725 0.036624134 1.1130849e-38
0.031212904 0.11790067 0.03622371 1.0674544e-38
0.029999193 0.06476517 0.046499968 1.5830613e-38
0.028739244 0.066635221 0.045366585 1.6014295e-38
0.028189197 0.069088653 0.043574274 1.4912991e-38
0.027672086 0.11424658 0.037418544 1.2145717e-38
0.029060479 0.11699772 0.03859663 1.2235753e-38
0.025157861 0.070084795 0.044697881 1.3991769e-38
0.024467468 0.073544651 0.043292642 1.3624063e-38
0.023935109 0.078791738 0.042549372 1.3991413e-38
0.024116144 0.082342356 0.042224765 1.3438961e-38
0.023783296 0.085941613 0.041524291 1.2793622e-38
0.023712039 0.090066314 0.040726483 1.2425881e-38
0.023418665 0.094165266 0.040208697 1.2611688e-38
0.023405045 0.096147761 0.039944887 1.3252031e-38
0.023309708 0.11002514 0.038098574 9.7511386e-39
0.024547964 0.11280698 0.03835845 1.1505018e-38
0.025647677 0.11655797 0.040024459 1.3439656e-38
0.021408945 0.074380144 0.046106756 1.3714844e-38
0.021314584 0.07799992 0.044956207 1.3806318e-38
0.021018922 0.082140699 0.044239998 1.3714819e-38
0.020681947 0.085820168 0.043074429 1.3437881e-38
0.020735644 0.090313479 0.041594446 1.2701012e-38
0.020766094 0.0941834 0.040481985 1.1967406e-38
0.020483568 0.096696362 0.0401752 1.2424442e-38
0.019825906 0.10233966 0.039488673 9.6643309e-39
0.019893132 0.10542291 0.039069235 8.2824923e-39
0.020457208 0.10962117 0.038829327 8.6516279e-39
0.020687416 0.11298434 0.040206671 9.1104341e-39
0.017865561 0.086084247 0.044909477 1.4175809e-38
0.016597696 0.089929566 0.043625474 1.4451298e-38
0.016710252 0.093681157 0.04175961 1.3438229e-38
0.016717523 0.09759225 0.040897608 1.288684e-38
0.016701877 0.10153989 0.040258467 9.938757e-39
0.016674817 0.10550718 0.039730668 8.6512356e-39
0.016531542 0.10968757 0.040313303 8.1913546e-39
0.016351253 0.11263977 0.041514814 8.6519811e-39
0.012732461 0.094365314 0.043755889 1.3256723e-38
0.012927607 0.098103702 0.042945683 1.2796809e-38
0.012729794 0.10198812 0.042048156 9.5742849e-39
0.012906976 0.10562602 0.041651845 8.2846026e-39
0.013111725 0.10988061 0.041544437 7.5474159e-39
0.14005753 0.07325314 0.0014694333 1.4637496e-38
0.13782689 0.074112967 0.001586318 1.4269798e-38
0.1315856 0.075865865 0.0020005107 1.4269076e-38
0.12834559 0.078976423 0.0019212365 1.4360194e-38
0.14493376 0.062060032 0.0057092309 1.7862545e-38
0.14461055 0.070196927 0.0024192333 1.5648063e-38
0.13104729 0.089866295 0.0043253303 1.18756e-38
0.131285 0.087816477 0.0045772195 1.3072698e-38
0.12898822 0.072701544 0.0069177151 1.5007712e-38
0.13048519 0.082009315 0.0050621629 1.2889379e-38
0.11942481 0.088925093 0.0055482388 1.8139503e-38
0.10882787 0.098106682 0.0045464635 1.7685342e-38
0.12879747 0.070802465 0.0084958673 1.4546388e-38
0.1376745 0.070009306 0.0073671937 1.6113003e-38
0.16591942 0.048366319 0.018000185 2.2761498e-38
0.10507809 0.10552946 0.0094090104 1.1141241e-38
0.10060356 0.086243764 0.015878797 1.4544577e-38
0.091524795 0.077221438 0.018662393 1.1139474e-38
0.09455204 0.092225745 0.018295646 8.8331227e-39
0.085108586 0.067886874 0.025366187 1.5647697e-38
0.090038799 0.086031601 0.027976871 1.6480696e-38
0.068016365 0.053963173 0.036330223 1.7030632e-38
0.14449656 0.13364607 0.02234298 2.1550373e-38
0.15699443 0.018866647 0.041017413 6.7144533e-39
0.15825704 0.021482505 0.039972842 5.8857702e-39
0.15628242 0.1381834 0.026258528 2.3047104e-38
0.15598759 0.14065246 0.026550412 2.3137823e-38
0.15318701 0.015679609 0.04381156 6.9077933e-39
0.15317145 0.018505301 0.041334391 7.4595573e-39
0.15218127 0.13797912 0.025697887 2.2579288e-38
0.15211043 0.14145461 0.026592553 2.2397039e-38
0.15100735 0.1445341 0.027309597 1.8033297e-38
0.14919922 0.015726525 0.044557869 7.7336247e-39
0.14897116 0.01824341 0.041709304 8.6534328e-39
0.14825398 0.13754745 0.027065217 2.2477019e-38
0.14840181 0.14204054 0.028590143 2.2762216e-38
0.14841107 0.14479207 0.028559268 2.0524667e-38
0.145365 0.015261538 0.045187593 8.0098655e-39
0.14496112 0.018553019 0.042036474 9.2073254e-39
0.14430401 0.13775457 0.028237045 2.1829491e-38
0.14441428 0.14080928 0.029507339 2.2662132e-38
0.14211655 0.016046867 0.046096504 8.5651734e-39
0.14091361 0.01890045 0.044149339 9.853041e-39
0.14091682 0.021601062 0.041759312 1.1231319e-38
0.14028491 0.13844757 0.028562129 2.1919532e-38
0.1417314 0.14082763 0.029783785 2.2566311e-38
0.13721971 0.016545553 0.046876788 9.5732423e-39
0.13735184 0.019563314 0.045879841 1.0863977e-38
0.13679001 0.022842389 0.042782784 1.2795762e-38
0.1361936 0.13820507 0.027836442 2.1826227e-38
0.13566297 0.14075184 0.029917479 2.1830556e-38
0.13316785 0.020583361 0.046757817 1.3537612e-38
0.13298619 0.023073718 0.043738842 1.4271959e-38
0.13182397 0.13847028 0.027832568 2.1553264e-38
0.13228123 0.14065771 0.029774487 2.1738008e-38
0.13048497 0.020601697 0.047034204 1.4732554e-38
0.12907535 0.023222879 0.045928478 1.6205892e-38
0.12892108 0.025718633 0.04313159 1.730973e-38
0.12814027 0.13810503 0.028010786 2.090575e-38
0.12827645 0.14143129 0.03042531 2.2016759e-38
0.12535328 0.024098139 0.046897054 1.8049446e-38
0.12499813 0.025865711 0.045209944 1.9152935e-38
0.12389215 0.13838255 0.028922319 2.1181255e-38
0.12424602 0.14210102 0.030641973 2.2107521e-38
0.12292369 0.14496632 0.031185031 2.201523e-38
0.12106733 0.024676181 0.047468066 1.887706e-38
0.12077826 0.026831042 0.045326352 2.0440089e-38
0.12039335 0.13826765 0.028692782 1.9896609e-38
0.12017374 0.14184034 0.029860497 2.1466822e-38
0.12019861 0.14613356 0.030523241 1.0951562e-38
0.11771373 0.024699107 0.047813535 1.8877056e-38
0.11695202 0.027235314 0.045637667 2.1084004e-38
0.1174376 0.13872646 0.028532922 1.5381589e-38
0.11613526 0.14171074 0.029621363 1.4832338e-38
0.11617 0.14610708 0.030720115 1.067209e-38
0.11481212 0.14878602 0.030503035 8.1006892e-39
0.11368941 0.024726622 0.048228145 1.9154726e-38
0.11292385 0.027229935 0.045606315 2.0718103e-38
0.11235064 0.14221941 0.030115902 1.4003281e-38
0.11210878 0.14581123 0.029829502 8.0055747e-39
0.11273771 0.14830847 0.028753996 6.4383303e-39
0.1089196 0.027106285 0.046250284 2.0532631e-38
0.1080916 0.14152777 0.029467762 1.6584049e-38
0.10841335 0.14495039 0.029399097 1.2418659e-38
0.10534738 0.028196931 0.046602488 2.1081119e-38
0.10293503 0.12283839 0.035208166 6.7208923e-39
0.10313745 0.13389666 0.030918896 7.2719389e-39
0.10394716 0.13774221 0.030447066 1.1601145e-38
0.10508341 0.14113691 0.029494584 1.7504189e-38
0.10125143 0.028468587 0.048766792 2.1081151e-38
0.10068034 0.031062912 0.045309663 2.0899608e-38
0.10026404 0.12223507 0.035791934 6.4453942e-39
0.10022602 0.12609851 0.034602821 5.984765e-39
0.10018234 0.12988172 0.033087194 6.5343767e-39
0.1003316 0.13383876 0.033119977 6.7147868e-39
0.10093619 0.13765852 0.032216489 1.0956174e-38
0.096893862 0.028851558 0.049422204 2.1172611e-38
0.09685263 0.031346593 0.04683876 2.0987485e-38
0.095483363 0.033874005 0.044839978 2.1177646e-38
0.096246742 0.12233298 0.036534488 7.3644722e-39
0.096763715 0.12589671 0.036454797 7.2722836e-39
0.094210982 0.028869893 0.049698472 2.0897457e-38
0.092844471 0.031427145 0.047920704 2.0620883e-38
0.092815652 0.033892248 0.045114875 2.0437942e-38
0.0922416 0.1195745 0.036756217 8.9210416e-39
0.092225544 0.12238359 0.037058413 9.7579587e-39
0.092879049 0.12512125 0.03696233 1.0033095e-38
0.088828698 0.031471908 0.048557639 2.0990731e-38
0.088814065 0.033919606 0.045527041 2.0990008e-38
0.088892743 0.11959739 0.037101269 1.2594083e-38
0.088370264 0.12254193 0.037268758 1.1323133e-38
0.086842574 0.12516253 0.037584186 1.2984783e-38
0.084809959 0.031517506 0.049194515 2.0899618e-38
0.084472716 0.034323324 0.046431482 2.0805249e-38
0.084220149 0.11922069 0.035608947 1.6743622e-38
0.084189907 0.12220749 0.036790073 1.4176174e-38
0.083824486 0.12546435 0.037603974 1.5101687e-38
0.080947697 0.03178066 0.050434232 2.0346075e-38
0.080792606 0.034722831 0.047267616 2.0620485e-38
0.081548624 0.11923894 0.035884082 1.8496057e-38
0.080195412 0.1219109 0.0356673 1.6201597e-38
0.079970598 0.12621997 0.037396312 1.7404459e-38
0.077016667 0.032462861 0.051005065 2.016205e-38
0.076768801 0.035471719 0.048261762 2.034572e-38
0.076867744 0.12179461 0.035352647 1.8956282e-38
0.076136447 0.12619387 0.036755979 1.7494867e-38
0.076083496 0.12924619 0.038156271 1.9799735e-38
0.072720394 0.033026911 0.051376164 1.9791841e-38
0.072739378 0.03556589 0.049456835 1.9885109e-38
0.072922371 0.12598766 0.037297904 1.7031721e-38
0.068696067 0.03305443 0.051790714 1.9423783e-38
0.068717495 0.035611961 0.050094247 1.9700002e-38
0.068443 0.0383786 0.047047913 1.914755e-38
0.064837426 0.035877887 0.051307023 1.8502549e-38
0.064559497 0.039073486 0.047938228 1.8687313e-38
0.06062448 0.036451362 0.052175403 1.7584178e-38
0.060730208 0.039508063 0.048600018 1.7860055e-38
0.060081244 0.042090926 0.047420502 1.7025261e-38
0.058697939 0.12781268 0.039140821 2.0073766e-38
0.057266284 0.037142668 0.052431941 1.666004e-38
0.056680825 0.039616261 0.049907923 1.6661472e-38
0.056398623 0.042472091 0.048005819 1.6385261e-38
0.055842485 0.12691201 0.037732482 2.2837152e-38
0.055977814 0.12931111 0.03989923 2.228542e-38
0.052738678 0.039979499 0.052142739 1.5649124e-38
0.052483581 0.043461617 0.049675047 1.5833895e-38
0.051383756 0.046137828 0.047783256 1.5926456e-38
0.051746398 0.12278278 0.037493527 1.80509e-38
0.051928099 0.12634508 0.038392603 2.0997573e-38
0.051937584 0.12941127 0.04064393 2.1640776e-38
0.049190082 0.04120798 0.05272752 1.5370397e-38
0.048526712 0.043842297 0.05199337 1.5645193e-38
0.048676502 0.046223339 0.04872942 1.564375e-38
0.048359588 0.12696317 0.038503349 1.7131495e-38
0.047928695 0.13003451 0.040639102 1.731369e-38
0.04517433 0.044527877 0.052193642 1.5280375e-38
0.044425614 0.047278602 0.049802721 1.463426e-38
0.044792876 0.12736864 0.038109958 1.3441841e-38
0.044219144 0.12978117 0.040382385 1.3626589e-38
0.042122275 0.044932228 0.052964032 1.454384e-38
0.040756252 0.047870707 0.050304055 1.3989617e-38
0.039351605 0.050207529 0.048489392 1.4183348e-38
0.041323461 0.12977149 0.039924026 1.2614197e-38
0.03748652 0.048217971 0.052803516 1.3438252e-38
0.036539566 0.051746916 0.050378799 1.3256369e-38
0.036192879 0.055121306 0.048329592 1.2702123e-38
0.035295233 0.058210138 0.047840595 1.3528647e-38
0.033034556 0.052652892 0.052622318 1.2513766e-38
0.032628477 0.055991802 0.050696492 1.2976537e-38
0.032545354 0.059663344 0.048833549 1.3711246e-38
0.030997992 0.053362641 0.052992582 1.2977265e-38
0.029428784 0.056027506 0.052630365 1.3620834e-38
0.029054202 0.059899632 0.050967932 1.3896e-38
0.028401602 0.063438728 0.04811126 1.4174353e-38
0.027858928 0.11854234 0.041557729 1.3710887e-38
0.028738003 0.12199526 0.044047236 1.5466533e-38
0.026946135 0.057400439 0.052873671 1.4082182e-38
0.026006326 0.060220052 0.052159429 1.4632123e-38
0.025071099 0.063845426 0.050178051 1.4173642e-38
0.02453348 0.066966429 0.048126042 1.4637854e-38
0.023212865 0.069590494 0.047574162 1.2795727e-38
0.023900509 0.11510904 0.041414142 1.1136948e-38
0.024600431 0.11869176 0.042890728 1.3257456e-38
0.025174811 0.12220804 0.04422015 1.6204847e-38
0.021577433 0.064725831 0.051944613 1.4265494e-38
0.021035567 0.067205638 0.050147951 1.3805206e-38
0.020485476 0.070347995 0.048319817 1.3070162e-38
0.019489989 0.073970228 0.04762888 1.3069834e-38
0.019151941 0.07825771 0.046837032 1.352937e-38
0.019129083 0.081580728 0.046394825 1.3714455e-38
0.019849494 0.11523609 0.042325377 9.4795627e-39
0.020896174 0.11854878 0.043407381 1.1506464e-38
