# .PCD v0.7 - Point Cloud Data file format
VERSION 0.7
FIELDS x y z rgb
SIZE 4 4 4 4
TYPE F F F F
COUNT 1 1 1 1
WIDTH 984
HEIGHT 1
VIEWPOINT 0 0 0 0 1 0 0
POINTS 984
DATA ascii
0.082279906 0.060999706 0.023107588 1.8691229e-38
0.078176729 0.054144174 0.02605772 1.8136639e-38
0.078110233 0.057455212 0.025071681 1.8690533e-38
0.078033715 0.060556374 0.023881018 1.7308298e-38
0.076960713 0.064351857 0.023446023 1.7032407e-38
0.075294435 0.055272922 0.026736021 1.7492695e-38
0.074032426 0.057379022 0.026011944 1.656572e-38
0.074188888 0.060903303 0.02442956 1.6751172e-38
0.074016899 0.064209089 0.023632109 1.6940619e-38
0.069239646 0.055253886 0.027144372 1.6937024e-38
0.069987468 0.057350151 0.026450992 1.7672778e-38
0.070177846 0.060901463 0.0245893 1.8778052e-38
0.070080958 0.064616323 0.023936927 1.8684422e-38
0.068892553 0.13177826 0.033320904 1.2616047e-38
0.065875873 0.055243306 0.027371347 1.8962787e-38
0.065926492 0.057305068 0.027057409 1.9701067e-38
0.066158406 0.060888827 0.024860322 1.8499302e-38
0.066257462 0.06431821 0.024167955 1.8132647e-38
0.067544721 0.1304332 0.033286333 1.0575543e-38
0.066086136 0.13293755 0.033116102 1.4271237e-38
0.065323673 0.13623643 0.033979714 1.5464382e-38
0.061847813 0.057916075 0.027894258 1.9792897e-38
0.062076151 0.060813889 0.025801003 1.9332989e-38
0.062243745 0.064305581 0.024438739 1.8599755e-38
0.062314175 0.1330846 0.032434642 1.47315e-38
0.05848404 0.057905503 0.028121054 1.8872038e-38
0.058086246 0.06083113 0.025737345 1.9701053e-38
0.057962038 0.064158618 0.024714947 1.9982321e-38
0.058002412 0.13387594 0.033046842 1.454963e-38
0.058729522 0.1357837 0.035390615 1.5284664e-38
0.054447517 0.057892814 0.028393269 1.9244419e-38
0.054064937 0.060818478 0.026008606 1.8965315e-38
0.054549739 0.063947618 0.024926305 1.7950441e-38
0.054511741 0.13279459 0.033182025 1.1969956e-38
0.056711257 0.13577737 0.035526752 1.4273752e-38
0.051083758 0.057882234 0.028620243 1.8413224e-38
0.049968749 0.060745195 0.0269503 1.6111557e-38
0.050165147 0.064238459 0.025586128 1.5190672e-38
0.04873421 0.13037407 0.034554958 1.242799e-38
0.051400498 0.13239694 0.034815252 1.2059968e-38
0.04637447 0.057867438 0.028937817 1.5008432e-38
0.045905262 0.060702212 0.027557075 1.408574e-38
0.046110541 0.064196885 0.026192367 1.3625132e-38
0.045034029 0.12232959 0.031033039 1.0861446e-38
0.045475036 0.12499888 0.033266187 1.1139837e-38
0.046797626 0.1283536 0.03374213 1.169264e-38
0.043010689 0.05785685 0.029164672 1.270498e-38
0.04226882 0.06088604 0.027772725 1.2339782e-38
0.042267494 0.064689279 0.026456833 1.334926e-38
0.042015478 0.12178364 0.031790435 1.3713383e-38
0.043219477 0.12409808 0.035348058 1.2702478e-38
0.038292974 0.055156603 0.029231668 1.0032051e-38
0.038703382 0.05730623 0.029404938 1.0680271e-38
0.038746953 0.060679719 0.028039753 1.0956149e-38
0.037916161 0.064477727 0.026534081 1.0862532e-38
0.036834054 0.067563534 0.026464701 1.2062139e-38
0.038076855 0.12135148 0.031988025 1.454423e-38
0.039560363 0.12364538 0.032533586 1.4450575e-38
0.034929179 0.055146016 0.029458523 8.3743292e-39
0.034980252 0.057192244 0.029311001 8.1002436e-39
0.034719914 0.060667053 0.028311372 9.4849717e-39
0.034089983 0.064845987 0.026843667 1.0771413e-38
0.033948675 0.11795314 0.031626165 1.4637515e-38
0.034707353 0.12095074 0.033784688 1.5279648e-38
0.034538269 0.12362429 0.03538841 1.5003791e-38
0.032380581 0.057248071 0.028821111 7.91509e-39
0.031007864 0.060569465 0.029512584 8.0055579e-39
0.030181505 0.064964384 0.027552843 9.8494508e-39
0.030144513 0.067542493 0.026915848 1.095257e-38
0.030315086 0.11692761 0.033034623 1.4456327e-38
0.031690881 0.12039451 0.035379827 1.5189235e-38
0.026924558 0.061864227 0.030293584 7.6313719e-39
0.026685938 0.064437024 0.029591978 7.2672557e-39
0.025876075 0.068646692 0.027937353 9.3888202e-39
0.024927571 0.11025022 0.031264901 1.225159e-38
0.025386959 0.11289883 0.032991529 1.3536196e-38
0.027793169 0.11622384 0.035152853 1.4270859e-38
0.024186276 0.061825827 0.030811191 8.8262619e-39
0.023571469 0.064537197 0.030771017 7.0767548e-39
0.022288419 0.068929024 0.02901572 6.9009647e-39
0.021439426 0.07284297 0.028169274 8.4675898e-39
0.022445232 0.10976222 0.0330652 1.1514353e-38
0.023820415 0.1121947 0.034541786 1.353728e-38
0.018850699 0.0684544 0.030534327 7.725329e-39
0.018033043 0.072803095 0.028787673 6.2527297e-39
0.017485574 0.1088802 0.032144189 9.0257774e-39
0.015288658 0.069596916 0.031134307 1.2702754e-38
0.013998717 0.072782807 0.029170871 1.2884654e-38
0.013781458 0.075835615 0.02880013 9.8411327e-39
0.014004856 0.10907452 0.03323704 8.7473899e-39
0.014415152 0.11216513 0.035176158 8.6566194e-39
0.010987483 0.07371287 0.028790832 1.4358702e-38
0.01037211 0.076559216 0.029098868 1.343639e-38
0.0097497031 0.10918534 0.032948434 6.0744481e-39
0.011951178 0.11193392 0.035321355 7.5466817e-39
0.0061589852 0.098175056 0.031406581 4.9684691e-39
0.0054691583 0.10083772 0.031870246 4.6011047e-39
0.0054232255 0.10483405 0.032582819 4.4163575e-39
0.0065492094 0.10866302 0.032505214 3.6798924e-39
0.0034831762 0.098166645 0.031587064 3.1285095e-39
0.003023386 0.10081016 0.03262049 2.5757001e-39
0.003326565 0.10481312 0.033226192 2.5771392e-39
0.003335014 0.10748719 0.033475757 3.5891219e-39
0.096575402 0.12718838 0.0099884272 2.2770163e-38
0.097275063 0.13528922 0.0089653134 2.239307e-38
0.091770403 0.11896382 0.010187566 2.3137863e-38
0.091666684 0.11648384 0.012772799 2.2573909e-38
0.087012246 0.11093152 0.012895823 1.9984154e-38
0.081723429 0.10755774 0.014079273 1.6656111e-38
0.12698396 0.10812494 0.01559639 1.7033869e-38
0.14849749 0.13323548 0.015985012 1.7217552e-38
0.10322332 0.10751603 0.017364681 1.5193193e-38
0.098561615 0.092673562 0.017082691 1.4268001e-38
0.10301615 0.11356702 0.022258997 2.2751092e-38
0.092901573 0.094533809 0.020730853 1.7126062e-38
0.10426417 0.11245567 0.019517899 1.1966709e-38
0.026685938 0.064437024 0.029591978 7.2672557e-39
0.15548496 0.14604156 0.025769651 1.427122e-38
0.1586383 0.081152499 0.026128888 2.2480629e-38
0.16024163 0.084292188 0.025710166 2.2482068e-38
0.15935096 0.16078064 0.033501863 1.6112296e-38
0.15850805 0.16311029 0.034208298 1.6114798e-38
0.15486225 0.078149393 0.026506484 2.2751088e-38
0.15516792 0.079900093 0.025642872 2.2569932e-38
0.15510498 0.16105245 0.033742964 1.6020427e-38
0.1554689 0.16343786 0.034444809 1.5839636e-38
0.15060836 0.07718239 0.026560307 2.2844018e-38
0.15145627 0.079551794 0.02586174 2.2843301e-38
0.150858 0.16074666 0.033930182 1.777106e-38
0.151752 0.16308905 0.034663975 1.574781e-38
0.14674222 0.076797672 0.0265944 2.2560946e-38
0.1471974 0.16074243 0.034321547 1.7770369e-38
0.14268863 0.074065909 0.026949108 2.2837163e-38
0.14268194 0.076645285 0.026435792 2.1454589e-38
0.14295265 0.16101426 0.034562588 1.7218976e-38
0.13863499 0.074053168 0.027222455 2.2099968e-38
0.13862988 0.076133475 0.026578486 2.0349333e-38
0.13890122 0.16113107 0.034747362 1.7955106e-38
0.13891551 0.1630487 0.035529733 1.8141288e-38
0.1336664 0.069542862 0.027137041 2.2564914e-38
0.13440371 0.072905675 0.026772499 2.1272354e-38
0.13457823 0.075795837 0.026653647 1.9703948e-38
0.1348511 0.16098878 0.035108984 1.8786321e-38
0.13486189 0.16303596 0.035803199 1.8691964e-38
0.12982664 0.06593506 0.027059555 2.2752548e-38
0.13034181 0.068831518 0.026918054 2.2750011e-38
0.13097058 0.07251776 0.026759088 2.1641108e-38
0.1312039 0.075448602 0.026849747 1.9975515e-38
0.13080359 0.16165783 0.035613537 1.7036045e-38
0.13080826 0.16302322 0.036076605 1.6945999e-38
0.12627697 0.064764962 0.026938856 2.2661795e-38
0.12645797 0.068027899 0.02647692 2.2840401e-38
0.12674965 0.16095483 0.035486817 1.6205557e-38
0.12675463 0.16301048 0.036349952 1.6481784e-38
0.12170663 0.061864316 0.027228773 2.2658856e-38
0.12256346 0.064437583 0.0269081 2.2748218e-38
0.12308258 0.067344032 0.026641607 2.3020118e-38
0.12252723 0.16045099 0.036019325 1.537868e-38
0.11815981 0.060695663 0.027107954 2.2750365e-38
0.11868565 0.063627318 0.026591659 2.1643297e-38
0.11851279 0.11580393 0.031485021 5.2461041e-39
0.11864436 0.15754607 0.035381436 1.0404802e-38
0.11863875 0.1596061 0.036413312 1.1143792e-38
0.11358662 0.05779358 0.027397931 2.2933313e-38
0.11462043 0.059551716 0.026737452 2.2471263e-38
0.11480833 0.15665866 0.036061585 8.0030117e-39
0.11593433 0.15960546 0.036764324 7.8276294e-39
0.10986973 0.057444796 0.027617097 2.3204512e-38
0.11023867 0.059224606 0.026751995 2.3109806e-38
0.11185732 0.15217641 0.036345541 1.0036324e-38
0.11186583 0.15487324 0.036597252 1.1327388e-38
0.10524424 0.054621071 0.02766633 2.2836817e-38
0.10615842 0.057111859 0.027669609 2.2930806e-38
0.10192978 0.053904988 0.027572036 2.1820496e-38
0.10213433 0.056506112 0.027046621 2.1546779e-38
0.098026469 0.051002637 0.027816713 2.0622666e-38
0.098063596 0.053766102 0.027401507 2.0624105e-38
0.098086409 0.056493387 0.02731967 2.0528682e-38
0.093972839 0.050989896 0.02809006 2.0161299e-38
0.094013765 0.053753361 0.027674675 2.0068417e-38
0.090594813 0.050979279 0.028317869 2.0527223e-38
0.090239346 0.053216577 0.027745903 2.0160268e-38
0.087216794 0.050968654 0.028545737 1.9792178e-38
0.086717442 0.052646376 0.028132439 1.9792902e-38
0.083184443 0.050990835 0.028485298 1.9512373e-38
0.08188197 0.052402928 0.028034568 1.7214697e-38
0.079179108 0.051047921 0.028091013 1.8872749e-38
0.075955302 0.050483778 0.029263198 1.8963858e-38
0.074663073 0.053243697 0.028937757 1.7857504e-38
0.071199149 0.053471282 0.029613137 1.7855335e-38
0.066957153 0.053601772 0.03016448 1.8592567e-38
0.062905654 0.054263242 0.03050077 1.9517029e-38
0.06232971 0.05638098 0.029731274 1.9792909e-38
0.063162781 0.13584249 0.038115799 1.6200498e-38
0.058854133 0.054924697 0.030837178 1.8412498e-38
0.058956444 0.056370378 0.029958785 1.85951e-38
0.060556173 0.13581935 0.037283599 1.5467972e-38
0.055246919 0.056695342 0.030240476 1.8689454e-38
0.053805396 0.13445161 0.037612915 1.2430564e-38
0.05437991 0.13581488 0.03870815 1.3075575e-38
0.050071284 0.0548971 0.03142941 1.7954742e-38
0.050860584 0.056344926 0.030504763 1.8138084e-38
0.050740615 0.13410862 0.038040102 1.2244002e-38
0.052353106 0.13580851 0.038844824 1.2426978e-38
0.046693251 0.054886468 0.031657338 1.6850904e-38
0.047064669 0.056596912 0.031540453 1.6388855e-38
0.046313077 0.13039222 0.038243949 1.2612053e-38
0.047794804 0.1328236 0.038471758 1.2796052e-38
0.042639621 0.054873727 0.031930745 1.3440043e-38
0.04272446 0.056287035 0.031386018 1.3071252e-38
0.042185023 0.1249893 0.038521469 1.3530079e-38
0.040061876 0.054964468 0.031107187 1.1232395e-38
0.040066123 0.056310996 0.031232834 1.1323863e-38
0.038802765 0.12363027 0.038623333 1.4543128e-38
0.03610035 0.12362178 0.038805664 1.5280002e-38
0.029280141 0.058970094 0.032212257 7.7211027e-39
0.030283906 0.12135813 0.038652301 1.4913739e-38
0.026796825 0.059732944 0.032854438 8.2745623e-39
0.026195213 0.11729972 0.03871727 1.3903871e-38
0.02798035 0.11955104 0.038974881 1.5005908e-38
0.022291496 0.11280026 0.038225234 1.3262467e-38
0.018568009 0.10975654 0.038192689 1.0221472e-38
0.019847587 0.11143504 0.038766444 1.2521316e-38
0.015948325 0.11009547 0.0378986 9.7615334e-39
0.099971123 0.1316874 0.010738611 2.3141822e-38
0.099659652 0.13754907 0.011391938 1.9898756e-38
0.080812618 0.11259609 0.013262272 1.417001e-38
0.080045424 0.11831622 0.013387501 1.3527467e-38
0.12674631 0.098808303 0.015052378 1.7771075e-38
0.094328329 0.10532141 0.017400682 1.3535098e-38
0.090253644 0.11261442 0.018129766 1.464074e-38
0.10262491 0.10126714 0.021693945 1.5280723e-38
0.097369403 0.11381128 0.022632837 1.574313e-38
0.042306706 0.083294503 0.021525741 1.6571477e-38
0.010703303 0.10096692 0.028228104 6.0730061e-39
0.12208591 0.11049807 0.028067052 1.7125709e-38
0.13431962 0.071713828 0.029309094 2.1738738e-38
0.1594688 0.16495761 0.036329329 1.6944553e-38
0.15929753 0.16729467 0.036895156 1.7772879e-38
0.15494244 0.075964674 0.028645575 2.2750735e-38
0.15494053 0.16536836 0.036674559 1.5931127e-38
0.15525487 0.16732098 0.037842691 1.7036412e-38
0.15054199 0.073553279 0.029137373 2.2841854e-38
0.15154015 0.075301349 0.028478324 2.2842575e-38
0.15095586 0.16493894 0.037048221 1.6848418e-38
0.15186259 0.16731033 0.038071334 1.6851655e-38
0.14663598 0.072703719 0.029196739 2.3023366e-38
0.14708757 0.16455123 0.037465632 1.7587403e-38
0.14274177 0.071818061 0.029755116 2.2842206e-38
0.14302064 0.16453846 0.037739992 1.768031e-38
0.13730559 0.069092788 0.029868305 2.2573893e-38
0.13865957 0.071867689 0.029197335 2.2568844e-38
0.13895826 0.16521125 0.038245738 1.8508273e-38
0.13322419 0.06569472 0.029826939 2.2482065e-38
0.13503629 0.067997187 0.029416203 2.2664299e-38
0.13594474 0.071195737 0.029150546 2.2381227e-38
0.13489038 0.16519845 0.038520098 1.8781627e-38
0.1335443 0.16725273 0.039306879 1.8413912e-38
0.12914065 0.061619602 0.029722214 2.2488176e-38
0.13050389 0.064163446 0.029196799 2.2576779e-38
0.13186693 0.067126326 0.029046118 2.2752562e-38
0.13082249 0.16518566 0.038794458 1.8048378e-38
0.12947357 0.16723993 0.039581418 1.8046942e-38
0.12623236 0.060707629 0.029114842 2.257535e-38
0.12778911 0.063056916 0.028941572 2.2484229e-38
0.12702583 0.16503283 0.038936794 1.7310098e-38
0.12811665 0.16723567 0.039672971 1.7770712e-38
0.12254916 0.059909783 0.029433548 2.2753612e-38
0.12322648 0.16393873 0.039091825 1.6671911e-38
0.1175941 0.057521023 0.030120969 2.2849033e-38
0.11963373 0.058881536 0.030110061 2.2847614e-38
0.11861518 0.16173846 0.03879559 1.1880252e-38
0.11895227 0.16345666 0.039436817 1.3172824e-38
0.11328727 0.054347932 0.030115902 2.2936918e-38
0.11455295 0.056568138 0.029482782 2.2845433e-38
0.11317809 0.15631256 0.038656294 9.6650147e-39
0.11415626 0.16057269 0.039132476 7.5449244e-39
0.11522208 0.16310641 0.039656699 8.1049239e-39
0.11013454 0.053878926 0.029710293 2.3205234e-38
0.11083017 0.056242615 0.02945286 2.3204871e-38
0.11182521 0.15698442 0.03881073 1.1877685e-38
0.11181239 0.16041395 0.040139258 1.1599685e-38
0.10659394 0.050486974 0.029805362 2.3015435e-38
0.10684761 0.052931517 0.029556751 2.2925042e-38
0.10295399 0.049410716 0.029778659 2.2283274e-38
0.10336483 0.052162558 0.029576778 2.237259e-38
0.099466026 0.049013138 0.029977739 2.0897466e-38
0.095224112 0.048756473 0.029809594 2.0254613e-38
0.091132835 0.048689455 0.030583739 1.9976587e-38
0.087419786 0.04904291 0.030616701 1.9607061e-38
0.083275266 0.048810795 0.031026781 2.0440404e-38
0.078947648 0.049016267 0.03118813 1.9427703e-38
0.076174177 0.046558067 0.031901062 1.7127146e-38
0.074614167 0.049075678 0.03143692 1.8595085e-38
0.070797674 0.049978673 0.032081842 1.9699263e-38
0.066729806 0.049965881 0.032356262 1.9334424e-38
0.066779546 0.052047543 0.032044291 1.9057118e-38
0.06264621 0.049935617 0.032797754 1.8872769e-38
0.06237682 0.052371755 0.032372952 1.9149338e-38
0.062016308 0.13678145 0.040965796 1.5557651e-38
0.058885306 0.050227471 0.033415437 1.795227e-38
0.058651626 0.052698091 0.032655835 1.8506488e-38
0.055833317 0.050556406 0.033652961 1.6844436e-38
0.054732449 0.053505465 0.033248484 1.7032802e-38
0.05485297 0.13719845 0.04081887 1.417904e-38
0.053396933 0.13856481 0.042052031 1.4634264e-38
0.05091989 0.053073525 0.03371793 1.6203035e-38
0.050448999 0.13665345 0.041670263 1.3071259e-38
0.051361553 0.13855842 0.0421893 1.4269417e-38
0.047700405 0.053239025 0.034454882 1.59304e-38
0.045352995 0.1324359 0.041016817 1.3072669e-38
0.04662025 0.13583346 0.042111814 1.3533645e-38
0.043629654 0.053226225 0.034729481 1.3082054e-38
0.043978795 0.12634668 0.040540218 1.105017e-38
0.043183818 0.12702291 0.041664064 1.1509709e-38
0.039336085 0.052711383 0.034569442 1.0580941e-38
0.039169826 0.12497927 0.041241288 1.445164e-38
0.035780378 0.12496861 0.041469872 1.5187788e-38
0.031686097 0.1240536 0.041829586 1.4821161e-38
0.02732797 0.12088457 0.041408718 1.3996075e-38
0.022260278 0.11410864 0.040866435 1.3444695e-38
0.023246698 0.11647472 0.041272581 1.3259944e-38
0.024391204 0.11996768 0.042276978 1.2798973e-38
0.019444682 0.11273669 0.041599989 1.2337633e-38
0.015824661 0.11182259 0.04175961 1.0583035e-38
0.081213146 0.13564809 0.0082860589 1.527998e-38
0.075504407 0.12671775 0.0074849725 1.5743468e-38
0.078046471 0.10754619 0.014327228 1.7309015e-38
0.077680573 0.11050296 0.014628708 1.7958333e-38
0.13106303 0.10989711 0.015579104 1.657111e-38
0.13066323 0.11737105 0.016502142 1.6940963e-38
0.12993672 0.1240938 0.016806483 1.8875982e-38
0.10344741 0.10863856 0.01645577 1.1596846e-38
0.096433118 0.10477363 0.017236412 1.3991761e-38
0.09883292 0.10054076 0.020568669 1.6851644e-38
0.088783965 0.11656585 0.021574259 1.5662442e-38
0.096793912 0.09635146 0.021208942 1.5744931e-38
0.1211389 0.075487398 0.024039865 2.0903581e-38
0.15534848 0.16949603 0.040388644 1.8232776e-38
0.155406 0.17161934 0.04192555 1.8968558e-38
0.15066002 0.069158994 0.032996535 2.2660697e-38
0.15107188 0.16919728 0.040746272 1.7953674e-38
0.15134057 0.172001 0.043075562 1.869338e-38
0.14671132 0.068364009 0.032308698 2.2662867e-38
0.14822215 0.071006082 0.031321108 2.2932258e-38
0.14718692 0.16881157 0.041212976 1.8138046e-38
0.14793931 0.17168155 0.043779373 1.8138763e-38
0.14253944 0.064793691 0.033742189 2.2393833e-38
0.14277977 0.068237059 0.031878114 2.2483146e-38
0.14329249 0.16840526 0.041342854 1.8048375e-38
0.14246936 0.17030078 0.044020653 1.8231333e-38
0.1387046 0.064014122 0.033324957 2.2488901e-38
0.13907905 0.068055898 0.031808317 2.2484578e-38
0.13901047 0.16809623 0.041532159 1.8510065e-38
0.13871279 0.17062986 0.044305921 1.8692303e-38
0.13369787 0.060732611 0.034363806 2.2391679e-38
0.13476866 0.063950427 0.032201529 2.2483495e-38
0.13492692 0.16853632 0.041849911 1.832244e-38
0.13522995 0.17109616 0.044585526 1.8230614e-38
0.12913169 0.057082057 0.03433156 2.2576046e-38
0.13050434 0.05993057 0.033210874 2.2486749e-38
0.13186793 0.062807351 0.031661868 2.2486388e-38
0.13123237 0.16876422 0.042337179 1.8047655e-38
0.13085771 0.17117333 0.044888914 1.7956178e-38
0.12640102 0.056487359 0.033454299 2.2749653e-38
0.12709203 0.0586721 0.03210187 2.2574282e-38
0.12538965 0.16598634 0.041754067 1.7403722e-38
0.12675488 0.16807233 0.042611718 1.7496987e-38
0.12743881 0.17025352 0.045034468 1.749768e-38
0.12297957 0.054384977 0.033992708 2.2932604e-38
0.12231818 0.056602523 0.032399356 2.275325e-38
0.12198114 0.16532502 0.042426348 1.7594252e-38
0.12401561 0.16797015 0.045052707 1.7866854e-38
0.11929315 0.053584896 0.033865571 2.2934752e-38
0.11914797 0.056430556 0.03192693 2.2759713e-38
0.11925829 0.16531646 0.042610109 1.5473414e-38
0.1199128 0.16682094 0.045223117 1.6302443e-38
0.11407966 0.050216854 0.034708858 2.2838975e-38
0.11548677 0.053120315 0.033159554 2.2842922e-38
0.1168787 0.055970795 0.032037616 2.2845433e-38
0.1155825 0.16516346 0.0427441 1.0405857e-38
0.11717783 0.16613053 0.045343816 1.1517258e-38
0.11110577 0.04980842 0.033462763 2.3020122e-38
0.11209235 0.051830769 0.032477856 2.3206314e-38
0.11029418 0.14974599 0.044277191 7.9176572e-39
0.11033667 0.15242174 0.043182492 8.5669657e-39
0.11038341 0.15644842 0.042213798 1.1879844e-38
0.11037934 0.1605567 0.043269515 1.2339411e-38
0.11175171 0.16396111 0.043494999 1.0216056e-38
0.11239538 0.16611549 0.045666397 9.6653861e-39
0.10893852 0.15315066 0.04468751 7.5553347e-39
0.10862238 0.15687685 0.044554234 1.1787678e-38
0.10896 0.15996861 0.045323908 1.2800758e-38
0.10896645 0.16201401 0.045514882 1.3443952e-38
0.10184363 0.046308108 0.03315872 2.034719e-38
0.10457315 0.047676474 0.033101797 2.1735849e-38
0.099120297 0.046299547 0.033342302 2.0714868e-38
0.094806373 0.045249552 0.034111679 1.8965698e-38
0.09455464 0.14151505 0.044573247 1.3520334e-38
0.093875736 0.14287649 0.044746637 1.2792786e-38
0.090932824 0.044899672 0.03387785 1.7394745e-38
0.090948448 0.14092375 0.043151557 1.9333704e-38
0.091178894 0.14285174 0.044255853 1.4898174e-38
0.086798035 0.044799879 0.03493166 1.9515587e-38
0.086237006 0.047727153 0.033341944 1.9145732e-38
0.088405788 0.14149572 0.044987977 2.0242674e-38
0.087729029 0.14353895 0.045224965 1.4353999e-38
0.082973585 0.045593128 0.035376728 1.9885457e-38
0.081474513 0.047712177 0.033663213 2.0995363e-38
0.07831914 0.045865707 0.034962535 1.905892e-38
0.078753091 0.047703624 0.033846736 1.9428417e-38
0.074570417 0.045513965 0.035183549 1.7211095e-38
0.073310241 0.047686517 0.034213841 1.8136276e-38
0.074822858 0.14313306 0.045054674 1.5466517e-38
0.071103603 0.045419447 0.036164582 1.7766056e-38
0.070588827 0.047677957 0.034397423 1.9149359e-38
0.070642419 0.14143988 0.04618603 1.5465461e-38
0.073383838 0.14417565 0.046256304 1.5648415e-38
0.067010082 0.04540658 0.03644073 1.7125011e-38
0.066506684 0.047665119 0.034672737 1.8230998e-38
0.069276012 0.14143558 0.046278179 1.5466899e-38
0.069280311 0.14279917 0.046405494 1.5650571e-38
0.063257188 0.045394778 0.036693811 1.5923245e-38
0.062424555 0.047652289 0.034948051 1.7494527e-38
0.062575482 0.13934104 0.045026183 1.5005932e-38
0.059797943 0.045669697 0.037457168 1.6388142e-38
0.058732666 0.048021093 0.035903811 1.7215741e-38
0.059305266 0.13726297 0.043543279 1.5468323e-38
0.060092479 0.13920251 0.04548341 1.5559096e-38
0.056677431 0.045945674 0.038197637 1.555551e-38
0.055312395 0.048476323 0.036657393 1.6382758e-38
0.057264194 0.13725656 0.043680906 1.5376129e-38
0.055706672 0.13864702 0.045929849 1.5099907e-38
0.04984536 0.045924194 0.03865844 1.2976932e-38
0.051399693 0.048831716 0.037147403 1.5097063e-38
0.052912422 0.051696047 0.035970747 1.5276428e-38
0.050141923 0.14001185 0.047441125 1.4364453e-38
0.047132984 0.044576585 0.038492382 1.4728972e-38
0.047372691 0.048879653 0.036865473 1.2239009e-38
0.04713048 0.052017339 0.03639245 1.4543534e-38
0.047357842 0.1395894 0.046296 1.2981206e-38
0.043179713 0.048771456 0.038034141 1.1867343e-38
0.043364964 0.05218865 0.036864996 1.206001e-38
0.042722836 0.12861089 0.043857038 1.2061433e-38
0.042899325 0.13178448 0.044645309 1.3072318e-38
0.043075822 0.13607182 0.046113133 1.353399e-38
0.043538466 0.13981082 0.047366261 1.2617485e-38
0.039546117 0.049212866 0.038321614 1.1870573e-38
0.040543243 0.051554531 0.037801981 9.1169473e-39
0.039364122 0.12770128 0.045453548 1.3993184e-38
0.039868034 0.13179812 0.047368586 1.3441801e-38
0.039883099 0.13657066 0.047814071 1.2704983e-38
0.039891675 0.13929784 0.048068643 1.3918306e-38
0.035454281 0.12496701 0.044008493 1.5830996e-38
0.03048531 0.12495106 0.045853615 1.491335e-38
0.031921998 0.12631547 0.045380533 1.4270129e-38
0.027549885 0.12312885 0.04571414 1.3718048e-38
0.021821499 0.11677685 0.044165671 1.29837e-38
0.022510394 0.11949479 0.044373274 1.2340138e-38
0.025490627 0.12220787 0.047445297 1.3257801e-38
0.018131338 0.1135917 0.044453263 1.1877729e-38
0.019186534 0.11593914 0.045473814 1.2430882e-38
0.02069743 0.11878386 0.047449648 1.2522705e-38
0.015810005 0.11357927 0.044944942 1.058374e-38
0.015221037 0.11535771 0.047500014 9.2065323e-39
0.084355608 0.13683674 0.0084612966 1.2698889e-38
0.076923035 0.1166797 0.014195323 1.6756178e-38
0.13103218 0.09887854 0.014960349 1.8414644e-38
0.13123077 0.10243428 0.015055954 1.7493775e-38
0.096567087 0.1123109 0.018992186 1.3901018e-38
0.10842531 0.10491281 0.021015227 1.9152919e-38
0.10107331 0.10868891 0.021956444 1.7308656e-38
0.12021902 0.12246294 0.02928704 1.685021e-38
0.15389298 0.065006673 0.03742224 2.2581085e-38
0.15524754 0.06781432 0.036810338 2.2572839e-38
0.15552245 0.17317922 0.045083582 1.9886935e-38
0.15558845 0.17465958 0.046895385 2.0812827e-38
0.15079303 0.064675048 0.037349582 2.2572473e-38
0.15135673 0.067095943 0.035574973 2.2571024e-38
0.15139131 0.17312212 0.044686913 1.8785214e-38
0.15119861 0.17519876 0.047310352 1.8968887e-38
0.14700221 0.063669831 0.037092924 2.2392745e-38
0.14831898 0.066605635 0.034929454 2.2569952e-38
0.14698221 0.17286612 0.046471715 1.8049439e-38
0.14770627 0.17500594 0.047881186 1.8233477e-38
0.14321604 0.062659606 0.036919296 2.2301997e-38
0.14319958 0.17247979 0.046188414 1.8324605e-38
0.14324877 0.17535174 0.04846704 1.8599758e-38
0.13806587 0.056729943 0.037719965 2.2662506e-38
0.13875163 0.059544757 0.037153959 2.2389884e-38
0.13936594 0.17261751 0.04666239 1.8785223e-38
0.13912462 0.17532742 0.048576474 1.8694087e-38
0.1353136 0.056059472 0.037592113 2.2570304e-38
0.13507523 0.059219368 0.035806715 2.2483151e-38
0.13567539 0.17320503 0.047772646 1.841645e-38
0.13568953 0.17464238 0.048912764 1.8601189e-38
0.13132197 0.053143725 0.03784138 2.2836815e-38
0.13148367 0.056062862 0.036665499 2.2661053e-38
0.1318734 0.058361098 0.035272062 2.2485316e-38
0.13155812 0.17283416 0.047765195 1.8140215e-38
0.12705214 0.049839512 0.037821412 2.3204177e-38
0.12774953 0.052661739 0.037255347 2.3205229e-38
0.12812707 0.17249762 0.048217714 1.7773582e-38
0.12361711 0.049828708 0.038053095 2.3114106e-38
0.12363729 0.052087948 0.036249876 2.3022284e-38
0.12332799 0.16893749 0.046196401 1.8142003e-38
0.12427955 0.17097914 0.048336327 1.7314043e-38
0.11949989 0.049850613 0.037998497 2.3204883e-38
0.11952996 0.0514265 0.036130667 2.3294202e-38
0.11962219 0.16842802 0.04720515 1.7132887e-38
0.11987878 0.17045841 0.049256802 1.7589543e-38
0.11539768 0.048597872 0.036912858 2.2927573e-38
0.11680043 0.051486351 0.035649955 2.311413e-38
0.11578363 0.16829087 0.047653675 1.1789896e-38
0.11521026 0.17127475 0.049783647 1.4646157e-38
0.11055101 0.045674153 0.038549483 2.1636118e-38
0.11160994 0.04749833 0.037641823 2.2463734e-38
0.11021358 0.14847821 0.04718399 7.3641163e-39
0.11147868 0.16797672 0.04777211 9.847248e-39
0.11181246 0.17163801 0.049997389 1.2435254e-38
0.10683944 0.045114011 0.038748503 2.0440809e-38
0.10857764 0.047364086 0.035821259 2.1919179e-38
0.10707363 0.14729469 0.047285914 7.1833194e-39
0.1072403 0.15157291 0.046466947 6.3553734e-39
0.10686733 0.15591376 0.046092987 8.1074575e-39
0.1067297 0.15961972 0.046851695 1.2155764e-38
0.10737019 0.16365631 0.047915816 1.3719118e-38
0.10790455 0.1674788 0.049693346 1.205488e-38
0.10329406 0.044916809 0.038164914 2.025677e-38
0.10331374 0.14711738 0.048530638 7.4599385e-39
0.10386369 0.15155134 0.048279047 4.6976891e-39
0.10319807 0.15547833 0.04843992 5.4298382e-39
0.1034022 0.15939038 0.048218966 8.7452655e-39
0.10392707 0.16300438 0.049572825 1.2890802e-38
0.098900907 0.043674529 0.038312674 1.9428445e-38
0.098535493 0.14364906 0.04752326 9.3848111e-39
0.09900026 0.14670801 0.048640788 8.7470227e-39
0.10059597 0.15670696 0.049611926 6.8962732e-39
0.10060462 0.15944931 0.049867988 6.9895913e-39
0.10061325 0.16219166 0.05012393 1.012675e-38
0.094768718 0.041588321 0.038565278 1.7584173e-38
0.095520854 0.043112606 0.037314713 1.7216499e-38
0.096559793 0.1415439 0.045446754 1.1122895e-38
0.095454246 0.14373571 0.046129346 1.0765586e-38
0.095369689 0.14625277 0.04838407 1.1142646e-38
0.091275617 0.040686518 0.037950516 1.7305781e-38
0.09109515 0.14425766 0.046070814 1.1694021e-38
0.092065543 0.14652225 0.048834324 1.2432684e-38
0.08775425 0.040077552 0.038437605 1.8135155e-38
0.086994514 0.14561024 0.046475112 1.2707483e-38
0.088218927 0.14728872 0.049233675 1.2985152e-38
0.083773598 0.040848859 0.039408684 1.9061799e-38
0.082568206 0.043641061 0.037234843 1.9426643e-38
0.085483544 0.14773183 0.049292743 1.3534741e-38
0.07962054 0.040777847 0.040186584 1.7861474e-38
0.079476967 0.043585546 0.038647115 1.8138075e-38
0.078650638 0.14700972 0.04918462 1.491444e-38
0.074813664 0.041448317 0.040574968 1.7492304e-38
0.075600967 0.042973965 0.039322197 1.7582722e-38
0.076319948 0.1450305 0.047143996 1.5098098e-38
0.075833455 0.14703098 0.050384045 1.537505e-38
0.071378618 0.041437522 0.040806651 1.6934071e-38
0.07138294 0.042808697 0.040934622 1.702559e-38
0.071504623 0.14397372 0.049384654 1.5740615e-38
0.071728915 0.14632544 0.050344467 1.6015404e-38
0.067260891 0.042795733 0.041212618 1.6571466e-38
0.067141064 0.1414514 0.047430873 1.5559816e-38
0.067440704 0.14367396 0.04902792 1.5836043e-38
0.064512871 0.04278709 0.041397989 1.5188554e-38
0.063886039 0.14054587 0.04823786 1.5652727e-38
0.063501552 0.14355209 0.050390661 1.6388131e-38
0.058334127 0.044138834 0.041942954 1.6207676e-38
0.059550062 0.1409874 0.048572898 1.5928959e-38
0.059362158 0.14240052 0.050731063 1.6203403e-38
0.053514257 0.040695779 0.041947365 1.4542063e-38
0.054594666 0.04422155 0.041341186 1.4818674e-38
0.055303119 0.14009 0.050118804 1.5379361e-38
0.056579962 0.14148581 0.051169515 1.583569e-38
0.050768405 0.041372731 0.042196631 1.6013937e-38
0.051338702 0.044291668 0.040849328 1.352864e-38
0.051259682 0.14051995 0.049761832 1.4734698e-38
0.047760814 0.14143555 0.05075556 1.353151e-38
0.037692197 0.13180053 0.04852283 1.3900624e-38
0.038730279 0.13555883 0.048804164 1.2892235e-38
0.03563112 0.1290631 0.048406363 1.4453802e-38
0.035466969 0.13180651 0.050016403 1.3257423e-38
0.035632469 0.13573061 0.051474869 1.381747e-38
0.032007419 0.12837654 0.050097644 1.3349635e-38
0.031923026 0.13180254 0.051150978 1.0863587e-38
0.031932205 0.13591388 0.051562905 1.1889273e-38
0.027266875 0.12494016 0.049593866 1.3348551e-38
0.027821369 0.12768169 0.050819397 1.0768513e-38
0.028020963 0.13177502 0.049846768 6.0780704e-39
0.028898619 0.13497393 0.050422132 8.198193e-39
0.023619331 0.12333025 0.05120033 1.1508609e-38
0.024934404 0.1276747 0.052021027 7.914395e-39
0.019259736 0.11990257 0.049664974 9.3880986e-39
0.019249156 0.12315217 0.051839232 7.4545309e-39
0.015751831 0.11671135 0.048597336 9.2054911e-39
0.015732214 0.1190412 0.050254762 5.9801379e-39
0.015695296 0.12333629 0.052241087 6.1681207e-39
0.012462735 0.11506245 0.048665822 6.0722957e-39
0.013021685 0.11875097 0.048973143 4.6922605e-39
0.086224034 0.12608799 0.0070473552 1.0857883e-38
0.074391335 0.1045702 0.01328975 1.5099927e-38
0.072769187 0.091034129 0.012804329 1.3532603e-38
0.12341669 0.11669005 0.017086625 1.9430256e-38
0.11669755 0.1129127 0.016002834 1.8972146e-38
0.089662574 0.11426816 0.018195868 1.417939e-38
0.086414784 0.111623 0.018729985 1.5929318e-38
0.10986195 0.11119079 0.021894813 1.7034586e-38
0.054554798 0.12608983 0.024297297 1.1325273e-38
0.097164512 0.10491341 0.020937622 1.3348566e-38
0.038964182 0.066318773 0.025197208 1.1138399e-38
0.12363745 0.11297609 0.029568732 1.8875625e-38
0.06985227 0.049730062 0.032290399 1.822774e-38
0.12152024 0.15950604 0.04127568 1.7495939e-38
0.15075788 0.059712239 0.039991438 2.2756849e-38
0.151476 0.062631801 0.039377093 2.2665392e-38
0.15293624 0.17620766 0.049904168 1.9524233e-38
0.15130794 0.17817134 0.050802231 1.9797965e-38
0.14638354 0.056470945 0.040152252 2.1557922e-38
0.14706551 0.05928722 0.039698303 2.2670038e-38
0.14673607 0.17618816 0.050322413 1.8508622e-38
0.14744449 0.17828968 0.050974369 1.9428467e-38
0.14154586 0.053702042 0.040220916 2.2196481e-38
0.14291921 0.055835307 0.039656401 2.2386285e-38
0.14319611 0.058480918 0.039549589 2.2853009e-38
0.14313988 0.17880146 0.051439524 1.9706474e-38
0.13924019 0.053268783 0.040001035 2.3118084e-38
0.13969669 0.05562833 0.039519846 2.2942325e-38
0.1400021 0.17868653 0.051616251 1.9430595e-38
0.13582239 0.052742928 0.040087521 2.3115927e-38
0.13739888 0.055162802 0.039631844 2.2939085e-38
0.13571799 0.1761885 0.051572084 1.8693733e-38
0.13710108 0.17756875 0.05160749 1.8879209e-38
0.13118497 0.04953891 0.040533245 2.3297793e-38
0.13256569 0.051710218 0.039636254 2.3019779e-38
0.13226573 0.17479038 0.051507354 1.8324966e-38
0.12773119 0.048172101 0.040438056 2.2929373e-38
0.12778524 0.17446093 0.052199483 1.8234207e-38
0.12220378 0.045380123 0.04075259 2.164149e-38
0.12359606 0.0475391 0.04002136 2.2653846e-38
0.1226113 0.17198747 0.051563561 1.7681406e-38
0.12399244 0.17408825 0.052169919 1.7774335e-38
0.11944436 0.045371443 0.040938675 2.1729748e-38
0.11946344 0.047544166 0.040134013 2.2743905e-38
0.11985567 0.1719788 0.051749468 1.7681028e-38
0.11985615 0.17407525 0.052448869 1.7775391e-38
0.11513857 0.044208758 0.040618122 2.0995065e-38
0.11670564 0.046848014 0.040255725 2.27421e-38
0.11641112 0.17196798 0.051981747 1.6582236e-38
0.11572355 0.17474514 0.052719593 1.5659243e-38
0.11046319 0.041212663 0.041157961 1.8044071e-38
0.11137814 0.043672219 0.040463328 2.016565e-38
0.11140183 0.17509499 0.052613676 1.4832e-38
0.1116061 0.17745267 0.052820444 1.2536857e-38
0.10701281 0.040857606 0.041358411 1.8135886e-38
0.10739347 0.043037608 0.040530026 1.9884743e-38
0.10606667 0.16849807 0.052357852 1.2511594e-38
0.10791316 0.17148292 0.05251205 1.3363613e-38
0.10826357 0.17503567 0.053827286 1.5395504e-38
0.10885048 0.17744401 0.053006232 9.8763516e-41
0.10379311 0.040732741 0.041564882 1.8416086e-38
0.10291449 0.042679787 0.040799975 2.0440777e-38
0.10187906 0.15129796 0.051032305 5.6199705e-39
0.10283805 0.16413388 0.05216825 1.3627315e-38
0.10466805 0.16714799 0.052829564 1.3899555e-38
0.10465807 0.16924156 0.053529441 1.408478e-38
0.10012653 0.040530369 0.041458726 1.9244028e-38
0.099803656 0.14854154 0.050915003 8.1005813e-39
0.099805564 0.15129772 0.05134052 7.3626898e-39
0.099662311 0.15516578 0.052148223 7.1771929e-39
0.09914726 0.15885162 0.05192399 7.4494624e-39
0.10096437 0.16464046 0.053349197 1.3259281e-38
0.096351527 0.040223539 0.041266382 1.8690868e-38
0.095670216 0.14852855 0.051193774 1.095717e-38
0.096531361 0.15091363 0.052077591 9.5739275e-39
0.092567869 0.0385224 0.041111887 1.7489442e-38
0.092225678 0.1485177 0.051426172 1.2616704e-38
0.09219072 0.15060923 0.052462995 1.2523446e-38
0.087367475 0.036726087 0.041799366 1.7121381e-38
0.089470044 0.14850904 0.05161196 1.3353206e-38
0.088096559 0.14987966 0.051833332 1.3812393e-38
0.083545715 0.036997482 0.042586982 1.77682e-38
0.083612084 0.038494237 0.04171592 1.8325296e-38
0.083269872 0.14848955 0.052030087 1.3993217e-38
0.08438281 0.15034956 0.052799821 1.4270874e-38
0.079406567 0.036984466 0.042866111 1.7859686e-38
0.079478629 0.038481243 0.041994691 1.786039e-38
0.08048062 0.14849679 0.052722991 1.4360553e-38
0.075523846 0.03941673 0.042637706 1.7492682e-38
0.075687557 0.14709076 0.052412927 1.537505e-38
0.071170323 0.040309384 0.043332458 1.6935178e-38
0.070585385 0.1480127 0.053515792 1.6204435e-38
0.067327224 0.040595852 0.043418348 1.6753686e-38
0.064930387 0.040381096 0.044164479 1.6751912e-38
0.062959999 0.043241665 0.043559015 1.5372219e-38
0.064391322 0.14707094 0.053679526 1.6202299e-38
0.060103558 0.041054346 0.044554472 1.5098129e-38
0.06017141 0.042507418 0.044014752 1.5742058e-38
0.059834011 0.14429101 0.053224802 1.6478901e-38
0.056187525 0.040091947 0.044442117 1.288616e-38
0.056757681 0.042534687 0.043913066 1.5744205e-38
0.056345306 0.14291525 0.053735077 1.5836057e-38
0.057673961 0.1456874 0.054508448 1.6112259e-38
0.051930979 0.041144565 0.044109881 1.500194e-38
0.052206993 0.14207686 0.053937078 1.4916948e-38
0.048007265 0.14290331 0.054902732 1.2428787e-38
0.032019183 0.1350372 0.054243267 1.1517283e-38
0.023261234 0.12492667 0.053890526 1.1225887e-38
0.023269892 0.12767661 0.054147303 6.3521196e-39
0.0205056 0.124918 0.054076433 8.0988129e-39
0.021063656 0.12711969 0.054244578 6.9967673e-39
0.014981359 0.12077578 0.054063082 4.8813349e-39
0.017754287 0.1262843 0.05439055 7.5513816e-39
0.013603538 0.12077145 0.054155946 4.8809734e-39
0.089247756 0.1318257 0.0069479942 2.1736911e-38
0.072201699 0.097084999 0.013555706 1.3807749e-38
0.073209777 0.10679652 0.014082313 1.4452388e-38
0.073158897 0.11449173 0.014301538 1.2887582e-38
0.095128 0.11217064 0.016309321 1.4270157e-38
0.11169203 0.1061651 0.017455518 1.463715e-38
0.086806029 0.11068926 0.018361568 1.6661499e-38
0.10516006 0.10556893 0.021460474 1.5557661e-38
0.053272195 0.091099754 0.020506561 1.5558709e-38
0.098467208 0.10126785 0.020485461 1.0493741e-38
0.13486189 0.16303596 0.035803199 1.8691964e-38
0.12252803 0.16620168 0.041162789 1.4180482e-38
0.1090112 0.15758131 0.049752951 9.9470611e-39
0.15135969 0.053238675 0.044546008 1.5375443e-38
0.15132043 0.055461258 0.043246627 1.7865813e-38
0.15221408 0.058108978 0.042259455 2.1645472e-38
0.1520277 0.18024923 0.053867161 2.1460013e-38
0.15175769 0.18283629 0.056308508 2.2845421e-38
0.15177701 0.18563484 0.056904674 1.1867703e-38
0.14686853 0.052849449 0.04300195 1.500628e-38
0.14748017 0.055200338 0.0424757 1.8414664e-38
0.14751601 0.18054239 0.053696871 2.0724591e-38
0.14366437 0.035885319 0.04344368 3.3154568e-39
0.14409085 0.052305959 0.042937875 1.7400845e-38
0.14481562 0.1807608 0.056920171 2.0536599e-38
0.14085753 0.026865318 0.042789936 1.4293635e-38
0.14158273 0.036571935 0.043648958 2.7695263e-40
0.13995324 0.048489287 0.04487431 2.0075576e-38
0.14049089 0.05114831 0.043476164 2.0810302e-38
0.13585483 0.048130289 0.044255495 2.2935818e-38
0.13674176 0.050625324 0.043278456 2.3300288e-38
0.13646486 0.1785832 0.056275427 1.8969625e-38
0.13049521 0.044855081 0.045175016 2.1089424e-38
0.1320826 0.047418818 0.043581724 2.2932961e-38
0.13228534 0.17637588 0.054674327 1.8325685e-38
0.13230392 0.17794879 0.057504654 1.8418589e-38
0.12771627 0.044281766 0.044135213 2.0535541e-38
0.1284164 0.046559848 0.042455375 2.2196479e-38
0.12813312 0.17640947 0.055629849 1.8325682e-38
0.12813626 0.17793569 0.057785749 1.8328566e-38
0.12373248 0.043511972 0.04336828 1.9339494e-38
0.12397897 0.17637309 0.055572331 1.8142377e-38
0.12396862 0.17792259 0.058066845 1.8328561e-38
0.11937802 0.040738404 0.044871807 1.7218224e-38
0.11940879 0.043041915 0.043071985 1.8876349e-38
0.11982062 0.17638335 0.056190491 1.6671951e-38
0.1202655 0.17837307 0.058359861 1.5382334e-38
0.11522996 0.040148735 0.044091105 1.7493055e-38
0.11662707 0.042266846 0.043859005 1.8691972e-38
0.11704978 0.17637463 0.056377411 1.4370349e-38
0.11636143 0.177755 0.056553125 1.0784117e-38
0.11153439 0.039234109 0.044088006 1.7493416e-38
0.10754688 0.036464944 0.045944512 1.8045853e-38
0.10831696 0.038498111 0.043565989 1.7396875e-38
0.10737228 0.17351297 0.055758476 1.8817664e-38
0.10407384 0.036454014 0.046178818 1.675979e-38
0.10318471 0.1673162 0.055965722 1.4066401e-38
0.10435589 0.17121767 0.05704248 2.0378813e-38
0.10454227 0.17502017 0.058104515 2.2222e-38
0.1045725 0.17774189 0.057686031 1.6284447e-38
0.099984631 0.036684364 0.044464052 1.8873067e-38
0.1000145 0.038146801 0.043927729 1.8964576e-38
0.098991416 0.16110989 0.05617249 7.083589e-39
0.10170835 0.16745511 0.0585953 1.3334979e-38
0.10171489 0.16953462 0.058789432 1.384052e-38
0.10062014 0.17479926 0.059356153 2.2774835e-38
0.10174112 0.17785272 0.059565902 1.7481598e-38
0.095828369 0.036671296 0.044744432 1.8596877e-38
0.095877655 0.03817369 0.043874919 1.8687992e-38
0.095547102 0.15276612 0.054618478 1.0494456e-38
0.096392132 0.15518248 0.055937886 9.5735842e-39
0.096522413 0.15802351 0.056805968 9.2941261e-39
0.097560361 0.17368057 0.059458733 2.3234019e-38
0.091722757 0.036779985 0.044025958 1.7766395e-38
0.092054263 0.15278029 0.055527508 1.2247214e-38
0.09231481 0.1545822 0.057523906 1.2336885e-38
0.088232391 0.03532663 0.044629753 1.8592906e-38
0.087907657 0.15207064 0.055574298 1.4179022e-38
0.087774672 0.15424113 0.058302939 1.4270141e-38
0.083396614 0.035332009 0.044790089 1.7578807e-38
0.083746821 0.15164676 0.055917144 1.4546746e-38
0.084301621 0.15423022 0.058537126 1.491482e-38
0.079584315 0.034428924 0.045778811 1.6938108e-38
0.078240089 0.14856978 0.055398226 1.5099537e-38
0.079596505 0.15066291 0.056005597 1.4914476e-38
0.0811726 0.15318063 0.058650911 1.5559107e-38
0.075542748 0.035746619 0.045528769 1.7772161e-38
0.075473055 0.14856109 0.055584908 1.5466882e-38
0.076098889 0.15066983 0.056746542 1.5742041e-38
0.077004939 0.15316755 0.058932006 1.5834596e-38
0.071842454 0.035159066 0.046659172 1.6665811e-38
0.071666107 0.038097575 0.045507908 1.6939517e-38
0.072706014 0.14855239 0.05577147 1.6020775e-38
0.072904333 0.15034807 0.057939351 1.6021506e-38
0.0680051 0.035035357 0.047818184 1.5466196e-38
0.068207309 0.038086705 0.0457412 1.6294521e-38
0.063784778 0.03577283 0.048844218 1.436021e-38
0.063494161 0.038853303 0.047306597 1.6202344e-38
0.05936671 0.036089435 0.048166454 1.3718041e-38
0.059798986 0.038611569 0.047534347 1.4086827e-38
0.060299203 0.14678614 0.058028638 1.6387409e-38
0.057036705 0.036549345 0.047360718 1.5466851e-38
0.05534827 0.14436904 0.057059228 1.5834963e-38
0.055864252 0.14626612 0.059047282 1.5651994e-38
0.052191287 0.14393841 0.058742762 1.4639291e-38
0.048262343 0.14438626 0.059050798 1.1052716e-38
0.047518656 0.14612906 0.059767544 1.3081748e-38
0.045494251 0.14645515 0.059431911 1.5399215e-38
0.088069126 0.11639656 0.0064231157 1.8692003e-38
0.089087449 0.1199663 0.0061130524 2.1921707e-38
0.10695179 0.10181464 0.015637934 1.5466193e-38
0.13140684 0.1100719 0.020008862 1.7216104e-38
0.10465671 0.10608513 0.020631015 1.5744202e-38
0.11190763 0.10743321 0.02169311 1.4638938e-38
0.11870684 0.13253383 0.022970617 1.4906181e-38
0.018755257 0.081102021 0.025041282 7.5452692e-39
0.14264178 0.078310788 0.024329364 2.136061e-38
0.08490181 0.052472964 0.029402554 1.9792906e-38
0.15175769 0.18283629 0.056308508 2.2845421e-38
0.12565616 0.045910433 0.042078257 2.1548596e-38
0.11223706 0.16508783 0.048777044 1.4457419e-38
0.15096313 0.023907274 0.04484868 3.125337e-39
0.15137202 0.027189754 0.045128107 2.1180248e-39
0.1513786 0.029277816 0.045322955 6.1705575e-39
0.15069431 0.033451736 0.045759797 1.5664961e-38
0.1514488 0.051550403 0.047402024 1.4459207e-38
0.14716533 0.02021642 0.044760525 9.7536833e-39
0.14784841 0.023837283 0.044046462 1.1088685e-39
0.14785843 0.027313575 0.044371009 4.6933451e-39
0.14859095 0.029965073 0.045576096 1.2267295e-38
0.14790887 0.034834996 0.046078026 1.2349191e-38
0.14722016 0.037616886 0.046384811 3.9492865e-39
0.1479065 0.051046625 0.04558152 1.5006631e-38
0.14832219 0.1829298 0.057892203 2.2565939e-38
0.14835699 0.18578865 0.059164047 1.0487647e-38
0.14436808 0.019543275 0.04466331 5.7013902e-39
0.14434338 0.023964942 0.043289125 2.9463099e-39
0.14436212 0.027391255 0.043943942 1.0796608e-38
0.14420748 0.030635253 0.044677377 1.6328681e-38
0.14496127 0.03436923 0.045428634 1.0787603e-38
0.14440499 0.038462378 0.045312464 1.4708043e-39
0.14423937 0.047869943 0.04639554 1.3443602e-38
0.14373095 0.050339386 0.045798242 1.5929304e-38
0.14522442 0.18269023 0.059589565 2.183412e-38
0.14088599 0.019500658 0.045119047 3.771742e-39
0.14017931 0.023859404 0.044232428 9.9492443e-39
0.14019099 0.027563915 0.044578254 1.6501984e-38
0.14059274 0.030658513 0.044457197 1.3651793e-38
0.14048062 0.034225687 0.044510841 3.7714028e-39
0.13979962 0.043625653 0.047449708 9.6621603e-39
0.14059782 0.046457738 0.046150625 1.6298455e-38
0.13927338 0.180819 0.058307707 2.0077767e-38
0.1374338 0.030625999 0.046393692 6.9024627e-39
0.13744257 0.033410072 0.046653569 1.1023861e-39
0.13589992 0.043378487 0.047187448 1.5841063e-38
0.13676223 0.046152785 0.045878589 2.0999387e-38
0.1357912 0.17941985 0.058412731 1.9062533e-38
0.13623552 0.18151754 0.060592115 1.8790935e-38
0.13118738 0.040350527 0.047726631 1.2341278e-38
0.13188843 0.043263823 0.046801209 1.9620034e-38
0.1323134 0.17940891 0.058647335 1.8604046e-38
0.13266826 0.18118313 0.059292614 1.8145935e-38
0.12770008 0.040339559 0.047961831 1.5384462e-38
0.12770684 0.041959628 0.046099722 1.8602311e-38
0.12814005 0.17939579 0.058928788 1.7222607e-38
0.12814529 0.18083446 0.059734046 1.6208105e-38
0.12324285 0.039907828 0.047015429 1.6853064e-38
0.12396121 0.17943181 0.059886217 1.5380142e-38
0.1253534 0.18092653 0.061273932 1.4367819e-38
0.11934425 0.03907834 0.047067702 1.6575762e-38
0.11840002 0.17867105 0.059520781 1.2806294e-38
0.11655509 0.037680075 0.047125876 1.6294144e-38
0.10396889 0.034696862 0.04904139 1.7768913e-38
0.09908668 0.034681514 0.049370766 1.9335828e-38
0.099791721 0.16777587 0.06043303 1.1689378e-38
0.10010841 0.1711674 0.06030935 1.7341084e-38
0.099957861 0.17548956 0.06047231 2.074941e-38
0.096296847 0.034672745 0.049558878 1.8780195e-38
0.095339969 0.1592105 0.0602687 1.0588787e-38
0.097500436 0.16819362 0.059956253 7.4390423e-39
0.097161397 0.17096902 0.060238838 1.2735997e-38
0.092112079 0.034659594 0.049841106 1.8778746e-38
0.091201015 0.15567975 0.059212148 1.2887892e-38
0.092524506 0.15783323 0.060833991 1.2336513e-38
0.088418782 0.155671 0.059399784 1.4177234e-38
0.089360721 0.15749699 0.0615201 1.3993544e-38
0.084940985 0.15566008 0.059634387 1.4821901e-38
0.084826142 0.15713474 0.061793327 1.5836393e-38
0.080487639 0.15509078 0.05988282 1.5928237e-38
0.080641389 0.15712157 0.062075615 1.6573953e-38
0.0763143 0.15507767 0.060164213 1.6020775e-38
0.077154085 0.15711062 0.062310755 1.6575051e-38
0.071633592 0.15148935 0.06115222 1.6481432e-38
0.072802059 0.15381053 0.061290205 1.6484263e-38
0.067858115 0.032053873 0.049227118 1.5733781e-38
0.068996578 0.15058884 0.062253237 1.6113342e-38
0.069468856 0.15291038 0.062438369 1.6751888e-38
0.064291663 0.031915374 0.050462306 1.5832073e-38
0.064154305 0.033893198 0.049650013 1.4350514e-38
0.060215712 0.034806304 0.050002277 1.4628132e-38
0.059819132 0.14912529 0.061395764 1.5836747e-38
0.055701226 0.14723876 0.060827136 1.5925691e-38
0.056901433 0.1486948 0.062895298 1.5194595e-38
0.052596912 0.14668575 0.061388373 1.3717374e-38
0.049527436 0.14679678 0.062546134 1.3171044e-38
0.047834463 0.14866629 0.063506901 1.4190608e-38
0.093213774 0.12774326 0.0066329241 2.2948797e-38
0.093848176 0.13715354 0.0075039268 2.2570283e-38
0.12715237 0.11461752 0.016695678 2.044512e-38
0.10375132 0.10667555 0.015942454 1.5559465e-38
0.058321185 0.098835044 0.014848471 9.383861e-39
0.11570275 0.13053411 0.023238659 2.0719145e-38
0.11555696 0.081972905 0.019442797 2.0164573e-38
0.099461354 0.099865526 0.020376801 1.5927521e-38
0.037822843 0.11070698 0.02640754 9.2019108e-39
0.054549739 0.063947618 0.024926305 1.7950441e-38
0.038703382 0.05730623 0.029404938 1.0680271e-38
0.083016947 0.049792677 0.031732976 1.9609591e-38
0.087606624 0.051578201 0.029191494 2.016312e-38
0.14435275 0.025678091 0.043616533 6.8253619e-39
0.14423937 0.047869943 0.04639554 1.3443602e-38
0.14483547 0.028303623 0.045943558 1.1517987e-38
0.14588645 0.037458993 0.047011793 6.1695682e-39
0.14415166 0.043893501 0.049445033 1.0776062e-38
0.1486925 0.01524964 0.049561262 1.6405455e-38
0.14901955 0.018996328 0.046821773 1.6134953e-38
0.14864329 0.029007047 0.047496259 9.5032545e-39
0.14865033 0.031240366 0.047704697 1.5302644e-38
0.15006182 0.035292678 0.047988236 1.2625402e-38
0.14878443 0.04256703 0.052334428 1.5626482e-39
0.14875862 0.04692708 0.051290095 9.7647858e-39
0.14940864 0.049946696 0.049403489 1.4181195e-38
0.14426377 0.014964819 0.048114896 1.6870025e-38
0.14585465 0.031789914 0.047945499 1.6508396e-38
0.14527193 0.039699338 0.052751541 1.2892857e-39
0.14452185 0.04280214 0.050408185 2.8483423e-39
0.1451993 0.045746014 0.049295604 7.925873e-39
0.14423613 0.18392879 0.062289119 2.2197097e-38
0.14495409 0.18538108 0.063047409 1.4168596e-38
0.13990517 0.011302039 0.050206602 1.2347401e-38
0.14022495 0.014854237 0.047860861 5.701791e-39
0.13882145 0.019205451 0.047244608 3.67811e-39
0.13884786 0.02758044 0.048026323 1.6128151e-38
0.13885885 0.031070009 0.048352003 8.2853944e-39
0.13958681 0.040145099 0.049151778 2.4809947e-39
0.1412245 0.042011343 0.049215436 3.122767e-39
0.14074539 0.18325964 0.062966228 2.0172092e-38
0.14077002 0.18544924 0.06434387 1.4066747e-38
0.13462277 0.0073876083 0.050449848 1.8371079e-39
0.13603164 0.010302261 0.049956024 3.5870256e-39
0.13602091 0.014859155 0.048034251 3.7721091e-39
0.13603012 0.01910045 0.048094809 1.0312597e-38
0.13604107 0.023322746 0.048265398 1.9071162e-38
0.13588065 0.027313292 0.048831403 1.242952e-38
0.13578656 0.030843638 0.049142957 1.6545019e-39
0.13537279 0.033090085 0.049280405 1.562281e-39
0.13609001 0.04013411 0.049387634 6.2484025e-39
0.13749313 0.041534334 0.049423575 6.801977e-39
0.13689668 0.18359648 0.063258469 1.7213955e-38
0.13655841 0.18538179 0.06395185 1.3438983e-38
0.13321644 0.0073831975 0.050544679 2.0272431e-39
0.13221809 0.010476053 0.050326526 4.7887806e-39
0.13182323 0.014645271 0.049640775 7.0029148e-39
0.13183394 0.0189429 0.049370944 1.2806558e-38
0.13184717 0.023139872 0.049762726 1.1696275e-38
0.13186379 0.027248628 0.050817132 2.7601264e-39
0.13187601 0.030684873 0.051641107 1.8388721e-39
