# .PCD v0.7 - Point Cloud Data file format
VERSION 0.7
FIELDS x y z rgb
SIZE 4 4 4 4
TYPE F F F F
COUNT 1 1 1 1
WIDTH 981
HEIGHT 1
VIEWPOINT 0 0 0 0 1 0 0
POINTS 981
DATA ascii
0.14474672 0.10179499 0.025232971 1.2153979e-38
0.14529485 0.10508117 0.025137901 1.3173886e-38
0.13675335 0.039010227 0.046586871 1.4543151e-38
0.13668081 0.041419402 0.044365227 1.4083597e-38
0.13990402 0.091360837 0.024615645 1.1416032e-38
0.14073396 0.09436357 0.024210632 1.1600424e-38
0.14072776 0.098152637 0.024304152 1.0400455e-38
0.14086744 0.10115948 0.024755955 8.2817468e-39
0.13393357 0.042863235 0.043072939 1.2240771e-38
0.13255471 0.046171278 0.041523814 9.6582241e-39
0.13559985 0.085128099 0.028611422 1.1509646e-38
0.13607153 0.087547034 0.026743531 1.1877368e-38
0.13712719 0.090255767 0.024628937 1.1786263e-38
0.13695729 0.094234943 0.024070382 1.2245105e-38
0.13678738 0.098222613 0.02350843 1.1139802e-38
0.13126025 0.049508929 0.039136827 8.4514062e-39
0.13256043 0.053659096 0.035812438 7.3634128e-39
0.13096842 0.05671075 0.036282659 7.4552638e-39
0.13029861 0.060055733 0.035881162 7.27122e-39
0.13286951 0.08855474 0.026159346 1.1965623e-38
0.1327073 0.090714663 0.02463311 1.1784128e-38
0.13279939 0.094479114 0.023627758 1.2244746e-38
0.12886214 0.090687901 0.023658812 1.1690508e-38
0.12911421 0.094320804 0.022387564 1.2612451e-38
0.12920663 0.097792029 0.021110296 1.5099201e-38
0.12888575 0.1012949 0.019646466 1.1778712e-38
0.12553531 0.094073296 0.020970583 1.2794689e-38
0.12584203 0.09766075 0.019611835 1.6943472e-38
0.12648463 0.10094056 0.018048584 1.3257054e-38
0.12034342 0.087688357 0.021199882 1.2056765e-38
0.1217044 0.090192854 0.02082485 1.1963843e-38
0.12195647 0.093825758 0.019553602 1.3162391e-38
0.12226355 0.097413272 0.018195033 1.8325678e-38
0.11915046 0.087605864 0.020727515 1.2241159e-38
0.11793745 0.089889288 0.019234657 1.2793254e-38
0.11811653 0.093269616 0.01737684 1.3991454e-38
0.11837113 0.096923828 0.016447127 1.9527453e-38
0.1182808 0.1003384 0.01495707 1.7026649e-38
0.11405939 0.086952448 0.018826067 1.5097754e-38
0.11415759 0.089357823 0.017119229 1.6292726e-38
0.11516079 0.091938943 0.0147174 1.6751929e-38
0.11561292 0.096341968 0.014196634 2.1642916e-38
0.11677819 0.09875986 0.012047052 2.0254208e-38
0.1102581 0.085728258 0.016880751 1.8139513e-38
0.11141819 0.088536173 0.015385926 1.9887641e-38
0.11267152 0.090677112 0.013378441 1.9609605e-38
0.10577586 0.083065301 0.016803086 1.9427359e-38
0.10698101 0.084486157 0.014802098 2.044043e-38
0.10237262 0.082689494 0.015125692 2.0807418e-38
0.10417387 0.083190501 0.012630045 2.1176564e-38
0.098794311 0.082442015 0.013708949 1.6752959e-38
0.099664032 0.083397001 0.011567771 1.666257e-38
0.096232176 0.082405239 0.01302439 1.2223528e-38
0.09635821 0.084221691 0.012388825 1.2785746e-38
0.15682378 0.049185604 0.037403762 1.592573e-38
0.18482065 0.064657211 0.041059911 1.546655e-38
0.1857121 0.062107861 0.040619075 1.6203401e-38
0.19659078 0.065133765 0.042347252 1.5925726e-38
0.18681598 0.077501088 0.038348436 1.4362712e-38
0.18531564 0.069187313 0.041049302 1.4363063e-38
0.18612587 0.087239027 0.034951985 1.2337641e-38
0.16747725 0.09773466 0.029504895 1.519321e-38
0.15145442 0.044300377 0.040183306 1.7034226e-38
0.097071171 0.086692899 0.0064966679 1.4355171e-38
0.15523356 0.098488003 0.028597593 1.4087932e-38
0.20054826 0.12021515 0.043874741 2.2580729e-38
0.20004332 0.12305251 0.044556558 2.24907e-38
0.19722071 0.11938152 0.042786062 2.238699e-38
0.19597512 0.12278864 0.04425329 2.2664297e-38
0.19397727 0.11976066 0.041272998 2.1735134e-38
0.19207266 0.12181935 0.042850196 2.1734767e-38
0.18979573 0.11947146 0.039617479 2.0534454e-38
0.18871704 0.12231031 0.041534841 2.0905731e-38
0.18740627 0.11930618 0.038671374 1.9156895e-38
0.18495643 0.12189937 0.040103078 1.9339483e-38
0.18149579 0.12150851 0.038790286 1.8416447e-38
0.17187178 0.02705276 0.068591416 1.5745291e-38
0.18023789 0.11881039 0.03583318 1.7405549e-38
0.17795062 0.12098303 0.037301362 1.7955841e-38
0.1674009 0.027019799 0.06809622 1.6575049e-38
0.16803777 0.028652787 0.06487149 1.740229e-38
0.1729854 0.11710182 0.033419371 1.73119e-38
0.17373955 0.1204119 0.035548568 1.7495204e-38
0.16478953 0.024906859 0.069519758 1.6576482e-38
0.16337711 0.027316183 0.067681313 1.7677439e-38
0.16370815 0.029437587 0.064815581 1.795439e-38
0.16923293 0.1144284 0.032849014 1.5193185e-38
0.17015335 0.1166088 0.032870591 1.703461e-38
0.16988251 0.12061217 0.034371316 1.7681036e-38
0.15957099 0.029837012 0.063968897 1.8874535e-38
0.16739875 0.11369804 0.032351673 1.5381173e-38
0.16582379 0.11659151 0.033176482 1.6760159e-38
0.16591364 0.11988932 0.033286214 1.7955825e-38
0.15633613 0.029830933 0.062167406 1.9701067e-38
0.16198042 0.1127198 0.030435145 1.5837837e-38
0.1622344 0.11633334 0.032110393 1.7034939e-38
0.16177705 0.1193971 0.032416284 1.8139856e-38
0.15242457 0.027693897 0.063242853 2.0071996e-38
0.15244031 0.029785991 0.061306357 1.9699619e-38
0.15318501 0.031648636 0.057465076 1.9332272e-38
0.15938568 0.11302313 0.029224753 1.6205198e-38
0.15882543 0.11645094 0.030644953 1.7311545e-38
0.14865649 0.030299827 0.060089111 1.9240097e-38
0.14989907 0.032641262 0.057106733 1.8964576e-38
0.15599275 0.11210454 0.028140724 1.5836071e-38
0.15492436 0.11595345 0.029104531 1.6851638e-38
0.14486682 0.030813411 0.058869302 1.8778766e-38
0.145596 0.032874525 0.056990206 1.8596888e-38
0.14626908 0.034791112 0.053353786 1.8228107e-38
0.15222991 0.11159489 0.027128756 1.6022249e-38
0.15129107 0.11573055 0.028102338 1.6944907e-38
0.14168802 0.032831714 0.056123197 1.804551e-38
0.14295483 0.035164952 0.053154349 1.7860744e-38
0.14810246 0.11121953 0.026438832 1.4919834e-38
0.1474635 0.11550048 0.027522862 1.4461364e-38
0.13830358 0.033379018 0.054665744 1.7029183e-38
0.13897234 0.035544828 0.051999629 1.6295924e-38
0.13832948 0.037460476 0.048989773 1.5558726e-38
0.14310032 0.10336769 0.026011169 1.0958978e-38
0.14377654 0.10778886 0.026536286 1.0681001e-38
0.14381129 0.11159 0.026929915 1.0587694e-38
0.14469796 0.11457357 0.027035296 1.1235563e-38
0.13490546 0.033766687 0.053544044 1.7030995e-38
0.13489461 0.035885692 0.051713884 1.5465473e-38
0.13493133 0.03848049 0.048318148 1.4451309e-38
0.13985169 0.10346958 0.025586545 7.3597891e-39
0.13983023 0.10781559 0.026648581 6.9913751e-39
0.13956073 0.11163831 0.025979519 5.8911428e-39
0.13151169 0.036567166 0.051049352 1.4913369e-38
0.13188058 0.03921707 0.048858821 1.3805929e-38
0.13177243 0.041977882 0.045945764 1.2420836e-38
0.13023189 0.046678945 0.044375062 1.0119571e-38
0.13313687 0.085849971 0.033046961 1.0866058e-38
0.13305897 0.087426692 0.030116558 1.1693728e-38
0.1356971 0.10337868 0.0249511 7.6378123e-39
0.13625577 0.11140972 0.024671018 7.7310911e-39
0.13628539 0.11399171 0.023704469 8.6480042e-39
0.12805516 0.043904871 0.046577573 1.2424076e-38
0.12799227 0.047492832 0.044270754 1.0858574e-38
0.12756738 0.050717115 0.042211652 1.0856032e-38
0.12754229 0.054547787 0.040830612 9.6575108e-39
0.12795925 0.057529807 0.038725972 8.3718237e-39
0.12873948 0.06142965 0.036426663 7.8222204e-39
0.12806031 0.06568262 0.037401676 7.5484851e-39
0.12880355 0.069362491 0.037469804 7.0875126e-39
0.13101518 0.086099654 0.031481683 1.0492644e-38
0.13103244 0.08772561 0.027997971 1.1688315e-38
0.13172513 0.099362403 0.022727728 1.2337617e-38
0.13177854 0.10303551 0.023944497 9.1125767e-39
0.12510777 0.044825181 0.045214355 1.4177221e-38
0.12438935 0.047878116 0.043753266 1.3255612e-38
0.12361041 0.051155448 0.042053938 1.2427296e-38
0.12429962 0.054511786 0.040050089 1.1690453e-38
0.12455314 0.058166221 0.038771331 1.0674526e-38
0.12469792 0.061899215 0.037672281 9.4788607e-39
0.12501872 0.065377519 0.03738308 8.743462e-39
0.12718707 0.069048315 0.036906481 7.9151279e-39
0.12646317 0.085699469 0.030031145 1.0487978e-38
0.12731394 0.08809647 0.027053952 1.1684022e-38
0.13016021 0.099656492 0.021955609 1.3717309e-38
0.13028643 0.10147563 0.021319091 1.0673793e-38
0.11969689 0.047283769 0.041997671 1.4731111e-38
0.11997497 0.051292166 0.040595114 1.3438232e-38
0.120534 0.054376304 0.038895071 1.2702849e-38
0.12089798 0.057955861 0.03743571 1.2242912e-38
0.12082195 0.061845154 0.036695421 1.1507513e-38
0.12208363 0.064446062 0.036497235 1.049373e-38
0.1225394 0.084929973 0.028410912 1.1041166e-38
0.12383011 0.087761074 0.025454938 1.1593993e-38
0.11763185 0.051997289 0.039338529 1.3439297e-38
0.11720023 0.054395616 0.03824687 1.297907e-38
0.11745414 0.058055431 0.036966205 1.2336925e-38
0.11822432 0.060536876 0.036350369 1.2061773e-38
0.11911675 0.084385216 0.026993692 1.1595054e-38
0.1207847 0.087052137 0.023495913 1.1963481e-38
0.11519802 0.083976597 0.025661588 1.2147866e-38
0.1168972 0.08678326 0.021956742 1.233299e-38
0.11178651 0.084139615 0.024043322 1.3621193e-38
0.11397582 0.085743517 0.020399153 1.4267987e-38
0.10764521 0.080444604 0.024335086 1.4083606e-38
0.108156 0.083270162 0.022808492 1.4725033e-38
0.11071637 0.085035264 0.019291639 1.6385621e-38
0.10481989 0.082737327 0.021227539 1.7027783e-38
0.1001949 0.079588622 0.021131217 2.1083649e-38
0.10168618 0.082107633 0.018889189 2.1084721e-38
0.097064406 0.079528123 0.019704759 1.9056042e-38
0.097842842 0.081399351 0.016221285 1.6384537e-38
0.093958139 0.079393983 0.018667877 1.3892359e-38
0.093436927 0.081818014 0.016666412 1.158353e-38
0.09355855 0.085299879 0.014247417 1.0673142e-38
0.091158599 0.084160656 0.015965879 1.1039739e-38
0.091048598 0.086884737 0.014886439 1.1963464e-38
0.19534367 0.082802892 0.037659645 1.3535457e-38
0.18498585 0.10687068 0.036999524 1.7682477e-38
0.16504428 0.094757855 0.028766692 1.3995373e-38
0.19392627 0.12667671 0.046677291 2.2574981e-38
0.19108361 0.1249477 0.045366466 2.2195382e-38
0.1900923 0.12594032 0.044188321 2.173801e-38
0.18759674 0.12455004 0.043662012 2.0906443e-38
0.18728724 0.12621751 0.044048727 2.1090136e-38
0.18406564 0.12552348 0.041802108 2.0809603e-38
0.18044963 0.12527338 0.040370464 1.8970704e-38
0.17614609 0.12375805 0.039128304 1.8413924e-38
0.17695063 0.1255714 0.039355159 1.8877058e-38
0.17373544 0.1235913 0.038173854 1.8322451e-38
0.17280203 0.12521565 0.038313568 1.9150054e-38
0.16160524 0.026557565 0.069849133 1.8136611e-38
0.16831145 0.12321615 0.036026299 1.8509715e-38
0.15850216 0.027692169 0.068568885 1.8413205e-38
0.16527689 0.12270188 0.034940183 1.841609e-38
0.15466329 0.027441263 0.067094445 2.0070561e-38
0.16140261 0.12205938 0.034123182 1.869159e-38
0.15066272 0.027150095 0.065464854 2.0163469e-38
0.15711671 0.12084925 0.03277272 1.8601199e-38
0.14685741 0.028304815 0.064110279 1.9884361e-38
0.14724416 0.029328495 0.063118875 1.9607429e-38
0.15338138 0.12032881 0.031048298 1.8234592e-38
0.14388877 0.029849261 0.061581552 1.8965655e-38
0.1501573 0.12019938 0.029966235 1.787082e-38
0.14026281 0.030884311 0.059888244 1.8506125e-38
0.14575815 0.11800331 0.028481901 1.2891887e-38
0.14614183 0.1195581 0.028820813 1.2799351e-38
0.13745567 0.031312868 0.059000611 1.7949375e-38
0.13640481 0.032509685 0.057240784 1.7398697e-38
0.14128479 0.11404094 0.02809602 8.2846082e-39
0.1423308 0.11687908 0.028282642 9.116157e-39
0.13293925 0.032847479 0.055690825 1.7216461e-38
0.14007947 0.11395758 0.027618766 6.9035277e-39
0.13838097 0.1161007 0.026663899 7.3612184e-39
0.13754112 0.11911851 0.025739789 6.7104498e-39
0.12994146 0.033756077 0.054614484 1.7030628e-38
0.1294674 0.036293432 0.052877247 1.5556947e-38
0.12891704 0.039517373 0.051134944 1.3715182e-38
0.13210037 0.085399628 0.035079777 1.0311802e-38
0.13663325 0.11615452 0.025330842 8.0015432e-39
0.12705934 0.037300736 0.052340984 1.5648792e-38
0.12640715 0.040324807 0.050487816 1.518815e-38
0.12611592 0.042367771 0.048871458 1.4544964e-38
0.12767157 0.072097123 0.039404273 6.5347172e-39
0.1277566 0.073322445 0.038975477 6.1666535e-39
0.12940747 0.084812492 0.034740508 9.2948085e-39
0.12273592 0.040781975 0.049195707 1.7399386e-38
0.12276602 0.043607444 0.047370493 1.6202654e-38
0.12223685 0.046970099 0.045488596 1.3899219e-38
0.1236375 0.067158282 0.038424432 8.7413138e-39
0.1245836 0.070555568 0.037864149 8.0069774e-39
0.12534237 0.073155493 0.038019717 7.3641135e-39
0.12578884 0.084562212 0.033307731 9.5678179e-39
0.11890718 0.041004926 0.047494829 1.7400845e-38
0.1194903 0.043824822 0.045809388 1.6755473e-38
0.12107393 0.047498479 0.044797361 1.427158e-38
0.12008083 0.050473928 0.043249726 1.3899545e-38
0.12089565 0.066819936 0.03772378 1.0034188e-38
0.12132156 0.070032015 0.03750664 9.2044276e-39
0.12119409 0.082624108 0.032677829 1.0488315e-38
0.12237284 0.083509177 0.031690061 1.0305006e-38
0.11554003 0.043790609 0.044921219 1.6569289e-38
0.1156089 0.047790021 0.042571306 1.4818298e-38
0.11603624 0.051067248 0.041508973 1.390028e-38
0.11650765 0.062724367 0.037325799 1.1600469e-38
0.11749208 0.06591399 0.036876798 1.0954712e-38
0.11808503 0.081419736 0.031493545 1.1225167e-38
0.11875683 0.083259076 0.030258358 1.1223745e-38
0.11242482 0.04404068 0.043606937 1.6013257e-38
0.11239824 0.047709346 0.041693568 1.4816493e-38
0.11241129 0.051338702 0.03989321 1.3898522e-38
0.11301991 0.054981157 0.038943052 1.3072709e-38
0.11333102 0.058568582 0.037905633 1.2336204e-38
0.11390209 0.062364802 0.03728193 1.1691205e-38
0.11457196 0.065093905 0.036529839 1.1226634e-38
0.11433783 0.080969542 0.030180871 1.2054573e-38
0.11574352 0.083050638 0.029065251 1.2054938e-38
0.10980299 0.048301592 0.040884316 1.4628518e-38
0.10860723 0.051267505 0.039254904 1.4082182e-38
0.10994753 0.054713666 0.038513839 1.2978738e-38
0.11067873 0.078238487 0.029901683 1.2976157e-38
0.11016521 0.080455691 0.028635085 1.3160917e-38
0.1103195 0.082675487 0.026917756 1.3344965e-38
0.10645387 0.077946275 0.028228939 1.4449867e-38
0.10633081 0.079966277 0.02669239 1.4173645e-38
0.10274476 0.079853147 0.025173545 1.7212502e-38
0.097400606 0.077320099 0.024644494 2.0900323e-38
0.099146336 0.078862041 0.024509192 2.0991799e-38
0.094382882 0.077111393 0.0234496 1.9424827e-38
0.09542498 0.078129202 0.022737145 1.9790376e-38
0.091968685 0.076944381 0.02249378 1.5739934e-38
0.091597497 0.078866303 0.020918429 1.4260076e-38
0.08920595 0.080411643 0.020012677 1.177083e-38
0.089041293 0.082630277 0.018526912 1.149961e-38
0.088315874 0.086924046 0.016477466 1.1966353e-38
0.088398665 0.09090057 0.014544487 1.3989989e-38
0.19000626 0.077998608 0.036906898 1.2059985e-38
0.20474741 0.074525625 0.042277157 1.1508599e-38
0.17275977 0.039490417 0.055196226 1.8600116e-38
0.1934135 0.12956402 0.049007118 2.2672215e-38
0.19032815 0.12880671 0.046793878 2.2660699e-38
0.19120973 0.13157701 0.047121704 2.2957064e-38
0.18649495 0.12909895 0.045304537 2.2105014e-38
0.18292785 0.12877306 0.043730497 2.1274537e-38
0.18232358 0.131439 0.044572413 2.2195043e-38
0.17963299 0.12814948 0.041617811 1.9982701e-38
0.1788778 0.13121468 0.042053044 2.1364199e-38
0.17590746 0.12785566 0.039773166 1.9524224e-38
0.17531186 0.1306363 0.041150272 2.0444017e-38
0.1720975 0.12794429 0.039281011 1.9430596e-38
0.17220986 0.13050118 0.040083587 1.9803324e-38
0.16823745 0.12727708 0.038415372 1.9707165e-38
0.16450828 0.1271247 0.037154496 1.9246188e-38
0.16532522 0.1302633 0.037842214 1.9986245e-38
0.16081706 0.12363675 0.03500247 1.8691948e-38
0.16063252 0.12711868 0.036159396 1.8785583e-38
0.15026307 0.026429921 0.06740886 2.0347508e-38
0.15750355 0.12372056 0.034338415 1.8968544e-38
0.15683067 0.12637371 0.03515619 1.8510058e-38
0.14539349 0.025851801 0.069021702 2.0530851e-38
0.146164 0.027141899 0.066328287 2.0436811e-38
0.15322614 0.12333697 0.033061445 1.869448e-38
0.15307376 0.12557912 0.03406322 1.8879215e-38
0.14258569 0.027485847 0.06504488 1.9514512e-38
0.14165351 0.0294981 0.062610686 1.9058207e-38
0.14810967 0.12339059 0.03203088 1.7409487e-38
0.15049866 0.12555805 0.033367217 1.9340927e-38
0.13837034 0.027806759 0.064740598 1.9240093e-38
0.13872188 0.029767543 0.061845899 1.8781245e-38
0.14460298 0.12299836 0.031082571 1.1324254e-38
0.14321363 0.12505421 0.030482829 9.6715532e-39
0.13439763 0.028464377 0.063388884 1.9333698e-38
0.13494542 0.030520827 0.060828209 1.832244e-38
0.14061534 0.11857581 0.028393209 9.3913187e-39
0.14133003 0.12174463 0.029154122 9.7601209e-39
0.14199948 0.12497023 0.030002117 1.0497338e-38
0.12986585 0.028457567 0.061478317 1.9611012e-38
0.13138232 0.030492216 0.059558332 1.8506116e-38
0.13897514 0.11805531 0.027898133 7.9162111e-39
0.1379661 0.12184867 0.028525054 7.2733738e-39
0.13839972 0.12533453 0.028344333 1.4835145e-38
0.12804464 0.028331608 0.060757279 2.016095e-38
0.12746358 0.030687496 0.058899999 1.8596874e-38
0.12817889 0.032962561 0.055608511 1.7215026e-38
0.12765792 0.035857439 0.054290771 1.6110122e-38
0.12405157 0.031735167 0.057780921 1.8134498e-38
0.12438259 0.033937499 0.055648208 1.739654e-38
0.12469035 0.036895841 0.053301275 1.6569665e-38
0.12428674 0.039287955 0.05156666 1.6391707e-38
0.12692136 0.07589981 0.039945245 6.1673598e-39
0.12692538 0.079538673 0.03971678 6.8091292e-39
0.1200971 0.034471005 0.054882407 1.767564e-38
0.12137216 0.036873609 0.052018404 1.7216461e-38
0.12158805 0.039406613 0.050382376 1.7401187e-38
0.12391254 0.075257093 0.038425863 7.271185e-39
0.12362239 0.079135209 0.038475335 7.3601366e-39
0.12452528 0.082321107 0.036115468 8.5565358e-39
0.11641598 0.034886807 0.05336225 1.7674926e-38
0.117412 0.036830544 0.051129401 1.7400848e-38
0.11828497 0.039483458 0.048958778 1.7401198e-38
0.11970684 0.071537226 0.037403941 9.3877314e-39
0.12071139 0.074456245 0.03672117 8.6505167e-39
0.12009463 0.07880038 0.036857486 9.201887e-39
0.12137058 0.081480294 0.034335852 9.9362136e-39
0.11277348 0.034634858 0.051920056 1.7399423e-38
0.11458942 0.039916217 0.04749012 1.7307213e-38
0.11622778 0.067632914 0.037415743 1.0858198e-38
0.11682937 0.070524067 0.03657341 1.0581259e-38
0.11697489 0.074287444 0.035463214 1.0858191e-38
0.11712047 0.078052044 0.03435272 1.1135139e-38
0.11811489 0.080382794 0.033377588 1.1042561e-38
0.11034513 0.034466922 0.050958693 1.6937712e-38
0.10965404 0.036895066 0.049314916 1.7119236e-38
0.11051247 0.03994599 0.046779692 1.6749743e-38
0.11060444 0.04322654 0.04429698 1.6107245e-38
0.11131281 0.060372695 0.038094044 1.2151448e-38
0.11180657 0.063154608 0.037247598 1.1782685e-38
0.11280689 0.066734836 0.036312222 1.1504649e-38
0.11320275 0.070273235 0.035137534 1.1596496e-38
0.11345819 0.073954552 0.033849359 1.1686891e-38
0.11371362 0.077635914 0.032561123 1.1871623e-38
0.10695916 0.037912473 0.048222601 1.7209999e-38
0.10633308 0.040299594 0.046478212 1.6751174e-38
0.10740525 0.043852955 0.043475389 1.6013963e-38
0.10768613 0.047735155 0.041355312 1.4905469e-38
0.10700512 0.050304934 0.040093243 1.4449156e-38
0.10784626 0.055492282 0.038481295 1.2976583e-38
0.10880995 0.058978349 0.037566125 1.2609214e-38
0.10906535 0.062659711 0.036278009 1.2610639e-38
0.10932076 0.066341028 0.034989834 1.2426251e-38
0.10957617 0.070022374 0.033701599 1.2335493e-38
0.10983157 0.073703736 0.032413483 1.2610267e-38
0.11006266 0.077034503 0.031248033 1.2885046e-38
0.1035732 0.041358024 0.045486629 1.6751902e-38
0.10333782 0.044345632 0.042874515 1.62902e-38
0.10372925 0.048121408 0.041071475 1.5368945e-38
0.10467252 0.051364839 0.038706601 1.4543142e-38
0.10492793 0.055046186 0.037418485 1.3530441e-38
0.10518333 0.058727518 0.03613025 1.3530438e-38
0.10543874 0.062408864 0.034842074 1.3622286e-38
0.10569417 0.066090196 0.033553958 1.3162737e-38
0.10594958 0.069771558 0.032265723 1.270355e-38
0.10620499 0.07345289 0.030977547 1.325529e-38
0.10660878 0.076795608 0.029880464 1.417507e-38
0.099395603 0.04472211 0.041872442 1.6474608e-38
0.099691868 0.048125207 0.040259838 1.5922861e-38
0.10035264 0.051558703 0.038342535 1.5278562e-38
0.10105956 0.054778636 0.035886824 1.4817586e-38
0.10155672 0.058476686 0.034694374 1.3898864e-38
0.1012077 0.062116235 0.033166885 1.3898513e-38
0.1016202 0.065697432 0.031983018 1.3439327e-38
0.1014016 0.070161864 0.032241881 1.2703928e-38
0.10154304 0.073933691 0.031126678 1.3530078e-38
0.10218593 0.077285618 0.02874738 1.6016462e-38
0.095624685 0.045223966 0.04066509 1.6474971e-38
0.09587881 0.047982484 0.039087594 1.6474969e-38
0.096368849 0.051529467 0.037438214 1.5829593e-38
0.096473485 0.055211097 0.036086321 1.5186386e-38
0.096997708 0.058836877 0.034677267 1.4359833e-38
0.097117156 0.061680645 0.031605184 1.4359108e-38
0.09731245 0.06590271 0.031236351 1.3714835e-38
0.097591341 0.070030212 0.031066418 1.3162385e-38
0.097614646 0.073884904 0.030125499 1.3436806e-38
0.098261416 0.077023655 0.027994692 1.7952933e-38
0.09269017 0.048210114 0.038293898 1.5925006e-38
0.092562079 0.051650196 0.03650409 1.5832094e-38
0.092987835 0.054970026 0.034706235 1.5095617e-38
0.093243986 0.058662117 0.033414304 1.4267294e-38
0.093165934 0.062506109 0.031923711 1.417436e-38
0.093549103 0.066234201 0.030815423 1.3715544e-38
0.094035953 0.069596022 0.030368984 1.3254544e-38
0.094260186 0.074322253 0.029054642 1.3251341e-38
0.094575465 0.076717347 0.026965439 1.8963863e-38
0.08925119 0.052633271 0.035164714 1.528106e-38
0.089149833 0.054904193 0.034260809 1.500269e-38
0.089234114 0.058918312 0.03277415 1.426622e-38
0.08932817 0.062451258 0.031474233 1.4173307e-38
0.09047401 0.065903604 0.030648649 1.3346429e-38
0.09096992 0.068697721 0.029798508 1.2887212e-38
0.091397464 0.074860185 0.027642131 1.2324039e-38
0.091180682 0.076483339 0.024635613 1.527859e-38
0.08970657 0.078417927 0.022129774 1.2887955e-38
0.086301267 0.053655803 0.033531606 1.4268367e-38
0.086524904 0.080066293 0.021968424 1.3069454e-38
0.08605957 0.083329052 0.019494474 1.1409561e-38
0.086633384 0.086143315 0.017902792 1.1140547e-38
0.082761526 0.08100909 0.021664619 1.3071937e-38
0.083064646 0.083678812 0.019630432 1.1413161e-38
0.08341074 0.087188333 0.01793468 1.1231315e-38
0.084109068 0.090518773 0.016327798 1.3070906e-38
0.08443287 0.093980104 0.016301692 1.3805953e-38
0.080051005 0.081128269 0.020475209 1.1870886e-38
0.079592973 0.083856374 0.019247234 1.1319867e-38
0.079771996 0.087407231 0.017593086 1.1688676e-38
0.080341876 0.091196567 0.01658833 1.27961e-38
0.077254981 0.080014944 0.019716978 1.1504625e-38
0.077725351 0.086793691 0.017344892 1.1689741e-38
0.19036961 0.069234654 0.039650917 1.2703194e-38
0.19062796 0.073023856 0.038418949 1.1967417e-38
0.186331 0.090162754 0.034473717 1.2614239e-38
0.16558188 0.094419956 0.02791971 1.3995016e-38
0.18856129 0.13365743 0.048894048 2.3043136e-38
0.18782976 0.13612419 0.04856962 2.3127387e-38
0.18482694 0.13365883 0.048236847 2.2848319e-38
0.18517253 0.13600993 0.048640966 2.322357e-38
0.18134505 0.13387367 0.046302319 2.3023379e-38
0.18089816 0.13571432 0.046948671 2.3218194e-38
0.17917526 0.13340458 0.04479748 2.2375117e-38
0.17750466 0.13515946 0.044959843 2.2475202e-38
0.17416781 0.13321775 0.04313767 2.1180872e-38
0.17370677 0.13505682 0.043778598 2.1185196e-38
0.16990986 0.13293466 0.042213976 1.9892654e-38
0.1711283 0.13503855 0.043080389 2.0626989e-38
0.16653544 0.13239342 0.040994704 1.9801529e-38
0.16255599 0.1323368 0.0395661 1.9892645e-38
0.16257963 0.13444731 0.03969568 2.0723149e-38
0.15586737 0.12933218 0.036502063 1.8049461e-38
0.15543076 0.12977684 0.037298977 1.7406973e-38
0.15183321 0.12813842 0.036018312 1.8879568e-38
0.15147716 0.12981993 0.036380053 1.897105e-38
0.14801824 0.12725633 0.034435689 1.8235998e-38
0.14785877 0.13018629 0.034713745 1.7774325e-38
0.13736069 0.02560541 0.068981826 1.9793285e-38
0.13665801 0.027131021 0.067148387 1.9518843e-38
0.14432704 0.12716153 0.033603132 1.1417514e-38
0.13339162 0.025548041 0.068094432 1.9977659e-38
0.13382217 0.027324513 0.066165268 1.9518458e-38
0.14038491 0.12719673 0.031925619 1.1508239e-38
0.12974674 0.025582641 0.067117512 2.0159162e-38
0.13022453 0.027846783 0.065146625 1.9517745e-38
0.13873374 0.12691697 0.030184746 1.5379685e-38
0.12709439 0.025892675 0.065880179 1.9698919e-38
0.12618834 0.02770862 0.063987851 1.9701784e-38
0.12473825 0.029997051 0.061029494 1.8962411e-38
0.12266627 0.028504729 0.062445462 1.942483e-38
0.1223743 0.030858696 0.059704781 1.8689053e-38
0.12134242 0.03345263 0.058285475 1.7950776e-38
0.11884195 0.02835086 0.061272442 1.9516664e-38
0.11917356 0.030953735 0.059303164 1.8686897e-38
0.11927074 0.033478916 0.057975829 1.8226654e-38
0.11542383 0.028478235 0.059972882 1.9056766e-38
0.1154716 0.031111971 0.058074415 1.85036e-38
0.11535588 0.033759624 0.056299031 1.7950793e-38
0.11190978 0.031257808 0.057435334 1.795115e-38
0.11159563 0.033720061 0.054759204 1.7123548e-38
0.10753191 0.033869326 0.053702533 1.6569288e-38
0.10698727 0.036150217 0.051202357 1.7213581e-38
0.10406768 0.034180403 0.051866651 1.7581289e-38
0.10428259 0.03716895 0.050105453 1.7489099e-38
0.10359144 0.039605796 0.048458338 1.7119599e-38
0.099822789 0.034435958 0.050935745 1.8041561e-38
0.10029575 0.037378863 0.049444616 1.7948274e-38
0.10088494 0.040626436 0.047359943 1.7119244e-38
0.10080445 0.043103501 0.04595542 1.6660064e-38
0.096116245 0.034853622 0.049404383 1.7028139e-38
0.096288294 0.037332952 0.048536777 1.72118e-38
0.097067475 0.040736362 0.046425283 1.7028856e-38
0.097477198 0.043180913 0.044521451 1.6751912e-38
0.092787981 0.03724505 0.047092378 1.6845903e-38
0.093233198 0.040588185 0.045246065 1.7028833e-38
0.093768835 0.043647811 0.043271661 1.6661506e-38
0.089256704 0.037586838 0.045472026 1.684553e-38
0.089396119 0.040439606 0.044065773 1.6661485e-38
0.090316474 0.044401824 0.04161042 1.5925367e-38
0.089948058 0.048195839 0.039441168 1.5651272e-38
0.089836597 0.050955981 0.038347483 1.5834601e-38
0.091671824 0.071585447 0.031299353 1.2978294e-38
0.092032015 0.073865652 0.03058666 1.2790327e-38
0.086185098 0.040758133 0.042742729 1.5741674e-38
0.08621347 0.044416428 0.040830851 1.5463665e-38
0.087050319 0.048424348 0.038514555 1.53729e-38
0.087288439 0.051658452 0.037005484 1.5280348e-38
0.086569428 0.056265682 0.034954667 1.472647e-38
0.086698055 0.058119833 0.034305871 1.4452757e-38
0.087802589 0.067053348 0.031384587 1.2702497e-38
0.088230669 0.070978343 0.030939221 1.2426593e-38
0.088600397 0.074290007 0.029552042 1.2145348e-38
0.088593304 0.076703221 0.028059006 1.361797e-38
0.082398891 0.045162559 0.039704144 1.5000525e-38
0.082853913 0.048498243 0.037864745 1.5002674e-38
0.083412737 0.052028835 0.036123037 1.491156e-38
0.083881795 0.055665582 0.034191489 1.4543888e-38
0.08428812 0.059225351 0.032997012 1.3991031e-38
0.084605634 0.062895745 0.031611562 1.3253861e-38
0.084682435 0.066721827 0.030576348 1.2426607e-38
0.084700584 0.070591822 0.029627502 1.2609556e-38
0.084838569 0.074384838 0.028502882 1.306945e-38
0.085269183 0.077702343 0.026708126 1.3805954e-38
0.079767227 0.048835933 0.037200212 1.4446999e-38
0.079208851 0.052107751 0.035468221 1.4725014e-38
0.079831064 0.055600882 0.033639729 1.4266918e-38
0.08027041 0.059200943 0.032076776 1.3805228e-38
0.0805884 0.062874928 0.030690134 1.3070187e-38
0.080664873 0.066704527 0.029653311 1.2979059e-38
0.080922544 0.070418179 0.02835387 1.3254194e-38
0.081180185 0.074131817 0.027054429 1.3989973e-38
0.081437856 0.077845424 0.025754869 1.4633541e-38
0.082153201 0.079948246 0.024109662 1.3900274e-38
0.082151622 0.097050607 0.018390238 1.3345336e-38
0.08117795 0.099824607 0.018460214 1.2518081e-38
0.076731384 0.053252399 0.034243762 1.481829e-38
0.076619565 0.056020558 0.033146799 1.4083965e-38
0.076458275 0.059469774 0.031442225 1.3991406e-38
0.076442331 0.062930644 0.029940605 1.3070537e-38
0.077006459 0.06645149 0.028204858 1.2887581e-38
0.07726416 0.070165128 0.026905358 1.3254567e-38
0.077521771 0.073878795 0.025605917 1.353081e-38
0.0781461 0.077346444 0.023787916 1.2979038e-38
0.07829085 0.080173165 0.022393882 1.2241467e-38
0.078225762 0.093208283 0.017423332 1.3074116e-38
0.079371631 0.095941216 0.017381728 1.3256718e-38
0.078735411 0.099655718 0.017493308 1.2701742e-38
0.072733492 0.063198209 0.028784454 1.2608459e-38
0.073101103 0.066354528 0.027103961 1.1965266e-38
0.073605776 0.069912091 0.025456905 1.2607412e-38
0.073863387 0.073625743 0.024157465 1.2332264e-38
0.074490041 0.077093571 0.022340417 1.1413883e-38
0.074641526 0.080761939 0.020917475 1.1136566e-38
0.075190008 0.084387273 0.019486845 1.0954313e-38
0.075111568 0.088248044 0.017989695 1.1689396e-38
0.075274348 0.092108011 0.017488956 1.2611709e-38
0.075235099 0.095918059 0.017432868 1.2888668e-38
0.076292992 0.099486738 0.016526163 1.2518398e-38
0.069166631 0.063339233 0.027225196 1.2792493e-38
0.069502652 0.066062212 0.025567949 1.22397e-38
0.069947302 0.069659069 0.024008393 1.2517344e-38
0.070204973 0.073372722 0.022708952 1.2519135e-38
0.070275694 0.077209473 0.021667123 1.1875188e-38
0.070595175 0.080882967 0.020281255 1.1873058e-38
0.070977151 0.084513158 0.018810332 1.1873423e-38
0.071421027 0.08809948 0.017254531 1.2702458e-38
0.071058661 0.092244238 0.016807377 1.3438214e-38
0.07110697 0.094810069 0.016110361 1.334673e-38
0.066440761 0.066201657 0.02452904 1.1224137e-38
0.066438615 0.069565922 0.023712277 9.9344592e-39
0.067202359 0.073566705 0.022517622 1.1144856e-38
0.067460388 0.077285677 0.021216273 1.1604032e-38
0.067718416 0.081004709 0.019914925 1.1603287e-38
0.067976445 0.084723741 0.018613636 1.1326386e-38
0.068148494 0.087203056 0.017745912 1.1695527e-38
0.18546095 0.056730434 0.044281423 1.59268e-38
0.19012183 0.064088523 0.041678071 1.3993201e-38
0.13101569 0.060260057 0.038661599 1.5005219e-38
0.16210741 0.1145266 0.031272769 1.639029e-38
0.15244031 0.029785991 0.061306357 1.9699619e-38
0.18354076 0.13865533 0.049741387 2.0816729e-38
0.18201792 0.14143509 0.04985112 1.2972208e-38
0.17969748 0.1390917 0.048993766 2.1464266e-38
0.18078962 0.14135012 0.049364805 1.4995117e-38
0.17623377 0.13862252 0.047900975 2.2568454e-38
0.1726326 0.1383042 0.047076285 2.1464305e-38
0.16787255 0.13666758 0.044537663 2.0538038e-38
0.16488582 0.13682786 0.043599308 2.0448714e-38
0.16137481 0.13683766 0.041729987 2.06324e-38
0.16156194 0.13953468 0.040786266 1.8156387e-38
0.15763277 0.13629356 0.040028036 2.0543432e-38
0.15425038 0.13297561 0.039037049 1.9707913e-38
0.15378708 0.13678676 0.039184809 2.0637784e-38
0.15035522 0.13294515 0.037979186 1.9799742e-38
0.15070546 0.13458636 0.036929727 2.0266139e-38
0.14276391 0.13134101 0.035765827 1.1143784e-38
0.13896471 0.1305373 0.034658492 1.2426953e-38
0.12043405 0.026629686 0.067004859 1.9792181e-38
0.12084371 0.027679324 0.066013217 1.9700344e-38
0.11707771 0.026179776 0.064992011 2.0067705e-38
0.11765331 0.027130246 0.063724756 2.0252445e-38
0.11323255 0.026022732 0.063811719 1.9608881e-38
0.11347181 0.027533025 0.062496722 1.9332997e-38
0.11044684 0.026047796 0.06339252 1.951489e-38
0.10983583 0.028192759 0.061299264 1.96085e-38
0.10977569 0.030709714 0.059041858 1.850431e-38
0.10583368 0.028775588 0.060219169 1.988508e-38
0.10680676 0.031440675 0.057894468 1.8042624e-38
0.10206497 0.028570235 0.058897555 1.8963518e-38
0.10296106 0.031286374 0.056712806 1.767385e-38
0.10224882 0.033488572 0.054810464 1.7766763e-38
0.098803878 0.028551489 0.0575279 1.8317789e-38
0.098767817 0.031332105 0.056075037 1.8135537e-38
0.099799275 0.033319145 0.053840637 1.8318851e-38
0.095208913 0.031942725 0.054724395 1.7856791e-38
0.095497906 0.033787876 0.052766919 1.7488035e-38
0.091927111 0.032212079 0.053236723 1.6474591e-38
0.091847032 0.03419134 0.051302493 1.5922873e-38
0.08846733 0.034435958 0.050275743 1.601649e-38
0.089035094 0.036286533 0.048171163 1.656751e-38
0.085083902 0.035290003 0.04860568 1.592393e-38
0.084746748 0.037417933 0.04708153 1.6201223e-38
0.084437907 0.040299088 0.044708788 1.6109371e-38
0.081552863 0.037877411 0.046478689 1.4268719e-38
0.081326276 0.040898591 0.044317544 1.4452379e-38
0.081591636 0.043195456 0.042408884 1.5094505e-38
0.078141868 0.042012781 0.043700516 1.4176132e-38
0.077796042 0.044933766 0.041412055 1.4082887e-38
0.076984048 0.048815817 0.038332403 1.4356248e-38
0.080220491 0.10249078 0.019344628 1.2795405e-38
0.080306768 0.10373405 0.018909574 1.3347853e-38
0.07490027 0.046029121 0.040349185 1.3898525e-38
0.073755205 0.049446538 0.03864646 1.4449886e-38
0.074572563 0.052508354 0.036374092 1.5001252e-38
0.073829174 0.056362092 0.034426391 1.4267647e-38
0.073570311 0.059344172 0.032898784 1.4543499e-38
0.077770978 0.10232136 0.018374801 1.2518796e-38
0.079081982 0.10364935 0.01842463 1.2795389e-38
0.071772605 0.050051481 0.037963271 1.4724327e-38
0.071006715 0.052936286 0.036035061 1.4817205e-38
0.071212143 0.056284621 0.034213245 1.3989985e-38
0.071287692 0.060144633 0.03212446 1.3715538e-38
0.07072401 0.062240511 0.030598879 1.3071591e-38
0.072992593 0.097866565 0.018046856 1.2702825e-38
0.073648423 0.10165808 0.018323123 1.2334026e-38
0.074921459 0.10424697 0.018741131 1.2059569e-38
0.067373157 0.053593919 0.0347628 1.4448741e-38
0.067646354 0.056381822 0.033182025 1.3898833e-38
0.068340719 0.059588552 0.031029522 1.3804851e-38
0.06769082 0.062443167 0.029241502 1.3253119e-38
0.070732832 0.09750405 0.017230272 1.2797507e-38
0.070771247 0.10089436 0.018030524 1.2887198e-38
0.064182401 0.056702167 0.032045543 1.3251677e-38
0.06422314 0.059865266 0.030415952 1.380592e-38
0.064677835 0.07172069 0.024451435 8.2688338e-39
0.06447345 0.074449509 0.024096847 8.9203059e-39
0.064850271 0.078326076 0.02316916 1.0396869e-38
0.065367877 0.081666768 0.020971119 9.8397427e-39
0.065438509 0.085522205 0.019922137 9.0960974e-39
0.066167027 0.089563251 0.018774033 1.0765681e-38
0.066298574 0.09304744 0.018198192 1.1318093e-38
0.067119092 0.097502977 0.018004715 1.1867672e-38
0.062145174 0.069859892 0.026387393 1.0760295e-38
0.062750757 0.07858786 0.023333371 9.5599019e-39
0.062584907 0.082161546 0.021524966 8.8259579e-39
0.062874287 0.085709542 0.020454943 8.7290749e-39
0.06348604 0.089186072 0.019624829 9.3759059e-39
0.18214333 0.071382239 0.039483905 1.5375439e-38
0.19563094 0.06349884 0.045069218 1.3164874e-38
0.18827653 0.066969857 0.043618619 1.4730777e-38
0.18354774 0.068392858 0.040252268 1.5190677e-38
0.17274249 0.10304847 0.030958772 1.565453e-38
0.17819133 0.14276367 0.050031483 1.2597672e-38
0.17416272 0.14086026 0.049627304 2.1831647e-38
0.17550236 0.14352539 0.049373865 1.2977579e-38
0.17057356 0.1402778 0.048524559 2.119168e-38
0.16739386 0.13948187 0.047100902 2.110345e-38
0.16430092 0.14017817 0.045722723 2.1010191e-38
0.16426551 0.14291009 0.04524678 1.4278465e-38
0.14392525 0.13479373 0.038587868 1.5661402e-38
0.14131024 0.1347723 0.037875295 1.2527066e-38
0.1407055 0.13605553 0.037324965 1.1975687e-38
0.13598803 0.13347691 0.036886156 1.2795755e-38
0.13475442 0.13339159 0.036397755 1.3697606e-38
0.11901337 0.0255346 0.069886446 1.9791092e-38
0.11523479 0.025327086 0.068561614 1.9884386e-38
0.11153662 0.025071293 0.067097306 1.9608525e-38
0.10802364 0.026226923 0.06498456 1.9607814e-38
0.10418576 0.026485741 0.063649297 1.9425566e-38
0.10460991 0.027541786 0.062661469 1.96103e-38
0.10031706 0.026327074 0.062459588 1.9057867e-38
0.10091436 0.027286187 0.061198235 1.8964959e-38
0.096616238 0.026071101 0.060994327 1.8411417e-38
0.09707135 0.027850017 0.059362113 1.8133761e-38
0.093579531 0.028302252 0.058147669 1.7580925e-38
0.093497306 0.030817598 0.056727946 1.7766391e-38
0.090268672 0.02895534 0.057220995 1.6936617e-38
0.089898646 0.03119415 0.055230141 1.6754024e-38
0.086311907 0.031619012 0.054109335 1.5739531e-38
0.085464329 0.034306437 0.052013755 1.5649502e-38
0.083567828 0.032645926 0.052992523 1.5278923e-38
0.082850575 0.034653783 0.051161826 1.5553712e-38
0.080047667 0.035497248 0.049658716 1.4356622e-38
0.07852748 0.037957162 0.047988236 1.3252068e-38
0.075988621 0.038652495 0.047131836 1.3345337e-38
0.075642705 0.041359425 0.045384467 1.4268691e-38
0.073203802 0.042521998 0.044872105 1.3622984e-38
0.072052598 0.045302451 0.042510569 1.3438235e-38
0.06923303 0.046318799 0.041324854 1.3621543e-38
0.068945736 0.049837798 0.039314806 1.4541362e-38
0.072359413 0.10579959 0.019945264 1.1967712e-38
0.065666646 0.05045554 0.038490057 1.490906e-38
0.065581471 0.052531108 0.036708951 1.5092706e-38
0.069181681 0.10280824 0.019546449 1.2611695e-38
0.070743322 0.10484335 0.019050777 1.2335119e-38
0.062321573 0.053900078 0.035580099 1.4542772e-38
0.061640143 0.056095481 0.033693373 1.3158065e-38
0.063976794 0.095664263 0.019674957 9.7421829e-39
0.064198434 0.098696917 0.019193411 1.0211413e-38
0.065891057 0.10099307 0.019037187 1.1862968e-38
0.059463769 0.060486406 0.031799376 1.3528623e-38
0.059390992 0.064621717 0.030660391 1.3067995e-38
0.061140001 0.072446004 0.027282059 1.011167e-38
0.06097877 0.075813085 0.026703477 9.4655301e-39
0.059545249 0.079528928 0.024908364 1.0022332e-38
0.059223682 0.083028018 0.02284348 1.0205309e-38
0.060003668 0.086989522 0.021287203 9.928016e-39
0.061166078 0.090492129 0.020449758 9.7464961e-39
0.062045485 0.094189346 0.019993782 1.0112762e-38
0.056904763 0.083203077 0.022236049 1.2604133e-38
0.057474285 0.08658874 0.021291137 1.2142096e-38
0.20467654 0.08726424 0.040099442 1.2061776e-38
0.20820442 0.081145912 0.041992605 1.067812e-38
0.14115462 0.031410486 0.06303829 1.1965267e-38
0.071258008 0.05459097 0.036106825 1.454243e-38
0.17005768 0.14178574 0.05041796 2.1467901e-38
0.17128909 0.14390779 0.050516546 2.0547022e-38
0.1711925 0.14672855 0.050172508 1.3995695e-38
0.1669648 0.14157182 0.049193382 2.1383275e-38
0.16737035 0.1438798 0.049447596 2.0368051e-38
0.16754487 0.1463947 0.048567474 1.4652988e-38
0.16139767 0.14118674 0.046989143 1.9720525e-38
0.16338408 0.14319885 0.047064722 1.7508165e-38
0.16537049 0.14521095 0.04714036 9.9395978e-39
0.15953627 0.14310625 0.046625257 1.6125223e-38
0.14348081 0.13856778 0.043101311 1.9070122e-38
0.14092007 0.13888684 0.041286051 1.4277749e-38
0.14094171 0.14183095 0.040025413 1.1971022e-38
0.13692486 0.13449493 0.03919524 1.1417825e-38
0.13685548 0.13771808 0.039257824 1.0959061e-38
0.13732111 0.14147344 0.038377047 6.3539665e-39
0.1311622 0.1348986 0.040058732 1.7122067e-38
0.13397759 0.13681498 0.037502468 1.1797095e-38
0.1343495 0.14099589 0.037252486 4.9674391e-39
0.12817502 0.13105205 0.040256321 1.2148982e-38
0.12873721 0.13399741 0.03912127 1.7409464e-38
0.12946582 0.13678336 0.037708104 7.5604845e-39
0.12597364 0.13140187 0.039194405 1.7967282e-38
0.12563416 0.13363767 0.038203239 1.9707874e-38
0.1072067 0.025582194 0.067950308 1.9514894e-38
0.10318643 0.024590671 0.068545401 1.9422323e-38
0.1038211 0.026189461 0.067057192 1.9424847e-38
0.09945178 0.024629608 0.06756717 1.905857e-38
0.099937081 0.02602914 0.065861583 1.924153e-38
0.096346915 0.025175333 0.066969216 1.8414651e-38
0.09580344 0.026136875 0.064363062 1.8870953e-38
0.091709971 0.026874989 0.062642515 1.7490546e-38
0.087790668 0.02729331 0.061787546 1.6846951e-38
0.089514971 0.027899623 0.059602678 1.7121374e-38
0.085268468 0.027368158 0.059736192 1.6106878e-38
0.085728347 0.029205859 0.057892025 1.5830648e-38
0.080457568 0.027841806 0.059250295 1.3901008e-38
0.081135362 0.029826224 0.057346642 1.4726812e-38
0.082102299 0.031969488 0.054929972 1.5093453e-38
0.077528 0.030456617 0.056638718 1.4636065e-38
0.077967584 0.032960773 0.054122627 1.5093809e-38
0.078321159 0.035144895 0.052129567 1.4632125e-38
0.074064821 0.033980757 0.05384022 1.4542429e-38
0.074492335 0.036034048 0.051325738 1.3990704e-38
0.074187219 0.037671 0.049426436 1.3528619e-38
0.071166158 0.037329763 0.05035013 1.3621196e-38
0.071170002 0.039719373 0.047950923 1.3899585e-38
0.07123667 0.042466104 0.046362519 1.362119e-38
0.07597357 0.10778299 0.023593426 1.325565e-38
0.074879527 0.1112535 0.024498284 1.3626229e-38
0.067231059 0.040541589 0.047700882 1.2606686e-38
0.067837954 0.043207869 0.045796216 1.2792131e-38
0.066730857 0.045009226 0.044645667 1.325311e-38
0.073311538 0.10747853 0.02335149 1.2335103e-38
0.072306365 0.1097075 0.021775365 1.2336181e-38
0.071992099 0.11250678 0.020121276 1.3351064e-38
0.063492179 0.04173018 0.046821475 1.196418e-38
0.063482702 0.043596402 0.045649827 1.3161989e-38
0.064277291 0.046129584 0.043312848 1.3436076e-38
0.064091444 0.048757643 0.04134351 1.3070527e-38
0.068955719 0.10702914 0.021299899 1.2243627e-38
0.069420904 0.11018759 0.021639824 1.2246511e-38
0.060728848 0.04669407 0.043197691 1.352503e-38
0.06083864 0.049899682 0.040734947 1.4264752e-38
0.060639799 0.052270055 0.03855437 1.5003038e-38
0.06652078 0.10462958 0.020798624 1.2426963e-38
0.057358742 0.051347166 0.040585339 1.5461489e-38
0.057167649 0.053540841 0.038235545 1.4634619e-38
0.057262689 0.056745201 0.035814881 1.3620481e-38
0.057816952 0.059035033 0.034414113 1.3343526e-38
0.057503343 0.063387617 0.032631159 1.3346032e-38
0.057851851 0.068410903 0.030873418 1.2517697e-38
0.057689995 0.071786597 0.030291617 1.2236092e-38
0.058331043 0.075317889 0.028456509 1.066768e-38
0.058505356 0.07782954 0.027577639 9.5606194e-39
0.059725136 0.095411032 0.021425486 1.029932e-38
0.059731901 0.098680466 0.021568358 1.0947206e-38
0.059616387 0.10170928 0.022440553 1.1408894e-38
0.053893924 0.05487296 0.03778553 1.3528638e-38
0.05342263 0.057226896 0.03583169 1.3713751e-38
0.054236352 0.060414985 0.033528984 1.3897766e-38
0.054179877 0.064723909 0.032791078 1.3805923e-38
0.054042071 0.068457633 0.031546891 1.3438211e-38
0.054384649 0.072127938 0.030427396 1.2886478e-38
0.055347592 0.075467169 0.028162539 1.2700664e-38
0.055588454 0.078814328 0.026301324 1.2698861e-38
0.055673838 0.081383079 0.025034726 1.2511589e-38
0.055578083 0.088875204 0.022153258 1.2148563e-38
0.056826055 0.091582 0.021982253 1.2049581e-38
0.056358635 0.094774038 0.021560013 1.2601314e-38
0.05624336 0.097809225 0.021920681 1.306444e-38
0.050429076 0.058398768 0.03498584 1.4175434e-38
0.049982846 0.060878187 0.033857226 1.3622979e-38
0.050866544 0.064704776 0.032779276 1.3988888e-38
0.051129073 0.068488389 0.031455278 1.3897399e-38
0.051102877 0.072565779 0.029897988 1.3528979e-38
0.050667703 0.075809658 0.027973175 1.3160934e-38
0.051893145 0.078981966 0.025371253 1.2795007e-38
0.052603781 0.082465917 0.023455739 1.1964513e-38
0.052496761 0.086526901 0.022317708 1.0768146e-38
0.052101851 0.090681463 0.022172511 1.0305768e-38
0.048014253 0.077058971 0.026890278 1.2977966e-38
0.047075927 0.079413921 0.025345564 1.2519521e-38
0.047725856 0.082949877 0.023512661 1.0119547e-38
0.048051476 0.08663395 0.022412777 8.8338304e-39
0.048462301 0.090645581 0.021927238 8.5594141e-39
0.049151778 0.093454599 0.021153092 9.4820864e-39
0.044549465 0.080584794 0.024090528 1.1323862e-38
0.044768214 0.083737791 0.022987187 9.4766774e-39
0.044899464 0.085629612 0.022325218 8.9245742e-39
0.20818315 0.070765138 0.044578612 1.0216762e-38
0.20840083 0.068991497 0.046371639 1.1415323e-38
0.21121241 0.067326248 0.046011746 9.2026087e-39
0.12648457 0.12813768 0.041797638 7.9014414e-39
0.12719429 0.12944368 0.041602015 6.6140082e-39
0.1221385 0.11903855 0.04341346 8.468659e-39
0.12187421 0.12405351 0.043929756 9.2065547e-39
0.12238464 0.12809262 0.04378885 1.0864259e-38
0.12311709 0.1311411 0.041392982 1.796407e-38
0.12168097 0.13425228 0.040900409 2.1746608e-38
0.11939183 0.11934343 0.042329967 1.0586262e-38
0.11879593 0.12364975 0.042936504 1.1046185e-38
0.11918035 0.12791595 0.043397367 1.3534046e-38
0.11585879 0.11567754 0.042266905 1.113982e-38
0.1152716 0.11916909 0.04199785 1.279646e-38
0.11457211 0.12379137 0.042584717 1.42705e-38
0.11115107 0.11923653 0.041127086 1.3808796e-38
0.11068925 0.12309402 0.041641235 1.4822637e-38
0.097730607 0.023474365 0.069635689 1.8049459e-38
0.093370676 0.024479091 0.069282413 1.6937752e-38
0.099211574 0.11560357 0.038026631 1.6195113e-38
0.099695027 0.11864528 0.037025988 1.647891e-38
0.099528342 0.12223065 0.037026942 1.8413566e-38
0.088979602 0.024837941 0.069097102 1.5742799e-38
0.090425581 0.026670694 0.066202164 1.7583461e-38
0.095581204 0.11594665 0.037398636 1.8037927e-38
0.095676124 0.11858091 0.036296129 1.6291286e-38
0.096639633 0.12161666 0.036270261 1.8506128e-38
0.086012006 0.022283643 0.069451809 1.2612465e-38
0.091852129 0.1182287 0.034192502 1.7025203e-38
0.082610607 0.025127798 0.066649854 1.3168153e-38
0.082735181 0.026641533 0.062966585 1.5098129e-38
0.08002001 0.025661439 0.065641284 1.2428775e-38
0.078443259 0.027248263 0.063224137 1.3438605e-38
0.075731188 0.028188288 0.06095618 1.3254564e-38
0.075296432 0.029599264 0.057938099 1.4169682e-38
0.072776645 0.028952673 0.061335385 1.3807724e-38
0.072143555 0.030808806 0.057571948 1.4448424e-38
0.071825057 0.033131748 0.055133045 1.4542795e-38
0.068265915 0.03163442 0.057839215 1.4819742e-38
0.068776339 0.03426367 0.055141509 1.3529736e-38
0.068621635 0.036863863 0.052269578 1.3620485e-38
0.065089107 0.035049632 0.05539465 1.3344967e-38
0.065584779 0.037669584 0.051380038 1.3160576e-38
0.064623922 0.03964445 0.049240053 1.2789645e-38
0.062043905 0.035794795 0.054209769 1.3069454e-38
0.061150551 0.037888706 0.052319884 1.2333702e-38
0.061928302 0.040678918 0.04828465 1.2883615e-38
0.061154187 0.04317528 0.046436369 1.3989575e-38
0.065710783 0.10885102 0.023455024 1.2792863e-38
0.066344231 0.11271191 0.023983002 1.2982285e-38
0.058554411 0.039345682 0.051390171 1.3340287e-38
0.057646722 0.041578695 0.049393594 1.4079625e-38
0.05862543 0.044068843 0.046467185 1.4172887e-38
0.058051199 0.046551108 0.044076145 1.3802339e-38
0.057859659 0.049232081 0.04274863 1.3623348e-38
0.061281681 0.1060912 0.026081026 1.2143542e-38
0.061863691 0.10899743 0.0254547 1.2426608e-38
0.063930362 0.11290145 0.024616718 1.3440743e-38
0.055064917 0.042896539 0.048570514 1.4631368e-38
0.055480599 0.044644684 0.047508121 1.4081772e-38
0.054593116 0.047600061 0.044748008 1.4078579e-38
0.05547595 0.050444931 0.041665733 1.4264762e-38
0.054389924 0.052762896 0.039944947 1.4358391e-38
0.058382243 0.1048314 0.024759889 1.2420856e-38
0.058901489 0.10858682 0.024951279 1.3991419e-38
0.051751733 0.048987776 0.044861913 1.3889544e-38
0.051004291 0.051256672 0.043028951 1.4264041e-38
0.051578194 0.054087758 0.039076865 1.3344605e-38
0.050920129 0.056293726 0.037141204 1.2703204e-38
0.054718941 0.10021994 0.022547603 1.3806681e-38
0.054702669 0.10456184 0.024376333 1.4544925e-38
0.047590613 0.051994115 0.041390359 1.2424806e-38
0.047892153 0.054176986 0.039129436 1.2332972e-38
0.048135012 0.057340354 0.035999715 1.2333335e-38
0.047538012 0.061087549 0.033895612 1.2979775e-38
0.048199356 0.065134689 0.033329904 1.40818e-38
0.048395902 0.068882465 0.031876743 1.4449842e-38
0.048806816 0.0722363 0.030203521 1.3898102e-38
0.050184518 0.096188575 0.022085488 9.9377032e-39
0.051014692 0.099413157 0.022308171 1.1416069e-38
0.050535917 0.103259 0.023768544 1.371771e-38
0.043257117 0.052192479 0.04006058 1.0588072e-38
0.043757021 0.054550737 0.038738549 1.085892e-38
0.044045091 0.057944983 0.036295533 1.1318107e-38
0.044308901 0.06174776 0.034964919 1.27014e-38
0.044201821 0.065943107 0.034587979 1.408288e-38
0.044836372 0.069349647 0.032304764 1.4358377e-38
0.045639753 0.072672084 0.029419839 1.408286e-38
0.045715481 0.076037079 0.027888298 1.3345674e-38
0.045733154 0.088615239 0.022694886 8.2824488e-39
0.045949638 0.09166941 0.022202969 8.3746571e-39
0.04708305 0.095237345 0.021410584 9.5706976e-39
0.046967506 0.10026494 0.022391438 1.1138043e-38
0.040904373 0.058666155 0.036612451 1.1042236e-38
0.041459471 0.062180772 0.035514057 1.2146444e-38
0.040817499 0.065748021 0.033890307 1.2978344e-38
0.041124076 0.069754094 0.032069385 1.3715179e-38
0.040966541 0.073117584 0.030501544 1.3716625e-38
0.041325182 0.076873004 0.028544486 1.3070893e-38
0.042288125 0.079893589 0.026157439 1.2334771e-38
0.04274255 0.083374351 0.024282038 9.6599939e-39
0.042850763 0.087992936 0.023323596 8.0058535e-39
0.04306531 0.091647863 0.022334874 7.6381851e-39
0.043162853 0.095939577 0.021624625 9.6672078e-39
0.042981893 0.10011277 0.021517098 1.1601506e-38
0.043261707 0.10386193 0.02046901 1.2611702e-38
0.038542867 0.073987752 0.029805422 1.2795759e-38
0.038280308 0.077382565 0.028407156 1.1966349e-38
0.038314879 0.080989212 0.02672559 1.0493729e-38
0.038237154 0.084574401 0.025278509 8.8331059e-39
0.038698614 0.0882577 0.023693204 7.3579982e-39
0.038962752 0.092065454 0.022360861 6.2556262e-39
0.039431095 0.095807642 0.021413386 8.9285876e-39
0.039500505 0.099756867 0.020437837 1.1513971e-38
0.035538048 0.084524572 0.024541318 8.6487174e-39
