# .PCD v0.7 - Point Cloud Data file format
VERSION 0.7
FIELDS x y z rgb
SIZE 4 4 4 4
TYPE F F F F
COUNT 1 1 1 1
WIDTH 980
HEIGHT 1
VIEWPOINT 0 0 0 0 1 0 0
POINTS 980
DATA ascii
0.041234866 0.061077844 0.041172087 1.4906895e-38
0.043174706 0.11503033 0.036724865 1.5840012e-38
0.043850847 0.11728679 0.038428843 1.6577222e-38
0.040305018 0.055758141 0.04440093 1.7124258e-38
0.039325655 0.058599558 0.042908192 1.5184564e-38
0.038244903 0.061994351 0.041637123 1.4450949e-38
0.038672037 0.11170725 0.03684926 1.390569e-38
0.03976316 0.11459652 0.038416862 1.48251e-38
0.041276805 0.11733139 0.03889972 1.5932919e-38
0.036383122 0.059023038 0.044917643 1.4819013e-38
0.034990758 0.062684625 0.042682886 1.3255654e-38
0.034827814 0.065080009 0.041975498 1.4181185e-38
0.036109231 0.11175165 0.037318051 1.3629123e-38
0.036125906 0.11346086 0.03987658 1.4547835e-38
0.032911114 0.060155772 0.045859575 1.3254879e-38
0.031899408 0.06254629 0.045236349 1.3346764e-38
0.030983604 0.066443682 0.042555869 1.3714839e-38
0.029702216 0.070357025 0.042421579 1.3899949e-38
0.03119804 0.11155717 0.039264202 1.7501314e-38
0.0322676 0.11357926 0.040917873 1.7314756e-38
0.029264532 0.063692927 0.046197534 1.3070543e-38
0.027557671 0.06663575 0.044758558 1.316346e-38
0.027139395 0.069752909 0.042951822 1.3808116e-38
0.027132757 0.11141144 0.040028393 1.7865405e-38
0.028406523 0.11364616 0.041624129 1.8236731e-38
0.024334706 0.066788644 0.046473742 1.2152184e-38
0.023128405 0.070353903 0.044145823 1.288939e-38
0.022956431 0.11188444 0.041264951 1.4640712e-38
0.023780584 0.11389408 0.041841745 1.510276e-38
0.020684354 0.067662969 0.047405064 1.0312915e-38
0.01942534 0.070666634 0.045764208 1.0769964e-38
0.018810242 0.073139854 0.044168234 1.1598999e-38
0.019450948 0.11204029 0.04036516 1.3353926e-38
0.019904315 0.11455669 0.041702807 1.3629082e-38
0.018110313 0.068228662 0.047826529 9.0214656e-39
0.015730202 0.071207322 0.047546029 9.5713856e-39
0.015403554 0.074207537 0.045571327 1.0495141e-38
0.016451143 0.1147656 0.041171372 1.0866766e-38
0.016858518 0.11751395 0.041857123 9.3008943e-39
0.0129622 0.071574718 0.048459709 7.265116e-39
0.01172258 0.075338289 0.046629846 7.4523645e-39
0.010801435 0.079439618 0.045049608 7.1793551e-39
0.010481089 0.082363531 0.044831753 7.7310757e-39
0.0065270737 0.072337583 0.04957515 1.1038603e-38
0.0076956227 0.075934924 0.048712313 7.6324187e-39
0.0078555122 0.080001391 0.047355711 5.9739834e-39
0.0074789226 0.083316632 0.045635998 5.512306e-39
0.0066368729 0.10448001 0.043446302 5.7978668e-39
0.0069389194 0.10746668 0.043618321 6.347812e-39
0.0052400455 0.077570848 0.049316943 1.1966314e-38
0.0049279034 0.080480605 0.048843622 1.2152458e-38
0.0040565431 0.083820418 0.046333432 1.3442139e-38
0.004074052 0.0863657 0.045635164 1.2981169e-38
0.0031130165 0.099677131 0.044551611 9.8490403e-39
0.0038774088 0.10351614 0.044940531 1.1140885e-38
0.0041646212 0.10707767 0.045990944 7.9118881e-39
0.0052785203 0.11129056 0.04509455 5.4341331e-39
0.001511246 0.088355683 0.045919657 1.5745214e-38
0.001511246 0.09159831 0.045612514 1.5278873e-38
0.00039002299 0.09567102 0.04543364 1.3899917e-38
0.00021921843 0.099433154 0.04533571 1.3442882e-38
0.00014914572 0.10337806 0.046535313 1.4088987e-38
0.0013789758 0.10629803 0.047308385 9.7558105e-39
0.075063743 0.085902624 0.020264924 1.8046936e-38
0.081735715 0.087499663 0.018788636 1.813769e-38
0.078978419 0.087450758 0.016445398 1.7401219e-38
0.075241804 0.088838011 0.014847696 1.6110113e-38
0.067723393 0.085718408 0.021315575 1.1039362e-38
0.060897782 0.091133818 0.023167193 1.2793945e-38
0.053740256 0.073550306 0.028065562 1.3163782e-38
0.011006564 0.10039916 0.03828311 6.0744509e-39
0.094004393 0.075708292 0.024789333 1.2150012e-38
0.10868455 0.074244827 0.023614049 1.4269443e-38
0.10754294 0.082567744 0.02259326 1.4819739e-38
0.10128026 0.083727449 0.024117053 1.583533e-38
0.095825113 0.085200496 0.024329543 1.6483216e-38
0.14214203 0.072751023 0.019400299 1.8784149e-38
0.098456807 0.076522015 0.029634655 1.0309343e-38
0.074616872 0.073293164 0.033726394 1.2518438e-38
0.072318837 0.083443567 0.032409489 1.1045466e-38
0.071576767 0.079925716 0.033275604 1.2150737e-38
0.080681935 0.073863544 0.032760084 1.2608474e-38
0.12062048 0.075388156 0.025743842 1.8323162e-38
0.11527479 0.071096532 0.027530968 1.592717e-38
0.11330826 0.066006601 0.027902544 1.4269453e-38
0.11277365 0.076035656 0.027666569 1.4730056e-38
0.14035335 0.062379599 0.024698734 2.0169257e-38
0.1004929 0.076838449 0.031270862 1.6112634e-38
0.093959033 0.062165298 0.033070385 1.749233e-38
0.10585887 0.0747559 0.030648291 1.6663649e-38
0.092020661 0.071333587 0.032257259 1.6847322e-38
0.041234866 0.061077844 0.041172087 1.4906895e-38
0.098973386 0.0807091 0.031294703 1.5282506e-38
0.098141469 0.082110003 0.032608271 1.5742403e-38
0.15904185 0.045799974 0.027515113 2.2568488e-38
0.15888816 0.049022891 0.026387155 2.2468392e-38
0.15928149 0.052371267 0.025316477 2.1271634e-38
0.15953964 0.089733623 0.021729767 1.9890881e-38
0.15890926 0.093503118 0.022283375 2.0353293e-38
0.15901196 0.097499475 0.022453249 2.0997209e-38
0.15876481 0.10050638 0.022639573 2.1089047e-38
0.15442538 0.045850992 0.027851701 2.2195744e-38
0.15510798 0.093904212 0.022152603 1.9243348e-38
0.15427743 0.097425304 0.022142589 1.9798656e-38
0.15445548 0.10148211 0.022746682 2.0260363e-38
0.15375018 0.10534178 0.023106992 2.1461068e-38
0.14942518 0.04272072 0.030092299 2.2191789e-38
0.14984441 0.045255773 0.028413057 2.1823731e-38
0.14972974 0.047833242 0.027509153 2.1271289e-38
0.15059027 0.098337591 0.022566378 2.164222e-38
0.14978728 0.101447 0.02276057 2.2563484e-38
0.14995864 0.10551113 0.0233652 2.2382663e-38
0.14942518 0.10823698 0.023886323 2.2474852e-38
0.14589721 0.042246878 0.030584037 2.2006336e-38
0.14611286 0.04493358 0.028889179 2.1638255e-38
0.14714819 0.098832741 0.023154736 1.9893014e-38
0.14650282 0.101457 0.023025334 2.0999719e-38
0.14606044 0.10558434 0.022971392 2.0630587e-38
0.14209726 0.041903999 0.031376243 2.2284344e-38
0.14188382 0.045213833 0.029588461 2.1548927e-38
0.14241536 0.10588292 0.023360431 1.9339131e-38
0.14203869 0.10942425 0.023434997 1.9982702e-38
0.14182076 0.11312171 0.024486601 2.1643286e-38
0.13833615 0.041572854 0.031680226 2.191701e-38
0.13855135 0.04447601 0.030656338 2.1548952e-38
0.1381128 0.11009483 0.02375561 1.8052e-38
0.13835332 0.11360116 0.02496773 1.8977188e-38
0.13842177 0.11628959 0.025154412 1.9714055e-38
0.13389094 0.039058905 0.033306181 2.1090496e-38
0.13442263 0.041629262 0.032170236 2.1549319e-38
0.13463807 0.044529803 0.031118214 2.1550031e-38
0.13424046 0.11081518 0.024402022 1.2434541e-38
0.13437322 0.11356576 0.025024891 1.2341987e-38
0.13421458 0.11669005 0.025892913 1.1792032e-38
0.13065463 0.038787395 0.033929229 2.1274873e-38
0.1305114 0.041685838 0.032659829 2.1182323e-38
0.13036814 0.044249117 0.031422079 2.0538396e-38
0.12972274 0.11089346 0.025228381 7.3637562e-39
0.13049528 0.11363336 0.025734186 7.6407242e-39
0.13130191 0.11641295 0.026456773 8.4715415e-39
0.12667996 0.039151523 0.033947408 1.9892312e-38
0.12658799 0.041735973 0.033038676 1.7494868e-38
0.12778661 0.044293851 0.031894267 1.7218243e-38
0.12520504 0.10705215 0.026426017 9.7597327e-39
0.12631951 0.10999811 0.026554227 9.2998504e-39
0.12746447 0.11350355 0.026827812 1.0038859e-38
0.12275552 0.039203368 0.034326434 1.694382e-38
0.12266812 0.040479735 0.033540785 1.6109749e-38
0.11894029 0.038966123 0.035563648 1.5651677e-38
0.11828507 0.041342966 0.03433609 1.4910855e-38
0.11826969 0.074566506 0.031366944 6.1627047e-39
0.1179743 0.077631675 0.031228304 7.0853854e-39
0.11576765 0.039372925 0.036621332 1.4543492e-38
0.11501221 0.041959561 0.035607874 1.3715891e-38
0.11429292 0.04455569 0.034870625 1.2890065e-38
0.11358809 0.070670515 0.032016277 3.9543115e-39
0.11534034 0.073686272 0.032882452 5.1510554e-39
0.11497919 0.077918567 0.031924129 7.1746874e-39
0.11253136 0.043359973 0.036840916 1.0212108e-38
0.11129766 0.046114128 0.035914123 9.7489749e-39
0.11068656 0.049656361 0.034980118 9.2019066e-39
0.10971577 0.053099424 0.034395397 8.8363933e-39
0.11006678 0.065854102 0.033377767 5.0577836e-39
0.11097403 0.069676906 0.033741891 5.1496107e-39
0.11077974 0.073942631 0.034040391 5.9757855e-39
0.11171044 0.07728745 0.032246768 6.9870409e-39
0.10864779 0.046703078 0.037240982 1.2520153e-38
0.10748724 0.050146643 0.036873698 1.2056731e-38
0.10721921 0.053849459 0.035579503 1.058267e-38
0.10676543 0.05753677 0.034519613 8.9213709e-39
0.1062737 0.062087037 0.03417927 7.6328069e-39
0.1071829 0.065594405 0.034133196 6.4385797e-39
0.10725612 0.069576234 0.034423411 7.0810456e-39
0.10724417 0.073490866 0.033941329 7.8171477e-39
0.10217519 0.046815228 0.038424969 2.0904262e-38
0.10346971 0.050068609 0.037877858 1.7678863e-38
0.10337756 0.053939335 0.036620438 1.5836365e-38
0.10329653 0.057807893 0.035474598 1.3898089e-38
0.10326191 0.061703719 0.034771502 1.1783362e-38
0.10326191 0.065623313 0.034400225 1.0122064e-38
0.10342325 0.069540113 0.033999443 1.0858209e-38
0.10403637 0.073187783 0.033540785 1.2703164e-38
0.099570088 0.046850394 0.03873229 2.0810263e-38
0.099488281 0.050073527 0.037590981 1.8876342e-38
0.09942276 0.05395373 0.036554635 1.7680319e-38
0.09938959 0.057851218 0.035851121 1.5558017e-38
0.099550933 0.061604701 0.035465837 1.4359467e-38
0.099758379 0.065497369 0.035058796 1.4731823e-38
0.094408065 0.043673992 0.040156007 1.9510605e-38
0.09547127 0.046395831 0.038936019 1.9143605e-38
0.095558859 0.050106253 0.037745655 1.7767844e-38
0.096377768 0.053112775 0.036855757 1.7678873e-38
0.096808024 0.05789594 0.036323309 1.6571091e-38
0.096808024 0.061815538 0.035952032 1.7488737e-38
0.092466287 0.043707639 0.04051125 1.9699295e-38
0.091760986 0.046301238 0.039714813 1.8961376e-38
0.092026435 0.049961772 0.038103342 1.8041932e-38
0.087676555 0.043266501 0.04143703 2.0621958e-38
0.087845206 0.046342697 0.039979756 2.0253534e-38
0.087772608 0.049233399 0.038811445 2.0346805e-38
0.084051915 0.043198273 0.042112529 2.1543547e-38
0.083950832 0.046397291 0.040466309 2.1268021e-38
0.084545672 0.048962679 0.039432645 2.089601e-38
0.080168344 0.043265563 0.042822897 2.1728647e-38
0.080242455 0.046074908 0.040938199 2.1543173e-38
0.078805514 0.11585376 0.035177231 2.3394605e-38
0.078805514 0.11716219 0.035053313 2.2191736e-38
0.076284789 0.043332852 0.043533266 2.1083655e-38
0.075603493 0.046378072 0.041668355 2.0532261e-38
0.075526871 0.11579172 0.03502214 2.294878e-38
0.074928813 0.11722936 0.035762429 2.2857674e-38
0.072391398 0.043391291 0.044076085 2.0804563e-38
0.071571015 0.04622516 0.042524338 1.9609964e-38
0.072328009 0.1191965 0.035800755 2.2943394e-38
0.071106695 0.12138692 0.037095249 2.3210998e-38
0.068517663 0.043467432 0.044954002 1.970179e-38
0.067792274 0.046014667 0.043314636 1.9425203e-38
0.068088204 0.12237124 0.036392033 2.164582e-38
0.064893 0.04366127 0.045604587 1.86923e-38
0.06371443 0.046754576 0.044280767 1.7952232e-38
0.063905686 0.12383512 0.036405087 1.7587044e-38
0.063952453 0.12531304 0.037277758 1.7863992e-38
0.05941581 0.047497209 0.045230806 1.7492336e-38
0.0587302 0.12388234 0.037100494 1.334859e-38
0.06008222 0.12542304 0.038236976 1.546729e-38
0.05554907 0.04758352 0.046276689 1.6110117e-38
0.055503272 0.050119169 0.044683218 1.6568586e-38
0.055158652 0.12294538 0.038578033 1.1968515e-38
0.057514228 0.12555341 0.039209247 1.464222e-38
0.051941611 0.047804672 0.04739815 1.5835701e-38
0.051635467 0.050196469 0.045560002 1.7121045e-38
0.051322281 0.11984654 0.039360762 1.3163449e-38
0.047781676 0.050751157 0.047069788 1.7396553e-38
0.047770932 0.11958145 0.040041327 1.6391364e-38
0.047805332 0.12179066 0.041357577 1.6114411e-38
0.043912895 0.051722929 0.048202395 1.7121397e-38
0.04324092 0.053597964 0.046616793 1.8044064e-38
0.043895178 0.1196486 0.040750265 1.6850915e-38
0.042627245 0.12188038 0.042304754 1.6390293e-38
0.040032133 0.05179017 0.048912227 1.6567483e-38
0.039760299 0.054207854 0.047609985 1.684517e-38
0.038723208 0.1163898 0.041502714 1.537431e-38
0.039859734 0.11924884 0.041660488 1.5652736e-38
0.041332722 0.12190281 0.042541504 1.5933632e-38
0.037014857 0.052071765 0.049612641 1.6199421e-38
0.03614682 0.055088203 0.048692882 1.6110476e-38
0.035281144 0.058090989 0.047660291 1.4634629e-38
0.03614568 0.11588652 0.042707026 1.5561609e-38
0.036153257 0.11869002 0.043631613 1.5561951e-38
0.032455094 0.055574171 0.050025225 1.4728612e-38
0.032084785 0.058675714 0.048632622 1.3347109e-38
0.032593414 0.11559488 0.043220103 1.7408014e-38
0.029034771 0.056599636 0.050997019 1.2980495e-38
0.028391846 0.059155982 0.049852252 1.2243302e-38
0.027966753 0.062572837 0.048585773 1.2611721e-38
0.028131448 0.11601011 0.044923425 1.8604425e-38
0.024936885 0.059715252 0.051288068 1.0862884e-38
0.024520844 0.063094541 0.049512804 1.1600441e-38
0.02323392 0.065703414 0.049162626 1.1324571e-38
0.024775669 0.11623526 0.044908702 1.574776e-38
0.023856692 0.11827464 0.04611057 1.4270504e-38
0.021914907 0.060653977 0.05192703 9.4767139e-39
0.020643301 0.063179448 0.050447345 9.016477e-39
0.020652369 0.066074774 0.049603939 9.7565476e-39
0.020652369 0.11670291 0.044808209 1.3076986e-38
0.019990064 0.11818128 0.045811772 1.2616001e-38
0.016753018 0.063300654 0.051834643 6.7130002e-39
0.016610146 0.066993326 0.050646067 8.1866869e-39
0.01548928 0.069757201 0.050208032 8.3739298e-39
0.016780049 0.11677001 0.045516551 9.7654626e-39
0.016780049 0.11807654 0.045392752 8.2835292e-39
0.014147796 0.063409209 0.053099632 7.8117807e-39
0.012876861 0.067284554 0.052059233 6.8952222e-39
0.012391433 0.070594802 0.050700486 5.7942907e-39
0.010279708 0.068018213 0.05286622 8.0012321e-39
0.0094495565 0.071649946 0.05165416 7.354771e-39
0.0083900243 0.073799804 0.051135302 7.2589629e-39
0.0038723201 0.10915446 0.048620164 2.1183569e-39
0.0038723201 0.11176753 0.048372686 4.7909133e-39
0 0.10530196 0.049699783 1.0678203e-38
0.0012907684 0.10789266 0.049216151 3.772842e-39
0.073206119 0.09372139 0.018034399 1.5558346e-38
0.095418751 0.096960835 0.0053272247 2.0174669e-38
0.084966153 0.091566324 0.0026949048 1.6385993e-38
0.083910301 0.095512338 0.003261745 1.3718821e-38
0.080043778 0.098630786 0.003898859 1.620446e-38
0.076257423 0.089566 0.015782595 1.6948147e-38
0.072977178 0.097821556 0.014814854 1.4824786e-38
0.06833896 0.091850773 0.018362403 1.426909e-38
0.04864502 0.083690047 0.026428342 1.3526485e-38
0.067230508 0.071167879 0.030167937 1.1782675e-38
0.12892771 0.082978196 0.017749667 1.0771784e-38
0.12131832 0.08892367 0.018761098 1.8967417e-38
0.12087688 0.0983634 0.017907917 1.3255576e-38
0.087171331 0.077146254 0.026711583 1.7034951e-38
0.13692996 0.053642254 0.023193538 1.9245502e-38
0.12984356 0.046001405 0.027608335 1.869521e-38
0.069816075 0.081422754 0.032376885 1.5282857e-38
0.11211737 0.072152205 0.027381361 1.610616e-38
0.11067037 0.082548998 0.027571499 1.5192118e-38
0.11568072 0.060951091 0.029061377 1.7861826e-38
0.09153083 0.079660609 0.030641198 1.2426961e-38
0.076251067 0.072986975 0.035182774 1.5191757e-38
0.10043784 0.06598264 0.036362708 2.1363469e-38
0.15401287 0.038904145 0.0336923 2.2751813e-38
0.15524098 0.041496128 0.032794654 2.2750355e-38
0.15495908 0.044047266 0.030987859 2.210677e-38
0.15658191 0.10611121 0.024809361 2.1736207e-38
0.15509337 0.10986447 0.025494635 2.2934402e-38
0.15531489 0.11268456 0.026463211 2.2841845e-38
0.15075783 0.038960543 0.034287691 2.2657799e-38
0.15074827 0.041160241 0.032913864 2.246874e-38
0.15067458 0.11026806 0.025943637 2.2658883e-38
0.15043233 0.11309864 0.027325153 2.2842551e-38
0.14664784 0.037866469 0.034894586 2.2193195e-38
0.14692825 0.040597785 0.033307493 2.2098524e-38
0.14672311 0.11403062 0.027127147 2.2104274e-38
0.14164373 0.035164732 0.036329389 2.2470538e-38
0.14287481 0.037757888 0.035402596 2.2285409e-38
0.14327466 0.040307373 0.033498585 2.2100671e-38
0.14354506 0.11482218 0.026730835 2.1831996e-38
0.13871419 0.034886017 0.036896467 2.2469103e-38
0.13885152 0.037791375 0.035347641 2.228327e-38
0.13891158 0.11876385 0.028063595 2.0084632e-38
0.13773769 0.12089658 0.028929412 1.7957701e-38
0.13505921 0.034598473 0.03708756 2.2192868e-38
0.13504294 0.037452698 0.035434246 2.1914502e-38
0.13512574 0.11880282 0.027771473 1.3540859e-38
0.13502249 0.12114809 0.028640687 1.3352172e-38
0.13115601 0.03466611 0.037801623 2.1729743e-38
0.13094112 0.037104364 0.036078274 2.1642571e-38
0.13077611 0.11845578 0.028548658 9.666147e-39
0.13117924 0.12095487 0.029793859 1.0405516e-38
0.12757781 0.035057582 0.038424909 2.136455e-38
0.12704633 0.037303261 0.036778271 2.0997217e-38
0.12574807 0.11157341 0.029982686 9.484613e-39
0.12614049 0.11460213 0.030134082 1.0315797e-38
0.12712196 0.11821076 0.029667854 1.1234895e-38
0.1286236 0.1210545 0.030596554 1.2245467e-38
0.12341554 0.035480574 0.039663672 1.9523161e-38
0.12317353 0.037377816 0.037656188 1.8416803e-38
0.12471756 0.10794307 0.032559454 8.7498968e-39
0.12471756 0.11057889 0.032309771 8.7466934e-39
0.12471756 0.11453263 0.031935215 1.0037047e-38
0.12439205 0.11816252 0.031651497 1.1511083e-38
0.1195095 0.035548251 0.040378153 1.7402635e-38
0.11935747 0.037340827 0.039010942 1.6665455e-38
0.11553136 0.038224287 0.040246069 1.4636757e-38
0.11449641 0.075411104 0.035484791 5.7024398e-39
0.11234841 0.039626058 0.041313529 1.40764e-38
0.11133338 0.042023256 0.039486468 1.3063685e-38
0.11016885 0.044823345 0.039180875 1.3060074e-38
0.11276539 0.075003058 0.035842896 5.7931949e-39
0.10775445 0.042323641 0.041565478 1.8968835e-38
0.10724834 0.046024367 0.040043831 1.6480249e-38
0.10627405 0.04883318 0.039519846 1.5192071e-38
0.10258331 0.039795257 0.043099761 2.3394269e-38
0.103874 0.0424027 0.042501152 2.2101005e-38
0.10409299 0.04607904 0.040621042 1.9706083e-38
0.099529207 0.038961489 0.043572187 2.2931145e-38
0.099859782 0.042413753 0.042106032 2.2746048e-38
0.099782713 0.045003302 0.041080713 2.1365253e-38
0.096033536 0.038946617 0.043951392 2.1086511e-38
0.09605018 0.042275477 0.042027891 2.080778e-38
0.097186185 0.045048293 0.041555643 1.9794724e-38
0.096376047 0.11202021 0.037148654 2.2459029e-38
0.09509673 0.11471638 0.037384689 2.201065e-38
0.092108563 0.039944448 0.044338048 2.0438615e-38
0.091832504 0.042151749 0.043109894 2.0159538e-38
0.093380287 0.11228701 0.036910295 2.2650918e-38
0.092315905 0.11540377 0.037395179 2.1639005e-38
0.088126078 0.039964963 0.044049799 2.0897449e-38
0.08842288 0.04158631 0.04350096 2.0713424e-38
0.088261172 0.11845909 0.038291812 2.0169595e-38
0.084018536 0.039541297 0.045528948 2.1818687e-38
0.084203504 0.041330889 0.044303894 2.1635013e-38
0.083704099 0.11656117 0.039312601 1.9145725e-38
0.084192373 0.11902381 0.038989246 1.9426289e-38
0.083053097 0.12184409 0.038932323 1.9979831e-38
0.08063893 0.039599858 0.046147108 2.2002387e-38
0.080308713 0.041398376 0.045016289 2.1816907e-38
0.081606977 0.11628059 0.037683547 2.0805221e-38
0.080584422 0.11951225 0.038879395 2.0349281e-38
0.080449075 0.12188922 0.039408624 2.1088317e-38
0.07651072 0.03956382 0.047422945 2.1358083e-38
0.076413907 0.041465864 0.045728743 2.1359879e-38
0.076664746 0.11953327 0.039309025 2.2479867e-38
0.076201856 0.12225077 0.039902925 2.2473028e-38
0.072607532 0.039631464 0.048137128 2.1543197e-38
0.072519094 0.041533343 0.046441197 2.1448846e-38
0.073817372 0.12035791 0.038734972 2.276044e-38
0.072586745 0.12320023 0.039860249 2.3028391e-38
0.0687043 0.039699089 0.048851013 2.025495e-38
0.068624295 0.041600831 0.047153592 2.0067687e-38
0.069301039 0.12446344 0.039690375 2.2568835e-38
0.068713807 0.12598905 0.040845692 2.1920234e-38
0.06479311 0.039758787 0.049396992 1.8690156e-38
0.064404927 0.042002466 0.047894299 1.8322091e-38
0.064440221 0.12755068 0.040550292 1.8325677e-38
0.060904525 0.039842315 0.050447166 1.5922858e-38
0.060848318 0.043066904 0.048790455 1.7860754e-38
0.060834698 0.045678154 0.048205078 1.7678526e-38
0.060863048 0.12792704 0.041089714 1.823599e-38
0.060918853 0.13013507 0.042232096 1.9520641e-38
0.057012826 0.039925911 0.051497996 1.6571822e-38
0.056979783 0.043174371 0.050288558 1.7124992e-38
0.056951426 0.045764122 0.049254119 1.6110129e-38
0.056785151 0.12774926 0.042053878 1.6116963e-38
0.057012811 0.13020276 0.042946577 1.8969607e-38
0.053432271 0.040317416 0.052121699 1.6664005e-38
0.053096503 0.043270484 0.051563501 1.6108673e-38
0.053075932 0.045868646 0.050640285 1.5555149e-38
0.052189238 0.12429358 0.04269439 1.2794689e-38
0.053354472 0.12677088 0.043538332 1.3904248e-38
0.049386732 0.043729365 0.05254519 1.4723576e-38
0.049009375 0.047082674 0.051148176 1.6199089e-38
0.049331486 0.12370133 0.043703437 1.4638573e-38
0.049200729 0.12638438 0.044750035 1.4452041e-38
0.045442753 0.047495443 0.052150369 1.6567518e-38
0.045255482 0.049890444 0.050681353 1.6933406e-38
0.04527054 0.12361245 0.044489741 1.5930388e-38
0.043992676 0.12647462 0.045702696 1.5284663e-38
0.041379035 0.048064671 0.052931607 1.7395105e-38
0.041360684 0.049957924 0.051393807 1.7120302e-38
0.041377835 0.12375051 0.045626342 1.5560539e-38
0.042690657 0.12649718 0.045940876 1.5284297e-38
0.038350604 0.048376366 0.054141819 1.6843731e-38
0.037144564 0.050390393 0.05264169 1.6106157e-38
0.036816753 0.12099902 0.045503139 1.4732543e-38
0.037479199 0.1225784 0.046933472 1.4455267e-38
0.033572741 0.0521174 0.053477705 1.5192486e-38
0.032272823 0.054057747 0.052682698 1.5283941e-38
0.032272823 0.11713539 0.046707749 1.7684238e-38
0.033201329 0.12000563 0.046702266 1.6114781e-38
0.033576563 0.12270137 0.047982514 1.4457093e-38
0.03097304 0.052205503 0.054630041 1.4177588e-38
0.029023625 0.055057876 0.054208994 1.3532947e-38
0.03032542 0.11716914 0.047063947 1.8879909e-38
0.029414617 0.11979607 0.0476982 1.7220405e-38
0.029670499 0.12276905 0.048697054 1.7221134e-38
0.026027896 0.055854212 0.055299222 1.0953643e-38
0.023834072 0.058803376 0.053790629 9.760474e-39
0.025770538 0.120462 0.048905849 1.5374705e-38
0.021207429 0.057020172 0.056486964 8.3750256e-39
0.021136455 0.05936151 0.054819345 8.7423732e-39
0.021873675 0.12010683 0.049366891 1.261244e-38
0.019254409 0.057054013 0.056844234 8.1884638e-39
0.01796367 0.059668791 0.056251168 7.6360285e-39
0.017098181 0.12068221 0.050534248 7.73291e-39
0.014215209 0.059922658 0.057247221 8.8316794e-39
0.012474231 0.063928142 0.055401802 7.9047092e-39
0.015360095 0.12095901 0.050998986 6.8098635e-39
0.010679327 0.063479751 0.057205379 9.3812896e-39
0.075816475 0.095665246 0.01689446 1.3161662e-38
0.081767358 0.098147258 0.0043073893 1.4270165e-38
0.090319678 0.087312028 0.0067219138 2.2838616e-38
0.074466906 0.098099679 0.013632596 1.7033863e-38
0.052471399 0.094218105 0.023395658 1.297294e-38
0.11719369 0.099602826 0.016014397 1.0018344e-38
0.087547377 0.082927704 0.025859773 1.7218627e-38
0.11159521 0.058484755 0.027410686 7.1722295e-39
0.0954329 0.062396009 0.030752659 1.8966736e-38
0.11300137 0.075283222 0.029473603 8.8342101e-39
0.099024087 0.059438638 0.031825602 1.3621546e-38
0.022956431 0.11188444 0.041264951 1.4640712e-38
0.082400382 0.076905847 0.036748469 1.8328196e-38
0.091978595 0.058966503 0.037382782 1.8503614e-38
0.15584859 0.035046957 0.036782742 2.2662136e-38
0.15594992 0.037385948 0.035623312 2.2660703e-38
0.15531397 0.11461163 0.028527617 2.2841122e-38
0.1509026 0.03479106 0.03746438 2.3023709e-38
0.15110053 0.037068997 0.036446154 2.2657442e-38
0.15143059 0.11523929 0.029389143 2.2839322e-38
0.14710288 0.034019183 0.037983477 2.2378324e-38
0.148489 0.036453396 0.03698647 2.2564491e-38
0.14689776 0.11747582 0.029860735 2.2568126e-38
0.14348921 0.033746034 0.038548648 2.2563077e-38
0.14342608 0.11953135 0.031072795 2.2850479e-38
0.13950318 0.031359382 0.040148795 2.2286502e-38
0.13960984 0.033170816 0.038936138 2.2286863e-38
0.13942638 0.12194374 0.031071663 2.0267593e-38
0.13558027 0.031427354 0.040866375 2.274424e-38
0.13543139 0.032714535 0.039750576 2.2469458e-38
0.13546154 0.12341679 0.031357527 1.3811011e-38
0.13492644 0.12541421 0.032084167 1.2890124e-38
0.13165736 0.031495325 0.041583955 2.1633588e-38
0.1315141 0.032782409 0.040467083 2.1639692e-38
0.13156155 0.12337483 0.032217503 1.0774664e-38
0.132965 0.1254482 0.032442987 1.1325674e-38
0.12773445 0.031563297 0.042301536 2.1820124e-38
0.12736282 0.033390813 0.041379869 2.154678e-38
0.12768888 0.12261646 0.033344448 1.2430577e-38
0.12381156 0.031631269 0.043019116 2.0901043e-38
0.12374554 0.033597365 0.042334259 2.0258918e-38
0.1232357 0.11126117 0.035173953 8.1024086e-39
0.12309172 0.11495219 0.034748673 9.3016468e-39
0.12294815 0.11917075 0.034273505 1.1051189e-38
0.12381157 0.121636 0.034493506 1.1970657e-38
0.11982545 0.033665288 0.043051362 1.8137707e-38
0.12119628 0.11638691 0.035473347 7.7393714e-39
0.12119628 0.11771051 0.035347939 8.2893096e-39
0.1163208 0.034821238 0.043418527 1.7033143e-38
0.1117905 0.038052492 0.044045806 1.5923546e-38
0.10681231 0.035896603 0.045752406 2.1728261e-38
0.10807147 0.038500648 0.044819415 2.0164528e-38
0.10384462 0.035606429 0.046072304 2.2929319e-38
0.10426957 0.038381655 0.045092702 2.3025467e-38
0.10417662 0.11135724 0.038886666 1.6291576e-38
0.1028894 0.11405692 0.039072752 1.7487962e-38
0.10004947 0.034829367 0.046463311 2.2468012e-38
0.10104636 0.037715998 0.045622945 2.3208075e-38
0.10019254 0.1119919 0.038915038 1.9888317e-38
0.10027415 0.11476403 0.039488554 1.9706815e-38
0.096311517 0.035114788 0.047326863 2.1455289e-38
0.096258573 0.037358388 0.046540439 2.1178351e-38
0.097060926 0.11562097 0.039183259 2.2103569e-38
0.095900208 0.11900449 0.039723754 2.2936565e-38
0.092733003 0.035798959 0.048104763 2.0620879e-38
0.092341296 0.038087115 0.047194421 2.034534e-38
0.092360631 0.11940797 0.039714754 2.2291549e-38
0.088505439 0.036213808 0.049101174 2.1266946e-38
0.088437259 0.038162205 0.04807806 2.1172237e-38
0.088424005 0.12076142 0.04008615 2.0999012e-38
0.088211693 0.12271585 0.040552974 2.1551113e-38
0.08458253 0.036281779 0.049818754 2.2093128e-38
0.08483316 0.03788678 0.048599064 2.2002718e-38
0.085812479 0.12080666 0.040563822 1.970576e-38
0.084813349 0.12303946 0.041149557 1.9612136e-38
0.080636211 0.036335886 0.050201416 2.2373671e-38
0.080262996 0.037965968 0.049435079 2.2187491e-38
0.080624521 0.12428573 0.04170239 2.164079e-38
0.076704428 0.035735086 0.050813735 2.0808143e-38
0.076672152 0.037697755 0.050123215 2.1083292e-38
0.076946586 0.12443067 0.04206109 2.1916992e-38
0.076394133 0.12671635 0.042508245 2.2007399e-38
0.072784334 0.035803009 0.051530778 1.9701808e-38
0.072754875 0.03776563 0.050839722 2.1175849e-38
0.074060634 0.12497539 0.042337894 2.3205937e-38
0.072398379 0.12750894 0.042696536 2.302368e-38
0.068881691 0.035884891 0.052583754 1.9335527e-38
0.068837583 0.037833504 0.051556289 1.9980162e-38
0.068864234 0.12845746 0.043477714 2.2103178e-38
0.065621816 0.036610309 0.05328697 1.8873101e-38
0.064920306 0.037901379 0.052272856 1.9240087e-38
0.065573186 0.12908757 0.043514788 1.9432008e-38
0.064936832 0.13047943 0.043840885 2.0441134e-38
0.06104511 0.036689613 0.054124236 1.7674931e-38
0.061003022 0.037969254 0.052989364 1.6571453e-38
0.060581788 0.13231842 0.044470429 2.0723488e-38
0.061045103 0.13463594 0.044846296 1.9704671e-38
0.057122216 0.036757585 0.054841757 1.7121753e-38
0.057085745 0.038037129 0.053705931 1.666437e-38
0.057085745 0.13187803 0.044816911 2.0078802e-38
0.053199306 0.036825556 0.055559337 1.6014686e-38
0.052907303 0.038638212 0.054420173 1.5556944e-38
0.05286514 0.12910897 0.046624124 1.5466578e-38
0.053454272 0.13129061 0.046359837 1.7774667e-38
0.049255058 0.04016313 0.055119991 1.5278576e-38
0.048598297 0.042149302 0.054882884 1.4542077e-38
0.049532488 0.12871212 0.047327876 1.5005603e-38
0.049276404 0.13086906 0.047375202 1.7221859e-38
0.045501769 0.043702699 0.055562556 1.4728261e-38
0.044028126 0.046193592 0.05534327 1.6200148e-38
0.045564577 0.12800832 0.04799068 1.5283954e-38
0.042302363 0.04451476 0.056842148 1.5281084e-38
0.041420631 0.046257459 0.0561589 1.7026687e-38
0.040763736 0.12555233 0.048428535 1.5100995e-38
0.041425921 0.12741822 0.048810422 1.5008796e-38
0.036849685 0.048330456 0.056976318 1.5923542e-38
0.037503496 0.12503287 0.049590051 1.4546753e-38
0.037507683 0.12710218 0.049904048 1.4273035e-38
0.034892417 0.049055144 0.05777961 1.4726454e-38
0.03358233 0.050360277 0.057216883 1.4543152e-38
0.033583395 0.12510081 0.050307155 1.4918781e-38
0.032277144 0.1271928 0.050860763 1.4085401e-38
0.029011883 0.053062297 0.057464004 1.3165994e-38
0.029990934 0.12479016 0.050744295 1.5375462e-38
0.027046598 0.053161882 0.058838606 1.1599021e-38
0.024873503 0.054918744 0.058392406 9.38597e-39
0.026069663 0.12357745 0.05183816 1.500701e-38
0.021824174 0.055857595 0.058934331 8.6494643e-39
0.020954363 0.1215446 0.052804649 1.1321369e-38
0.022469871 0.12339193 0.053030849 1.1138009e-38
0.017902561 0.056594182 0.059690416 8.7391026e-39
0.016607158 0.058564041 0.059232295 8.3739424e-39
0.019218676 0.12196052 0.052745163 9.7533386e-39
0.017902099 0.12404986 0.053300858 7.2744808e-39
0.015301384 0.057264961 0.05959636 9.294461e-39
0.011384107 0.060637094 0.059999883 1.1222289e-38
0.10486891 0.083308384 0.017771006 1.3250966e-38
0.064261042 0.088796429 0.019998729 1.2610632e-38
0.057354525 0.095372804 0.022477388 1.2612439e-38
0.075458989 0.086448245 0.023581386 1.7490175e-38
0.10113532 0.081400439 0.023340642 2.2461915e-38
0.080987588 0.069489643 0.030390739 9.205501e-39
0.040089309 0.081798688 0.033379674 1.3809166e-38
0.065468766 0.073288724 0.027985334 1.9058588e-38
0.097128935 0.086656772 0.023519516 1.8143821e-38
0.07738556 0.085736446 0.028646648 1.3901012e-38
0.071154132 0.085914932 0.029894948 1.279575e-38
0.063659474 0.1190566 0.031541407 1.5650609e-38
0.093586594 0.075758614 0.030192375 1.7031698e-38
0.11648607 0.069694042 0.027100921 1.8321009e-38
0.10883458 0.071529821 0.030032337 1.6756562e-38
0.08262793 0.079711571 0.032989383 1.2242213e-38
0.059191994 0.05431141 0.038952768 1.9795411e-38
0.098393701 0.06392359 0.035842776 1.9889057e-38
0.032455094 0.055574171 0.050025225 1.4728612e-38
0.099045537 0.066405132 0.04036659 2.0443312e-38
0.1525981 0.033529613 0.039568961 2.2842203e-38
0.15301256 0.11822477 0.031980395 2.2749638e-38
0.15332888 0.12051226 0.03357774 2.2658874e-38
0.14949459 0.028705575 0.043662548 2.2843621e-38
0.14880948 0.030743949 0.04169929 2.2563094e-38
0.14964749 0.032585192 0.040202975 2.2833588e-38
0.14899179 0.11887701 0.03215009 2.265924e-38
0.1491628 0.12150539 0.034058094 2.2567412e-38
0.14587283 0.028435059 0.044356585 2.2470526e-38
0.14489257 0.030564874 0.041884661 2.256235e-38
0.14542475 0.12196779 0.033792317 2.2847593e-38
0.14554359 0.12475582 0.03529346 2.2843281e-38
0.14159259 0.02817595 0.045171082 2.2286858e-38
0.14164586 0.030444898 0.043159127 2.2286143e-38
0.14199777 0.12253791 0.033094108 2.2757925e-38
0.14122629 0.12558819 0.034844339 2.238627e-38
0.13731232 0.028583389 0.045922458 2.2101022e-38
0.13653368 0.030157633 0.042853236 2.2283982e-38
0.13850075 0.12436835 0.033566177 1.8330073e-38
0.13712248 0.12677787 0.034613609 1.5659983e-38
0.13632458 0.1289148 0.036601007 1.5287286e-38
0.13369057 0.028312869 0.046616554 2.1730461e-38
0.13259953 0.030225798 0.043572843 2.1635388e-38
0.1324771 0.12680079 0.035128295 1.1142713e-38
0.13331035 0.12935984 0.036298156 1.2801142e-38
0.1296937 0.028371025 0.047008276 2.0899987e-38
0.12932108 0.030282605 0.044172525 2.1082552e-38
0.12945965 0.1266894 0.036036253 1.3074506e-38
0.13039806 0.12901749 0.037685037 1.3443634e-38
0.12574333 0.028439473 0.047730863 2.1452065e-38
0.12543094 0.030361731 0.045223475 2.1545328e-38
0.12407555 0.1073622 0.037839353 7.7292961e-39
0.12407555 0.10868959 0.037713647 7.8283132e-39
0.12538692 0.12371065 0.03604877 1.2707168e-38
0.1256547 0.12604088 0.037821174 1.362838e-38
0.12183756 0.029184785 0.048721552 1.9888335e-38
0.12126748 0.03097422 0.046206176 1.9611747e-38
0.12145279 0.10608026 0.038444877 6.4396545e-39
0.12128887 0.10989936 0.038113356 7.1811586e-39
0.12079711 0.11405597 0.037810385 7.2766024e-39
0.12057854 0.11914809 0.037368357 8.2886146e-39
0.1215163 0.12319766 0.037322342 1.1144859e-38
0.12183756 0.12583311 0.039566636 1.2250835e-38
0.11920356 0.029230423 0.049203396 1.9426282e-38
0.11764036 0.031184211 0.047264278 1.9427355e-38
0.11620726 0.033164609 0.046319842 1.8319591e-38
0.11764129 0.1062896 0.040149808 5.7924704e-39
0.11764129 0.11027746 0.039772093 6.0783983e-39
0.11759979 0.11421448 0.039066374 5.8925946e-39
0.11774697 0.11848477 0.038770914 6.0773544e-39
0.11756817 0.12253395 0.039390504 7.9180356e-39
0.11788656 0.12576826 0.040301979 9.9437933e-39
0.11525256 0.029298883 0.049926102 2.0901392e-38
0.11368317 0.031796839 0.049213171 1.9889045e-38
0.11324301 0.034934293 0.04699111 1.7583811e-38
0.11386569 0.10652117 0.040824711 7.9025428e-39
0.11370153 0.11034572 0.040492713 6.4428452e-39
0.11388315 0.11457187 0.041647494 6.7190888e-39
0.11472576 0.11862439 0.041562021 6.0783927e-39
0.11481356 0.1217334 0.041251361 6.6283715e-39
0.11006564 0.032192316 0.049843371 2.0625534e-38
0.10905039 0.03507892 0.047970116 2.0069475e-38
0.1100627 0.10738157 0.04118979 1.3703972e-38
0.10905086 0.11035182 0.040839911 1.0400042e-38
0.10932612 0.11434565 0.041292787 9.3877636e-39
0.10866755 0.11739628 0.042796493 1.1602935e-38
0.10471655 0.029481441 0.051853299 2.2373294e-38
0.10609242 0.031919088 0.050347269 2.2006298e-38
0.10484197 0.03424646 0.048314989 2.2650588e-38
0.10535692 0.1145355 0.040760517 1.3531831e-38
0.10568629 0.11785442 0.04248631 1.3169515e-38
0.10208254 0.028860539 0.052398264 2.2374013e-38
0.1018682 0.031737674 0.049976945 2.2376159e-38
0.10309346 0.03339183 0.048718631 2.2651314e-38
0.10309346 0.11569011 0.040922999 1.7491564e-38
0.10187193 0.11850943 0.041789174 1.9523839e-38
0.10142405 0.12152103 0.043742657 2.0906764e-38
0.098460786 0.029256564 0.05302918 2.2372585e-38
0.097942479 0.031526145 0.050867379 2.2188908e-38
0.097847931 0.033482719 0.049678147 2.2189987e-38
0.098285057 0.11953437 0.041446328 2.266248e-38
0.097990684 0.12288673 0.042715013 2.2939414e-38
0.098131545 0.12557732 0.043966055 2.3393195e-38
0.094839044 0.029652584 0.053660095 2.1359878e-38
0.093815096 0.031882506 0.05159533 2.0898176e-38
0.093913794 0.033993345 0.050355852 2.080707e-38
0.093958251 0.12323302 0.042405128 2.2754325e-38
0.093846761 0.12604894 0.043895245 2.2841127e-38
0.08991915 0.032172445 0.052542269 2.0624438e-38
0.090327851 0.034618784 0.051213801 2.0898172e-38
0.090241916 0.12414262 0.042494237 2.2750359e-38
0.090104297 0.12701471 0.043779492 2.2560213e-38
0.088912532 0.1297363 0.045273602 2.264845e-38
0.086174972 0.03241815 0.053635478 2.163465e-38
0.086045504 0.035014607 0.051711321 2.1910878e-38
0.086045504 0.12527724 0.043161273 2.0811037e-38
0.086149707 0.1274977 0.044293463 2.154752e-38
0.086937033 0.12977053 0.045634925 2.2559137e-38
0.082327522 0.02986937 0.055948734 2.200382e-38
0.08238408 0.032311805 0.054175019 2.2648453e-38
0.081783518 0.034756608 0.052522361 2.2466231e-38
0.083422743 0.12532268 0.043641031 2.062735e-38
0.082172044 0.12748013 0.04451865 2.18248e-38
0.081669025 0.1298618 0.046598554 2.2469455e-38
0.078376517 0.02993783 0.056671441 2.2187115e-38
0.078232586 0.031861477 0.05430311 2.1820131e-38
0.078505062 0.034149721 0.053184927 2.1730457e-38
0.078522146 0.12777394 0.044568598 2.1822638e-38
0.07833349 0.1298026 0.046538949 2.1452056e-38
0.074425519 0.030006289 0.057394147 2.0994673e-38
0.074294075 0.031929716 0.055023551 2.0713788e-38
0.074243061 0.033891719 0.053995967 2.0249225e-38
0.074243069 0.12813653 0.045068681 2.3387785e-38
0.074615948 0.13057247 0.046607494 2.1175114e-38
0.070474505 0.030074749 0.058116853 1.9517403e-38
0.07038191 0.032015409 0.056248069 1.9702504e-38
0.070308924 0.033959884 0.054715574 1.9334825e-38
0.070382223 0.13176067 0.046799719 2.2468019e-38
0.070474505 0.13405502 0.048267424 2.0997563e-38
0.067840509 0.030120388 0.058598697 1.8597247e-38
0.066279255 0.032389786 0.057504773 1.8229545e-38
0.065500528 0.035149354 0.055490315 1.813521e-38
0.06679032 0.13222979 0.047843695 2.1363803e-38
0.061914012 0.030223075 0.059682727 1.8042989e-38
0.062513903 0.032828119 0.05796355 1.8135191e-38
0.061784953 0.035434969 0.056149065 1.8776605e-38
0.063119255 0.13240109 0.047228336 2.054127e-38
0.063187063 0.13400008 0.048596382 2.1550364e-38
0.058621496 0.030280124 0.060285032 1.528253e-38
0.05858703 0.032913074 0.059134245 1.7216831e-38
0.058531448 0.035518609 0.057422519 1.8318861e-38
0.057657175 0.13488795 0.048171163 1.9983759e-38
0.0559875 0.030325763 0.060766816 1.5833182e-38
0.054830082 0.033359986 0.059817731 1.656823e-38
0.054594778 0.035586804 0.058142483 1.6753693e-38
0.05393786 0.13524802 0.048823535 1.8417521e-38
0.052007541 0.033688433 0.060161591 1.6848089e-38
0.050467454 0.036592852 0.060000479 1.6752253e-38
0.04932683 0.038305614 0.058176398 1.5647362e-38
0.050638214 0.13252769 0.049009264 1.7774322e-38
0.050829455 0.1351961 0.04974252 1.7037473e-38
0.047086075 0.03812287 0.061160505 1.5095235e-38
0.045392692 0.039701171 0.058770299 1.4723918e-38
0.04670687 0.13148367 0.049979627 1.6392803e-38
0.046717763 0.13470815 0.050207138 1.6299542e-38
0.042790592 0.041134894 0.060427845 1.4912995e-38
0.042769924 0.043065093 0.058935702 1.4728275e-38
0.041458547 0.12870458 0.051065624 1.5008815e-38
0.042785995 0.13151462 0.05157572 1.648394e-38
0.042530216 0.13478099 0.05172199 1.3815301e-38
0.03952498 0.04260873 0.06264168 1.5009525e-38
0.038846798 0.044522077 0.060713291 1.5923581e-38
0.03818009 0.046463102 0.059460938 1.666257e-38
0.038835771 0.12875003 0.051545382 1.4457074e-38
0.038855128 0.13174087 0.053187609 1.4550711e-38
0.038427472 0.13505466 0.0540874 1.1694828e-38
0.035793476 0.046228264 0.062987506 1.519136e-38
0.034575626 0.048213772 0.060470939 1.4450944e-38
0.03463991 0.12832649 0.052564144 1.3445071e-38
0.035097823 0.13141927 0.053879142 1.243128e-38
0.034908094 0.13576022 0.053308368 7.5539586e-39
0.0309655 0.04933789 0.062154174 1.1966708e-38
0.030311815 0.051245309 0.06046015 1.3070183e-38
0.029000424 0.12626565 0.05359596 1.3907492e-38
0.030965991 0.12848216 0.054555058 1.252346e-38
0.032281481 0.13138407 0.05556941 1.0129258e-38
0.028330483 0.05080118 0.063931704 1.1134436e-38
0.027025156 0.052493274 0.062310278 1.1042612e-38
0.02637767 0.1256474 0.054138541 1.3351465e-38
0.026803456 0.12814015 0.055526018 1.0674189e-38
0.023086958 0.053427123 0.062608242 8.3711006e-39
0.022443511 0.054700118 0.061585069 8.5558478e-39
0.023099191 0.12504052 0.054801106 1.0586241e-38
0.022914089 0.12783334 0.05635798 9.1147613e-39
0.019147195 0.053495385 0.063328862 9.9344326e-39
0.018509381 0.054768287 0.062304676 9.4759488e-39
0.018930979 0.12436681 0.056485415 7.9155413e-39
0.019149162 0.12791617 0.056165576 8.381864e-39
0.018509381 0.13042961 0.055137753 8.8432022e-39
0.01608295 0.054434672 0.063805461 1.0487613e-38
0.015874885 0.056175988 0.063168168 9.7511161e-39
0.015886612 0.12383809 0.056246161 6.6283758e-39
0.016520701 0.12798101 0.056758046 7.9209026e-39
0.099775903 0.07821814 0.016865611 1.7030284e-38
0.080570512 0.082329512 0.016750097 1.3709788e-38
0.059746973 0.085323535 0.021329343 1.2150372e-38
0.063873082 0.093910232 0.02330792 1.3256014e-38
0.058192946 0.082110278 0.026688159 1.5558023e-38
0.076404288 0.085526288 0.02885139 1.3530066e-38
0.075206712 0.078301407 0.033850968 1.6758006e-38
0.10885392 0.071992405 0.029842913 1.7769993e-38
0.041332722 0.12190281 0.042541504 1.5933632e-38
0.071424007 0.067469403 0.035303533 1.2332968e-38
0.10207785 0.064154148 0.037130594 2.0168522e-38
0.15370545 0.12286575 0.035498142 2.2480247e-38
0.15397751 0.12592795 0.038323879 2.2389136e-38
0.1504973 0.02427344 0.048390985 2.2749999e-38
0.14985776 0.026764553 0.045992255 2.2842541e-38
0.14972827 0.12625787 0.036804497 2.2479893e-38
0.1503326 0.1295497 0.039061964 2.2484925e-38
0.14616451 0.02419861 0.048619032 2.2747117e-38
0.14557251 0.026694492 0.046415269 2.2470531e-38
0.14578657 0.12701073 0.036567032 2.2569567e-38
0.14635348 0.12961864 0.039789855 2.2389497e-38
0.14214832 0.023589879 0.049134195 2.210068e-38
0.14174896 0.026203144 0.046350479 2.2194661e-38
0.1424875 0.12773538 0.037107229 2.3035927e-38
0.14211503 0.12939955 0.03889066 2.2941579e-38
0.13706893 0.021032017 0.051789165 2.2375815e-38
0.13817777 0.023659103 0.049860477 2.2189989e-38
0.1380561 0.026801117 0.046975374 2.22829e-38
0.13804388 0.13046968 0.038859844 1.9164857e-38
0.13701931 0.13509023 0.040653944 2.1647306e-38
0.13422267 0.023730278 0.050697088 2.2005611e-38
0.1338357 0.026340254 0.047797978 2.2005966e-38
0.13434775 0.13168493 0.039001346 1.4734784e-38
0.1341645 0.13473885 0.041116714 1.7685758e-38
0.13025108 0.023799095 0.051423728 2.1821216e-38
0.12987909 0.02640881 0.048521757 2.145244e-38
0.1297701 0.1310225 0.039215922 1.4366688e-38
0.13034408 0.13514484 0.041540265 1.7315142e-38
0.12623483 0.024530437 0.05175519 2.1451003e-38
0.12592247 0.026477367 0.049245477 2.1451714e-38
0.12526301 0.12794702 0.039755523 1.455067e-38
0.12620467 0.13097645 0.041450739 1.5100982e-38
0.12675563 0.13427624 0.042710304 1.5650232e-38
0.12228648 0.024603136 0.052647293 2.1544265e-38
0.12202996 0.027227048 0.050403476 2.0533703e-38
0.12174603 0.12711798 0.040483236 1.2526349e-38
0.1227484 0.13068771 0.042683363 1.3260677e-38
0.11843844 0.024697419 0.054369748 2.1545697e-38
0.11789034 0.027795698 0.050985932 2.0624808e-38
0.1180092 0.12773897 0.041113973 9.847646e-39
0.11841737 0.12998568 0.044230103 1.1134414e-38
0.11449093 0.025108367 0.05531472 2.1916616e-38
0.11401868 0.027885392 0.052457988 2.1454563e-38
0.11306342 0.11881357 0.04287225 7.0875364e-39
0.11363215 0.12328162 0.042514324 8.0112682e-39
0.11436301 0.12684917 0.043147802 1.2059214e-38
0.11549035 0.12962684 0.042421341 1.4269033e-38
0.11054154 0.025519349 0.056260049 2.2743878e-38
0.11024449 0.028123967 0.053344727 2.2375445e-38
0.10877708 0.030779369 0.052002311 2.1911623e-38
0.11031652 0.1191089 0.043861866 1.0215687e-38
0.1102812 0.12314427 0.044677615 1.2613833e-38
0.11046697 0.12677051 0.046001971 1.7775051e-38
0.10652719 0.025579702 0.056654871 2.2834287e-38
0.10637076 0.028002668 0.053347647 2.2833915e-38
0.10245042 0.025622722 0.056381822 2.2468357e-38
0.10218272 0.026888702 0.053587973 2.2560554e-38
0.10242862 0.12347987 0.044976592 1.9615676e-38
0.10246155 0.12748541 0.046844423 2.072168e-38
0.10258334 0.13037705 0.047796309 2.1274876e-38
0.098540582 0.025708869 0.057776093 2.283678e-38
0.098074645 0.027529661 0.055510938 2.2559126e-38
0.099544957 0.1243877 0.044839203 2.2290099e-38
0.098357238 0.12748218 0.046169519 2.2196086e-38
0.098334782 0.13125864 0.047621489 2.0625187e-38
0.09462513 0.025795132 0.059171498 2.2739571e-38
0.094182394 0.028014872 0.056124926 2.2280032e-38
0.094621874 0.1281876 0.04564321 2.3206668e-38
0.094437823 0.13148746 0.047038317 2.2653851e-38
0.094566472 0.13442284 0.048211694 2.274605e-38
0.091309212 0.02585258 0.059777975 2.2923937e-38
0.090423882 0.028467387 0.056970239 2.2558394e-38
0.091631711 0.12852976 0.045907378 2.2835369e-38
0.090571627 0.13158619 0.04696238 2.2373305e-38
0.090604372 0.13519298 0.049040258 2.1917727e-38
0.085340559 0.025955997 0.060869753 2.3111568e-38
0.086459801 0.028536089 0.057695448 2.2558774e-38
0.086256839 0.13187891 0.047749221 2.2559121e-38
0.086444147 0.13556568 0.049845755 2.1361673e-38
0.082687818 0.026001967 0.061355054 2.2191419e-38
0.082523108 0.028234288 0.05883956 2.2097452e-38
0.082691483 0.13199139 0.048688471 2.2654903e-38
0.082658999 0.13521449 0.050606787 2.2099947e-38
0.078708708 0.026070915 0.062082946 2.1545339e-38
0.078586608 0.028029926 0.060047507 2.163682e-38
0.078476183 0.13218479 0.048499763 2.1642569e-38
0.078598596 0.13518862 0.050064981 2.2747834e-38
0.074729592 0.026139859 0.062810779 2.0531918e-38
0.074607968 0.028093938 0.060605526 2.0623742e-38
0.074507236 0.13289116 0.048995197 2.1179459e-38
0.074568376 0.13507663 0.049798191 2.1733345e-38
0.070750497 0.026208807 0.063538611 1.9616423e-38
0.070640102 0.028162688 0.061331332 1.9887266e-38
0.07066378 0.1360148 0.0515486 2.0628056e-38
0.067434579 0.026266251 0.064145148 1.8509729e-38
0.066482581 0.028720353 0.06153512 1.8323167e-38
0.066683456 0.13604613 0.052069366 2.0073811e-38
0.061423831 0.026342791 0.064225972 1.5554807e-38
0.062886767 0.028578743 0.062577009 1.7582734e-38
0.062942147 0.13676095 0.051852345 1.8877061e-38
0.063364759 0.13873816 0.05219996 1.8505747e-38
0.058962338 0.028468072 0.062436342 1.4630706e-38
0.059998825 0.13651271 0.051500022 1.8879228e-38
0.054766774 0.030001827 0.064086735 1.592862e-38
0.054043777 0.031727728 0.062014103 1.6478538e-38
0.050854973 0.03058121 0.066796362 1.6206632e-38
0.050418198 0.033001803 0.064459205 1.6297391e-38
0.0473141 0.033768717 0.066977739 1.3991059e-38
0.046546169 0.036437821 0.06397295 1.4543862e-38
0.043038778 0.037530962 0.066048741 1.3713757e-38
0.041514464 0.039954685 0.063547254 1.4913715e-38
0.039797872 0.038365766 0.067759335 1.371733e-38
0.035595618 0.041529678 0.067426622 1.150646e-38
0.034481376 0.044989191 0.064708829 1.3993561e-38
0.034264348 0.13370799 0.057025909 8.7485249e-39
0.032020576 0.042164922 0.068766654 9.9380437e-39
0.031126045 0.045776613 0.067466199 1.1134444e-38
0.030304037 0.048158787 0.064839125 1.1319894e-38
0.029644601 0.12960379 0.057246029 1.022254e-38
0.030521549 0.13166364 0.058591187 9.5753471e-39
0.028306715 0.043054961 0.069776356 9.7525721e-39
0.027929373 0.04553882 0.06931895 8.8295648e-39
0.027004011 0.049576044 0.065751612 9.7500764e-39
0.02568797 0.052243695 0.065304101 9.7432661e-39
0.027006842 0.12964949 0.057728529 8.9278617e-39
0.026992895 0.13236754 0.059953988 9.8551667e-39
0.025679491 0.1351936 0.058469594 5.0603858e-39
0.02406656 0.045930997 0.069980145 1.2423328e-38
0.023295872 0.049576119 0.067632258 1.0301763e-38
0.023041435 0.052331984 0.066465139 8.1874296e-39
0.024369098 0.12969521 0.058211029 9.9401975e-39
0.024358742 0.13521649 0.058711171 9.5707298e-39
0.019525222 0.050155442 0.067149997 1.1963431e-38
0.019088261 0.052379258 0.066849768 1.0673428e-38
0.01556877 0.052885234 0.067451417 1.1592888e-38
0.10929417 0.082794443 0.016443193 1.9336253e-38
0.063471608 0.084992997 0.024287283 1.5282872e-38
0.06885051 0.07884755 0.029985607 1.1691183e-38
0.070495747 0.077343494 0.032091081 1.5191741e-38
0.086261064 0.07516934 0.028570652 1.5926809e-38
0.15046096 0.022544637 0.05198276 2.2291181e-38
0.15199792 0.12852554 0.04089427 2.2573877e-38
0.15027967 0.1304096 0.041373312 2.2392728e-38
0.14667746 0.022255741 0.051942527 2.1640439e-38
0.14683944 0.13148506 0.04258728 2.2392374e-38
0.14284348 0.020997748 0.053790629 2.0903584e-38
0.14273985 0.13143781 0.042667449 2.2943025e-38
0.1388475 0.020617571 0.054564118 2.20056e-38
0.13951349 0.13296025 0.043799579 2.1933206e-38
0.1388475 0.13432004 0.043793678 2.3407595e-38
0.13741626 0.1396126 0.042875648 1.9518779e-38
0.13751552 0.14243262 0.043271065 7.3471998e-39
0.13485155 0.021136221 0.055252492 2.246479e-38
0.13537148 0.13689177 0.043170393 2.1462535e-38
0.13478681 0.1397001 0.043579578 2.0343198e-38
0.13451853 0.1428216 0.04378736 1.2066477e-38
0.13152155 0.021193918 0.055861533 2.2466213e-38
0.13082416 0.13981031 0.044527471 2.0728514e-38
0.13118857 0.14287931 0.04439646 1.2898454e-38
0.12619361 0.021286234 0.056836128 2.2557696e-38
0.12672573 0.022601441 0.05559206 2.1912691e-38
0.12679219 0.13645926 0.045305312 1.7680344e-38
0.12286364 0.021343935 0.057445288 2.2465858e-38
0.1227775 0.022677787 0.056653917 2.2095641e-38
0.12140527 0.13174833 0.046235204 1.1599399e-38
0.12413055 0.13515855 0.045919776 1.5100276e-38
0.11886769 0.021413174 0.058176279 2.2834276e-38
0.11874504 0.022739723 0.057051897 2.2280385e-38
0.11484867 0.023365207 0.058528721 2.2375795e-38
0.11342458 0.1291939 0.047950089 1.7500889e-38
0.11082003 0.023562126 0.058947265 2.2743874e-38
0.11080209 0.12929721 0.048764706 2.1288893e-38
0.10954375 0.13078302 0.049537063 2.2771585e-38
0.10682641 0.023968384 0.059645832 2.2649895e-38
0.10646745 0.13104175 0.04931432 2.2294803e-38
0.10288382 0.024386626 0.0608446 2.2375096e-38
0.10252623 0.13254558 0.050409853 2.1368147e-38
0.09882544 0.024439793 0.060907602 2.311265e-38
