# .PCD v0.7 - Point Cloud Data file format
VERSION 0.7
FIELDS x y z rgb
SIZE 4 4 4 4
TYPE F F F F
COUNT 1 1 1 1
WIDTH 984
HEIGHT 1
VIEWPOINT 0 0 0 0 1 0 0
POINTS 984
DATA ascii
0.11684038 0.13837452 0.021080911 1.3261418e-38
0.11287959 0.079395548 0.012823522 1.6112665e-38
0.11269154 0.082918972 0.012021899 1.666402e-38
0.11225815 0.087284893 0.011982739 1.5559119e-38
0.11144581 0.090679511 0.012530684 1.4821179e-38
0.11162633 0.13115504 0.018374622 1.2064663e-38
0.11268903 0.13402715 0.019962549 1.2432718e-38
0.11287959 0.13786383 0.021283448 1.2986255e-38
0.10844349 0.079351678 0.013126791 1.0493371e-38
0.10832635 0.082513236 0.012782156 1.0585584e-38
0.10783231 0.087201677 0.012504697 1.0584146e-38
0.10783537 0.09100198 0.012829244 1.1597589e-38
0.10783537 0.13111755 0.018633783 9.3960313e-39
0.10832247 0.13422212 0.020601988 9.762646e-39
0.10882373 0.13744649 0.021506131 1.086792e-38
0.10414115 0.082901932 0.0135355 8.374297e-39
0.10402773 0.087047204 0.013422966 8.3735655e-39
0.10403164 0.090850867 0.01374799 9.662889e-39
0.10361978 0.13022184 0.018967152 8.0037082e-39
0.10401616 0.13405742 0.020844758 8.558684e-39
0.10426088 0.13765284 0.021854401 8.6505391e-39
0.10105806 0.083948821 0.013969779 4.5975355e-39
0.10038137 0.087104872 0.014051557 5.8825304e-39
0.10021558 0.090661637 0.014887333 8.4629319e-39
0.10000069 0.093933158 0.013800144 1.2425152e-38
0.098983251 0.11031093 0.016494155 1.1049388e-38
0.099402294 0.12681702 0.018937588 1.0587711e-38
0.10021537 0.12961555 0.020523727 1.1416742e-38
0.10083875 0.13334391 0.021469772 1.1786611e-38
0.10147248 0.1371223 0.021972239 1.1419625e-38
0.097670108 0.088046789 0.015136778 5.4229774e-39
0.096719518 0.091180846 0.01565659 8.2752784e-39
0.096273124 0.094242796 0.014394522 1.7403331e-38
0.095704257 0.10617606 0.015871465 1.2338335e-38
0.097422212 0.10970003 0.018084586 1.0868228e-38
0.097286224 0.1146256 0.01765883 7.085398e-39
0.096462458 0.11721534 0.017415881 6.2538367e-39
0.097726122 0.1234959 0.018236399 8.0055663e-39
0.097726122 0.12474951 0.018417835 8.6502112e-39
0.092816338 0.094395243 0.014748275 2.1919521e-38
0.092910737 0.1065917 0.016531706 1.2613153e-38
0.092600286 0.10811476 0.018394291 1.2335073e-38
0.089186594 0.093596607 0.014759362 2.2557691e-38
0.088853613 0.1082691 0.017327607 1.2427658e-38
0.086353213 0.093296722 0.014660537 2.32052e-38
0.083509982 0.10674493 0.016804814 1.307342e-38
0.085057586 0.10823156 0.017587125 1.2704976e-38
0.080719337 0.090998441 0.01613915 2.3204501e-38
0.080008104 0.10663757 0.017540157 1.3440745e-38
0.080559447 0.10799567 0.019217372 1.3073403e-38
0.076184921 0.089263484 0.015799463 2.2842922e-38
0.076243974 0.10698646 0.017346919 1.288866e-38
0.076123349 0.10795179 0.01952064 1.2980854e-38
0.073084816 0.088151038 0.014842033 2.2752531e-38
0.073084816 0.10695522 0.017562807 1.2614209e-38
0.072342344 0.10796224 0.0194484 1.2706784e-38
0.069152333 0.10788283 0.01999718 1.2153257e-38
0.055405069 0.11042164 0.020166457 1.4729686e-38
0.056929864 0.11325563 0.021289945 1.5095584e-38
0.050872535 0.10533459 0.019891381 1.0491558e-38
0.052802138 0.10872702 0.021260381 1.1228428e-38
0.04697185 0.091317482 0.01914829 1.5005201e-38
0.048067883 0.10176124 0.019772589 9.8476376e-39
0.049506754 0.10391638 0.020794332 9.9380451e-39
0.044318229 0.093710668 0.019299924 1.3899587e-38
0.044531494 0.097721055 0.019344807 1.2703194e-38
0.044711612 0.10063073 0.020451009 1.0580553e-38
0.12866201 0.11431022 0.010697126 1.6849123e-38
0.11648598 0.096431479 0.0076676607 1.8783433e-38
0.11595315 0.10614635 0.0081278086 1.684769e-38
0.11508895 0.11149348 0.0094643235 1.7401928e-38
0.14163126 0.11842203 0.0095541477 1.5191049e-38
0.12196058 0.11417666 0.010762811 1.3995017e-38
0.17151141 0.087449893 0.013948262 1.6661128e-38
0.14680196 0.093675628 0.012804389 1.3993557e-38
0.13456169 0.10029234 0.0123083 1.3900647e-38
0.16357785 0.12893492 0.016453266 1.8972142e-38
0.16217257 0.1197457 0.013196051 1.5560192e-38
0.13378294 0.11742593 0.01648736 1.731297e-38
0.17151141 0.13235465 0.020445645 1.8698407e-38
0.16880192 0.086948745 0.014064848 2.1182271e-38
0.16889203 0.090736702 0.013706386 2.0719874e-38
0.16934474 0.094143167 0.013447404 1.9894439e-38
0.16904277 0.13007022 0.019274652 2.044905e-38
0.16862342 0.13266924 0.020439506 2.1559732e-38
0.16386107 0.084211916 0.014013648 2.3234011e-38
0.16510403 0.086831465 0.013855815 2.3044932e-38
0.16516805 0.090688713 0.013087213 2.2851549e-38
0.16626197 0.09342245 0.013153136 2.2293388e-38
0.16515896 0.13012889 0.018667936 2.0080657e-38
0.1649026 0.13326946 0.020315886 2.1740568e-38
0.16386107 0.13607374 0.021517694 2.2669725e-38
0.16022703 0.083814107 0.013872087 2.2673294e-38
0.16059157 0.086928263 0.013368905 2.2573897e-38
0.16202445 0.09001746 0.012956202 2.2568862e-38
0.1624482 0.1312193 0.018888235 2.0817885e-38
0.16121116 0.13399243 0.019882262 2.2107549e-38
0.16034468 0.13784152 0.021150768 2.2201873e-38
0.15876085 0.14108299 0.022598445 2.2199388e-38
0.15493567 0.079696402 0.01398319 2.3022279e-38
0.1559632 0.083298139 0.012913406 2.2655654e-38
0.15609193 0.086655751 0.012883902 2.2190364e-38
0.15587759 0.14139433 0.022591531 2.1642602e-38
0.15222605 0.078729749 0.0132038 2.2283981e-38
0.15291378 0.081940047 0.012423277 2.246908e-38
0.15227816 0.13904595 0.020730495 1.8416103e-38
0.15232632 0.14238805 0.022110999 2.0166023e-38
0.1511105 0.14480209 0.023670495 2.0534818e-38
0.14771035 0.074776068 0.013775527 2.1910184e-38
0.14850454 0.078586072 0.013089716 2.0896394e-38
0.14846438 0.081896037 0.012727439 2.0254252e-38
0.14846438 0.13959377 0.021075904 1.6945649e-38
0.14846951 0.14242132 0.021597266 1.8785249e-38
0.1485479 0.1451152 0.023641407 1.9246204e-38
0.14454962 0.074180454 0.013276935 2.1359513e-38
0.14478961 0.078431502 0.013035178 2.0436489e-38
0.14528623 0.081864603 0.012944698 1.9977661e-38
0.14592186 0.13988391 0.021295309 1.6667275e-38
0.14483853 0.14274284 0.021929383 1.7313345e-38
0.14470765 0.144798 0.023441553 1.7682125e-38
0.14089173 0.07459408 0.013718665 2.0620876e-38
0.14096273 0.078445137 0.013028026 1.9885458e-38
0.14083683 0.081820592 0.013248861 1.9417295e-38
0.14083683 0.14330177 0.022144735 1.6116607e-38
0.14062536 0.14527544 0.023660541 1.6576145e-38
0.13706942 0.074556276 0.013979971 2.043792e-38
0.13703321 0.078566685 0.013381183 1.9608882e-38
0.13702306 0.08178287 0.013509572 1.8319927e-38
0.13702306 0.14294876 0.022359908 1.51021e-38
0.13688947 0.14560303 0.024344862 1.5838222e-38
0.13240147 0.074267179 0.014432669 2.0625177e-38
0.1325904 0.078456357 0.014033914 2.0070214e-38
0.13352711 0.082063586 0.013794184 1.8688343e-38
0.13257366 0.14290476 0.02266407 1.4459221e-38
0.13260633 0.14594276 0.024451733 1.5379038e-38
0.1281499 0.073846698 0.014443576 2.1083662e-38
0.12831146 0.077498972 0.01378721 2.0806709e-38
0.12770052 0.14264636 0.022966743 1.4367394e-38
0.12814927 0.14588906 0.024867594 1.4918055e-38
0.12456751 0.077081382 0.013901234 2.0715596e-38
0.12431293 0.14217231 0.023359656 1.3998265e-38
0.12451448 0.14545524 0.025476456 1.510387e-38
0.12050616 0.073749498 0.015075445 2.0624822e-38
0.12049672 0.076574802 0.0139094 2.0529034e-38
0.12050086 0.14209363 0.024064422 1.4458512e-38
0.12050912 0.14513187 0.025853872 1.5471578e-38
0.11668389 0.0737333 0.015227377 1.9890854e-38
0.11668295 0.077041537 0.014243126 1.94252e-38
0.1154117 0.13958213 0.023380935 1.3538362e-38
0.1166835 0.14205608 0.02432549 1.4183373e-38
0.11668395 0.1447778 0.026069582 1.4919863e-38
0.11158372 0.071045607 0.015757084 1.2711509e-38
0.11286225 0.073717088 0.01537919 1.666871e-38
0.11286919 0.07712993 0.014522076 1.6755516e-38
0.11286918 0.13955697 0.023554742 1.3536912e-38
0.11286534 0.14200801 0.024697483 1.4276625e-38
0.10903361 0.07102038 0.015931368 1.0312965e-38
0.10904714 0.073787585 0.015092909 1.0588825e-38
0.10905541 0.077092201 0.014782786 1.104798e-38
0.10880116 0.13901228 0.023759902 1.1787732e-38
0.10904551 0.14196016 0.025069654 1.3357194e-38
0.10648349 0.070995167 0.016105711 9.4770936e-39
0.10585363 0.073615372 0.016022384 9.7540084e-39
0.10481215 0.078178182 0.01557368 9.2941037e-39
0.10460602 0.13905486 0.024058878 9.3888468e-39
0.10459634 0.14194418 0.025068462 1.0495201e-38
0.10395188 0.14442451 0.025894225 1.2062159e-38
0.10140556 0.081247441 0.016930699 4.7804975e-39
0.098885357 0.13311291 0.023598313 1.2799337e-38
0.10004106 0.13759567 0.024166405 1.2890815e-38
0.10029434 0.1417169 0.025631189 1.3075896e-38
0.096322268 0.090095066 0.018228054 7.2596705e-39
0.095593683 0.1099197 0.02119565 1.0035248e-38
0.096283033 0.11326918 0.022934318 6.9020746e-39
0.09716107 0.12625381 0.02373898 8.8374723e-39
0.096478373 0.12938014 0.023985803 9.1169165e-39
0.096328914 0.13304037 0.024216413 8.3772173e-39
0.096422389 0.13721338 0.025560558 9.946324e-39
0.096927568 0.14112748 0.026667058 1.2804373e-38
0.092521951 0.09089385 0.018136263 1.4634245e-38
0.092502356 0.10866635 0.021266103 1.2060649e-38
0.093732923 0.13285026 0.025945544 5.7057048e-39
0.088702172 0.091338128 0.018602192 2.1913402e-38
0.088673986 0.10890834 0.021821558 1.1692965e-38
0.084890254 0.090999141 0.018734634 2.3114431e-38
0.084618688 0.10943048 0.021775007 1.2336192e-38
0.081035376 0.10946493 0.022435248 1.2705699e-38
0.075336948 0.087391645 0.019132614 2.2840412e-38
0.071553335 0.08617992 0.018714964 2.2936544e-38
0.068677753 0.10963377 0.023177385 1.2429131e-38
0.065681651 0.10917173 0.024477124 1.1131192e-38
0.05947639 0.11317524 0.023463845 1.454208e-38
0.055662617 0.11376809 0.023815751 1.3992119e-38
0.052240446 0.1107456 0.023954928 1.1133735e-38
0.05243627 0.11240703 0.024350405 1.1317775e-38
0.047577292 0.089248568 0.02116996 1.5557301e-38
0.046763822 0.1023297 0.022781789 9.3865936e-39
0.048566252 0.10482135 0.023354173 9.3873783e-39
0.049629562 0.10810113 0.024429739 9.2040884e-39
0.044400081 0.089449152 0.021792114 1.4360204e-38
0.043903492 0.10198613 0.022931695 1.0029497e-38
0.044432811 0.10489689 0.023721099 9.2969749e-39
0.044559196 0.10737582 0.025286376 9.114027e-39
0.040592909 0.089570254 0.022957921 1.3715176e-38
0.040369056 0.093383625 0.022271335 1.2612066e-38
0.040369056 0.097168967 0.022819042 1.2060677e-38
0.040369056 0.10095431 0.023366749 1.0954307e-38
0.040369272 0.10474007 0.023914516 1.0220351e-38
0.040503636 0.10837578 0.025511503 9.3927495e-39
0.037012413 0.093103692 0.023984253 1.0309695e-38
0.037051529 0.09695109 0.024200618 1.1135511e-38
0.03639444 0.10071103 0.024959266 1.1136584e-38
0.036770195 0.10434149 0.025362015 1.076923e-38
0.036992878 0.10762305 0.02625525 1.0126003e-38
0.11770236 0.11005667 0.0075266361 1.5375062e-38
0.11556315 0.10937415 0.0081123114 1.5927883e-38
0.10374359 0.10819015 0.0075668097 1.6293435e-38
0.13539824 0.10603327 0.0077351332 1.6018653e-38
0.1270839 0.11055691 0.0099827051 1.3900666e-38
0.10788868 0.10479924 0.010545611 1.3532599e-38
0.1154452 0.10095174 0.013279736 1.3902104e-38
0.13270617 0.11487886 0.016307831 1.3994654e-38
0.13793857 0.096975125 0.012926877 1.25188e-38
0.12469101 0.10189223 0.014438391 1.9706474e-38
0.16915318 0.082554825 0.015880346 2.1096951e-38
0.17031667 0.085363209 0.014742553 1.9150051e-38
0.1692951 0.13425189 0.02188766 2.2574604e-38
0.16923574 0.1364059 0.024735451 2.3225697e-38
0.16542697 0.078420103 0.017117679 2.323294e-38
0.16547751 0.082350105 0.016163468 2.3233299e-38
0.16584732 0.13472451 0.022196651 2.2577861e-38
0.16542393 0.1373381 0.023363948 2.2766572e-38
0.16475022 0.13953987 0.025501966 2.2675101e-38
0.16051011 0.075402379 0.017024159 2.2860569e-38
0.16091564 0.07843715 0.017097414 2.2860567e-38
0.16127619 0.08159104 0.016515732 2.2861645e-38
0.16265492 0.13849336 0.022964776 2.2668605e-38
0.16101752 0.14190407 0.025137901 2.2574998e-38
0.15942015 0.14498258 0.026830316 2.257534e-38
0.15615693 0.074390829 0.017069101 2.2843659e-38
0.15672147 0.07844618 0.016137481 2.2756133e-38
0.15766971 0.081071436 0.017029881 2.2756133e-38
0.15655005 0.1429572 0.024441838 2.2197921e-38
0.15623143 0.14545667 0.026880324 2.2568855e-38
0.15260038 0.070658445 0.016889811 2.3108017e-38
0.15252386 0.07348223 0.015840769 2.30176e-38
0.15371622 0.076331362 0.014594257 2.302226e-38
0.15266648 0.14604646 0.026020706 2.1460003e-38
0.14830916 0.069833785 0.016732275 2.2466224e-38
0.14906669 0.073198602 0.015140712 2.2095289e-38
0.1486468 0.14664766 0.025932491 1.9891943e-38
0.14830916 0.14911233 0.028203309 2.0812843e-38
0.14501718 0.069693029 0.016139865 2.200596e-38
0.14605448 0.072455153 0.01456809 2.1911967e-38
0.14481983 0.14646611 0.026375949 1.8419333e-38
0.14508136 0.14912514 0.028623402 1.9800117e-38
0.14083716 0.069831401 0.016578257 2.1635385e-38
0.14094664 0.072404623 0.014917314 2.0991096e-38
0.14128514 0.14679039 0.026163161 1.8233138e-38
0.14088722 0.14929706 0.028832495 1.9063633e-38
0.13703293 0.069490418 0.017300725 2.1636092e-38
0.13711578 0.072366729 0.015179217 2.0897114e-38
0.13775425 0.14711472 0.025950074 1.7313694e-38
0.13716489 0.14951727 0.027914226 1.786581e-38
0.13656715 0.15193751 0.029769182 2.0263582e-38
0.13271917 0.06664443 0.01769644 2.182121e-38
0.13332732 0.069461107 0.016711175 2.1360589e-38
0.13329652 0.14956895 0.02706641 1.6853452e-38
0.13333529 0.15325369 0.029172421 1.9340531e-38
0.13205454 0.15641747 0.029719532 1.8694822e-38
0.1288712 0.066606373 0.017959476 2.1728654e-38
0.12884159 0.069466397 0.016771793 2.1268031e-38
0.12883052 0.14949356 0.027761042 1.6393174e-38
0.12924215 0.15306345 0.029734373 1.8233844e-38
0.13013341 0.15576318 0.02975899 1.8603346e-38
0.12436603 0.069371626 0.017323673 2.0993602e-38
0.12370772 0.14697579 0.026910305 1.5748163e-38
0.12436804 0.14936294 0.029122651 1.6208428e-38
0.12502322 0.15182334 0.030558288 1.7954383e-38
0.12085459 0.066208959 0.018461466 2.1084378e-38
0.12052566 0.069333643 0.017586172 2.0532299e-38
0.12051532 0.1469442 0.027128577 1.6482126e-38
0.12052978 0.14928883 0.029829919 1.6946698e-38
0.11668595 0.066485822 0.01879251 1.8968211e-38
0.11668473 0.069429472 0.0171929 1.878596e-38
0.11668445 0.14639959 0.027317047 1.6114806e-38
0.11668536 0.14865616 0.029500365 1.6855229e-38
0.11251909 0.066177487 0.018785417 1.4362738e-38
0.11300805 0.069209576 0.01754415 1.528614e-38
0.11284852 0.14552552 0.028358579 1.538047e-38
0.11283993 0.14856298 0.030430377 1.6944542e-38
0.10899653 0.066023111 0.018654525 1.1231305e-38
0.10901844 0.068854481 0.016969562 9.6668841e-39
0.10900816 0.14544886 0.029065549 1.5474456e-38
0.10899 0.14848359 0.031194091 1.7132508e-38
0.10546637 0.06610772 0.019267559 1.3254551e-38
0.10501002 0.069106638 0.018214047 1.1413186e-38
0.1038902 0.073045656 0.018946588 1.2057083e-38
0.10391487 0.075838774 0.017998636 1.1503912e-38
0.10533947 0.14562134 0.028755784 1.3078467e-38
0.1051451 0.14845945 0.031290054 1.4278054e-38
0.1025767 0.0735569 0.020800352 1.0493736e-38
0.10182789 0.077723444 0.020442665 7.9115518e-39
0.1013407 0.14541169 0.029145241 1.31656e-38
0.10129405 0.14840747 0.031720161 1.3904603e-38
0.095604666 0.12132136 0.025497198 6.165227e-39
0.095599696 0.12478581 0.026167631 7.6410899e-39
0.094976172 0.12768948 0.026124895 9.1173102e-39
0.096070692 0.14181617 0.028092504 1.0774311e-38
0.097620174 0.14507513 0.030987918 1.4271945e-38
0.092704929 0.11010864 0.024752378 9.3855986e-39
0.09446381 0.11296835 0.026731551 6.9942534e-39
0.094880752 0.11589622 0.027463555 6.070509e-39
0.093294278 0.12134944 0.027856886 5.1550141e-39
0.09326078 0.12488786 0.028009534 8.4737387e-39
0.093019187 0.12880655 0.027604759 9.3052972e-39
0.092374772 0.13259113 0.028366089 6.3499854e-39
0.092361011 0.1363643 0.029250622 4.9692075e-39
0.092355698 0.14079458 0.030060768 6.0755607e-39
0.092982039 0.1439383 0.030893922 8.7492452e-39
0.08782614 0.089104727 0.024079382 2.0804942e-38
0.08849436 0.10956392 0.026317835 1.0680616e-38
0.084311038 0.088476211 0.023980498 2.273991e-38
0.084687144 0.11027897 0.025843084 1.1875926e-38
0.080771506 0.086490013 0.024193466 2.32016e-38
0.081198066 0.088427991 0.02241838 2.3201258e-38
0.080895767 0.11098978 0.025366485 1.2521311e-38
0.080370948 0.11285132 0.02752918 1.2337641e-38
0.07723847 0.085865676 0.023336887 2.3112668e-38
0.078375712 0.088254243 0.021577418 2.2931507e-38
0.078375712 0.11105678 0.024876833 1.2890448e-38
0.077002041 0.11335434 0.026993096 1.2705701e-38
0.07564088 0.11570592 0.028778791 1.2337285e-38
0.073748946 0.085235894 0.023995578 2.2931515e-38
0.073167734 0.11333111 0.02714473 1.2890098e-38
0.073716894 0.11568689 0.028910339 1.2429844e-38
0.068798542 0.11096206 0.025531471 1.2981595e-38
0.069282301 0.11320388 0.028072834 1.2983742e-38
0.065212339 0.110472 0.026723623 1.1690091e-38
0.065405428 0.11183262 0.028595209 1.2063212e-38
0.062466692 0.11020012 0.027888834 1.2699224e-38
0.061986256 0.11222297 0.028890193 1.2795012e-38
0.051559612 0.10572431 0.025976717 1.0399015e-38
0.048805252 0.087618113 0.025574803 1.6390282e-38
0.048511952 0.10982431 0.027457893 9.8501823e-39
0.044765428 0.085374132 0.025676727 1.6110109e-38
0.045202509 0.10944692 0.028225005 9.6679337e-39
0.043682232 0.11170843 0.029418051 1.0771753e-38
0.041083194 0.085577339 0.026156008 1.500591e-38
0.041551575 0.11023796 0.028341115 9.8523053e-39
0.041009098 0.11218221 0.030685961 1.040404e-38
0.0371999 0.08548072 0.026750624 1.2886845e-38
0.037161626 0.088677727 0.026160836 1.2517359e-38
0.037210748 0.11008774 0.02801466 9.8486857e-39
0.037187204 0.11281066 0.030818582 1.0034908e-38
0.03331314 0.086020596 0.027437687 1.2331889e-38
0.033513688 0.088955082 0.027703643 1.3070185e-38
0.033599347 0.092768237 0.026030719 1.2332611e-38
0.033401802 0.096771635 0.02615118 1.251701e-38
0.033043712 0.10047394 0.026509285 1.380736e-38
0.033522576 0.10443746 0.027049303 1.279321e-38
0.033599868 0.10862146 0.028324544 1.2243969e-38
0.033569679 0.11223589 0.031212866 1.1967764e-38
0.030747831 0.089176387 0.028073251 1.0307523e-38
0.029536054 0.092436612 0.028066933 1.0207097e-38
0.029337019 0.096041352 0.028911769 1.0203503e-38
0.029705241 0.09991879 0.029067457 9.6567919e-39
0.030169904 0.10387766 0.029734313 1.0679584e-38
0.03081125 0.10833526 0.030334592 1.1975362e-38
0.026899859 0.092955716 0.028888643 9.6507047e-39
0.026899859 0.097409338 0.029533088 8.7319574e-39
0.026899859 0.0986818 0.029717207 8.5515024e-39
0.11803001 0.10137668 0.0071458817 1.6111208e-38
0.11781432 0.10465524 0.0069999695 1.5465809e-38
0.11667747 0.11383119 0.0084257722 1.4361993e-38
0.12835331 0.11804923 0.009973526 1.3809547e-38
0.12379344 0.11602722 0.010648727 1.4178692e-38
0.12254976 0.10937215 0.014365256 1.5283957e-38
0.12190816 0.10486834 0.013581216 1.5834973e-38
0.10140556 0.081247441 0.016930699 4.7804975e-39
0.15590411 0.14396276 0.028278649 2.1378885e-38
0.16449833 0.071066976 0.021182597 2.341769e-38
0.165573 0.074217588 0.018525004 2.3325854e-38
0.16583103 0.14085665 0.029162049 2.276657e-38
0.16509721 0.14420013 0.031047463 2.3038101e-38
0.16446292 0.14738157 0.031720757 2.2759665e-38
0.1610162 0.070287228 0.020750105 2.3138225e-38
0.16145487 0.073456496 0.018027067 2.3138951e-38
0.16157898 0.14529625 0.029468119 2.2578581e-38
0.16121121 0.14802063 0.031660318 2.2577839e-38
0.15586478 0.066775948 0.020826638 2.2752894e-38
0.15680318 0.06989491 0.019777596 2.2663927e-38
0.15779233 0.073060289 0.017887831 2.229912e-38
0.15715005 0.14696614 0.028626263 2.2479902e-38
0.15665722 0.1486682 0.031439006 2.2480986e-38
0.15263882 0.06636177 0.020461321 2.3023718e-38
0.15269116 0.069053397 0.018339276 2.31109e-38
0.1528689 0.15171096 0.033662796 2.2662114e-38
0.14834635 0.062574938 0.02108109 2.2932946e-38
0.14891537 0.065476328 0.019815326 2.3022272e-38
0.14944269 0.068517491 0.017813206 2.2835371e-38
0.14965677 0.1502903 0.029630184 2.2101407e-38
0.14867714 0.15227494 0.032821596 2.210536e-38
0.14484097 0.06147036 0.020760834 2.3023355e-38
0.14503561 0.064852625 0.019728601 2.3020828e-38
0.14366217 0.067823142 0.018116176 2.2471235e-38
0.14430445 0.15066214 0.030057549 2.0539101e-38
0.14489578 0.15285969 0.03299278 2.1827691e-38
0.14122726 0.060651541 0.020962 2.2932588e-38
0.1411669 0.064837426 0.019883931 2.2742445e-38
0.14173535 0.067804083 0.018247902 2.2739925e-38
0.14237761 0.15064308 0.030189276 2.0169976e-38
0.1411791 0.15300544 0.032977879 2.1365629e-38
0.13751292 0.060783774 0.021198153 2.2837516e-38
0.13727778 0.064958349 0.019385099 2.2284352e-38
0.13852394 0.067772314 0.018467426 2.2277877e-38
0.13780493 0.15302697 0.032473862 2.053944e-38
0.13347392 0.061250702 0.021421075 2.2651684e-38
0.13359082 0.064632744 0.019225597 2.2098138e-38
0.12959507 0.060630232 0.021320581 2.2376189e-38
0.12953204 0.064497501 0.018621147 2.2191052e-38
0.12831786 0.15531379 0.035897493 1.8512595e-38
0.12571976 0.060638458 0.021367252 2.2375466e-38
0.12525412 0.06438598 0.019241095 2.173044e-38
0.12533417 0.15325971 0.033493638 1.8051242e-38
0.12573355 0.15528822 0.036074162 1.8144168e-38
0.1217063 0.060860127 0.021791935 2.2098174e-38
0.12076104 0.063990727 0.020172715 2.1730091e-38
0.12102214 0.15293267 0.034220636 1.8050538e-38
0.11705741 0.060981795 0.022600174 2.0350405e-38
0.1166874 0.064232022 0.020154357 1.9338062e-38
0.11668645 0.15038897 0.031945467 1.786615e-38
0.11668718 0.15276237 0.034651935 1.86037e-38
0.11927275 0.15522432 0.036515832 1.8328552e-38
0.11281575 0.06108129 0.022669554 1.4918068e-38
0.11308968 0.064207435 0.019726694 1.5286841e-38
0.11283277 0.15035085 0.03220892 1.7773939e-38
0.11281789 0.15269023 0.035361826 1.8600811e-38
0.10894093 0.061008051 0.023098111 1.3166313e-38
0.10896914 0.063767895 0.02096343 1.1968504e-38
0.10895729 0.15015362 0.034476519 1.8512963e-38
0.1091307 0.15227072 0.035783589 1.9709697e-38
0.10506453 0.060293853 0.023434043 1.6387048e-38
0.10485075 0.063918322 0.0212726 1.5188811e-38
0.10512541 0.15027462 0.032735765 1.565815e-38
0.10523249 0.15241912 0.036330223 1.768394e-38
0.10161324 0.061044455 0.024121165 1.1504285e-38
0.10119902 0.065471262 0.02400285 1.113659e-38
0.10105001 0.069270998 0.023958206 1.0491962e-38
0.10084412 0.073093355 0.024471402 9.2033668e-39
0.099922635 0.077086255 0.025209963 5.4226691e-39
0.099938765 0.080406949 0.025014043 3.1256621e-39
0.10122713 0.15007716 0.035004914 1.4456344e-38
0.10151066 0.15154283 0.036969483 1.5009873e-38
0.098606907 0.076886356 0.026285589 3.7689029e-39
0.098624311 0.079571761 0.025997758 8.3049075e-40
0.0961335 0.14636263 0.032797277 1.417795e-38
0.097540468 0.14838633 0.03516227 1.4457041e-38
0.097306043 0.14987949 0.037275553 1.4549595e-38
0.092279822 0.11064276 0.027897835 8.0026726e-39
0.093094662 0.11325575 0.029400647 7.08537e-39
0.093347371 0.11697561 0.030385435 5.9790126e-39
0.09217301 0.11982808 0.032272756 5.2464699e-39
0.093518175 0.14494644 0.034125328 1.0314049e-38
0.094322816 0.14651607 0.035984337 1.2339082e-38
0.089048728 0.11054185 0.028615177 9.3898908e-39
0.089610204 0.11282295 0.030987859 8.0058816e-39
0.089583524 0.11657433 0.032207727 6.9031213e-39
0.089579344 0.12040086 0.032874227 6.7190902e-39
0.08960937 0.1243346 0.03265357 7.6392669e-39
0.089613751 0.12818453 0.033097804 8.2857069e-39
0.089634791 0.13208061 0.033097386 7.7307478e-39
0.08900021 0.1359297 0.033473551 8.7459675e-39
0.088959545 0.13966849 0.035030186 9.1154689e-39
0.084992766 0.085129522 0.027608633 2.0899943e-38
0.086434498 0.087388948 0.02646029 2.099001e-38
0.085214756 0.11057287 0.028380811 1.1507854e-38
0.085514426 0.11274248 0.030598104 1.0033091e-38
0.085721716 0.11656426 0.032250702 8.5569128e-39
0.085707307 0.1203632 0.03313899 8.1909959e-39
0.085701875 0.12419244 0.033805966 8.4690205e-39
0.085686199 0.12799743 0.034695208 8.7441767e-39
0.086645722 0.13150713 0.035361171 8.6544852e-39
0.086656526 0.13569841 0.035713673 9.9427171e-39
0.0813694 0.081354447 0.028472722 2.0068784e-38
0.081521302 0.084098913 0.027122974 2.2464405e-38
0.082200825 0.11369694 0.030258536 1.1784112e-38
0.081267133 0.11667101 0.031395376 1.086359e-38
0.081856795 0.1203799 0.032959998 9.7576055e-39
0.081839859 0.12418028 0.033848643 1.0311487e-38
0.081984714 0.12756959 0.035116732 1.0866457e-38
0.077587292 0.081297457 0.028149605 2.2095984e-38
0.077378839 0.083334744 0.02726531 2.2927181e-38
0.076916173 0.1167831 0.031757534 1.1785907e-38
0.077716261 0.120185 0.03343457 1.1416407e-38
0.077954829 0.12411602 0.034335554 1.0773562e-38
0.078085169 0.12773703 0.035413027 1.1235612e-38
0.074067913 0.081342012 0.028642893 2.2742067e-38
0.073463306 0.083162904 0.028273344 2.3111219e-38
0.072690561 0.11691199 0.032342434 1.1969593e-38
0.073230885 0.12028579 0.034581661 1.132602e-38
0.073185734 0.12357585 0.035152912 1.1141978e-38
0.071462855 0.12654987 0.03570354 1.1417857e-38
0.069057152 0.11660072 0.031843543 1.2153254e-38
0.068941221 0.12022507 0.034063995 1.1417871e-38
0.068914145 0.12385947 0.034985602 1.1509335e-38
0.068447813 0.12694734 0.035971463 1.1877746e-38
0.065304101 0.11356181 0.030202866 1.2338726e-38
0.065153077 0.11648926 0.03266257 1.1878087e-38
0.065093935 0.12022774 0.03399533 1.1969585e-38
0.065060571 0.1240143 0.034995675 1.2244362e-38
0.0652605 0.12700129 0.036201715 1.2704633e-38
0.061236322 0.11330918 0.030450225 1.2979418e-38
0.061260499 0.11640815 0.033260107 1.2428396e-38
0.061206777 0.12016179 0.034482181 1.279575e-38
0.061179709 0.12396311 0.035371721 1.3256002e-38
0.06112558 0.12696038 0.036484361 1.3993577e-38
0.05747959 0.11394529 0.032154799 1.3163819e-38
0.057355326 0.11631244 0.033968925 1.2062492e-38
0.057306603 0.12008271 0.035080492 1.279719e-38
0.057433691 0.12348108 0.036238611 1.3534747e-38
0.057249095 0.12640928 0.036675155 1.408793e-38
0.052080467 0.0808511 0.030443966 2.329453e-38
0.053337216 0.11335855 0.032629132 1.2060342e-38
0.053475305 0.1162598 0.034344554 1.1602614e-38
0.053413562 0.12001713 0.03556776 1.2338384e-38
0.053889494 0.12329952 0.036459684 1.3074866e-38
0.049545296 0.080915712 0.03012377 2.1267326e-38
0.049924515 0.083987638 0.028853893 1.8413192e-38
0.049297333 0.11254343 0.032860577 1.1140197e-38
0.049594447 0.11620692 0.034720361 1.1599748e-38
0.049539626 0.11997879 0.035832644 1.2060711e-38
0.049819186 0.1228106 0.036673009 1.2612454e-38
0.044973582 0.077576086 0.03046608 1.9796847e-38
0.045306623 0.080627739 0.02975899 1.8872716e-38
0.045898296 0.083186053 0.028512478 1.7581278e-38
0.045310602 0.11287558 0.032309175 1.1324225e-38
0.045735449 0.11618324 0.034873664 1.1967809e-38
0.045632429 0.11974029 0.036394298 1.2335876e-38
0.041761786 0.076934204 0.030428588 1.675296e-38
0.041153401 0.080363646 0.029018342 1.5928948e-38
0.040897474 0.083373211 0.027538121 1.5191733e-38
0.040897474 0.11395758 0.031963468 1.1047254e-38
0.041484132 0.11612815 0.03435427 1.1876662e-38
0.041931897 0.11971927 0.036522925 1.2889722e-38
0.038100749 0.076671764 0.030380785 1.362227e-38
0.037144035 0.080555163 0.029707313 1.316274e-38
0.037043817 0.083335094 0.027801573 1.3253865e-38
0.037114337 0.11639263 0.034200311 1.1139467e-38
0.037748337 0.11951168 0.036459446 1.1785199e-38
0.033990219 0.077146977 0.031170487 1.2703562e-38
0.03368105 0.080208994 0.030622303 1.2703194e-38
0.03298448 0.083637573 0.029816747 1.2240779e-38
0.032547854 0.087113678 0.028662086 1.2240069e-38
0.032868989 0.11324099 0.032420099 1.2797163e-38
0.032971218 0.11620075 0.034641743 1.2243271e-38
0.033609122 0.11973947 0.036623359 1.2241862e-38
0.030975178 0.080001406 0.031793952 1.0476477e-38
0.029464915 0.08455018 0.030869544 1.2041623e-38
0.028783903 0.087924629 0.030488908 9.7453722e-39
0.02805189 0.10108703 0.030997694 8.4524768e-39
0.02805189 0.10363574 0.031366467 9.0056884e-39
0.02846653 0.10785523 0.033720434 9.5642137e-39
0.029222563 0.11212323 0.034665048 1.0212108e-38
0.029595122 0.11600973 0.036087632 1.0033848e-38
0.030113742 0.11973144 0.037602723 1.2148955e-38
0.02559118 0.084755234 0.032857537 1.5642304e-38
0.025049023 0.087765664 0.032543182 1.4715641e-38
0.024998903 0.091813534 0.030737102 1.2783529e-38
0.025152765 0.095602922 0.031672478 1.0665197e-38
0.025135718 0.099733517 0.032397985 1.0117032e-38
0.025227621 0.10333038 0.033432484 1.0114909e-38
0.025159299 0.10743271 0.035432339 1.0763486e-38
0.026626572 0.11239362 0.03627789 1.0856757e-38
0.027529418 0.11457832 0.037037432 1.0388982e-38
0.02109956 0.087632403 0.03336221 1.1133339e-38
0.021317303 0.091734722 0.032365143 1.0854964e-38
0.021301508 0.095552757 0.033031225 1.1315205e-38
0.021239668 0.099320829 0.034030855 1.2699584e-38
0.021517619 0.10288371 0.035186231 1.3989228e-38
0.021714702 0.10554758 0.036136568 1.4174334e-38
0.018484294 0.088851079 0.033946157 1.0399364e-38
0.018628225 0.091580547 0.033318341 9.5685438e-39
0.017910182 0.095334157 0.034417868 8.6505349e-39
0.017967433 0.0988447 0.035428226 9.2965938e-39
0.017838225 0.10166357 0.03584516 1.132346e-38
0.12090662 0.10143011 0.0073489547 1.6293781e-38
0.11953662 0.10380414 0.0076381564 1.6020087e-38
0.10788494 0.12282034 0.013490975 1.0405486e-38
0.11700262 0.10847506 0.01033777 1.3808116e-38
0.10556198 0.1026435 0.0092305541 1.5557301e-38
0.07938464 0.10227272 0.0091871023 1.3343552e-38
0.15209338 0.091344707 0.010352731 1.9519904e-38
0.09797731 0.10264875 0.018378079 1.3530425e-38
0.10485075 0.063918322 0.0212726 1.5188811e-38
0.16723187 0.14398393 0.033568084 2.165079e-38
0.1663267 0.14799237 0.034500659 2.155141e-38
0.16081718 0.066063941 0.02375406 2.2392761e-38
0.16204803 0.068078756 0.022946954 2.2862362e-38
0.16273046 0.14904138 0.035120308 2.2575315e-38
0.16077441 0.15032187 0.035273373 2.2668246e-38
0.15715979 0.065079644 0.023461819 2.2659635e-38
0.15658475 0.15056922 0.036023557 2.2664653e-38
0.1526926 0.062365979 0.023532808 2.2659967e-38
0.1536243 0.064138472 0.022964716 2.2749289e-38
0.15238109 0.15276098 0.036887228 2.2570647e-38
0.14943641 0.0614205 0.023370028 2.2750713e-38
0.1504343 0.15274173 0.037020326 2.2290116e-38
0.14783858 0.15400359 0.037384093 2.2381944e-38
0.14455257 0.058906108 0.022840738 2.3024082e-38
0.1464965 0.060210988 0.022893846 2.2931532e-38
0.14134927 0.057373583 0.023855329 2.3019781e-38
0.14133097 0.1559065 0.037607193 2.1736924e-38
0.13612883 0.058822781 0.023416579 2.3021551e-38
0.13744071 0.15458141 0.037686884 2.044796e-38
0.13353691 0.058797151 0.023593783 2.2927212e-38
0.12964903 0.057473034 0.023673475 2.2652039e-38
0.12835307 0.1570988 0.03817904 1.8604413e-38
0.12576115 0.057434574 0.023939252 2.2561293e-38
0.12576115 0.15610892 0.03821671 1.8235649e-38
0.12187327 0.057824671 0.024267077 2.2465153e-38
0.12187327 0.15587761 0.038454652 1.7775034e-38
0.11798636 0.058501139 0.02531141 2.2652035e-38
0.11772668 0.15582259 0.038938582 1.8233127e-38
0.11409421 0.057747781 0.025811613 1.777254e-38
0.11409578 0.15500532 0.03920877 1.8416793e-38
0.10955466 0.057756186 0.025876462 1.3810623e-38
0.10934329 0.15410121 0.039409578 1.9709323e-38
0.10501962 0.057157695 0.025684357 1.6941305e-38
0.10199508 0.057984889 0.026015103 1.2152526e-38
0.10048993 0.061684415 0.026317894 9.6557059e-39
0.10048993 0.1523234 0.039432645 1.4641809e-38
0.098519884 0.065319002 0.027994037 9.850904e-39
0.097668022 0.069057077 0.028087974 9.9420052e-39
0.097240061 0.072516188 0.028449595 8.557619e-39
0.096597075 0.076399535 0.02888757 4.9638252e-39
0.097250029 0.079008773 0.029050708 2.4813717e-39
0.097232848 0.15095899 0.040070176 1.4549966e-38
0.094626307 0.07622461 0.029843748 6.4364049e-39
0.093339041 0.14705393 0.039844453 1.2155767e-38
0.089110397 0.084860973 0.031478286 1.2974402e-38
0.089445189 0.086838566 0.031487823 1.5373283e-38
0.090732723 0.14571349 0.040170014 1.114092e-38
0.084915847 0.081368424 0.030759275 1.8045472e-38
0.086421564 0.083069511 0.03106916 1.7216806e-38
0.084808826 0.13185486 0.03756547 9.4838871e-39
0.084799416 0.13543497 0.038286626 1.0311151e-38
0.086406521 0.13837461 0.039410055 1.0037785e-38
0.081681579 0.080079406 0.030629694 1.9883666e-38
0.081050515 0.12898925 0.037413061 1.1327437e-38
0.081681572 0.13153216 0.038074613 1.1142701e-38
0.081647709 0.13532329 0.03930068 1.1510411e-38
0.078403056 0.078639239 0.03132534 2.0434683e-38
0.076514661 0.1289444 0.037723124 1.141786e-38
0.077791385 0.13149348 0.038340509 1.1879907e-38
0.077754132 0.13528477 0.039566815 1.2339087e-38
0.079051986 0.1378727 0.039850712 1.2522768e-38
0.073274776 0.080057293 0.030875683 2.2005226e-38
0.073922753 0.12506178 0.03734225 1.0958664e-38
0.073922768 0.12763309 0.037714362 1.1233087e-38
0.073867232 0.13139565 0.039162874 1.1786628e-38
0.074833937 0.13493399 0.03971988 1.2707859e-38
0.069966964 0.080487102 0.032181442 2.2835713e-38
0.069966957 0.082418419 0.032460928 2.3015096e-38
0.068738908 0.12501051 0.0376966 1.1694796e-38
0.06984973 0.12796013 0.038045943 1.1694078e-38
0.069966964 0.13070133 0.039447069 1.2153981e-38
0.067371242 0.07981766 0.032265782 2.2289733e-38
0.066146985 0.12884185 0.038431883 1.2797891e-38
0.065929309 0.13117115 0.039543688 1.3166683e-38
0.06607338 0.13388169 0.040179014 1.3443994e-38
0.063477658 0.078491598 0.032345653 2.3123068e-38
0.061827127 0.12837055 0.038665235 1.3809899e-38
0.061944596 0.13116932 0.039770961 1.3719144e-38
0.061530866 0.13383675 0.040489495 1.390355e-38
0.056427289 0.12488873 0.038538218 1.3903536e-38
0.057075258 0.12810928 0.038959026 1.4272679e-38
0.057468392 0.13134831 0.040320992 1.4088275e-38
0.058286212 0.13380466 0.040711343 1.4270882e-38
0.053094774 0.080320224 0.033334851 2.1638969e-38
0.052539408 0.12420744 0.038711011 1.3441846e-38
0.053145811 0.12737845 0.039577603 1.4086494e-38
0.053527385 0.13075332 0.040601969 1.3995383e-38
0.048552267 0.077056423 0.033179641 2.2555216e-38
0.049299508 0.078534484 0.032328546 2.2832141e-38
0.049020275 0.12427814 0.039169371 1.298159e-38
0.049211904 0.12728979 0.040289462 1.3902815e-38
0.049850129 0.12985858 0.040729105 1.436415e-38
0.044009753 0.073148862 0.032931268 1.9697833e-38
0.045325272 0.075553536 0.033018589 2.0345007e-38
0.046707585 0.078508854 0.032505751 2.1451702e-38
0.045411631 0.12092279 0.038733184 1.2428825e-38
0.045376964 0.12345535 0.039439678 1.2797201e-38
0.045307621 0.12723857 0.040667057 1.3627297e-38
0.045307614 0.12981366 0.041039646 1.4180827e-38
0.04141403 0.073123187 0.033108711 1.6848732e-38
0.041523755 0.074600607 0.032302022 1.6753667e-38
0.040227801 0.12087151 0.039087534 1.2614975e-38
0.041474789 0.12340374 0.039817035 1.2615306e-38
0.041630335 0.12677301 0.040856302 1.3074845e-38
0.037873313 0.072813958 0.033057809 1.435946e-38
0.036987886 0.07455574 0.032612085 1.3717326e-38
0.037584558 0.12336525 0.040082932 1.1785195e-38
0.037520453 0.125874 0.041013062 1.2153623e-38
0.033698775 0.074962333 0.033305585 1.2147513e-38
0.033707835 0.12333971 0.040237308 1.2426943e-38
0.032977954 0.12582907 0.041323602 1.3072684e-38
0.031156063 0.077069372 0.033382833 1.0480859e-38
0.028910324 0.079926834 0.034628212 1.4534098e-38
0.028564155 0.082186371 0.034304082 1.3888043e-38
0.028499782 0.12005223 0.040293813 1.1959916e-38
0.029958457 0.12312222 0.040636301 1.2795029e-38
0.031031162 0.12580982 0.041456699 1.334963e-38
0.027137578 0.080707252 0.035202384 1.629091e-38
0.025633514 0.082565174 0.035171092 1.6656089e-38
0.024676248 0.11171808 0.03884846 1.2241183e-38
0.02609989 0.11550382 0.039972067 1.2702834e-38
0.027137578 0.11804604 0.040605068 1.2240799e-38
0.022038274 0.083562911 0.035296321 1.4264392e-38
0.021654278 0.10795552 0.038949013 1.4267972e-38
0.022811368 0.11070716 0.039845109 1.3626944e-38
0.018888429 0.083527736 0.035781085 1.251878e-38
0.017331392 0.086858824 0.036371708 1.0768138e-38
0.016900524 0.091070622 0.036403596 9.2919569e-39
0.016900524 0.10007024 0.037705779 1.0126335e-38
0.018196464 0.1032972 0.038082302 1.3439293e-38
0.018237978 0.10600224 0.039483488 1.426799e-38
0.015456825 0.090892069 0.037491262 9.1079229e-39
0.01488176 0.094828323 0.037594557 8.7416572e-39
0.014571995 0.098836221 0.038413167 9.3862825e-39
0.014616199 0.10206734 0.038998187 1.104507e-38
0.015456825 0.10505506 0.039540529 1.3720216e-38
0.12419075 0.1112001 0.010221422 1.1691936e-38
0.11202829 0.11377224 0.010735631 1.3623715e-38
0.1072332 0.1183548 0.012338579 1.3166698e-38
0.13036382 0.11485311 0.016789973 1.7126087e-38
0.097981438 0.10847185 0.017799795 1.2795389e-38
0.095621765 0.107787 0.018877864 1.2795759e-38
0.12612699 0.11425014 0.014005423 1.5283594e-38
0.12085459 0.066208959 0.018461466 2.1084378e-38
0.1616815 0.062050045 0.026404679 2.2300191e-38
0.16201606 0.064487994 0.02474463 2.2301641e-38
0.16198203 0.15166989 0.038971245 2.2756817e-38
0.15585576 0.057951435 0.026977837 2.2483135e-38
0.15689526 0.061079264 0.025585353 2.257065e-38
0.15828276 0.063773051 0.024612308 2.257139e-38
0.15733838 0.15209748 0.039078653 2.2759366e-38
0.15585576 0.15378772 0.040844619 2.2938352e-38
0.15324484 0.057925612 0.027156353 2.2484211e-38
0.1533874 0.060202971 0.025247753 2.2570295e-38
0.15438348 0.1527051 0.037752271 2.2846872e-38
0.15305528 0.15492964 0.040698946 2.266248e-38
0.1492814 0.05745247 0.026351631 2.2662494e-38
0.14983432 0.059821188 0.024630129 2.2662106e-38
0.14942059 0.15528914 0.039991736 2.2568479e-38
0.14802299 0.1575955 0.041942239 2.200919e-38
0.14410661 0.053949982 0.027218819 2.2934405e-38
0.14533451 0.0567303 0.025678575 2.2841138e-38
0.14658493 0.15649626 0.038845062 2.2661744e-38
0.14520201 0.15877698 0.041170657 2.1184087e-38
0.14149569 0.053924143 0.027397335 2.3027311e-38
0.14145908 0.055435926 0.026605785 2.3113767e-38
0.14144689 0.15891576 0.041241825 2.0445111e-38
0.13752748 0.056186467 0.026313543 2.3113397e-38
0.13716166 0.15608069 0.039442599 2.0263217e-38
0.13780874 0.15808064 0.041712463 2.0078841e-38
0.13366292 0.053846672 0.027932763 2.3205224e-38
0.1336164 0.056183964 0.026417375 2.3112323e-38
0.13426429 0.15759569 0.040876865 1.9707162e-38
0.12973417 0.053953767 0.02754724 2.2835376e-38
0.12971531 0.055464476 0.026754379 2.2835005e-38
0.13039927 0.1561261 0.04295963 1.8785932e-38
0.12887622 0.15870121 0.043438494 1.8327466e-38
0.12582493 0.053842127 0.028141499 2.2470191e-38
0.12580588 0.055425808 0.027021646 2.2562018e-38
0.12581567 0.15874581 0.042533219 1.7681043e-38
0.12191044 0.053803399 0.028409064 2.2287595e-38
0.12157478 0.055671081 0.027521133 2.2467668e-38
0.12189555 0.15878084 0.041686475 1.7497374e-38
0.11865011 0.053698182 0.028959036 2.2284715e-38
0.11799259 0.056065604 0.027321815 2.2653114e-38
0.11799229 0.15803559 0.042751372 1.7774312e-38
0.11277555 0.053640068 0.029360592 1.7491305e-38
0.1140843 0.055165172 0.028477132 1.841898e-38
0.11408147 0.15598804 0.043740809 1.8234204e-38
0.11440772 0.15760382 0.044036269 1.8049103e-38
0.11016825 0.05368726 0.02921176 1.5835342e-38
0.11019163 0.055560797 0.026780367 1.4823349e-38
0.10991766 0.15550578 0.04288131 1.9062875e-38
0.10609056 0.052522868 0.02928561 1.6942402e-38
0.10564247 0.055515796 0.027091324 1.6849835e-38
0.10660259 0.15506275 0.042440832 1.9433457e-38
0.10285774 0.05254969 0.029692411 1.6754041e-38
0.10149065 0.055542767 0.02907306 1.3806978e-38
0.099793553 0.061905101 0.028424025 9.7522091e-39
0.10174318 0.15347387 0.041537285 1.5196453e-38
0.099745139 0.056963131 0.029738009 1.3343059e-38
0.097989008 0.06090185 0.031105638 9.2916079e-39
0.096797571 0.064094275 0.029818118 9.8480131e-39
0.096327513 0.067458332 0.02946943 1.0217171e-38
0.097389042 0.079758473 0.033605874 3.4007902e-39
0.098415464 0.081989907 0.034464836 4.2273167e-39
0.097194016 0.15213946 0.04166168 1.4458142e-38
0.098415464 0.15321958 0.044771194 1.4551431e-38
0.095804542 0.061242729 0.03164506 1.2139559e-38
0.094499081 0.065115064 0.032296479 1.0582673e-38
0.093393058 0.068078473 0.031663001 1.0485865e-38
0.09325207 0.071919858 0.031567454 8.8298885e-39
0.093088716 0.075789347 0.032166898 7.2636474e-39
0.093478128 0.079478145 0.033737004 6.0668909e-39
0.093708515 0.083563 0.033823907 6.0658329e-39
0.093524024 0.086428307 0.033422709 6.8948579e-39
0.09234643 0.14760235 0.043706775 1.1970671e-38
0.093878165 0.15023133 0.04364264 1.3629822e-38
0.08946909 0.071937978 0.033490121 1.0304633e-38
0.089312047 0.075590372 0.033273816 9.2836864e-39
0.089334577 0.079570882 0.033285499 8.4557096e-39
0.089655414 0.082951464 0.032176793 8.9192115e-39
0.088525496 0.14309081 0.043185651 9.3942376e-39
0.089939356 0.14668112 0.044163525 1.150899e-38
0.090582699 0.14925686 0.044744492 1.2335508e-38
0.08538571 0.075488806 0.033870876 1.3344928e-38
0.085643195 0.079291761 0.032795489 1.5007324e-38
0.084661052 0.13926789 0.04188931 1.0314033e-38
0.085099772 0.1427272 0.04418236 1.2152894e-38
0.080139011 0.072743535 0.03440243 2.0715198e-38
0.081495911 0.075532585 0.03369838 1.9702848e-38
0.081997544 0.078799367 0.032785714 1.9699982e-38
0.081546716 0.13899732 0.041864932 1.2338373e-38
0.081294224 0.14255035 0.044169128 1.3445799e-38
0.081444472 0.14657629 0.044994414 1.6024358e-38
0.077528089 0.072717711 0.034580946 2.0441862e-38
0.077596515 0.075535744 0.033745944 2.0617632e-38
0.076397851 0.07843627 0.032448769 2.0252797e-38
0.077535152 0.13921188 0.041163146 1.3351446e-38
0.077578738 0.14273284 0.043807745 1.4458148e-38
0.07883355 0.14525539 0.044985473 1.5560891e-38
0.073187225 0.071843162 0.034588516 2.0529764e-38
0.073716223 0.075580865 0.033573151 1.9974429e-38
0.073798329 0.078410566 0.03262645 2.0527952e-38
0.073018476 0.13539562 0.040926158 1.2984441e-38
0.073784083 0.13899301 0.041618347 1.4089709e-38
0.073805749 0.14249873 0.04443109 1.4917678e-38
0.074264437 0.14521018 0.045297801 1.5562689e-38
0.068389863 0.068742067 0.034643471 1.9882908e-38
0.069733471 0.071452081 0.034379125 1.9698191e-38
0.069853783 0.07566683 0.033179939 1.9234723e-38
0.069899052 0.078371987 0.032893002 2.1175485e-38
0.069899052 0.13252804 0.040728986 1.2522045e-38
0.069899067 0.13510689 0.041102111 1.3075572e-38
0.069838271 0.1388918 0.042554259 1.3904982e-38
0.069695324 0.14127974 0.045047998 1.4456337e-38
0.065804109 0.068781942 0.034492016 1.8962767e-38
0.065852553 0.071499705 0.034206629 1.8498901e-38
0.065999761 0.075754568 0.032786429 1.8125494e-38
0.065739825 0.078846619 0.033251941 2.2289025e-38
0.06729953 0.13250232 0.040906668 1.2983374e-38
0.065999776 0.1352295 0.041391969 1.362767e-38
0.065868273 0.13876852 0.043713748 1.4087574e-38
0.066431671 0.14124745 0.045271099 1.4547827e-38
0.061908141 0.067865342 0.034390211 1.8038664e-38
0.061941858 0.071461022 0.034473956 1.7574812e-38
0.062082443 0.075673863 0.03327322 1.8225225e-38
0.06180881 0.078993127 0.033952653 2.3119136e-38
0.062286168 0.13539998 0.041675866 1.3995393e-38
0.061888997 0.13864449 0.044873893 1.4547106e-38
0.057988029 0.068090111 0.034768701 1.8408523e-38
0.058021527 0.071400642 0.034851372 1.8041175e-38
0.058031175 0.07530196 0.035302639 2.0531567e-38
0.05829189 0.078408197 0.035733938 2.1174416e-38
0.05811619 0.13553673 0.042999506 1.4546753e-38
0.057960026 0.13794203 0.045215249 1.4638935e-38
0.054682519 0.068606496 0.035580456 1.9514876e-38
0.05409025 0.071318552 0.035338938 2.1450288e-38
0.054161236 0.075345889 0.035128951 2.274137e-38
0.05425752 0.078448072 0.034502089 2.2375048e-38
0.053002179 0.13236091 0.041884005 1.4545704e-38
0.054181181 0.13481951 0.043507934 1.4822267e-38
0.054029781 0.13723955 0.045556724 1.5097755e-38
0.049940228 0.07145144 0.035411477 2.2098524e-38
0.049974911 0.075263038 0.034238815 2.2741383e-38
0.05170241 0.078192011 0.034136891 2.3204882e-38
0.049752772 0.13136169 0.0419662 1.4547471e-38
0.05031275 0.13448897 0.045038402 1.500738e-38
0.044891566 0.068509653 0.036249757 1.8601528e-38
0.045934595 0.071286112 0.034890652 2.0163122e-38
0.046503365 0.074272305 0.033932567 2.0806353e-38
0.04582908 0.13106537 0.04335475 1.4179757e-38
0.046523392 0.13360381 0.045554519 1.4272319e-38
0.041954279 0.068156824 0.036403716 1.6203392e-38
0.041846395 0.070808202 0.034769237 1.6665074e-38
0.040871069 0.12794282 0.042091429 1.3258874e-38
0.04226689 0.13095659 0.044075966 1.4453826e-38
0.042280644 0.13323808 0.045797706 1.4361995e-38
0.038648032 0.067969128 0.036404729 1.4173991e-38
0.037788734 0.070600241 0.035224915 1.371625e-38
0.037665009 0.12756726 0.042260826 1.288903e-38
0.038599394 0.13028763 0.045193672 1.3902813e-38
0.035753325 0.068419263 0.036874473 1.2786421e-38
0.034060046 0.071451157 0.035984457 1.1501421e-38
0.033872999 0.12738791 0.043512285 1.3071231e-38
0.034447864 0.12927534 0.045771003 1.3257793e-38
0.031836942 0.070970684 0.037516952 1.0942085e-38
0.02991046 0.074883148 0.037964284 1.2326512e-38
0.028827906 0.077782616 0.036686897 1.5088733e-38
0.028306723 0.12438006 0.042452753 1.3070896e-38
0.029611751 0.12678693 0.04439801 1.3439663e-38
0.031184211 0.12924306 0.045994103 1.3624381e-38
0.027920559 0.0761123 0.038534224 1.6561748e-38
0.025593609 0.079066753 0.036953807 1.7396173e-38
0.024407431 0.1159602 0.041506588 1.36269e-38
0.025746509 0.1194637 0.043270588 1.2977272e-38
0.025852203 0.12268239 0.044114769 1.3256e-38
0.027267829 0.12596661 0.045793355 1.3530075e-38
0.021530524 0.079466477 0.038452685 1.546581e-38
0.021158025 0.081758179 0.036784589 1.4265461e-38
0.021374643 0.11184701 0.041123092 1.4452025e-38
0.021500558 0.11500168 0.043821573 1.4269071e-38
0.02305916 0.11786187 0.044661164 1.3810239e-38
0.024004176 0.12269662 0.045547962 1.3715549e-38
0.01788035 0.079559945 0.038720965 1.371626e-38
0.016860895 0.082594007 0.037711918 1.261096e-38
0.017648667 0.10828572 0.040867865 1.4730047e-38
0.017731652 0.11121829 0.042524278 1.5189959e-38
0.017724492 0.11454957 0.044373333 1.5372922e-38
0.013835177 0.082740813 0.039716661 1.2793196e-38
0.013808608 0.08661662 0.039350986 1.0215338e-38
0.013359472 0.090707049 0.038623691 8.7402138e-39
0.012709588 0.094568908 0.039227843 8.3732432e-39
0.012709588 0.097792484 0.03969425 9.1104257e-39
0.013142824 0.10316939 0.04044205 1.2151774e-38
0.013903782 0.10652486 0.042562544 1.4179755e-38
0.014915183 0.11099628 0.044151723 1.5467985e-38
0.010949567 0.083067402 0.040724993 1.3897005e-38
0.010130391 0.086785033 0.040982425 9.9387472e-39
0.0099187344 0.090472437 0.040067792 8.2810405e-39
0.0098160207 0.094240248 0.04129535 7.5445755e-39
0.010005236 0.098308466 0.040632844 8.2842831e-39
0.0099012703 0.10208192 0.041861355 1.0956491e-38
0.011102989 0.10458136 0.042814374 1.298481e-38
0.005950816 0.090364173 0.041749895 7.8189932e-39
0.0057986528 0.094095372 0.04223007 6.6240331e-39
0.0067465901 0.097634248 0.042872846 6.7194882e-39
0.0070331842 0.10051231 0.043522477 1.0310418e-38
0.0021377057 0.091074526 0.042498529 8.0051851e-39
0.0018298402 0.094003052 0.042831182 7.6371145e-39
0.1224543 0.1110673 0.012686729 1.2336934e-38
0.12028423 0.095765322 0.010117769 1.5742037e-38
0.096140862 0.098006167 0.014228642 1.5282875e-38
0.11341985 0.13080218 0.019701242 1.3812427e-38
0.11718106 0.11456725 0.015738726 1.6204105e-38
0.015456825 0.090892069 0.037491262 9.1079229e-39
0.16002497 0.057139501 0.030620635 2.2392039e-38
0.16120782 0.15239422 0.042295098 2.2940852e-38
0.15707684 0.056282282 0.02968955 2.2392745e-38
0.15858929 0.058850765 0.028942823 2.2482773e-38
0.15748872 0.15506451 0.043700695 2.2568827e-38
0.15674232 0.15740919 0.045358002 2.0996789e-38
0.15477273 0.053179681 0.030414283 2.2576063e-38
0.15340595 0.055465534 0.029827535 2.2483862e-38
0.15466151 0.15622604 0.04330641 2.2754301e-38
0.15323606 0.15858978 0.044634163 2.0447604e-38
0.15214659 0.16127162 0.046237648 1.4910491e-38
0.14948973 0.054574758 0.030309618 2.266321e-38
0.14960036 0.15891995 0.044302642 2.0537276e-38
0.14950511 0.16126633 0.04608357 1.6386648e-38
0.14555003 0.052601829 0.030214667 2.2843294e-38
0.14680594 0.054837644 0.02918452 2.2841866e-38
0.14680594 0.16004491 0.044407189 1.9523497e-38
0.14523235 0.16156012 0.046255469 1.7866131e-38
0.1416177 0.051894158 0.030471146 2.3025867e-38
0.1416055 0.16188115 0.046048641 1.7958682e-38
0.13767716 0.052541733 0.03067106 2.311484e-38
0.13731378 0.15962631 0.045009077 1.9063622e-38
0.13766733 0.16212943 0.046214819 1.7406948e-38
0.13351999 0.052103519 0.030728936 2.3111955e-38
0.13353626 0.15895751 0.04561007 1.8876344e-38
0.13375112 0.16177222 0.047087431 1.7037479e-38
0.12980503 0.051199615 0.030857444 2.2929365e-38
0.1305711 0.15884523 0.045366704 1.8417151e-38
0.12981479 0.16173328 0.047356546 1.7037819e-38
0.12587647 0.051087141 0.031452954 2.2561299e-38
0.12613378 0.16159785 0.047087431 1.7589543e-38
0.12194045 0.051048219 0.031722009 2.2285794e-38
