# .PCD v0.7 - Point Cloud Data file format
VERSION 0.7
FIELDS x y z rgb
SIZE 4 4 4 4
TYPE F F F F
COUNT 1 1 1 1
WIDTH 980
HEIGHT 1
VIEWPOINT 0 0 0 0 1 0 0
POINTS 980
DATA ascii
0.11772259 0.11335328 0.015115321 1.7402684e-38
0.11739282 0.11720854 0.016256511 1.8875279e-38
0.11202774 0.047970653 0.0014459491 7.3616262e-39
0.11225693 0.051289856 0.0013068914 7.4545337e-39
0.11213044 0.055201232 0.0018827915 7.8240056e-39
0.11239772 0.05867669 0.0028343201 8.7449082e-39
0.11213548 0.061920255 0.0025992393 1.1232727e-38
0.11381409 0.11443502 0.015011966 1.70346e-38
0.1135527 0.11791822 0.016266584 1.7679254e-38
0.11415544 0.12153411 0.01824981 2.0166732e-38
0.11581479 0.12425557 0.018562734 2.1553283e-38
0.10781726 0.047334254 0.002119422 8.3793682e-39
0.10797275 0.051126957 0.0022798777 8.4694017e-39
0.10801543 0.054925174 0.0028120875 9.0197014e-39
0.10809588 0.05858326 0.0036526322 1.0862532e-38
0.10821266 0.062494218 0.0034999847 1.2796112e-38
0.10971861 0.118402 0.016466856 1.7679989e-38
0.10940094 0.12146078 0.018401206 1.8693065e-38
0.10844242 0.12470573 0.020108223 2.099577e-38
0.10360567 0.044648945 0.0023134947 8.5597938e-39
0.10427488 0.047104746 0.0027576685 8.4679597e-39
0.10447855 0.050723493 0.0033035278 8.7416614e-39
0.10442202 0.05514589 0.0043497682 1.0402263e-38
0.10429794 0.059195936 0.0049860477 1.2152184e-38
0.10441557 0.063091636 0.0045905709 1.3807752e-38
0.10594666 0.12210566 0.018811047 1.7587418e-38
0.10581039 0.12491009 0.020670235 1.9798676e-38
0.1012186 0.059854627 0.0058163404 1.3071606e-38
0.10079438 0.06343323 0.0058658123 1.4636775e-38
0.10326537 0.12338519 0.018719554 1.684626e-38
0.10215069 0.12562428 0.020042241 1.7954418e-38
0.10221151 0.12872803 0.022136211 1.8787768e-38
0.10171822 0.13224965 0.023187637 1.648431e-38
0.097460873 0.060180068 0.0068879724 1.3623342e-38
0.096859731 0.063496351 0.0065794587 1.4452045e-38
0.098579407 0.12583113 0.020338118 1.574601e-38
0.097959876 0.12910336 0.021965683 1.5656335e-38
0.098481819 0.13242063 0.023441732 1.3259232e-38
0.097592026 0.13484544 0.024601281 7.6413884e-39
0.092747681 0.060037196 0.0080366135 1.435588e-38
0.092677206 0.062975526 0.0077877641 1.500127e-38
0.091588773 0.066544443 0.0076953173 1.6570007e-38
0.094417468 0.1300889 0.022017062 1.2337669e-38
0.094345629 0.13296372 0.02343595 9.1111319e-39
0.094933882 0.13519457 0.025202215 7.5488481e-39
0.089183241 0.06020391 0.008771956 1.518454e-38
0.08876799 0.062838793 0.0093390942 1.5830643e-38
0.088562079 0.066954285 0.0087310076 1.6755117e-38
0.090311386 0.13333353 0.024415135 8.7430935e-39
0.090606317 0.13560507 0.025795221 8.6555852e-39
0.084942013 0.06316337 0.010293186 1.6291261e-38
0.084878534 0.066874266 0.009431839 1.6384175e-38
0.08156357 0.063395143 0.011007309 1.656605e-38
0.081250727 0.066486835 0.010862827 1.6291614e-38
0.08041507 0.069749683 0.010628223 1.592427e-38
0.080184519 0.077857524 0.012571156 1.4636076e-38
0.082686491 0.12887065 0.024023533 1.1598982e-38
0.078553304 0.066381335 0.012294412 1.6291614e-38
0.077366605 0.070380747 0.011998832 1.60129e-38
0.076822668 0.073728055 0.012261331 1.5554058e-38
0.077103063 0.077182114 0.013015032 1.5003407e-38
0.077598795 0.12103525 0.023299456 1.086432e-38
0.078675523 0.12520713 0.024733543 1.0769632e-38
0.079446435 0.12798105 0.026120961 1.6486047e-38
0.080277897 0.1308074 0.027038217 1.6293375e-38
0.073698938 0.069833875 0.013920128 1.5829585e-38
0.072694063 0.073825181 0.014345109 1.5462575e-38
0.072876051 0.07804206 0.014773905 1.5095943e-38
0.072925717 0.081428558 0.015173554 1.5002322e-38
0.071754619 0.084975958 0.015884161 1.5187072e-38
0.072290182 0.10932612 0.021479368 1.3073445e-38
0.074851744 0.11424945 0.022131383 1.1968862e-38
0.073704869 0.11787534 0.023204267 1.0496231e-38
0.074173197 0.12076858 0.024611413 1.1599716e-38
0.074572533 0.1247346 0.02620858 1.344185e-38
0.074498042 0.12821183 0.027274668 1.8604458e-38
0.073491022 0.13141905 0.02798444 2.2021831e-38
0.070344999 0.070780396 0.014927566 1.5188517e-38
0.069538645 0.074076027 0.015856564 1.5371808e-38
0.069364943 0.07802847 0.01629293 1.5371471e-38
0.069306418 0.08207421 0.016844809 1.5187078e-38
0.068987578 0.085853755 0.016928971 1.5004147e-38
0.06818004 0.089766011 0.017703652 1.5370394e-38
0.068273768 0.094027281 0.018682837 1.4727536e-38
0.068554945 0.10681114 0.021620393 1.2705684e-38
0.069835737 0.10927278 0.02194643 1.2150363e-38
0.06991607 0.11292532 0.022785664 1.0584112e-38
0.069786102 0.11705437 0.02419579 1.1691159e-38
0.070292994 0.12080151 0.025914788 1.2980123e-38
0.070283636 0.12455508 0.027294755 1.3527201e-38
0.070302024 0.1285519 0.027065039 1.6015782e-38
0.070576802 0.13250476 0.028135836 2.053482e-38
0.069771864 0.13533439 0.029732049 2.2581104e-38
0.06681326 0.078027517 0.017313838 1.5371094e-38
0.066166006 0.082163632 0.018408477 1.5187071e-38
0.065721214 0.085490316 0.018809497 1.5095254e-38
0.06582655 0.093035549 0.019451499 1.4544927e-38
0.064645655 0.096382335 0.01994288 1.3902425e-38
0.067327723 0.10678448 0.021853805 1.1875577e-38
0.066178761 0.10883039 0.023154616 9.2959085e-39
0.06629508 0.11244807 0.024659097 8.4668653e-39
0.066811338 0.11641684 0.025835693 9.9426764e-39
0.066679627 0.1208995 0.027375281 1.2886506e-38
0.066569164 0.12461115 0.027568817 1.3803436e-38
0.066573158 0.12735447 0.027164638 1.5280714e-38
0.067209534 0.13726391 0.029534221 2.2668999e-38
0.066606253 0.13980839 0.031293154 2.3231864e-38
0.062889107 0.086079836 0.019965351 1.4910854e-38
0.062131133 0.088911533 0.020776212 1.4360543e-38
0.062201776 0.092653692 0.021405995 1.3716596e-38
0.061967909 0.096795306 0.021375716 1.3070513e-38
0.06165792 0.099968195 0.021365881 1.0402622e-38
0.063288063 0.10820863 0.023324847 8.2785224e-39
0.063872457 0.11214143 0.025873721 7.3623282e-39
0.063939586 0.11519453 0.026575208 6.4385713e-39
0.06407389 0.12130062 0.027978301 1.0033123e-38
0.062889948 0.12446266 0.02848506 1.2512341e-38
0.062647909 0.1277965 0.02789557 1.4356601e-38
0.064020351 0.14150396 0.030975401 2.3325853e-38
0.063507438 0.1441018 0.032554984 2.3325854e-38
0.062567301 0.14678928 0.033890367 2.341769e-38
0.05969606 0.090079278 0.021525145 1.3166299e-38
0.059147734 0.093118936 0.022343814 1.1784441e-38
0.05860294 0.096855849 0.02306366 9.6628778e-39
0.058486972 0.10144399 0.022722721 7.3633862e-39
0.058310218 0.10577728 0.023379624 9.1111473e-39
0.058763914 0.10781536 0.023768008 9.5724772e-39
0.060394421 0.12183101 0.02882117 9.1064908e-39
0.059706707 0.12456265 0.029385805 1.2052407e-38
0.058692552 0.12819764 0.029133797 1.3431433e-38
0.060909145 0.14849371 0.033393562 2.341769e-38
0.060099106 0.15088192 0.035417616 2.341769e-38
0.059861809 0.153556 0.036351323 2.341769e-38
0.05959475 0.16006024 0.037926078 2.3417686e-38
0.058818873 0.1620778 0.038549781 2.3227542e-38
0.055863295 0.097625002 0.024040163 7.7303709e-39
0.055617847 0.10109043 0.024550796 8.1884497e-39
0.056294683 0.10421234 0.024975121 1.0493736e-38
0.0567821 0.12541446 0.030365646 1.2877518e-38
0.055577524 0.12807092 0.030386388 1.3247029e-38
0.054363813 0.13084137 0.030017436 1.3521828e-38
0.056209192 0.15530762 0.037474811 2.341769e-38
0.05462338 0.15890214 0.037929118 2.2112899e-38
0.049476877 0.12891766 0.032612681 1.3617573e-38
0.050574705 0.13156319 0.031841338 1.3616854e-38
0.049535245 0.13438725 0.031790674 1.3619038e-38
0.047899678 0.13223669 0.033349216 1.3894173e-38
0.046632886 0.13464656 0.033881903 1.3709793e-38
0.037410278 0.14081696 0.03566426 1.5553693e-38
0.035324056 0.14336979 0.037192047 1.5001228e-38
0.035076324 0.14624244 0.037390172 1.3614733e-38
0.14036527 0.054980814 0.0027784705 7.1800894e-39
0.14076057 0.058574349 0.0026276708 6.8141641e-39
0.1410374 0.062568277 0.002959609 7.2740633e-39
0.14088874 0.066893309 0.0032693744 7.3641247e-39
0.14085428 0.07093811 0.0042228103 8.747778e-39
0.1411171 0.074743271 0.0053991079 1.1049785e-38
0.14062339 0.078307107 0.0066201687 1.3817411e-38
0.14068839 0.081484199 0.0080829263 1.777684e-38
0.1403811 0.083884105 0.0095410347 2.0636665e-38
0.13698229 0.05475527 0.002602458 6.9031452e-39
0.1369845 0.05888778 0.0020301938 5.5241596e-39
0.13816407 0.062292397 0.0017836094 6.2620455e-39
0.1383796 0.072091818 0.0040353537 9.5764625e-39
0.13782963 0.075140744 0.0048565269 1.2156123e-38
0.13744405 0.078652382 0.0057538152 1.4645742e-38
0.13782135 0.082449377 0.007166326 1.8880667e-38
0.13774475 0.085743219 0.009236753 2.1004754e-38
0.13725251 0.089769244 0.011081755 2.2384831e-38
0.13769962 0.093992591 0.011982977 2.2486747e-38
0.13816348 0.09744221 0.012915611 2.239491e-38
0.13819233 0.10124546 0.013451695 2.2583613e-38
0.13814351 0.10471678 0.01446265 2.2769809e-38
0.13223681 0.05109778 0.0026442409 8.3779179e-39
0.13253549 0.055228829 0.0017524362 7.2719193e-39
0.13254052 0.05910933 0.0021370053 6.7194728e-39
0.13479672 0.077523559 0.0060066581 1.483191e-38
0.13493145 0.083648205 0.0074140429 1.9250528e-38
0.13448605 0.085842371 0.0080146194 2.0724916e-38
0.13363409 0.090019792 0.010129809 2.2196132e-38
0.13337436 0.093982056 0.011504292 2.2381585e-38
0.13373533 0.097822368 0.012106001 2.2472705e-38
0.13370521 0.1017504 0.012271047 2.2475577e-38
0.13365337 0.10546231 0.013379753 2.256996e-38
0.13368011 0.1088257 0.016044974 2.2577498e-38
0.12818523 0.051294714 0.0020879507 7.6446731e-39
0.12813823 0.055340648 0.002114892 7.3655694e-39
0.12862167 0.058616102 0.0027871728 7.0871721e-39
0.13020813 0.093340397 0.010605395 2.127451e-38
0.13008395 0.10639739 0.013686061 2.2099599e-38
0.12991294 0.10956481 0.015622497 2.2103203e-38
0.12928486 0.11294422 0.017726898 2.2291562e-38
0.12866077 0.11694402 0.01922065 2.2846871e-38
0.12339089 0.044157803 0.0035609007 1.0867912e-38
0.12441396 0.04716441 0.0031501055 1.0039594e-38
0.12433983 0.050972939 0.0018345118 9.484627e-39
0.12591925 0.11340997 0.016806304 2.0814999e-38
0.12613553 0.11699525 0.01937747 2.2564175e-38
0.12595093 0.12029231 0.020882189 2.2014944e-38
0.12084576 0.042995274 0.003487289 1.114488e-38
0.12067083 0.046847492 0.0025003552 1.086794e-38
0.12060425 0.049463391 0.0022107959 1.0687104e-38
0.12265401 0.11460236 0.017058015 1.9889806e-38
0.12223899 0.11733596 0.018824458 2.1091575e-38
0.12252889 0.12053308 0.021142483 2.2383731e-38
0.12216245 0.12358348 0.022392631 2.2565977e-38
0.11705582 0.038968176 0.0034093857 1.2158652e-38
0.11679531 0.042356044 0.0028594136 1.0961897e-38
0.11702427 0.046117783 0.002276361 1.0318339e-38
0.11936532 0.11781862 0.018714726 2.0353665e-38
0.11865315 0.12083226 0.020691812 2.1366003e-38
0.11892023 0.12407359 0.022908449 2.1642597e-38
0.11776226 0.12643966 0.023920774 2.1002249e-38
0.11321247 0.038223505 0.0031145811 9.3002315e-39
0.11288042 0.042628407 0.0027469397 8.0991758e-39
0.11286464 0.045458972 0.0027853847 7.362666e-39
0.11295146 0.12234986 0.020766854 2.090143e-38
0.11459685 0.12445919 0.022216976 2.1180531e-38
0.11546078 0.12731159 0.024425149 2.0538394e-38
0.11660313 0.13010421 0.025004983 2.0074199e-38
0.10828555 0.034678876 0.0041185617 9.4864095e-39
0.10879298 0.038455844 0.0032482743 8.6548229e-39
0.10859171 0.042443097 0.0031991601 8.4686506e-39
0.10940208 0.045138896 0.0033867955 8.2878256e-39
0.11078736 0.12492144 0.022140026 2.1274519e-38
0.1108419 0.12784737 0.024469614 2.0999008e-38
0.11032569 0.13164499 0.026592016 2.0354012e-38
0.10489994 0.034839272 0.0049917102 8.1938812e-39
0.10450753 0.038180858 0.0044566393 8.3764844e-39
0.10457805 0.042235553 0.0036495924 8.560884e-39
0.10336324 0.051129401 0.0059687495 9.5703514e-39
0.10685875 0.12589052 0.022785842 2.0812106e-38
0.10634476 0.12819417 0.023890078 2.0446195e-38
0.10655664 0.13217527 0.025884211 1.8880291e-38
0.10671856 0.13629632 0.027456105 1.4824781e-38
0.10624985 0.13848871 0.02899009 1.0314404e-38
0.10211599 0.035086274 0.0055934191 7.6389053e-39
0.10104619 0.037686229 0.0060189962 8.0977339e-39
0.10076101 0.042262048 0.0049821734 8.7431033e-39
0.10072827 0.046164542 0.0059485435 9.5735618e-39
0.10106098 0.050367534 0.0069054365 1.040082e-38
0.1010197 0.054567397 0.0076959133 1.1691204e-38
0.10021436 0.057590872 0.0080963373 1.2885791e-38
0.10385279 0.12949827 0.024217486 1.9986295e-38
0.10360474 0.13224769 0.024909556 1.7315116e-38
0.10277516 0.13618484 0.026080191 1.2246902e-38
0.10287309 0.13988265 0.028538465 1.086362e-38
0.098503277 0.039927453 0.007432282 9.6603933e-39
0.098491937 0.042673796 0.0073804259 1.0217503e-38
0.097885549 0.046640098 0.0089151263 1.0954724e-38
0.097393602 0.050114483 0.0091043711 1.2242936e-38
0.097345941 0.054349333 0.00871104 1.3161648e-38
0.097088248 0.057604581 0.0087102056 1.3437878e-38
0.099205203 0.1362198 0.026983857 8.6537957e-39
0.099519245 0.13966799 0.029666126 1.0774654e-38
0.093891174 0.05025658 0.01015377 1.3529352e-38
0.093647987 0.054223061 0.0095200539 1.3806295e-38
0.093878001 0.057534844 0.009321034 1.3897069e-38
0.095269322 0.1368022 0.028350711 9.669356e-39
0.096511103 0.13878226 0.030612707 1.1418937e-38
0.090853378 0.050559551 0.011066914 1.408217e-38
0.08997561 0.053959101 0.010640144 1.4358035e-38
0.089138463 0.057621986 0.010615647 1.5001239e-38
0.087527558 0.060580194 0.011274338 1.5830636e-38
0.092933647 0.1358504 0.028360069 9.5764303e-39
0.085957639 0.053777039 0.012660205 1.5463306e-38
0.085090846 0.057624102 0.012219965 1.6108666e-38
0.085058138 0.06052655 0.011744142 1.6383453e-38
0.082703881 0.054343164 0.013893008 1.6383472e-38
0.08145301 0.05713737 0.013862133 1.6475671e-38
0.08113201 0.060850173 0.012795985 1.6841563e-38
0.078047261 0.057520986 0.015337348 1.629163e-38
0.077735573 0.06123355 0.014269412 1.6382379e-38
0.077011451 0.065004259 0.014364123 1.6290906e-38
0.078527808 0.12833595 0.028892517 2.164901e-38
0.078085735 0.12956595 0.031357646 2.2390182e-38
0.075343147 0.057873011 0.01615715 1.6750089e-38
0.07412944 0.060484648 0.016540945 1.6290561e-38
0.074087523 0.064964563 0.015506923 1.6013621e-38
0.072872713 0.067607939 0.015782058 1.5922855e-38
0.076689214 0.12890819 0.029385626 2.3402555e-38
0.075586326 0.13164967 0.031288147 2.332115e-38
0.074837685 0.1351074 0.032243788 2.2943656e-38
0.070805065 0.06175375 0.017653286 1.6200164e-38
0.070271105 0.065411478 0.017269611 1.6107229e-38
0.069990873 0.069131225 0.016962945 1.5556219e-38
0.068055123 0.073012829 0.017988324 1.5372522e-38
0.073065899 0.13250253 0.030934691 2.2766949e-38
0.071827635 0.1352834 0.032989204 2.3416968e-38
0.070403993 0.13859577 0.034274936 2.341769e-38
0.067362264 0.061389357 0.01853925 1.5831387e-38
0.06721963 0.065682828 0.019049346 1.6198353e-38
0.066682503 0.06908679 0.019167066 1.5646987e-38
0.065620601 0.073400915 0.019019306 1.5371452e-38
0.065340638 0.077131033 0.019781232 1.537144e-38
0.065129995 0.080295384 0.020264447 1.5278895e-38
0.065307416 0.11641747 0.028685153 8.2831901e-39
0.065361314 0.11886734 0.029248118 9.9387682e-39
0.068685532 0.14031905 0.034926891 2.341769e-38
0.066903099 0.14248557 0.035102725 2.341769e-38
0.064342648 0.065013498 0.01997745 1.5738452e-38
0.064097136 0.069199622 0.02048254 1.5555135e-38
0.06216054 0.072690517 0.02167803 1.5277829e-38
0.062056296 0.076453328 0.021940291 1.5278181e-38
0.062080566 0.08063367 0.021520019 1.5277822e-38
0.061716981 0.084098309 0.02182138 1.4727885e-38
0.064099655 0.11761558 0.029201567 7.0850379e-39
0.062713049 0.12003414 0.030038595 8.5590806e-39
0.065382622 0.1441648 0.036733687 2.341769e-38
0.064010546 0.14695224 0.037828445 2.341769e-38
0.062935665 0.14986858 0.039069593 2.3325852e-38
0.059118789 0.076365754 0.02323705 1.4910829e-38
0.058418628 0.080098838 0.023387969 1.4726826e-38
0.058441367 0.084353507 0.022753179 1.4175083e-38
0.058356509 0.087953463 0.02338016 1.2888298e-38
0.058090378 0.091284007 0.024211764 1.169191e-38
0.058691643 0.12423199 0.031806767 1.250909e-38
0.061136425 0.15122075 0.037646651 2.3325854e-38
0.05971441 0.15460598 0.040807784 2.3325854e-38
0.059244707 0.15872979 0.039773881 2.3417686e-38
0.054831196 0.083961666 0.0260095 1.3071609e-38
0.054718893 0.088648498 0.0255602 1.0954316e-38
0.05504515 0.092580855 0.025423884 9.0189447e-39
0.054252468 0.096342891 0.026145637 6.4439523e-39
0.053844806 0.10025194 0.02714026 1.0126371e-38
0.055651952 0.12447228 0.033502102 1.2970421e-38
0.057252027 0.15553305 0.040198863 2.341769e-38
0.05672935 0.15925816 0.040389001 2.1559756e-38
0.056325655 0.16237834 0.042112827 1.9514195e-38
0.051881745 0.084667414 0.02701211 1.1321333e-38
0.051200997 0.088255808 0.027520418 9.6614512e-39
0.051257793 0.092259273 0.0275172 9.015356e-39
0.051325969 0.096098378 0.027937949 1.1320952e-38
0.051396254 0.099128038 0.028749466 1.2427677e-38
0.053229745 0.12839857 0.033848941 1.3432139e-38
0.053137626 0.15948474 0.042537451 1.5615835e-38
0.053594809 0.16153896 0.042928994 1.5822474e-38
0.048746224 0.088658005 0.028558731 1.0031687e-38
0.048193727 0.09172076 0.029383659 1.2793198e-38
0.048844732 0.094545141 0.028872073 1.4541311e-38
0.047110092 0.13071433 0.035586476 1.38949e-38
0.045894224 0.13039133 0.036793709 1.3987822e-38
0.039678488 0.15549123 0.045974195 1.4364846e-38
0.040806282 0.15808734 0.046361685 1.583496e-38
0.040413685 0.16073433 0.047057927 1.4727896e-38
0.034980875 0.13996387 0.041166306 1.4816488e-38
0.036577687 0.15542388 0.046564221 1.1316672e-38
0.036631819 0.15788488 0.047129631 1.2151095e-38
0.036685947 0.16034588 0.04769516 1.2978351e-38
0.033797704 0.1426686 0.040985167 1.3988885e-38
0.034097061 0.15537 0.047036171 1.0674528e-38
0.034124125 0.15660049 0.047318876 1.1134428e-38
0.1484507 0.065570295 0.0078596473 6.7209189e-39
0.14399111 0.055057466 0.0052244067 8.385122e-39
0.14471066 0.058094412 0.0059690475 7.8258231e-39
0.1453878 0.061882943 0.0065492392 6.9056605e-39
0.14543158 0.065677851 0.007196784 6.5383199e-39
0.14540026 0.069642156 0.0074338913 8.0102158e-39
0.14546278 0.073387623 0.008182168 1.0037436e-38
0.14565632 0.07749027 0.0097145438 1.2802937e-38
0.14152059 0.050813287 0.005410552 9.1154942e-39
0.14179933 0.053816795 0.0043167472 8.1946084e-39
0.14306968 0.077653334 0.0096482038 1.4091488e-38
0.14280447 0.081914932 0.011533976 1.9435975e-38
0.14182904 0.085051268 0.012817085 2.229622e-38
0.14167804 0.08886233 0.013937831 2.2582176e-38
0.14170611 0.092689842 0.014479816 2.2585771e-38
0.1416254 0.096216783 0.015112042 2.2399232e-38
0.14113781 0.10096538 0.015743732 2.3233657e-38
0.14135438 0.105037 0.01743865 2.341769e-38
0.14157087 0.1071808 0.018943667 2.341769e-38
0.13714445 0.047692686 0.0058834553 9.3963522e-39
0.13762785 0.050046831 0.005120337 8.5644742e-39
0.138781 0.052270889 0.0045444965 7.6385732e-39
0.13970064 0.08646892 0.013415337 2.2383062e-38
0.13959539 0.089297265 0.013052523 2.2487455e-38
0.13966323 0.092382789 0.013761461 2.2493929e-38
0.1395517 0.10615578 0.017007291 2.3325494e-38
0.13910389 0.10884947 0.018770635 2.341769e-38
0.13885525 0.11145926 0.02005744 2.341769e-38
0.13346404 0.045832694 0.0054699779 1.0221494e-38
0.13461262 0.048750401 0.0048831701 8.838159e-39
0.13590094 0.10977736 0.018568158 2.3231864e-38
0.1352035 0.11249712 0.019805551 2.3048907e-38
0.13454199 0.11546031 0.021993339 2.2860199e-38
0.12926286 0.041720331 0.0053597689 7.8258287e-39
0.1298444 0.045233071 0.0051655173 8.1974895e-39
0.13215457 0.11282116 0.020012438 2.2760097e-38
0.13155051 0.11612067 0.021367431 2.2577844e-38
0.13030922 0.11946835 0.022974253 2.2199007e-38
0.12974863 0.12239081 0.024116397 2.2109683e-38
0.12425876 0.038338989 0.006211102 1.1330712e-38
0.12511766 0.041681111 0.0053881407 1.0406592e-38
0.12617752 0.044595361 0.0052098632 9.4889304e-39
0.12784696 0.1204994 0.022651196 2.1922063e-38
0.12669522 0.12372914 0.024582624 2.1926006e-38
0.12106164 0.037979424 0.0058366656 1.077792e-38
0.12236388 0.040811658 0.005069077 1.1329984e-38
0.12376135 0.12435964 0.024771035 2.2199355e-38
0.12276691 0.12738879 0.026417792 2.2107884e-38
0.12212332 0.13026765 0.028146744 2.2849773e-38
0.1172459 0.034480035 0.0064685345 1.2161167e-38
0.11855025 0.037027955 0.0049283504 1.1235619e-38
0.11944186 0.12783253 0.026199639 2.1277058e-38
0.11926056 0.13099664 0.027831078 2.1553281e-38
0.11272021 0.030260056 0.0063124895 1.022185e-38
0.11362714 0.033394098 0.0060848594 1.0592051e-38
0.11497433 0.12885514 0.027121663 2.0535872e-38
0.11569213 0.13188969 0.02792412 2.0538038e-38
0.11567818 0.134451 0.029966712 2.1091935e-38
0.1098674 0.026684105 0.0062942505 1.0314039e-38
0.10977019 0.030420035 0.0056775212 1.0222203e-38
0.11101801 0.033780277 0.0056395531 8.8378297e-39
0.11312182 0.12943169 0.027618527 2.0996129e-38
0.11287187 0.13220192 0.028315723 2.0631309e-38
0.11206663 0.13544899 0.029697776 1.9342738e-38
0.11192092 0.13865268 0.031654358 1.5747852e-38
0.11113814 0.14116502 0.032843471 1.3163882e-38
0.10612399 0.026602805 0.0070064664 8.9311211e-39
0.10602216 0.030388445 0.0062861443 9.0247278e-39
0.10416209 0.033014536 0.0067995191 7.7318366e-39
0.10952537 0.13552168 0.029746652 1.7589939e-38
0.10801785 0.13938001 0.031153321 1.1783767e-38
0.10859976 0.1418685 0.032981217 1.2061056e-38
0.10269933 0.026837766 0.0077303648 7.3637758e-39
0.1021702 0.029868066 0.0082294345 7.2701298e-39
0.10091493 0.032994658 0.0084747076 7.4541469e-39
0.099889323 0.036622554 0.0084787607 8.2814049e-39
0.10465769 0.14035043 0.031827748 1.1415012e-38
0.10423572 0.1417737 0.03381145 1.3351825e-38
0.098432757 0.033770114 0.0096637607 8.2821125e-39
0.097561099 0.037006378 0.010516882 1.0032044e-38
0.097030401 0.040849686 0.011594892 1.1322413e-38
0.096979246 0.044471294 0.011145711 1.1506817e-38
0.098437369 0.14021531 0.033011198 1.2154005e-38
0.1005318 0.14093462 0.034861386 1.2889045e-38
0.095234096 0.041832924 0.01269871 1.2244362e-38
0.09440425 0.044984132 0.012901545 1.3346397e-38
0.09329129 0.047581851 0.012333035 1.371267e-38
0.095772326 0.13888726 0.034266472 1.123382e-38
0.090338185 0.046057224 0.014643908 1.435732e-38
0.089971103 0.048412442 0.013385057 1.4265129e-38
0.093379706 0.13640457 0.033107162 9.9448484e-39
0.093587205 0.13707176 0.035313725 9.6697021e-39
0.087232292 0.046608418 0.015379667 1.4634274e-38
0.086529553 0.049075902 0.014526367 1.4817944e-38
0.085908353 0.051122308 0.014603913 1.5278199e-38
0.08287777 0.048990548 0.016265094 1.5647695e-38
0.082571089 0.052036732 0.015469849 1.6016121e-38
0.079490758 0.049946755 0.017411947 1.5741336e-38
0.078538164 0.053182155 0.017153025 1.6015411e-38
0.076686472 0.055856466 0.017513514 1.6658968e-38
0.07487873 0.053075761 0.018958271 1.6476385e-38
0.073996425 0.056047142 0.018710911 1.6660056e-38
0.077787854 0.13083664 0.03589505 2.0996399e-38
0.070908874 0.056733966 0.01989305 1.6201243e-38
0.069317102 0.060014069 0.01992631 1.5925381e-38
0.072852664 0.13595867 0.037012517 2.3417316e-38
0.071719475 0.13811952 0.03878516 2.3417684e-38
0.068032317 0.058135718 0.019737542 1.5466914e-38
0.066671729 0.06051594 0.020709872 1.5739188e-38
0.066076532 0.063438922 0.021361053 1.6013963e-38
0.068667442 0.14220616 0.039815307 2.341769e-38
0.067556858 0.14525905 0.041966558 2.341769e-38
0.064119011 0.060226083 0.022559464 1.5554789e-38
0.063063323 0.063948601 0.022722363 1.564698e-38
0.062529966 0.067560226 0.023227572 1.5462586e-38
0.066227481 0.14568371 0.040583193 2.341769e-38
0.065117523 0.14871842 0.042817175 2.3325133e-38
0.060758337 0.06361863 0.023835897 1.5094529e-38
0.060340784 0.067617476 0.024714112 1.5094536e-38
0.059279222 0.071174711 0.024947643 1.5002688e-38
0.058432717 0.073964268 0.025317907 1.5003739e-38
0.061805841 0.15389866 0.044676661 2.2680491e-38
0.061593544 0.15679273 0.046179712 2.341769e-38
0.056027163 0.076056421 0.027173698 1.4727532e-38
0.055093881 0.0793432 0.027856469 1.4634627e-38
0.055330619 0.10069734 0.033226907 1.0863603e-38
0.055365548 0.10224336 0.033582032 1.1324201e-38
0.054596584 0.12569308 0.038175821 1.3341017e-38
0.053163275 0.076514065 0.028686523 1.4267994e-38
0.051371217 0.079558074 0.028843105 1.3531143e-38
0.050245672 0.083347023 0.029113412 1.1231282e-38
0.051326569 0.099869415 0.033815324 1.233692e-38
0.052090019 0.10264878 0.034316659 9.4810313e-39
0.054603495 0.12338491 0.039202392 1.3158043e-38
0.053412426 0.12506303 0.040350616 1.3249179e-38
0.051597334 0.15893576 0.046543062 1.6919107e-38
0.05199052 0.16116408 0.048033357 1.8509739e-38
0.048053496 0.080587134 0.030463815 1.1784088e-38
0.047471203 0.083270073 0.030566633 1.0216402e-38
0.047175441 0.087113351 0.030594945 1.1411369e-38
0.046378635 0.090855718 0.031975031 1.3898817e-38
0.04772754 0.094767213 0.033324063 1.4174708e-38
0.049097244 0.098985314 0.035089314 1.2796073e-38
0.049151704 0.10146116 0.03565824 9.4817249e-39
0.047186509 0.12799937 0.040163159 1.3803062e-38
0.049124308 0.15871397 0.047671258 2.0912216e-38
0.049197271 0.16099292 0.049003541 2.053949e-38
0.045027088 0.084048882 0.032388151 1.1597886e-38
0.045075707 0.086643875 0.032637537 1.2887539e-38
0.045163225 0.090238512 0.033810437 1.3807708e-38
0.045217685 0.092714369 0.034379303 1.3254204e-38
0.045182746 0.15787922 0.04769814 2.1553948e-38
0.045449767 0.1610215 0.049277604 1.5740634e-38
0.045535464 0.16386789 0.0509727 1.5006285e-38
0.041708671 0.16150542 0.049225688 1.4636431e-38
0.041797318 0.16456786 0.051169693 1.3717727e-38
0.040612318 0.16685426 0.052633464 1.3076296e-38
0.037182029 0.1536881 0.048130691 1.1407419e-38
0.037736803 0.16174346 0.050326049 1.3535467e-38
0.038057651 0.1644866 0.051881313 1.3901736e-38
0.038740605 0.16681361 0.052989542 1.3811692e-38
0.034324497 0.15032303 0.049992144 1.039793e-38
0.033887073 0.15315206 0.049096882 1.0122428e-38
0.033412308 0.15755381 0.049771905 1.1045102e-38
0.034083083 0.16099137 0.051229596 1.1783398e-38
0.03448933 0.16389307 0.053136468 1.2059628e-38
0.030691586 0.15327874 0.051095009 1.0763846e-38
0.030412942 0.15681869 0.051928222 1.0583745e-38
0.031118095 0.16050307 0.05282712 1.0956136e-38
0.031809635 0.16356972 0.053584099 1.1139476e-38
0.13668081 0.10656272 0.019347608 1.9438892e-38
0.14857323 0.052481204 0.0089534521 9.8530508e-39
0.14962751 0.056697994 0.0089506507 8.6541292e-39
0.14970401 0.060641706 0.0089004636 6.9971415e-39
0.15047288 0.064266831 0.0092504025 6.720563e-39
0.15106088 0.068250954 0.010068119 5.8951211e-39
0.14936757 0.088596255 0.017252088 2.2937637e-38
0.14942235 0.091086969 0.017824411 2.2858039e-38
0.14492151 0.04929167 0.0081362724 1.0316907e-38
0.14620107 0.052781045 0.0081430078 9.2116457e-39
0.14706045 0.056994677 0.0082147121 8.8385233e-39
0.14645988 0.080273226 0.014594197 1.7222547e-38
0.14638059 0.084316075 0.016684413 2.1372806e-38
0.14659172 0.088573635 0.016952753 2.2860182e-38
0.1464805 0.092291802 0.018083751 2.2863437e-38
0.14611956 0.095695481 0.019199908 2.3324774e-38
0.14161609 0.04555732 0.0079948902 1.0501298e-38
0.1422648 0.048304379 0.0076400042 1.0039597e-38
0.14400285 0.084670007 0.015812814 2.2756126e-38
0.14398855 0.087953985 0.016061723 2.2674729e-38
0.14412549 0.092213035 0.017293215 2.2677254e-38
0.14381698 0.096608415 0.018957376 2.3048547e-38
0.14367601 0.10001686 0.019991934 2.3325854e-38
0.14382359 0.10361418 0.021223247 2.341769e-38
0.14284283 0.10770437 0.02195406 2.341769e-38
0.14251417 0.11078599 0.023000956 2.341769e-38
0.14238366 0.1133396 0.024408221 2.341769e-38
0.13795255 0.042087853 0.008333981 1.1145964e-38
0.1382924 0.045098513 0.0075908899 1.0317634e-38
0.1398747 0.11229458 0.022824228 2.341769e-38
0.13964149 0.1145694 0.024578393 2.3325494e-38
0.13368651 0.038897485 0.0076365471 1.1515802e-38
0.13444635 0.04145813 0.0075647235 1.1516913e-38
0.13552345 0.044333637 0.007504642 1.0683931e-38
0.13677987 0.11550982 0.024617076 2.3046748e-38
0.13550806 0.11898719 0.026419997 2.2489986e-38
0.13505736 0.12251613 0.027987361 2.286344e-38
0.12972212 0.034376055 0.0080494881 9.1190927e-39
0.13065627 0.03735736 0.0075692534 8.9347028e-39
0.13303787 0.11972478 0.02581197 2.2481711e-38
0.13242963 0.12335388 0.027767599 2.248711e-38
0.13135999 0.12554766 0.029419243 2.2670792e-38
0.12634358 0.033385426 0.0080943108 9.1165732e-39
0.12624121 0.036685705 0.0075278282 8.9303966e-39
0.129363 0.12445389 0.027462482 2.2387353e-38
0.12787135 0.12704077 0.02892971 2.2486736e-38
0.12700644 0.1305801 0.030924916 2.2863436e-38
0.12049129 0.03071034 0.0093430877 1.0496999e-38
0.12165663 0.033042789 0.0086160898 1.0408737e-38
0.12281684 0.03537029 0.0078887343 1.206324e-38
0.12485137 0.12787215 0.029143929 2.211077e-38
0.12389564 0.13096246 0.030576766 2.257931e-38
0.12357026 0.13372529 0.032680929 2.2771239e-38
0.11705255 0.026486456 0.0090260506 1.1786652e-38
0.11802832 0.0295344 0.0088955164 1.1511502e-38
0.11774239 0.032157451 0.0081279278 1.1788428e-38
0.1202796 0.13173303 0.031202078 2.2293724e-38
0.12013979 0.13427505 0.032724738 2.2392032e-38
0.11948119 0.13690731 0.034398794 2.2486397e-38
0.11297249 0.021243662 0.0078118443 1.0961205e-38
0.11410031 0.024856269 0.0080450773 1.2435242e-38
0.11468937 0.028650552 0.0081124902 1.3258884e-38
0.11660553 0.13537773 0.032772899 2.1924918e-38
0.11643365 0.13798667 0.034085155 2.2572823e-38
0.1156428 0.14121678 0.035634637 2.0082474e-38
0.11011541 0.020983636 0.0080478191 9.9459611e-39
0.1100556 0.023923695 0.0077021122 1.0038869e-38
0.11383324 0.13880219 0.033854783 1.8973626e-38
0.11288432 0.14186646 0.035410821 1.5371527e-38
0.11263456 0.14412338 0.03742528 1.7316236e-38
0.10637956 0.020801157 0.0089671016 9.4857032e-39
0.10633788 0.023691475 0.0087224245 8.9325378e-39
0.10896086 0.14294794 0.036125422 1.4733672e-38
0.10884566 0.14444688 0.037404835 1.7962679e-38
0.105168 0.1429576 0.036520064 1.5656334e-38
0.1053699 0.14441389 0.038389802 1.8053413e-38
0.0965617 0.036040962 0.013174474 1.0678851e-38
0.1003386 0.14197347 0.037625134 1.3074508e-38
0.1022716 0.14358705 0.039324105 1.5379359e-38
0.095409513 0.032800853 0.014383495 9.8483662e-39
0.095077187 0.037343085 0.014291883 1.1691194e-38
0.093857422 0.040523559 0.015349507 1.316308e-38
0.092970923 0.043409228 0.015600622 1.4081798e-38
0.095073715 0.1390152 0.037569165 1.0768169e-38
0.096431963 0.14137292 0.038436532 9.9419982e-39
0.090799175 0.041026413 0.016930759 1.4082171e-38
0.09026216 0.043676943 0.016610622 1.4358043e-38
0.09176039 0.13442208 0.038535118 8.2903774e-39
0.092433751 0.13773036 0.038306773 7.366647e-39
0.09318608 0.14073704 0.039177299 7.0872001e-39
0.088100336 0.041209519 0.018127978 1.4450249e-38
0.08681529 0.043886334 0.01796025 1.4634644e-38
0.089902453 0.1374058 0.040293396 6.0751992e-39
0.090179518 0.13987002 0.039770722 6.2588688e-39
0.08337146 0.044511467 0.019406617 1.5371497e-38
0.081788942 0.046889454 0.01859957 1.5831011e-38
0.080650792 0.044781953 0.020419419 1.5924308e-38
0.079073496 0.047159255 0.019611418 1.592466e-38
0.075621054 0.047578484 0.021011233 1.6294158e-38
0.074987359 0.050464839 0.020765126 1.6476368e-38
0.078585148 0.12872869 0.038382232 2.1465642e-38
0.072238117 0.048126072 0.02258426 1.657038e-38
0.071494147 0.051446408 0.022141993 1.6478907e-38
0.069450989 0.054688215 0.022835255 1.6110123e-38
0.072518595 0.13728419 0.041569948 2.341768e-38
0.068235606 0.051460803 0.024146736 1.5925376e-38
0.066845059 0.054741681 0.024271607 1.5648433e-38
0.071015857 0.14101884 0.044131577 2.341769e-38
0.069204062 0.14454676 0.045136988 2.3417689e-38
0.067809485 0.14808434 0.046063304 2.3417686e-38
0.063282117 0.055599332 0.025560379 1.5372548e-38
0.062541008 0.05855307 0.025298893 1.5279637e-38
0.065577015 0.14958072 0.046640575 2.2955986e-38
0.064682819 0.15258372 0.048354626 2.2674e-38
0.059584823 0.056771815 0.027341068 1.4634647e-38
0.05977292 0.059074163 0.0269472 1.4818308e-38
0.059115253 0.063248426 0.027306139 1.4819366e-38
0.058460176 0.066859901 0.027831376 1.4819019e-38
0.059718445 0.10563129 0.03875196 7.9169356e-39
0.062806621 0.15072468 0.046613216 2.2956347e-38
0.062861249 0.15320796 0.047183871 2.2582187e-38
0.063003972 0.15518157 0.049708724 2.3416198e-38
0.057224896 0.063566685 0.02939266 1.4726065e-38
0.056176439 0.067053109 0.029760242 1.4451307e-38
0.056059767 0.07106629 0.029517233 1.4544224e-38
0.054855742 0.073607326 0.030114889 1.4637119e-38
0.056774929 0.10332277 0.037044168 1.0038849e-38
0.0568721 0.10540551 0.038790524 6.4439677e-39
0.057128876 0.11947209 0.040755212 1.1039712e-38
0.056519248 0.12080306 0.040837407 1.278531e-38
0.052927267 0.067829967 0.031230092 1.4266568e-38
0.052326199 0.070688337 0.030971169 1.4266917e-38
0.051958069 0.074308693 0.03101933 1.408325e-38
0.053633839 0.10336578 0.037319362 8.0155814e-39
0.053088434 0.10477489 0.039149702 3.8632061e-39
0.053412091 0.11897856 0.042759657 1.2052066e-38
0.053076476 0.121573 0.042436957 1.2972933e-38
0.052234426 0.12505364 0.042669415 1.3340999e-38
0.053665809 0.1616955 0.050966799 1.776717e-38
0.053523626 0.1631037 0.052369773 1.8779178e-38
0.049816433 0.069007128 0.032113314 1.3990707e-38
0.049012743 0.074468613 0.032652617 1.3530463e-38
0.04807828 0.077617854 0.032900274 1.2888284e-38
0.047838032 0.095793635 0.036679089 1.2888684e-38
0.047892641 0.098276913 0.037249684 1.1231985e-38
0.047947273 0.10076019 0.03782028 8.1881078e-39
0.050532278 0.10453945 0.038199961 4.1347511e-39
0.049737956 0.12475441 0.043505251 1.3433546e-38
0.050609116 0.16395032 0.052788794 1.7213239e-38
0.049442332 0.16608974 0.054911315 1.5652016e-38
0.045835763 0.078586742 0.034784853 1.1505344e-38
0.044222783 0.081845269 0.035340011 1.19638e-38
0.043913044 0.086543351 0.03667438 1.3899541e-38
0.043989893 0.090393603 0.037212193 1.3071222e-38
0.045310792 0.094427973 0.037062228 1.1506776e-38
0.046021294 0.098123148 0.037927747 9.0178573e-39
0.046695724 0.10073301 0.0380584 6.9885305e-39
0.046276536 0.12531281 0.045566678 1.3619395e-38
0.044837736 0.12894186 0.04606992 1.3987822e-38
0.044892441 0.13142885 0.046641409 1.3617244e-38
0.046854254 0.16460997 0.053153932 1.5098482e-38
0.04646197 0.16701192 0.054794729 1.5375791e-38
0.042586006 0.08254236 0.03669399 1.2701018e-38
0.043281849 0.12868655 0.0470981 1.4078221e-38
0.041477159 0.13226169 0.048156857 1.3709769e-38
0.042556837 0.16769518 0.055482209 1.5284653e-38
0.042791508 0.17051587 0.056985259 1.4457053e-38
0.037990097 0.16781388 0.055909157 1.3351081e-38
0.038667306 0.17077422 0.057764113 1.4364502e-38
0.034073591 0.14475067 0.052918434 1.2325074e-38
0.033728041 0.14778776 0.052860558 1.1038988e-38
0.033723027 0.1649854 0.055632591 1.1325652e-38
0.034404509 0.16727243 0.056964099 1.251916e-38
0.034459941 0.16957638 0.058305681 1.3809163e-38
0.030595675 0.14865746 0.053616345 1.1591057e-38
0.029052556 0.15172231 0.053962946 1.1409599e-38
0.029233359 0.1599237 0.055324793 1.0220726e-38
0.030211397 0.16377571 0.056334198 1.1782323e-38
0.030796073 0.16692302 0.058095396 1.2794664e-38
0.031950481 0.16944402 0.059113383 1.4725014e-38
0.027746387 0.14943665 0.0552513 1.2146057e-38
0.026974842 0.15236723 0.055913866 1.1227685e-38
0.02664075 0.15597454 0.055603862 1.0400772e-38
0.026723899 0.1597316 0.056350887 1.0953988e-38
0.026948877 0.16304705 0.058201015 1.3158787e-38
0.02810248 0.16562617 0.058971405 1.3894555e-38
0.024117485 0.15558156 0.057398617 1.1044383e-38
0.023117818 0.15897396 0.058238566 1.2703169e-38
0.020433791 0.15923581 0.058973551 1.1593206e-38
0.13232225 0.079204798 0.0042700171 1.5564492e-38
0.13247189 0.083276138 0.0049561858 1.8327138e-38
0.098314315 0.09521091 0.01146847 1.647961e-38
0.11003091 0.10098271 0.012069583 1.9058221e-38
0.13370521 0.1017504 0.012271047 2.2475577e-38
0.099252112 0.083602875 0.012574136 1.1969956e-38
0.099423014 0.10344143 0.01747179 1.8694836e-38
0.094527364 0.09391053 0.017442703 1.5471216e-38
0.096186087 0.097503453 0.016976058 1.3166338e-38
0.094104432 0.10344452 0.018377721 1.4737621e-38
0.092086613 0.098173082 0.017736018 1.7593885e-38
0.090926297 0.10045561 0.018691421 1.3719854e-38
0.075058945 0.098943457 0.019880354 1.1043658e-38
0.069439024 0.069185168 0.017407 1.5648045e-38
0.071765833 0.13546056 0.032732964 2.3139312e-38
0.069572635 0.056818247 0.023310065 1.0126402e-38
0.1453557 0.085899606 0.01513052 2.0633812e-38
0.15068579 0.091126755 0.021246016 2.2861271e-38
0.15049642 0.094789654 0.02240175 2.3325852e-38
0.15030664 0.098454922 0.023558199 2.341769e-38
0.15037552 0.10158688 0.024277806 2.341769e-38
0.14648908 0.045017242 0.011098325 1.1143445e-38
0.14710855 0.048435301 0.010035098 1.0407672e-38
0.14794454 0.083038464 0.017797291 2.0171733e-38
0.14855027 0.09223339 0.020354152 2.2955638e-38
0.14778538 0.095544785 0.02127862 2.3325494e-38
0.14755711 0.098850071 0.02279371 2.341769e-38
0.14769509 0.1024909 0.023967624 2.341769e-38
0.147616 0.10629779 0.025571108 2.341769e-38
0.14259592 0.041251242 0.010803044 1.0502747e-38
0.14387932 0.043642461 0.01093781 1.0592791e-38
0.14475861 0.099357784 0.021716952 2.341769e-38
0.1448409 0.10309939 0.022576749 2.341769e-38
0.14501989 0.10730329 0.024048448 2.341769e-38
0.1446805 0.11128548 0.026266634 2.341769e-38
0.14389291 0.11459666 0.027992189 2.341769e-38
0.14314333 0.11708194 0.029317617 2.341769e-38
0.13886811 0.037476063 0.011518717 1.1606564e-38
0.13858414 0.039580554 0.0099759102 1.1422541e-38
0.14042145 0.11640441 0.026554465 2.3325494e-38
0.14043462 0.11869115 0.028829455 2.3325496e-38
0.14024523 0.12171288 0.030619204 2.341769e-38
0.13355827 0.032790542 0.010413766 1.0503098e-38
0.13497528 0.035837561 0.010252833 1.1423632e-38
0.13765457 0.11914918 0.027737439 2.3324771e-38
0.13704184 0.12266132 0.030023396 2.3325853e-38
0.13611165 0.12496033 0.032186985 2.341769e-38
0.13060138 0.028544486 0.01052022 8.6563237e-39
0.13133797 0.031993926 0.0099641681 9.3956726e-39
0.13298064 0.1261425 0.031631529 2.3140744e-38
0.13202637 0.12810999 0.034070611 2.341769e-38
0.12711111 0.028420866 0.010301948 8.4733688e-39
0.13030362 0.12771577 0.031178594 2.2955281e-38
0.12979987 0.12953609 0.033166587 2.3234018e-38
0.12851651 0.13301997 0.034860194 2.3325854e-38
0.12081361 0.024235815 0.011249363 1.0041042e-38
0.12285378 0.028268963 0.010971308 9.6697553e-39
0.12600163 0.13393503 0.034694493 2.3325494e-38
0.12494994 0.13652572 0.036609828 2.3325493e-38
0.11698776 0.020247817 0.011411786 1.1419312e-38
0.11855523 0.024295926 0.010484934 1.05013e-38
0.12104671 0.13757373 0.036514103 2.3047827e-38
0.12036941 0.13998958 0.038710415 2.3141466e-38
0.11571116 0.017564356 0.011381388 1.1517625e-38
0.11512435 0.019982636 0.01031971 1.151115e-38
0.11769398 0.14165118 0.038397253 2.1376081e-38
0.11616204 0.14431749 0.039918005 1.9800857e-38
0.11349827 0.14570008 0.040631294 2.0909701e-38
0.1122767 0.14834183 0.042664468 2.2293316e-38
0.10956369 0.14624371 0.039865732 2.0820383e-38
0.10960229 0.1486384 0.041862309 2.090826e-38
0.10558567 0.14650121 0.04040432 1.9711874e-38
0.10610484 0.1483487 0.042826235 1.9616749e-38
0.1018006 0.14519548 0.042197108 1.5474809e-38
0.1021262 0.14758423 0.044121385 1.6575077e-38
0.095135361 0.027829468 0.016758025 8.2813895e-39
0.09457472 0.032131255 0.018920064 1.0955073e-38
0.094434761 0.034875154 0.017498851 1.1690485e-38
0.098175161 0.14464274 0.043159246 1.0494476e-38
0.098372467 0.14741367 0.045163333 1.0957271e-38
0.092217237 0.035312742 0.019229233 1.2612065e-38
0.090650402 0.038760722 0.018102229 1.3899213e-38
0.094856516 0.14451988 0.044243455 7.4545379e-39
0.087725922 0.036365092 0.021248937 1.3716257e-38
0.087348357 0.039029539 0.020004809 1.4175453e-38
0.085694924 0.041977376 0.019823074 1.4636089e-38
0.089557521 0.13264517 0.042557061 6.9049486e-39
0.08879064 0.13529089 0.043500364 5.4305542e-39
0.092003495 0.14477098 0.045788825 8.1006318e-39
0.083332822 0.039643258 0.022277057 1.4819395e-38
0.08319433 0.042546362 0.020444751 1.5280378e-38
0.084569097 0.12612534 0.041831136 9.5749897e-39
0.085253157 0.12762943 0.042310834 7.4577483e-39
0.079923153 0.040265143 0.023686111 1.5466201e-38
0.079291567 0.042991668 0.022774994 1.5923949e-38
0.081827968 0.12564903 0.042255104 1.5927119e-38
0.08149606 0.12846139 0.043326735 1.00223e-38
0.080363035 0.13199636 0.045072556 1.066404e-38
0.080431908 0.13512832 0.045792103 1.2328199e-38
0.075835928 0.042578101 0.024503231 1.5834618e-38
0.078281447 0.1300326 0.042928517 1.9600514e-38
0.077898815 0.13579389 0.046094298 1.9713198e-38
0.077594146 0.14000578 0.047488153 2.2855832e-38
0.07685028 0.14444178 0.048671961 2.2292589e-38
0.076932922 0.14820012 0.049535394 2.0156653e-38
0.072338633 0.043836683 0.025585473 1.5651307e-38
0.071347356 0.046652108 0.023720145 1.6020088e-38
0.075153276 0.13399735 0.043422222 2.3394234e-38
0.074349619 0.13648966 0.044760048 2.3044216e-38
0.07414832 0.14037034 0.046852529 2.31411e-38
0.074271083 0.14462656 0.048289597 2.2856949e-38
0.074394099 0.14820345 0.049799919 2.1641488e-38
0.074059933 0.15147683 0.050863683 1.8504306e-38
0.073309936 0.15563446 0.051983356 1.6294888e-38
0.068378568 0.046657175 0.027263343 1.5649508e-38
0.068273038 0.04970184 0.025034547 1.5927163e-38
0.070890389 0.14013778 0.045692325 2.341769e-38
0.07094226 0.14497179 0.047411025 2.3141097e-38
0.070570305 0.14829752 0.049871802 2.2944104e-38
0.070665359 0.15199369 0.050950825 1.9146071e-38
0.070623122 0.15541956 0.052458048 1.5555174e-38
0.06957674 0.15805772 0.053279817 1.4453868e-38
0.064485535 0.050410807 0.028292477 1.5004501e-38
0.064597562 0.053985119 0.026755095 1.5464035e-38
0.064722501 0.11194071 0.042387664 6.7155253e-39
0.067538761 0.14962229 0.048567176 2.2953469e-38
0.067156643 0.15255362 0.049925387 2.2287568e-38
0.066946357 0.15575016 0.052208126 1.7759554e-38
0.067684762 0.15939391 0.053439498 1.4173649e-38
0.061739251 0.051171303 0.029442549 1.4451684e-38
0.060921337 0.053717881 0.029501498 1.4729335e-38
0.05839406 0.057590187 0.02881074 1.4633206e-38
0.061810449 0.10880774 0.042048991 5.7013818e-39
0.062039755 0.1131739 0.042546988 6.714791e-39
0.060366567 0.11653364 0.043268323 8.648035e-39
0.063533723 0.15643135 0.051640332 2.2765726e-38
0.064525649 0.15794799 0.054240882 1.9615489e-38
0.05847792 0.055138409 0.031356752 1.444991e-38
0.056063294 0.061660886 0.032518923 1.4541702e-38
0.054787185 0.064991504 0.031247854 1.4816491e-38
0.058307961 0.10680009 0.042437434 5.891154e-39
0.058077011 0.10853106 0.043120146 4.6007767e-39
0.058639046 0.11293778 0.044724226 7.1757496e-39
0.058245238 0.11617568 0.04422611 8.7391558e-39
0.058294464 0.16156915 0.056305707 2.3022283e-38
0.053582992 0.062127709 0.033949018 1.4264763e-38
0.052323762 0.065588087 0.032914162 1.4174371e-38
0.053230409 0.10628338 0.04261142 4.7848051e-39
0.054766074 0.10874468 0.044629991 5.7950025e-39
0.05485218 0.11265959 0.045529604 7.4534351e-39
0.054747712 0.11594382 0.045795918 9.934818e-39
0.055205654 0.16334853 0.055533469 2.1087283e-38
0.053970229 0.16660252 0.057805896 2.0347161e-38
0.054671481 0.16900349 0.058753669 1.9793658e-38
0.049859751 0.06537807 0.0351758 1.3990349e-38
0.048483767 0.069519877 0.034845889 1.3805224e-38
0.047443338 0.072556704 0.035498738 1.3437536e-38
0.048763871 0.10125779 0.044049919 4.3170516e-39
0.049634695 0.10395992 0.044512331 5.3351034e-39
0.050282169 0.10880381 0.04551971 8.0048026e-39
0.050446834 0.11256388 0.046367764 9.1133067e-39
0.050171286 0.11634131 0.046830595 1.177978e-38
0.049315069 0.12045187 0.045647383 1.3158062e-38
0.050931606 0.16710845 0.056688309 1.6850929e-38
0.051244684 0.16956577 0.059106708 1.6571103e-38
0.046153311 0.068644583 0.036925793 1.343608e-38
0.046240237 0.073216319 0.037456214 1.2979052e-38
0.045019612 0.076876447 0.036983311 1.2058854e-38
0.044149175 0.093364179 0.04205811 8.4611046e-39
0.044233974 0.096150681 0.043739378 6.8016099e-39
0.044289064 0.098656237 0.044314981 5.891531e-39
0.047131475 0.11311799 0.047144949 1.1319171e-38
0.046096336 0.11642115 0.047989726 1.269995e-38
0.046007205 0.12018442 0.048321784 1.3525764e-38
0.04520148 0.12358791 0.047533453 1.3619396e-38
0.047635309 0.16830459 0.05682826 1.5375424e-38
0.047082525 0.17055556 0.058508635 1.4547108e-38
0.047036588 0.17377508 0.060969889 1.4365193e-38
0.042585433 0.078584462 0.039949477 1.2240722e-38
0.041358765 0.081915632 0.039027214 1.2885042e-38
0.041798178 0.085160792 0.040149093 1.3254547e-38
0.042750515 0.089038879 0.039228022 1.2612741e-38
0.042888291 0.093336791 0.042298019 8.9209841e-39
0.042929556 0.095213175 0.042729199 7.9047387e-39
0.042662069 0.12032524 0.049705148 1.3619396e-38
0.042306472 0.12382266 0.050012529 1.3528297e-38
0.041622128 0.12781018 0.050196707 1.3896325e-38
0.042412318 0.1307929 0.049067855 1.3891977e-38
0.043946143 0.17196427 0.058405519 1.2708194e-38
0.043519095 0.17457569 0.060620844 1.4919794e-38
0.039289456 0.12384152 0.051187038 1.2978339e-38
0.038606841 0.12739807 0.051920533 1.3254556e-38
0.038048178 0.13155851 0.051493466 1.3620466e-38
0.04080325 0.171896 0.059003532 1.4824397e-38
0.039738435 0.17451429 0.061249912 1.6204475e-38
0.035319649 0.13080919 0.053593457 1.3347832e-38
0.033859089 0.14182657 0.053321421 1.3338862e-38
0.035512853 0.17119049 0.060290098 1.4451654e-38
0.035821319 0.17324193 0.062208354 1.1960644e-38
0.031610511 0.13918 0.055885434 1.316021e-38
0.028967634 0.14795333 0.055711031 1.1960223e-38
0.02940654 0.16790861 0.060296416 1.2155768e-38
0.031504579 0.1703442 0.061632812 1.1780147e-38
0.032655761 0.17239574 0.063325584 1.0104456e-38
0.028809883 0.14089388 0.057225704 1.2975451e-38
0.027605444 0.1434921 0.057604611 1.2421575e-38
0.026975416 0.14735173 0.057452857 1.2053499e-38
0.025679208 0.15079065 0.057017624 1.1503904e-38
0.025552765 0.16408506 0.0601542 1.1214426e-38
0.026859738 0.16647217 0.061055064 9.7432576e-39
0.028179199 0.1695493 0.063708007 9.0064227e-39
0.024459094 0.14392978 0.058786213 1.1962403e-38
0.023482338 0.14715618 0.05926764 1.1779776e-38
0.02275268 0.15138435 0.058425188 1.1225544e-38
0.022217847 0.15528634 0.058746099 1.1963835e-38
0.022327557 0.16027519 0.059892416 1.2330078e-38
0.02315215 0.16244839 0.06102407 1.1124749e-38
0.024105877 0.16595376 0.063487887 8.728733e-39
0.025647327 0.16911583 0.063926876 9.1868693e-39
0.02013322 0.14788875 0.060209513 1.2240754e-38
0.01894208 0.15086946 0.060791433 1.1967757e-38
0.019045189 0.15487888 0.060664237 1.1691557e-38
0.019127697 0.15849739 0.061296046 1.1125786e-38
0.020866267 0.16208981 0.063390434 1.0481176e-38
0.01648289 0.15340361 0.061516523 1.2053122e-38
0.11637341 0.085133821 0.0036208034 1.8046219e-38
0.1088334 0.096973211 0.0091172457 1.4176546e-38
0.11163235 0.070263803 0.0023854375 1.4821904e-38
0.13225099 0.06763944 0.0010540485 7.5477929e-39
0.099310867 0.087387204 0.0098258853 1.2611716e-38
0.10153397 0.095257968 0.011139274 1.6295948e-38
0.10077785 0.097642168 0.011553347 1.3718063e-38
0.099541381 0.089889497 0.010477066 1.3257814e-38
0.099889055 0.094480336 0.011215925 1.445456e-38
0.097977333 0.086712956 0.0098905563 1.6570017e-38
0.13373533 0.097822368 0.012106001 2.2472705e-38
0.088919938 0.11144242 0.021291494 1.3629102e-38
0.10441557 0.063091636 0.0045905709 1.3807752e-38
0.10079438 0.06343323 0.0058658123 1.4636775e-38
0.10270803 0.12450475 0.019380867 1.740016e-38
0.095806763 0.12352866 0.023235142 1.6757645e-38
0.097592026 0.13484544 0.024601281 7.6413884e-39
0.11865315 0.12083226 0.020691812 2.1366003e-38
0.080210753 0.058502823 0.013998449 1.6474944e-38
0.049197271 0.16099292 0.049003541 2.053949e-38
0.045027088 0.084048882 0.032388151 1.1597886e-38
0.080829211 0.13911134 0.043826342 1.6206993e-38
0.02810248 0.16562617 0.058971405 1.3894555e-38
0.098314315 0.09521091 0.01146847 1.647961e-38
0.11163235 0.070263803 0.0023854375 1.4821904e-38
0.14657682 0.036333889 0.014450014 8.0116801e-39
0.14707321 0.039361775 0.013842106 9.8566675e-39
0.14736865 0.042872757 0.012166977 1.0867582e-38
0.14911035 0.10706651 0.027550042 2.341769e-38
0.14834228 0.10964951 0.029907644 2.341769e-38
0.14745089 0.11293277 0.03116399 2.341769e-38
0.1425387 0.031826258 0.014706373 1.0496631e-38
0.14330834 0.035169542 0.014409363 9.9459569e-39
0.14349195 0.039026439 0.012023926 9.6686833e-39
0.14604308 0.11447786 0.030755222 2.341769e-38
0.1440891 0.11780961 0.031132758 2.341769e-38
0.14401278 0.1206827 0.034869492 2.341769e-38
0.13814099 0.024582505 0.013869882 9.8573542e-39
0.13871092 0.027370095 0.014411032 1.0133232e-38
0.13920245 0.031616062 0.014002204 1.1788084e-38
0.1393733 0.035330117 0.01279968 1.1513292e-38
0.14185569 0.12239011 0.03255409 2.341769e-38
0.14118648 0.12463528 0.034996212 2.341769e-38
0.13516685 0.023564339 0.01391387 8.3818878e-39
