# .PCD v0.7 - Point Cloud Data file format
VERSION 0.7
FIELDS x y z rgb
SIZE 4 4 4 4
TYPE F F F F
COUNT 1 1 1 1
WIDTH 979
HEIGHT 1
VIEWPOINT 0 0 0 0 1 0 0
POINTS 979
DATA ascii
0.074658774 0.096534282 0.014977574 2.2372596e-38
0.071448378 0.091908634 0.019400418 1.6570773e-38
0.066811323 0.094825849 0.018375039 1.6290561e-38
0.06637609 0.09778057 0.015878558 1.3983486e-38
0.065513365 0.10236324 0.017032623 1.1501034e-38
0.065429881 0.10569222 0.015282393 1.2056381e-38
0.065655001 0.10806128 0.013714552 1.2144626e-38
0.063119724 0.098280415 0.018148959 1.3434634e-38
0.062409177 0.10219932 0.018145859 1.1498184e-38
0.062564045 0.1059352 0.01688993 1.1135163e-38
0.062546633 0.10970174 0.014958441 1.1875609e-38
0.06246306 0.11506847 0.014739871 1.4178321e-38
0.059369132 0.10307191 0.01812619 1.150143e-38
0.05858618 0.10601369 0.017380238 1.0674542e-38
0.05864761 0.10982797 0.016673326 1.1322796e-38
0.059009135 0.11351798 0.016382098 1.3348926e-38
0.055399925 0.10633472 0.017747164 1.1139783e-38
0.055488318 0.10908486 0.017479718 1.1047998e-38
0.14446865 0.080082476 0.011013269 1.3625156e-38
0.11097986 0.086334005 0.0088134408 1.6848036e-38
0.11946429 0.080695555 0.0091639757 1.4914441e-38
0.1302453 0.054032914 0.016401529 1.8045102e-38
0.11508354 0.087830216 0.013278008 1.4177243e-38
0.11393502 0.080601305 0.015009165 1.3718428e-38
0.172461 0.11162773 0.021015882 2.2380868e-38
0.17159232 0.11472343 0.021202683 2.2107536e-38
0.16985388 0.11695907 0.021460235 2.2012472e-38
0.16611433 0.044016782 0.028531671 2.2383742e-38
0.1674768 0.046203878 0.027333796 2.1733715e-38
0.16791773 0.11550304 0.020568252 2.0814258e-38
0.16596469 0.11684841 0.020742059 1.9612845e-38
0.16200143 0.040544372 0.028473616 2.2655658e-38
0.1624442 0.042683844 0.027936339 2.2563463e-38
0.16272214 0.11549923 0.020489752 1.8785943e-38
0.16172411 0.1172768 0.021305859 1.8325691e-38
0.15843742 0.039550826 0.028097987 2.2286147e-38
0.15942039 0.041802119 0.027641654 2.237906e-38
0.15752654 0.1154954 0.020411313 1.6300278e-38
0.15815723 0.11754395 0.020890594 1.6945283e-38
0.15395549 0.038704377 0.028062522 2.2007406e-38
0.15404025 0.11797252 0.020786226 1.7404469e-38
0.15158327 0.036668971 0.02902925 2.1273438e-38
0.15032521 0.037916746 0.027883351 2.1549668e-38
0.15037139 0.11877753 0.020317018 1.7680686e-38
0.1490439 0.12082812 0.020766318 1.8603358e-38
0.14616913 0.038430851 0.027770102 2.0810293e-38
0.14681324 0.11904296 0.01990205 1.7955483e-38
0.14644253 0.1211499 0.020695448 1.8604433e-38
0.14252344 0.038565136 0.027869105 2.0166011e-38
0.14324151 0.11936356 0.019816518 1.7867238e-38
0.14319028 0.1208238 0.020677924 1.8603004e-38
0.13861533 0.038570259 0.027976751 1.9796499e-38
0.13470659 0.038574744 0.028084576 1.9518478e-38
0.13393496 0.12237345 0.019381225 1.8232797e-38
0.13080765 0.039434433 0.027941346 1.9242247e-38
0.13089234 0.12261522 0.019478977 1.7775404e-38
0.12687087 0.040535133 0.028276503 1.9243316e-38
0.12694791 0.041778211 0.027151227 1.9244037e-38
0.126995 0.12261237 0.019420087 1.556595e-38
0.1256323 0.12469524 0.02003324 1.3538757e-38
0.12361886 0.040532742 0.028227329 1.9425908e-38
0.12277506 0.042302653 0.027237713 1.9332993e-38
0.1230565 0.12269473 0.019854665 1.0404756e-38
0.11954564 0.043523129 0.02737087 1.8964585e-38
0.11785848 0.045650192 0.026634991 1.9149333e-38
0.11834562 0.11891426 0.019482672 8.0051739e-39
0.1193369 0.12168327 0.019944847 8.3717956e-39
0.11451611 0.044410393 0.027710259 1.869159e-38
0.1139147 0.046322457 0.027011871 1.8507895e-38
0.11522204 0.11950843 0.020382106 7.3666302e-39
0.11587341 0.1208037 0.0202654 7.6410717e-39
0.10996456 0.046133425 0.027472854 1.6662916e-38
0.10869505 0.088428795 0.023320317 7.086449e-39
0.10879917 0.090248197 0.022139192 7.4530805e-39
0.10546662 0.048257466 0.026694536 1.4635352e-38
0.10487236 0.049519297 0.026059806 1.4174728e-38
0.10478929 0.083894178 0.023704171 4.7822673e-39
0.10739329 0.08713305 0.023427129 6.256352e-39
0.10550106 0.094188228 0.022206545 8.7405908e-39
0.10243587 0.050842594 0.026395977 1.279287e-38
0.10127543 0.054382186 0.025781214 1.0581248e-38
0.10088447 0.080654338 0.023961544 6.0730356e-39
0.10205862 0.095211744 0.022126138 9.4774145e-39
0.099603206 0.054733492 0.026140213 1.1318397e-38
0.098738872 0.058616575 0.025747597 9.5689193e-39
0.097559929 0.062216688 0.025110006 9.5718004e-39
0.097717561 0.075397074 0.023673534 7.4548532e-39
0.099149115 0.07935828 0.024061918 6.7180266e-39
0.096990682 0.092304543 0.022763968 1.0028779e-38
0.098676845 0.093859985 0.022135019 9.9362305e-39
0.094368011 0.063817337 0.025508046 1.2243292e-38
0.094237641 0.066223264 0.025019765 1.150322e-38
0.094053715 0.070066005 0.024461985 1.0125327e-38
0.094406106 0.073503941 0.024310827 9.205536e-39
0.093518674 0.087986022 0.023133278 1.040116e-38
0.094287694 0.091106996 0.022337496 1.0768149e-38
0.095812574 0.093470857 0.021627247 1.0764573e-38
0.091766402 0.063815422 0.025468707 1.3624064e-38
0.091769278 0.067699783 0.025089204 1.205819e-38
0.09125068 0.070030004 0.024853647 1.1600441e-38
0.090223245 0.087897286 0.023091912 1.1227692e-38
0.090744905 0.090564206 0.022265077 1.1320259e-38
0.086317956 0.084010065 0.023412526 1.1781951e-38
0.086580418 0.087117732 0.023112833 1.1873426e-38
0.086505227 0.090762332 0.022127509 1.2331183e-38
0.082678489 0.087762251 0.022990704 1.2609549e-38
0.082774743 0.090916127 0.022013962 1.3437162e-38
0.084122479 0.093462259 0.021450639 1.3989975e-38
0.077475756 0.088405818 0.022848845 1.3161657e-38
0.078811243 0.090968445 0.022395372 1.4082171e-38
0.078926884 0.093458429 0.021372199 1.4910123e-38
0.074874148 0.088403895 0.022809505 1.2885068e-38
0.07494393 0.090937868 0.022116363 1.4540271e-38
0.075679623 0.093456045 0.021323204 1.7215263e-38
0.071622148 0.088401496 0.022760451 1.2701389e-38
0.071072228 0.090750977 0.021894455 1.4449891e-38
0.067125946 0.091593251 0.022045314 1.5185637e-38
0.065288916 0.094094843 0.021103084 1.5371824e-38
0.062342331 0.094839409 0.021767139 1.6292708e-38
0.060746118 0.0986166 0.020592272 1.4635346e-38
0.061239645 0.12076348 0.019440353 1.4179055e-38
0.057969436 0.096160159 0.021795094 1.6201217e-38
0.05802992 0.098704308 0.021212339 1.5186711e-38
0.057717912 0.10206209 0.02020967 1.2518074e-38
0.056771949 0.11485469 0.019447565 1.3719488e-38
0.058060728 0.11773206 0.019257724 1.3995383e-38
0.053632781 0.095293775 0.021813989 1.5005559e-38
0.054068938 0.098746851 0.021483064 1.3348558e-38
0.054213665 0.10252135 0.020334899 1.1874865e-38
0.053282931 0.10604522 0.019753039 1.1139094e-38
0.053796813 0.11070415 0.019473135 1.1506816e-38
0.05431094 0.11406386 0.019613147 1.3073379e-38
0.054732762 0.11687432 0.019721687 1.3901717e-38
0.050163656 0.09485963 0.021803737 1.2979076e-38
0.050166547 0.098743975 0.021424115 1.1965274e-38
0.050190121 0.10261251 0.02093482 1.1045109e-38
0.050234437 0.10646391 0.020335793 1.076996e-38
0.050216585 0.11036348 0.020066142 1.150573e-38
0.051477879 0.11298759 0.020052075 1.2057805e-38
0.047564939 0.098742068 0.021384895 1.131987e-38
0.047047481 0.10262606 0.020997465 1.1318795e-38
0.046641514 0.1065101 0.020611703 1.1688683e-38
0.047572598 0.10910036 0.020372748 1.1873793e-38
0.11777476 0.082950607 0.009925127 8.1881611e-39
0.14132366 0.084094971 0.0096868277 1.2704641e-38
0.1269637 0.062337976 0.012078941 1.4270166e-38
0.0785212 0.096537128 0.015035927 1.9609562e-38
0.16696291 0.042343419 0.029712975 2.2757208e-38
0.16677368 0.11912245 0.023881733 2.0721341e-38
0.1645705 0.12150915 0.024954915 2.0992914e-38
0.1610273 0.036403798 0.032883048 2.1826974e-38
0.16194181 0.038711879 0.030996561 2.2746772e-38
0.16226767 0.11932231 0.022922993 1.8970341e-38
0.16162679 0.12183258 0.024878561 2.0258924e-38
0.15798908 0.035514109 0.032477319 2.1273454e-38
0.15805787 0.038014594 0.030000806 2.1919171e-38
0.15811828 0.11970551 0.022018552 1.823349e-38
0.15788484 0.1225387 0.024124801 1.9796159e-38
0.15338342 0.032939915 0.033440471 2.0168885e-38
0.15409189 0.035482407 0.031751275 2.0813546e-38
0.15545246 0.03801268 0.029961467 2.164079e-38
0.15486151 0.11970311 0.021969438 1.8046964e-38
0.15415314 0.12257876 0.023352444 1.9612478e-38
0.1534518 0.12540807 0.024405122 2.0627681e-38
0.15011236 0.032937508 0.033391118 1.9244437e-38
0.15004538 0.035283539 0.030899823 2.0721708e-38
0.15045696 0.12249811 0.021880686 1.9614274e-38
0.14993651 0.12585719 0.023905993 2.0900702e-38
0.1461871 0.032934617 0.033331811 1.9523525e-38
0.1462999 0.035439514 0.030744076 2.0349689e-38
0.1463964 0.12306826 0.021512091 2.0350749e-38
0.14628726 0.12593828 0.023574829 2.10858e-38
0.14226183 0.03293173 0.033272564 1.9799022e-38
0.14236388 0.035455406 0.03112942 1.979831e-38
0.14228615 0.12270661 0.021772265 1.9706111e-38
0.1423658 0.12593539 0.023515582 2.0995415e-38
0.13833657 0.032928839 0.033213198 1.9429177e-38
0.13842997 0.03546638 0.031403482 1.9519559e-38
0.13880424 0.1231654 0.021990359 1.979758e-38
0.13840494 0.125397 0.024177969 2.0536245e-38
0.13445634 0.03550189 0.032233 1.9610677e-38
0.13532376 0.12357877 0.021294236 1.9060753e-38
0.13411033 0.12608805 0.023040295 2.0445823e-38
0.13052362 0.036156915 0.032276809 1.9243335e-38
0.13004965 0.037993975 0.029577851 1.9149696e-38
0.13068768 0.12636442 0.022068262 1.9804778e-38
0.12721786 0.036827758 0.032663524 1.9241162e-38
0.12674199 0.038670607 0.030131578 1.9057488e-38
0.12696405 0.12646073 0.021639407 1.5196114e-38
0.12663203 0.12929544 0.02361834 1.3719547e-38
0.12262922 0.038954213 0.030232847 1.9241882e-38
0.12286761 0.12633942 0.021840274 8.6541264e-39
0.12336146 0.12994422 0.02350527 9.2030361e-39
0.11900927 0.039516103 0.030768931 1.8503247e-38
0.11811135 0.042307455 0.028975129 1.8500366e-38
0.11821182 0.12390858 0.023012102 9.0239964e-39
0.11926377 0.12627506 0.022509694 9.9412569e-39
0.12017592 0.12976214 0.022469878 1.1327438e-38
0.11467272 0.039561357 0.031703591 1.8874906e-38
0.11504015 0.042538557 0.029240906 1.8874554e-38
0.11568905 0.12243696 0.022112787 7.8269091e-39
0.11176978 0.040272739 0.031757534 1.8139493e-38
0.1108645 0.043076616 0.030171752 1.7309735e-38
0.10856071 0.04575824 0.028492987 1.5833173e-38
0.10724588 0.044084094 0.031249464 1.6109407e-38
0.10655385 0.046433832 0.028899014 1.5373284e-38
0.10612647 0.087783486 0.026107848 5.9790379e-39
0.10617048 0.091180936 0.024352789 7.4527162e-39
0.10338529 0.047148447 0.02995348 1.4636424e-38
0.10074782 0.050290871 0.027931571 1.2151086e-38
0.10188423 0.083551422 0.02642113 5.3361656e-39
0.10331112 0.087342024 0.027364314 5.9800902e-39
0.10248826 0.091409013 0.026150525 7.6345641e-39
0.102734 0.093731135 0.023716509 8.7398313e-39
0.10040389 0.048529327 0.031113148 1.3808806e-38
0.098083943 0.051221039 0.029684424 1.5461798e-38
0.097335219 0.054920413 0.028767228 1.3439638e-38
0.097171351 0.058392495 0.027085602 1.1230554e-38
0.096859343 0.076869965 0.025275111 7.2737003e-39
0.097239502 0.079852551 0.026195347 7.2690592e-39
0.098169371 0.083732083 0.026835084 6.9942534e-39
0.098520078 0.087549463 0.026852787 7.5412909e-39
0.09847793 0.090982363 0.025037169 8.8295088e-39
0.093864292 0.051910672 0.030683458 1.9058888e-38
0.093934871 0.054996695 0.029824674 1.6849819e-38
0.094075605 0.058815006 0.028337181 1.4450584e-38
0.094242901 0.061956208 0.026692867 1.2059991e-38
0.094067141 0.075941712 0.02532351 9.2998588e-39
0.094201311 0.079509646 0.025423408 8.8399456e-39
0.094204187 0.083400533 0.025043249 8.7434368e-39
0.094695516 0.08680959 0.024270892 9.2026143e-39
0.095566228 0.089835808 0.023988366 9.8476095e-39
0.090266265 0.052103374 0.030610025 1.9242974e-38
0.090056762 0.05496984 0.029433489 1.850682e-38
0.090332381 0.058711633 0.026950598 1.6942724e-38
0.090172298 0.062439468 0.02658391 1.4914799e-38
0.090175174 0.066329509 0.026203752 1.3164857e-38
0.089364216 0.070705205 0.02576381 1.1876667e-38
0.090344369 0.074920148 0.025366843 1.1048349e-38
0.090347737 0.07945852 0.024923384 9.9423569e-39
0.090350613 0.083348572 0.024543226 1.0033828e-38
0.090678431 0.086266339 0.024263024 1.0768868e-38
0.08666835 0.05242632 0.030523896 1.8782352e-38
0.086120717 0.05497418 0.029484987 1.7860743e-38
0.086393796 0.058725286 0.027112782 1.6570003e-38
0.08642713 0.062598795 0.026511431 1.5189228e-38
0.086430006 0.06648884 0.026131332 1.3807724e-38
0.086432889 0.070378885 0.025751233 1.2151822e-38
0.086436242 0.074917272 0.025307775 1.1781962e-38
0.08643961 0.079455644 0.024864316 1.1688326e-38
0.086767428 0.082373425 0.024584174 1.1781592e-38
0.082307272 0.05516341 0.029813349 1.684515e-38
0.082296677 0.058823727 0.028380752 1.5737743e-38
0.082329988 0.062705234 0.027778745 1.4634274e-38
0.082364164 0.066582963 0.027177036 1.3805244e-38
0.08243005 0.070438668 0.026354551 1.3438243e-38
0.082457721 0.074962974 0.025745451 1.3531507e-38
0.082531482 0.079452768 0.024805307 1.297727e-38
0.082534358 0.08334282 0.024425209 1.2609556e-38
0.082536273 0.085936174 0.02417177 1.2517701e-38
0.079038449 0.055893678 0.030069232 1.6660762e-38
0.078249179 0.058889307 0.029206276 1.6014328e-38
0.078284845 0.062775455 0.028603733 1.5460803e-38
0.078320712 0.06665843 0.028001487 1.5278927e-38
0.078421272 0.070497617 0.026957929 1.5283241e-38
0.078619987 0.074911505 0.025189698 1.5004834e-38
0.078623362 0.079449892 0.024746239 1.4083606e-38
0.078626238 0.083339944 0.02436614 1.3163089e-38
0.07879182 0.087068021 0.0240044 1.2795019e-38
0.074617133 0.059115339 0.029687285 1.6935551e-38
0.074364237 0.062772349 0.028544486 1.6659698e-38
0.074571162 0.066557303 0.026837945 1.6568572e-38
0.074708506 0.070370257 0.025574207 1.6385255e-38
0.074711874 0.074908644 0.025130689 1.5465105e-38
0.074715234 0.079447016 0.024687231 1.4359828e-38
0.07471811 0.083337069 0.024307191 1.343932e-38
0.074720494 0.086578771 0.023990393 1.2794658e-38
0.070373587 0.063456461 0.028863788 1.7121761e-38
0.070533216 0.066622809 0.02755177 1.6754757e-38
0.070694253 0.070429191 0.026177466 1.6661116e-38
0.070803747 0.074905753 0.02507174 1.5373274e-38
0.070807107 0.07944414 0.024628282 1.4266208e-38
0.070809983 0.083334193 0.024248123 1.3348197e-38
0.070626467 0.086853623 0.023901463 1.2611714e-38
0.066396482 0.064132705 0.029072285 1.7858243e-38
0.066489317 0.066688329 0.028265715 1.6938079e-38
0.066546783 0.070561364 0.027553082 1.6386333e-38
0.066813156 0.074952394 0.025509059 1.4726817e-38
0.066898987 0.079441264 0.024569213 1.3989984e-38
0.066828698 0.083380371 0.024629772 1.3346402e-38
0.066721641 0.087352037 0.024910033 1.3071629e-38
0.066906646 0.089814708 0.023555636 1.3256373e-38
0.062660329 0.067106798 0.028724909 1.6757257e-38
0.062494636 0.070631087 0.02826643 1.6109736e-38
0.062648773 0.07509996 0.026938736 1.4452757e-38
0.062690176 0.079627931 0.026273608 1.4266917e-38
0.062655017 0.083553046 0.026112735 1.3715545e-38
0.062657908 0.087454453 0.025731504 1.4821535e-38
0.062923804 0.091162652 0.023810029 1.5925345e-38
0.059856772 0.067383811 0.028655291 1.6387406e-38
0.059531838 0.070313901 0.028364062 1.5558351e-38
0.058626443 0.075155482 0.027458549 1.4819749e-38
0.058712915 0.079660371 0.026544988 1.4542434e-38
0.058735453 0.083550155 0.026053548 1.5373269e-38
0.058855474 0.087372497 0.025011957 1.6479608e-38
0.05905246 0.0911327 0.02353096 1.6939138e-38
0.058833115 0.094217479 0.023002803 1.6754402e-38
0.059112452 0.11963263 0.020523369 1.4359132e-38
0.05802162 0.12134703 0.022851527 1.4176902e-38
0.054940082 0.075689435 0.02765739 1.4912285e-38
0.054692492 0.079716295 0.027036846 1.5375441e-38
0.054815911 0.083547264 0.025994301 1.6295232e-38
0.054706715 0.087330252 0.023613274 1.6109757e-38
0.054531865 0.091102287 0.023241997 1.5924646e-38
0.055446073 0.094214991 0.022951722 1.6017196e-38
0.052596048 0.11573781 0.02080518 1.3904177e-38
0.054222047 0.11875013 0.020822644 1.3165607e-38
0.054754138 0.12167022 0.022770405 1.2798636e-38
0.051358774 0.076494128 0.027636051 1.5373222e-38
0.050870642 0.079912484 0.027294636 1.5556577e-38
0.050771594 0.083619043 0.02659595 1.4545306e-38
0.050279424 0.087286592 0.024220347 1.3441836e-38
0.0499724 0.091098934 0.023173094 1.3439681e-38
0.05011259 0.11451921 0.021389067 1.2152151e-38
0.050521985 0.11886708 0.022621214 1.2887215e-38
0.051392004 0.12142584 0.023245692 1.2521685e-38
0.047305256 0.080007538 0.027231157 1.4637124e-38
0.046972305 0.083802432 0.026729822 1.3158421e-38
0.046716645 0.087188378 0.024941504 1.1873788e-38
0.046064273 0.091096058 0.023114145 1.2702464e-38
0.046067163 0.094986096 0.022733986 1.2335478e-38
0.04541868 0.098875672 0.022344053 1.1687579e-38
0.045095861 0.10276547 0.021959066 1.2425136e-38
0.044773057 0.10665527 0.02157402 1.2336572e-38
0.046078667 0.11054629 0.021213651 1.2335863e-38
0.04689008 0.11484358 0.023390055 1.3165241e-38
0.047464341 0.11816704 0.023504496 1.3440403e-38
0.043121591 0.084432513 0.026735365 1.2976537e-38
0.043015733 0.087466031 0.025655687 1.2333678e-38
0.042409748 0.091340974 0.025044501 1.2242199e-38
0.042379335 0.095263645 0.024828255 1.3255636e-38
0.042481497 0.099098176 0.023952603 1.2336557e-38
0.042484373 0.10299896 0.023571432 1.2428004e-38
0.042553261 0.10684967 0.022861302 1.1683619e-38
0.042760104 0.11092444 0.023638546 1.1311644e-38
0.043819413 0.11398819 0.023522735 1.2614578e-38
0.040245354 0.087556079 0.02638644 1.2331882e-38
0.040247783 0.090811998 0.02606827 9.3838092e-39
0.040251628 0.096021473 0.025559247 9.5603027e-39
0.040388495 0.099186748 0.024582148 9.3751856e-39
0.040324181 0.10313824 0.024529934 8.8223818e-39
0.04025887 0.10578923 0.024604797 8.2699128e-39
0.15350547 0.079878479 0.0097626448 1.4638234e-38
0.14283454 0.066727079 0.011599362 1.5282869e-38
0.14472458 0.073424131 0.010560155 1.4085772e-38
0.10845422 0.085675836 0.0091914535 1.6940961e-38
0.12567924 0.10082096 0.014923155 1.334748e-38
0.093716823 0.085639641 0.021858156 9.3863147e-39
0.16449036 0.12610856 0.028523684 2.1915575e-38
0.16142377 0.031960759 0.037247062 1.9530345e-38
0.16227405 0.035207104 0.035531104 2.1553971e-38
0.1621685 0.12393206 0.026691496 2.108474e-38
0.16154793 0.12630406 0.027706325 2.1546078e-38
0.15783846 0.029167317 0.037896335 1.8240336e-38
0.15787774 0.031741664 0.036417067 1.9896618e-38
0.15928198 0.12445238 0.026596785 2.1085097e-38
0.15795192 0.12718122 0.026979864 2.1546086e-38
0.15659702 0.13003261 0.028020501 2.1647987e-38
0.15364157 0.028627113 0.037483394 1.76886e-38
0.15413129 0.031358205 0.03619051 1.9526748e-38
0.1542073 0.12750997 0.02665174 2.1549297e-38
0.15396494 0.13003068 0.027980804 2.2102842e-38
0.14996265 0.028490134 0.037340522 1.6759109e-38
0.14999942 0.031078618 0.03625077 1.8324291e-38
0.15042707 0.1280378 0.02611196 2.1641127e-38
0.15001681 0.13002777 0.0279212 2.2382992e-38
0.14601739 0.028487228 0.037280917 1.7590643e-38
0.14606684 0.031069623 0.036024392 1.8605522e-38
0.14616257 0.1283612 0.026015699 2.1273422e-38
0.14606869 0.13002485 0.027861595 2.146033e-38
0.14207213 0.028484326 0.037221372 1.6942407e-38
0.14212729 0.031066716 0.035964906 1.8052349e-38
0.14222588 0.1283583 0.025956273 2.1273785e-38
0.14188963 0.13043851 0.027154803 2.1365256e-38
0.13812685 0.028481424 0.037161767 1.6574324e-38
0.13818774 0.031063823 0.035905421 1.8050557e-38
0.13826877 0.12776129 0.026289582 2.1087975e-38
0.13844745 0.13050747 0.027497709 2.1365984e-38
0.13441256 0.028626086 0.037593722 1.7403362e-38
0.13425945 0.031708226 0.035615385 1.8233129e-38
0.13522699 0.12791778 0.025893092 2.0999363e-38
0.13452667 0.13043308 0.027043581 2.1091917e-38
0.13085964 0.029147454 0.037488878 1.7677803e-38
0.13025048 0.031741872 0.036556125 1.8599045e-38
0.13034624 0.034306102 0.034967124 1.9151493e-38
0.13035899 0.13045937 0.026408255 1.9895169e-38
0.12627213 0.031755418 0.036940992 1.952063e-38
0.12620077 0.035247557 0.035099387 1.9425576e-38
0.12639318 0.13182475 0.026549637 1.2981608e-38
0.12263706 0.032743759 0.037012637 1.9887257e-38
0.12240089 0.035642937 0.035609186 1.942593e-38
0.1219541 0.13162421 0.026133358 1.012964e-38
0.1196762 0.03306907 0.036935925 1.9700356e-38
0.11843969 0.035649426 0.035771787 1.9148619e-38
0.11722683 0.038214918 0.034386039 1.887418e-38
0.117293 0.12768687 0.025643528 1.0776036e-38
0.11790591 0.12973596 0.025955021 1.2340108e-38
0.11465527 0.036034573 0.035995722 1.9057138e-38
0.1159146 0.038213953 0.03436625 1.9057136e-38
0.11597836 0.12442051 0.025942802 9.39566e-39
0.11584297 0.12664023 0.027231157 9.8577185e-39
0.11134387 0.036556147 0.036468804 1.8874179e-38
0.11011285 0.039134838 0.035360634 1.8137693e-38
0.10657346 0.040239219 0.035533905 1.7396879e-38
0.10635127 0.04247782 0.034307003 1.6568942e-38
0.10290226 0.040588945 0.035946608 1.7951495e-38
0.10268537 0.043481674 0.03465569 1.6846218e-38
0.10148635 0.046693366 0.033318639 1.5188513e-38
0.10250118 0.088164672 0.029281318 6.1644745e-39
0.099941418 0.040914249 0.035869837 1.7772128e-38
0.098864801 0.043884091 0.035132587 1.7215734e-38
0.098625436 0.047217455 0.03385222 1.6197624e-38
0.09555719 0.044404231 0.03546232 1.7771063e-38
0.094763301 0.047419362 0.034485519 1.804549e-38
0.094599791 0.050280239 0.032863677 1.8600446e-38
0.090818986 0.04741646 0.034425974 1.8874173e-38
0.090663098 0.050277337 0.032804191 1.9332997e-38
0.087049983 0.047793787 0.034427643 1.8688347e-38
0.086381935 0.05093516 0.032800615 1.8780554e-38
0.082930699 0.048720602 0.034178913 1.7674564e-38
0.082166269 0.051286206 0.033134997 1.7305774e-38
0.080495954 0.053861789 0.032299638 1.7026641e-38
0.078890577 0.048758466 0.0347839 1.7672768e-38
0.07841672 0.051295776 0.033272624 1.7488365e-38
0.077434726 0.054730311 0.032168388 1.7029542e-38
0.074873753 0.051170774 0.033859015 1.7949346e-38
0.073867463 0.0551943 0.032515585 1.748873e-38
0.072625957 0.058427557 0.03173399 1.7581639e-38
0.071655273 0.052682985 0.034290552 1.8133388e-38
0.070171863 0.05543761 0.033281028 1.804226e-38
0.069948912 0.059103929 0.031962335 1.7673483e-38
0.070003912 0.061691023 0.031375349 1.6937375e-38
0.066557579 0.056070577 0.033681095 1.7858582e-38
0.065919586 0.059143409 0.032455623 1.7401198e-38
0.066040099 0.062354553 0.031417906 1.7213601e-38
0.061787888 0.056605581 0.033757508 1.7307589e-38
0.061940171 0.059157457 0.032617211 1.6847318e-38
0.062075011 0.063018084 0.031460464 1.6756207e-38
0.061477311 0.065603226 0.030863643 1.67562e-38
0.060863696 0.12307377 0.025238037 1.4918429e-38
0.058104485 0.059563749 0.032981813 1.6384544e-38
0.058077633 0.063042715 0.031732261 1.6202665e-38
0.05782263 0.066720106 0.030699134 1.6110824e-38
0.057413436 0.071086109 0.030266225 1.5188516e-38
0.058210224 0.12375344 0.025298953 1.5193921e-38
0.057891116 0.1260301 0.026913941 1.6021166e-38
0.05521059 0.060530584 0.033274114 1.6020768e-38
0.054213636 0.063464582 0.032254517 1.5463298e-38
0.054140039 0.066962093 0.031289518 1.5464374e-38
0.054263897 0.070822552 0.030244172 1.5279971e-38
0.053391337 0.073869616 0.029933155 1.5464005e-38
0.054303117 0.12385266 0.025062442 1.3261039e-38
0.054124199 0.12650827 0.025805116 1.2795751e-38
0.050826386 0.064020574 0.032866597 1.5182045e-38
0.050054252 0.067027561 0.032002687 1.4816489e-38
0.050202861 0.070881248 0.030846775 1.5739869e-38
0.050002053 0.074737892 0.029796898 1.5280688e-38
0.049020782 0.078655645 0.029399097 1.5281062e-38
0.050071836 0.1235366 0.025603473 1.2887959e-38
0.050026119 0.12665042 0.026566386 1.2244374e-38
0.04666166 0.067729019 0.032440901 1.481792e-38
0.046155155 0.070930615 0.031338751 1.546437e-38
0.046361536 0.075404674 0.029844046 1.4819723e-38
0.045740917 0.079632849 0.029253781 1.4266198e-38
0.04508698 0.082571223 0.028956711 1.34368e-38
0.045112088 0.11653139 0.025638402 1.4269756e-38
0.04590176 0.11966676 0.025344074 1.3437501e-38
0.046424896 0.12304848 0.025900781 1.2242197e-38
0.047363281 0.12667732 0.0266909 1.2334012e-38
0.043001279 0.071842715 0.031648278 1.5185989e-38
0.0423785 0.075663328 0.03059572 1.4448798e-38
0.042460576 0.079956979 0.029172421 1.3713753e-38
0.042134702 0.082895607 0.028880239 1.3529003e-38
0.041172504 0.11261001 0.025961816 9.7496994e-39
0.041983292 0.11571158 0.026006043 1.1221594e-38
0.042290792 0.11930567 0.026329458 9.7461009e-39
0.043038726 0.12247016 0.026701331 9.8390784e-39
0.038838953 0.076203927 0.031158984 1.3712658e-38
0.038274124 0.080084354 0.030324638 1.3162747e-38
0.038234413 0.083778873 0.029362917 1.3531518e-38
0.037770793 0.087849542 0.028832436 1.2606301e-38
0.038011238 0.091984704 0.028647304 1.0852458e-38
0.038013861 0.095532984 0.028300583 1.010986e-38
0.037710994 0.099658519 0.028012455 9.3755163e-39
0.037811056 0.10334367 0.027821302 9.192595e-39
0.038865641 0.10779184 0.027402639 8.2731456e-39
0.038506418 0.11129062 0.027055264 8.2763686e-39
0.038300246 0.11541346 0.026872516 1.0024882e-38
0.039461225 0.1188118 0.027339697 9.1958362e-39
0.035484016 0.079510346 0.031120002 1.306872e-38
0.03548789 0.084750161 0.030607998 1.3162373e-38
0.035490304 0.088025033 0.030287981 1.2794661e-38
0.035493225 0.091954887 0.029904068 1.251448e-38
0.035496622 0.096539721 0.029456019 1.1319175e-38
0.035498559 0.099159613 0.029200017 1.1036851e-38
0.14441633 0.081544816 0.010927379 1.3993955e-38
0.14046383 0.092574999 0.010260105 1.3719501e-38
0.11745408 0.080895349 0.0099161267 1.758704e-38
0.15011236 0.032937508 0.033391118 1.9244437e-38
0.13080765 0.039434433 0.027941346 1.9242247e-38
0.094584286 0.085118383 0.022020042 1.6664719e-38
0.16135383 0.025019139 0.042374492 9.2090939e-39
0.16207013 0.12859032 0.030455232 2.2014585e-38
0.16177994 0.13063236 0.03139019 2.2660688e-38
0.15638742 0.021392262 0.04265362 9.0278612e-39
0.15755552 0.024186103 0.04214704 1.1511098e-38
0.15775156 0.027286736 0.04092586 1.5566306e-38
0.15808716 0.13136017 0.030928016 2.2200078e-38
0.15374011 0.021390308 0.042613566 1.0039524e-38
0.15377057 0.024004731 0.041576982 1.3263532e-38
0.1541464 0.026931155 0.040068507 1.6303162e-38
0.15385036 0.13139319 0.031061471 2.2195039e-38
0.1500998 0.021058252 0.042590797 1.095903e-38
0.14981754 0.023993427 0.041183174 1.3908222e-38
0.14985666 0.02659956 0.040035903 1.5931832e-38
0.14918914 0.1320598 0.031729519 2.2199332e-38
0.14712182 0.021385441 0.042513609 1.1605075e-38
0.14584213 0.023996094 0.041345894 1.3353604e-38
0.14589711 0.026596647 0.03997606 1.5750675e-38
0.14563501 0.13251193 0.031229436 2.1645088e-38
0.14188237 0.023990164 0.04117471 1.2983374e-38
0.14193757 0.02659373 0.039916277 1.5472263e-38
0.14230613 0.1328156 0.030295074 2.1641494e-38
0.14191097 0.13468949 0.031362057 2.1734054e-38
0.13810594 0.024363728 0.041080892 1.3903536e-38
0.13795772 0.026600469 0.04019016 1.5470132e-38
0.13772652 0.13267532 0.029485583 2.136814e-38
0.13767567 0.1352134 0.031246662 2.1456755e-38
0.13477027 0.024889771 0.041983783 1.4361998e-38
0.13364024 0.026937826 0.040510416 1.6299887e-38
0.13375035 0.13271803 0.029672325 2.1370289e-38
0.13400179 0.13525021 0.030684888 2.1555043e-38
0.12979037 0.027556879 0.040786266 1.7493046e-38
0.13013762 0.13299817 0.029338956 1.9707549e-38
0.12985009 0.13551605 0.030524135 1.7683577e-38
0.12621334 0.028301619 0.040515661 1.9058567e-38
0.12609538 0.135831 0.030117333 1.2152925e-38
0.12200478 0.02926122 0.041028023 2.0438626e-38
0.12187916 0.031045692 0.039176822 2.016276e-38
0.12253882 0.13546136 0.03049022 1.1510773e-38
0.11800718 0.029269215 0.041301429 2.0439367e-38
0.11796388 0.031688761 0.039682567 1.9977296e-38
0.11858205 0.13279392 0.030523479 1.2708203e-38
0.11940879 0.13467294 0.031022251 1.261639e-38
0.11875183 0.14126013 0.030368567 1.6675547e-38
0.1187533 0.14323643 0.030175447 2.1379213e-38
0.11427318 0.032037824 0.040220559 1.988295e-38
0.11356664 0.034455307 0.038717508 1.9146472e-38
0.11316042 0.12437186 0.031431675 5.8936834e-39
0.11378472 0.12816991 0.03099829 5.9880692e-39
0.11543489 0.13071741 0.031348467 1.0131782e-38
0.11095027 0.032777436 0.040851533 1.9517397e-38
0.10969546 0.035382766 0.039907992 1.8965297e-38
0.11146197 0.12807941 0.031546056 4.6083536e-39
0.10631038 0.038391184 0.03822273 1.8414616e-38
0.10212912 0.037162729 0.040289104 1.9244379e-38
0.10199858 0.038950372 0.038906574 1.8783054e-38
0.098292492 0.039739341 0.038830698 1.8874889e-38
0.09773428 0.042326104 0.037708044 1.7769621e-38
0.094250508 0.040425826 0.039348185 1.9057494e-38
0.093954422 0.043216404 0.037898719 1.8321721e-38
0.090581194 0.040764976 0.039510667 1.9240453e-38
0.09039066 0.043669369 0.03813529 1.8780547e-38
0.086248152 0.041103635 0.039663017 1.8966387e-38
0.08638332 0.043683883 0.038408041 1.8687643e-38
0.085858554 0.046258587 0.037143588 1.8871662e-38
0.082479201 0.043886743 0.039082766 1.8134464e-38
0.08253593 0.046922587 0.037195742 1.7400132e-38
0.078639798 0.044721257 0.039194107 1.7673087e-38
0.078454584 0.046968091 0.037966847 1.7489804e-38
0.075661793 0.045048445 0.039116919 1.7857842e-38
0.074599393 0.04780915 0.038202882 1.8318494e-38
0.070421487 0.048976779 0.038318574 1.8595801e-38
0.070428461 0.051153898 0.036861718 1.8317782e-38
0.066399112 0.048994228 0.038590729 1.7675282e-38
0.066634752 0.051534906 0.03689456 1.7857532e-38
0.066396855 0.054455146 0.03604722 1.7949715e-38
0.063751809 0.04899228 0.038550735 1.592504e-38
0.062560156 0.051575046 0.037498653 1.7489825e-38
0.061601885 0.12496847 0.031093419 1.6667977e-38
0.061161965 0.12672485 0.030915141 1.7867917e-38
0.058516704 0.052260268 0.037817001 1.7122114e-38
0.058578394 0.055296287 0.036223233 1.7123195e-38
0.057490535 0.058061384 0.035559714 1.656786e-38
0.060008571 0.12523527 0.030038238 1.5656701e-38
0.058660053 0.1276761 0.029946864 1.6851275e-38
0.054489106 0.052938063 0.038024604 1.6019343e-38
0.054649889 0.055510174 0.03688246 1.6293776e-38
0.054351255 0.058960054 0.035759211 1.5923914e-38
0.053533912 0.061999697 0.035114825 1.5558719e-38
0.05532448 0.12831938 0.029263914 1.4087193e-38
0.054666467 0.1305535 0.029772639 1.3625486e-38
0.050709456 0.05594679 0.037673235 1.4632097e-38
0.050707653 0.05944654 0.036326289 1.491298e-38
0.050471708 0.062365983 0.035534978 1.4910843e-38
0.050943747 0.12899864 0.028528154 1.2338317e-38
0.050760195 0.13049103 0.029384315 1.2614207e-38
0.04787375 0.056885798 0.037538469 1.5093795e-38
0.047213867 0.059520382 0.037270963 1.4634969e-38
0.046786755 0.063371688 0.03565985 1.4266564e-38
0.046277642 0.065935582 0.034620106 1.4356597e-38
0.046378806 0.12827741 0.02893132 1.1959476e-38
0.048117161 0.13114691 0.029280066 1.2520962e-38
0.043625519 0.063778721 0.036549032 1.3529364e-38
0.042847469 0.067304902 0.035104096 1.426764e-38
0.042101368 0.070311651 0.034129024 1.5096662e-38
0.04282482 0.12478408 0.029821575 1.0666639e-38
0.043954417 0.1267122 0.030655265 1.0388899e-38
0.039450288 0.067665443 0.036156297 1.4081463e-38
0.038864821 0.071257159 0.034769177 1.5094145e-38
0.037928671 0.075145081 0.033794403 1.4448783e-38
0.036407918 0.10534059 0.030619502 9.3769919e-39
0.03640987 0.10796806 0.030362725 9.1943929e-39
0.036413759 0.11322303 0.029849291 1.0303595e-38
0.037865072 0.12028487 0.030186057 1.1500018e-38
0.039138332 0.12295988 0.030195236 1.2697115e-38
0.035361588 0.072004378 0.035619915 1.4816443e-38
0.034593821 0.07561627 0.034501672 1.4265807e-38
0.03392297 0.080786139 0.033735037 1.29787e-38
0.033977732 0.084046692 0.033166051 1.3255993e-38
0.034157947 0.088331148 0.032850623 1.288542e-38
0.03354916 0.092324853 0.032852948 1.3253108e-38
0.033986479 0.095878914 0.03200984 1.2425496e-38
0.033989877 0.10047938 0.031560302 1.2239682e-38
0.034392297 0.10404916 0.030882597 1.2051713e-38
0.034290865 0.1080642 0.030991137 1.1684729e-38
0.034328356 0.11198388 0.030441225 1.2422263e-38
0.034331232 0.11592796 0.030055821 1.2331512e-38
0.034707189 0.12009977 0.03104949 1.2610296e-38
0.031779438 0.076915339 0.034834445 1.3623703e-38
0.031834707 0.080180153 0.034264922 1.3254577e-38
0.03156516 0.084233895 0.034216464 1.3532203e-38
0.032013237 0.088494927 0.034208775 1.3161648e-38
0.031685486 0.092776671 0.033785403 1.3160554e-38
0.03091383 0.096531406 0.03315562 1.2792825e-38
0.030816346 0.10027634 0.032481074 1.2701729e-38
0.030914411 0.10416365 0.031656027 1.2333691e-38
0.030917332 0.10811058 0.031270385 1.1691155e-38
0.030920252 0.11205749 0.030884743 9.8487208e-39
0.030899271 0.11602214 0.030608594 9.2044346e-39
0.030711979 0.11879724 0.031227767 9.6646967e-39
0.02738677 0.097055495 0.033302069 1.2973291e-38
0.026727378 0.10034885 0.03297025 1.2700308e-38
0.026851237 0.10422306 0.032035232 1.1964899e-38
0.026854157 0.10817294 0.031649232 9.7546824e-39
0.026784539 0.11217329 0.031592369 8.7430809e-39
0.026904404 0.11599468 0.031444013 9.111855e-39
0.028064668 0.11879529 0.031187892 9.6653875e-39
0.02408056 0.10100566 0.032865822 1.2979388e-38
0.023752317 0.10462864 0.032506824 1.21489e-38
0.023140311 0.10806319 0.032161951 1.0124543e-38
0.02329424 0.11167711 0.031811118 8.8363065e-39
0.15313928 0.081326008 0.011381626 1.6297388e-38
0.14586484 0.067538388 0.012038827 1.6204118e-38
0.14803398 0.07498917 0.010552287 1.4638947e-38
0.1483528 0.061311092 0.015786409 1.8784512e-38
0.14719388 0.05411258 0.019419909 2.0358312e-38
0.090215027 0.065059423 0.029774964 1.4912285e-38
0.1617074 0.13315187 0.034157395 2.2481352e-38
0.15781513 0.019949684 0.044825912 6.7183896e-39
0.15897875 0.022758359 0.044569135 9.6671812e-39
0.15773335 0.13374874 0.033703744 2.2750011e-38
0.15770406 0.13525452 0.034561157 2.2568849e-38
0.15366644 0.019451128 0.044811666 8.1917302e-39
0.15371497 0.13392836 0.034630239 2.2657085e-38
0.15371594 0.13525158 0.034500957 2.2474846e-38
0.14940134 0.019322919 0.045161545 9.7593922e-39
0.15006891 0.13354969 0.034360588 2.2198622e-38
0.14972784 0.13524866 0.034440696 2.2014608e-38
0.14568642 0.020332336 0.044939458 1.0588077e-38
0.14711362 0.13374093 0.033543408 2.1922397e-38
0.14549358 0.13570103 0.033930242 2.2197549e-38
0.14202569 0.021104462 0.044975877 1.0863973e-38
0.14177963 0.13713443 0.033633232 2.2013192e-38
0.14175454 0.13921244 0.033932328 2.266286e-38
0.1390087 0.021443762 0.045399427 1.1602252e-38
0.1370451 0.02275387 0.044739187 1.2889746e-38
0.13912278 0.13713248 0.033593178 2.1644403e-38
0.13909578 0.13921048 0.033892095 2.2570658e-38
0.13329315 0.023628104 0.044429362 1.45464e-38
0.13311264 0.13788286 0.033931136 2.1373549e-38
0.12993519 0.024446357 0.044394195 1.6664012e-38
0.1305232 0.13769269 0.032905579 1.8609855e-38
0.12983766 0.13907689 0.033094764 1.7042186e-38
0.12662856 0.024954192 0.044533551 1.8230935e-38
0.12513125 0.02669742 0.043670595 1.915184e-38
0.12584054 0.13976724 0.033134103 1.261604e-38
0.12175839 0.028036863 0.044158459 2.0621581e-38
0.12100936 0.13724525 0.032804906 1.2800053e-38
0.12186939 0.14039361 0.032845259 1.445709e-38
0.1204885 0.14448966 0.033093929 1.7964732e-38
0.11774364 0.028044213 0.044431746 2.0531904e-38
0.11653672 0.13314903 0.033639669 1.1881296e-38
0.11837293 0.13677615 0.033614576 1.3261765e-38
0.11853424 0.13976093 0.033023894 1.4453165e-38
0.11916011 0.14581192 0.03294456 1.39016e-38
0.11384974 0.029331753 0.043241978 2.0621938e-38
0.11252324 0.03065211 0.043092787 2.0066979e-38
0.11387923 0.13226557 0.033685744 8.1932015e-39
0.10939317 0.031542256 0.043293297 1.9884379e-38
0.11057939 0.12814169 0.033787429 5.5252694e-39
0.10601673 0.032367084 0.043400764 1.9793985e-38
0.10555723 0.034941293 0.042567968 1.9148243e-38
0.10312447 0.033326339 0.043693721 2.0072346e-38
0.10185174 0.035289086 0.042980134 1.9703586e-38
0.098121442 0.036745355 0.042881787 1.9977286e-38
0.096599497 0.03856834 0.042077601 1.9885088e-38
0.09424524 0.036925524 0.042453647 1.9976583e-38
0.093944557 0.038566381 0.042037427 1.9703222e-38
0.089875549 0.037271511 0.042772174 2.0253168e-38
0.08969707 0.039091788 0.041921735 1.97e-38
0.089896306 0.12197241 0.034830272 2.0438532e-38
0.087174937 0.037284262 0.043064952 2.0162056e-38
0.085913002 0.039244488 0.042351723 1.9517411e-38
0.086572893 0.12196994 0.034779966 2.2659503e-38
0.082296684 0.040882122 0.041885614 1.868835e-38
0.080672823 0.042520594 0.041449606 1.8411404e-38
0.078016907 0.041197307 0.041538715 1.8872025e-38
0.077752784 0.04304697 0.041353881 1.8041191e-38
0.073884152 0.041244142 0.042476356 1.8872744e-38
0.07387042 0.043671746 0.041233957 1.8227023e-38
0.072710961 0.046478704 0.040942073 1.8687639e-38
0.070367143 0.044319812 0.041954935 1.8688692e-38
0.070030168 0.047146972 0.041003525 1.8965291e-38
0.065993205 0.047163147 0.04127568 1.7582732e-38
0.062224276 0.048104052 0.04142797 1.5833559e-38
0.061362036 0.12852374 0.033505738 1.9524247e-38
0.060656987 0.13121341 0.033483446 2.1363846e-38
0.059266947 0.049172707 0.041479707 1.60183e-38
0.058053374 0.050452944 0.040666282 1.6570028e-38
0.058661938 0.12988873 0.033582568 1.8048025e-38
0.057709888 0.13149737 0.033159733 1.7217914e-38
0.054040365 0.051121168 0.040707529 1.5832443e-38
0.054011099 0.13253175 0.033253789 1.371696e-38
0.050232604 0.052161876 0.040619791 1.4448095e-38
0.050399989 0.13294996 0.032555163 1.2429849e-38
0.046640843 0.053133074 0.040901065 1.3808457e-38
0.046357661 0.055720683 0.039806545 1.4268712e-38
0.044779852 0.059696231 0.03956151 1.3807371e-38
0.042829588 0.059995357 0.03997165 1.279396e-38
0.041478693 0.063653462 0.039040923 1.3529369e-38
0.040910363 0.12573481 0.032714367 1.223826e-38
0.042708009 0.12789215 0.033535659 1.1409885e-38
0.039537951 0.064952835 0.038633287 1.3714133e-38
0.037165672 0.067284882 0.038620651 1.3890944e-38
0.037388086 0.12458017 0.033778548 1.5093128e-38
0.034687743 0.068341315 0.039233506 1.3709437e-38
0.033618212 0.071063206 0.038348377 1.4449853e-38
0.034132168 0.12319876 0.033529162 1.3169947e-38
0.029418111 0.081087276 0.037104011 1.344075e-38
0.029157475 0.08515209 0.037004292 1.3715532e-38
0.0298246 0.089119881 0.036626697 1.3437878e-38
0.028940693 0.095335513 0.035503387 1.3067292e-38
0.030256554 0.12084283 0.033174217 9.8476558e-39
0.031405434 0.12391417 0.033752918 1.2433102e-38
0.027382568 0.076936871 0.038282692 1.3068728e-38
0.027385503 0.08090654 0.037894845 1.3439684e-38
0.027387455 0.083552971 0.037636161 1.4173653e-38
0.026544526 0.093235031 0.036509752 1.3804495e-38
0.025711209 0.096151456 0.035575569 1.3526839e-38
0.024974898 0.11779512 0.033248425 9.2958847e-39
0.026351154 0.12033775 0.034025729 9.9426947e-39
0.022922114 0.097020254 0.036051333 1.3716257e-38
0.021798685 0.10050377 0.035464227 1.3256e-38
0.021513537 0.10431507 0.034513175 1.2704232e-38
0.020986155 0.10920358 0.034027457 9.8479515e-39
0.021652803 0.11316803 0.03365016 8.0998484e-39
0.022268876 0.11650732 0.033556521 7.6395948e-39
0.022096381 0.11927606 0.034064949 8.2849964e-39
0.019423962 0.10074899 0.035834849 1.3349292e-38
0.019151881 0.10501356 0.035162747 1.1968853e-38
0.018879324 0.10861464 0.034555495 1.0030915e-38
0.018128768 0.11264031 0.034541428 7.9147411e-39
0.018328577 0.11622648 0.034162223 7.0864182e-39
0.015446588 0.11530149 0.034352362 7.363382e-39
0.068280764 0.1111663 0.0038041472 1.4636047e-38
0.17124486 0.071865633 0.015001714 1.8230974e-38
0.15327889 0.080634132 0.011829197 1.5469427e-38
0.14243034 0.082844034 0.009807229 1.4638945e-38
0.16680288 0.073587582 0.012714386 1.7126063e-38
0.13434328 0.089304045 0.0095556974 1.3441831e-38
0.154672 0.079449296 0.013785899 1.4546375e-38
0.15480727 0.084746182 0.013493657 1.4086837e-38
0.089801461 0.089082584 0.024083614 1.4638226e-38
0.084364191 0.07600151 0.027208149 1.5190297e-38
0.034331232 0.11592796 0.030055821 1.2331512e-38
0.15868929 0.13683487 0.037235379 2.2483502e-38
0.15794972 0.13946259 0.037168264 2.3132809e-38
0.15501434 0.013934162 0.05025214 6.5332654e-39
0.15422273 0.016853277 0.04808867 7.2704885e-39
0.15431154 0.13694796 0.036353946 2.2289757e-38
0.1549395 0.13983572 0.037309468 2.2943754e-38
0.15106711 0.014353653 0.050495744 7.0889335e-39
0.15087615 0.016855437 0.048372746 7.8243728e-39
0.1509786 0.1369455 0.03630352 2.2107881e-38
0.15094514 0.13960096 0.036922812 2.2661057e-38
0.15227781 0.14244846 0.036790431 2.3396053e-38
0.1474213 0.014893614 0.051191628 7.9176376e-39
0.14683604 0.016864635 0.049147844 8.1949602e-39
0.14489195 0.018836932 0.047753274 9.4824858e-39
0.14764564 0.13694304 0.036253273 2.1830931e-38
0.14665967 0.13969353 0.037175357 2.2569214e-38
0.14684647 0.14283234 0.038680255 2.2396347e-38
0.14275442 0.017771823 0.050504565 9.2988022e-39
0.14155996 0.020161487 0.047573209 1.0495193e-38
0.14318794 0.1410687 0.038294613 2.25746e-38
0.14416869 0.14283037 0.038639784 2.2394193e-38
0.13898884 0.018352427 0.050725639 1.0034928e-38
0.13854581 0.020495905 0.047746003 1.1229165e-38
0.13833481 0.14050475 0.037773669 2.2571007e-38
0.13487394 0.020826582 0.047741711 1.2889732e-38
0.13537505 0.13952631 0.036652029 2.2107528e-38
0.13109326 0.020969909 0.048340321 1.4271963e-38
0.1295633 0.022806684 0.04713273 1.5837855e-38
0.13124995 0.14077233 0.036635101 2.0638889e-38
0.13011029 0.14282002 0.038427413 2.1375729e-38
0.1267474 0.021297727 0.049247265 1.5286097e-38
0.12689726 0.023247058 0.047049224 1.6760138e-38
0.12831746 0.14090987 0.03557229 1.537942e-38
0.12642947 0.14341423 0.036806285 1.6304227e-38
0.12542711 0.14681467 0.037966013 1.1323852e-38
0.12399656 0.022872569 0.050056338 1.6300258e-38
0.12271305 0.024852604 0.049173594 1.8048754e-38
0.12156716 0.026781838 0.046622932 1.9795422e-38
0.12314378 0.1440237 0.035620153 1.7871872e-38
0.12293611 0.14634705 0.035629213 1.1324159e-38
0.11843691 0.025825422 0.048176169 1.9338035e-38
0.11823469 0.027442889 0.046507716 2.0072719e-38
0.1163154 0.13625649 0.035844922 1.224652e-38
0.11631736 0.1389105 0.035585642 1.2609272e-38
0.11500645 0.026516361 0.049061477 1.9799364e-38
0.11418903 0.028118871 0.046882689 2.0899599e-38
0.11414514 0.13593134 0.036245763 9.481774e-39
0.11427103 0.1390036 0.036047876 1.1969261e-38
0.11078187 0.028803527 0.047517776 2.0438273e-38
0.11001109 0.12148204 0.040207744 6.3542846e-39
0.11038171 0.12347941 0.037606478 6.261733e-39
0.11002176 0.13215989 0.037757576 6.996026e-39
0.11097795 0.13557857 0.03783989 7.1790034e-39
0.11158662 0.13969675 0.038451612 1.3815306e-38
0.10666309 0.029501438 0.048475683 2.0343593e-38
0.10557193 0.030751098 0.045992374 2.0440095e-38
0.10701261 0.12081586 0.039423406 5.9837112e-39
0.10748687 0.12323003 0.038491309 6.6287275e-39
0.1080072 0.12747771 0.039591312 6.5343753e-39
0.1026891 0.030152027 0.048016787 2.0621204e-38
0.10257325 0.032075904 0.045817375 2.0346068e-38
0.099902377 0.030851033 0.048911095 2.089637e-38
0.098812021 0.032767776 0.046530187 2.0436115e-38
0.098242372 0.034726739 0.045492589 2.0160981e-38
0.098298252 0.12480517 0.039705217 1.1599696e-38
0.094909817 0.035255089 0.045390368 1.9885106e-38
0.094669878 0.12406132 0.039276242 1.5463994e-38
0.094617762 0.12680151 0.039454281 1.546617e-38
0.090699561 0.033457071 0.047176957 2.0160962e-38
0.090910852 0.036048353 0.045252204 2.0712345e-38
0.092307836 0.12230518 0.036844015 1.8412053e-38
0.090892762 0.12440722 0.037287056 1.7491609e-38
0.090434864 0.12719455 0.038548529 1.8044806e-38
0.086781375 0.033643067 0.047685564 2.034537e-38
0.086544961 0.036387466 0.045404017 2.0528683e-38
0.08676786 0.12460019 0.036679268 1.9692423e-38
0.086735338 0.12793167 0.038075805 1.841824e-38
0.082820587 0.036734425 0.045732379 1.9701439e-38
0.082025275 0.039138179 0.044815421 1.9425549e-38
0.082975559 0.12229832 0.03670305 2.3230055e-38
0.082977027 0.12428883 0.03650862 2.2382603e-38
0.082812555 0.12781823 0.037389457 1.8776958e-38
0.078817487 0.034500435 0.048234522 1.9702499e-38
0.078538142 0.037042841 0.046259284 1.9978728e-38
0.079181418 0.039489951 0.044737875 1.9700334e-38
0.079338938 0.12516315 0.036511481 2.3307849e-38
0.078932576 0.12832524 0.036387801 2.0714823e-38
0.079095386 0.13155872 0.038083971 1.8323194e-38
0.074616931 0.037672587 0.046855927 2.0161693e-38
0.074648805 0.039752018 0.044643521 1.9793253e-38
0.076240852 0.1283524 0.03651166 2.3214915e-38
0.075876191 0.13078581 0.03878051 2.0344637e-38
0.07086321 0.038469639 0.047223508 1.9515961e-38
0.070172437 0.040701613 0.044985175 1.8868432e-38
0.069584869 0.04266772 0.044281662 1.8594348e-38
0.066435918 0.038822584 0.04762429 1.804227e-38
0.066430286 0.041270588 0.046380162 1.8225591e-38
0.066253141 0.044324033 0.04406929 1.831958e-38
0.062712878 0.041613016 0.046541512 1.7767474e-38
0.062211975 0.044666223 0.044225693 1.7122487e-38
0.061588734 0.04664287 0.043771863 1.656932e-38
0.062982768 0.12891866 0.035752773 2.1646932e-38
0.062569939 0.13167514 0.036984444 2.2840424e-38
0.05891034 0.042430207 0.046152592 1.6015422e-38
0.058583073 0.045203093 0.044871986 1.6018991e-38
0.058888704 0.047979761 0.043801248 1.6110492e-38
0.058986157 0.13289675 0.035303414 1.9707579e-38
0.058311202 0.13492158 0.037104964 1.94299e-38
0.05572772 0.042812809 0.047071874 1.5095635e-38
0.054602057 0.045629606 0.046528339 1.5278918e-38
0.054835804 0.048658088 0.043974936 1.5831014e-38
0.054929443 0.13494577 0.03537643 1.4731861e-38
0.050709575 0.046474036 0.046637893 1.509524e-38
0.050710931 0.048694625 0.044578731 1.5183139e-38
0.049593046 0.05061508 0.043201685 1.4815803e-38
0.050911158 0.13562813 0.037174821 1.2888681e-38
0.046612099 0.049165197 0.044972956 1.4544241e-38
0.046927199 0.051276624 0.043096602 1.4359837e-38
0.042679191 0.050466225 0.046126008 1.3620478e-38
0.042636424 0.052698661 0.044399917 1.3436778e-38
0.042764306 0.055752225 0.042596042 1.3993544e-38
0.04159984 0.058571272 0.042302907 1.3345333e-38
0.04145588 0.12907779 0.036415458 1.3355358e-38
0.039025053 0.053940129 0.04492718 1.3161654e-38
0.038515195 0.05716617 0.043649554 1.2978339e-38
0.039067551 0.060297668 0.042382896 1.2423741e-38
0.038492694 0.06343469 0.041780472 1.3252417e-38
0.038983554 0.12624697 0.035649657 1.454422e-38
0.038349852 0.12750092 0.037024856 1.592606e-38
0.035655648 0.058124077 0.045270979 1.2514809e-38
0.034742236 0.061523389 0.043668866 1.2883626e-38
0.034732789 0.064620823 0.042612493 1.3986007e-38
0.034273252 0.066527948 0.041414142 1.3890576e-38
0.034538954 0.12535901 0.035669029 1.5469074e-38
0.034573808 0.12769607 0.03745091 1.6577219e-38
0.031642422 0.062785566 0.044754624 1.3526835e-38
0.031520203 0.065698169 0.04346323 1.3710862e-38
0.030569062 0.068876162 0.041989923 1.3529709e-38
0.030055404 0.071832895 0.040831745 1.3990717e-38
0.030467704 0.12452778 0.036023438 1.2524933e-38
0.030336902 0.12708184 0.037245691 1.4367031e-38
0.027181327 0.069675699 0.043611586 1.3711215e-38
0.02665396 0.072619781 0.04204309 1.3437896e-38
0.026326373 0.075319663 0.040836394 1.3161643e-38
0.025617406 0.079791695 0.03998667 1.2703918e-38
0.026110396 0.084591791 0.039725959 1.343826e-38
0.026703745 0.088166654 0.039471865 1.3437903e-38
0.026069969 0.090850472 0.038912833 1.3896343e-38
0.025648803 0.12225612 0.035837352 1.0588442e-38
0.026874959 0.12433219 0.036155462 1.1599027e-38
0.026384547 0.12774572 0.037321806 1.418263e-38
0.023616925 0.073441252 0.043591499 1.2887238e-38
0.02261354 0.076197192 0.042553306 1.1966702e-38
0.022529125 0.079987049 0.041818917 1.1689759e-38
0.022731274 0.08388114 0.040548205 1.2242939e-38
0.02273421 0.087867871 0.040158629 1.3254584e-38
0.022909924 0.091759697 0.038999319 1.4266192e-38
0.022073358 0.094828561 0.038463414 1.4085052e-38
0.022981927 0.12159064 0.035861909 9.6704336e-39
0.022686392 0.12446925 0.036915958 1.1512562e-38
0.022596523 0.127829 0.037758648 1.3997517e-38
0.019606143 0.081434503 0.042749465 1.1042607e-38
0.01901415 0.084061995 0.042148829 1.1412121e-38
0.019075722 0.088364154 0.04206425 1.2611721e-38
0.018476859 0.091986492 0.040808022 1.3253138e-38
0.018959895 0.096262753 0.038824141 1.3623718e-38
0.017908737 0.099724054 0.038173079 1.3347138e-38
0.017968997 0.10334054 0.037569284 1.2429481e-38
0.018460423 0.12009367 0.036274493 7.3659156e-39
0.018747896 0.12314823 0.037856162 9.758309e-39
0.015597373 0.09209314 0.041647017 1.2609569e-38
0.014862806 0.096449241 0.040540338 1.3163816e-38
0.014601022 0.099895895 0.039418042 1.3162744e-38
0.014734685 0.10380825 0.038479388 1.1872011e-38
0.014893875 0.10769928 0.037431479 1.0400101e-38
0.014594436 0.11144233 0.036726415 8.3728774e-39
0.014178529 0.11561263 0.036312521 7.3619527e-39
0.014746681 0.11975725 0.036921024 6.9949793e-39
0.015620038 0.12274525 0.038652003 8.656625e-39
0.011586607 0.10008639 0.040805101 1.3162015e-38
0.010510162 0.10442422 0.040077746 1.1962054e-38
0.010626182 0.10785602 0.038468182 1.0861068e-38
0.010762572 0.11176249 0.037530243 9.1089711e-39
