# .PCD v0.7 - Point Cloud Data file format
VERSION 0.7
FIELDS x y z rgb
SIZE 4 4 4 4
TYPE F F F F
COUNT 1 1 1 1
WIDTH 980
HEIGHT 1
VIEWPOINT 0 0 0 0 1 0 0
POINTS 980
DATA ascii
0.057998151 0.11576323 0.010551929 1.1876656e-38
0.058179092 0.11825077 0.010698199 1.2246868e-38
0.055553973 0.11557949 0.01103586 1.1967068e-38
0.055573251 0.11823159 0.011227012 1.1967069e-38
0.022107616 0.08483579 0.015579998 9.9387514e-39
0.022778377 0.087492682 0.015639007 8.9256687e-39
0.089832805 0.13134462 0.0093126297 2.2771963e-38
0.090052284 0.13540876 0.0085439086 2.3325493e-38
0.090941913 0.13865004 0.0091128945 2.3325854e-38
0.090422831 0.14240324 0.0098016858 2.341769e-38
0.08556892 0.1230443 0.0087170601 2.3406188e-38
0.086640529 0.12710878 0.0088832974 2.3325854e-38
0.088134661 0.13028297 0.0088127255 2.3049631e-38
0.088394694 0.13319716 0.0076953769 2.3325494e-38
0.088501051 0.14782548 0.0087500811 2.0543354e-38
0.088515557 0.14982024 0.0088939071 1.4524045e-38
0.081736058 0.09062025 0.0089868903 1.804621e-38
0.08176519 0.094626889 0.009275794 1.7216824e-38
0.082342774 0.11952659 0.010308385 1.6193754e-38
0.083115697 0.12154876 0.0084240437 1.6565025e-38
0.077750728 0.083913535 0.0093044043 1.7395824e-38
0.078677043 0.086780049 0.0087423325 1.7399421e-38
0.079086758 0.090596631 0.0090696812 1.7309019e-38
0.07907784 0.094591126 0.0086832047 1.6295585e-38
0.079144999 0.098605677 0.009647131 1.6111921e-38
0.07903368 0.10245268 0.010407448 1.6295582e-38
0.077906094 0.10528228 0.010845125 1.6755131e-38
0.077983782 0.11596663 0.011615515 1.6291249e-38
0.079109214 0.11877523 0.010825872 1.1213377e-38
0.077864096 0.12248144 0.0090498924 6.7065178e-39
0.077230081 0.12513632 0.0093742609 8.8190873e-39
0.075121365 0.083226442 0.00978899 1.6753697e-38
0.075076327 0.086560048 0.0086792707 1.638633e-38
0.075070746 0.090554565 0.0082923174 1.5279988e-38
0.075099789 0.09454979 0.0085803866 1.4085423e-38
0.075123236 0.098543026 0.0087556839 1.4824409e-38
0.075169891 0.10254644 0.0093818903 1.6387426e-38
0.075114682 0.10658894 0.011253595 1.6939165e-38
0.074915335 0.11039088 0.011245072 1.675226e-38
0.074975997 0.1147998 0.012141705 1.6110133e-38
0.075541504 0.11845266 0.012295425 1.7397249e-38
0.075016022 0.12241652 0.012401819 1.7400758e-38
0.075427234 0.12529613 0.01282227 1.5099441e-38
0.071138948 0.082530864 0.0096387863 1.5555855e-38
0.071116112 0.086530417 0.0088009834 1.4083254e-38
0.071114182 0.090519272 0.0084126592 1.353188e-38
0.07112772 0.094506547 0.0083622932 1.2702472e-38
0.071172655 0.098503202 0.0089883208 1.3256021e-38
0.071227342 0.10250872 0.0098403692 1.4636449e-38
0.071261354 0.1065066 0.01024127 1.5280727e-38
0.071290404 0.11050184 0.010529339 1.4361291e-38
0.071361765 0.11453517 0.011721075 1.3992875e-38
0.071380481 0.11852553 0.011783421 1.4637521e-38
0.071357161 0.12246241 0.010941088 1.5005956e-38
0.067879669 0.079834439 0.011013031 1.3806293e-38
0.067188621 0.082503155 0.0099859238 1.3347481e-38
0.067190543 0.086501516 0.0095977187 1.3255276e-38
0.067192361 0.090490386 0.0092087388 1.3254914e-38
0.067207769 0.094477683 0.009157896 1.251915e-38
0.067236781 0.098467231 0.0094455481 1.2613155e-38
0.067265779 0.10245678 0.0097332001 1.2338006e-38
0.067294791 0.10644631 0.010020792 1.2429484e-38
0.067328557 0.11044018 0.010421574 1.2612083e-38
0.067385159 0.11445889 0.011387825 1.2244367e-38
0.067400701 0.11843628 0.011336327 1.1324585e-38
0.06741561 0.12241027 0.01128459 1.178486e-38
0.067066483 0.12639125 0.011534929 1.4272274e-38
0.063942894 0.079805449 0.011812031 1.2795726e-38
0.063671932 0.082665525 0.011785328 1.1876306e-38
0.063991442 0.086483181 0.012293518 1.1137651e-38
0.063316643 0.090472713 0.011360288 1.0493392e-38
0.063299552 0.09445294 0.01029253 1.3809529e-38
0.063316777 0.098438367 0.010241091 1.3810249e-38
0.063126415 0.10220467 0.010556996 1.2334756e-38
0.063212678 0.10658248 0.010861576 1.1323847e-38
0.063432828 0.11439652 0.011391759 1.1510019e-38
0.06346184 0.11838607 0.011679411 1.1600425e-38
0.063490845 0.12237559 0.011967003 1.2520596e-38
0.063391089 0.12663016 0.012300313 1.270356e-38
0.06224703 0.13100998 0.01285553 1.0401191e-38
0.060744781 0.091133438 0.013296366 7.9987546e-39
0.059612069 0.094828248 0.012629509 9.848362e-39
0.059413098 0.098419949 0.011602581 1.3808827e-38
0.059425823 0.10239905 0.011324346 1.3715532e-38
0.059290286 0.10622115 0.011633158 1.224289e-38
0.059645969 0.1102131 0.011854589 1.0956133e-38
0.059945166 0.11392759 0.01206702 1.132564e-38
0.060068391 0.118893 0.012407303 1.2153949e-38
0.059570864 0.12234674 0.012762666 1.3168115e-38
0.059626345 0.12638965 0.013958335 1.187412e-38
0.059664335 0.1304061 0.014587164 1.0398659e-38
0.055963911 0.095327243 0.014577866 1.0666956e-38
0.055518642 0.098414928 0.013645232 1.0761731e-38
0.055515952 0.10238133 0.012573481 1.168584e-38
0.055539805 0.10636646 0.012634456 1.3255277e-38
0.05556386 0.11034925 0.012695312 1.3163809e-38
0.054610461 0.11399912 0.013157785 1.2244727e-38
0.055103071 0.11885644 0.013415039 1.1968504e-38
0.055666704 0.12235434 0.014239788 1.2061768e-38
0.056104656 0.12624855 0.015947521 1.1136932e-38
0.056633059 0.12956706 0.016279101 1.0396142e-38
0.050275866 0.095062777 0.015716016 1.6750821e-38
0.051612403 0.098411299 0.015690386 1.472287e-38
0.051632442 0.10240615 0.015525579 1.0022364e-38
0.051645041 0.10638206 0.014906049 9.7483037e-39
0.05165796 0.11034891 0.014285862 1.2976901e-38
0.051684707 0.11433836 0.014460266 1.3164157e-38
0.051719815 0.11834843 0.015089333 1.2610986e-38
0.051934987 0.1222458 0.016611159 1.1693321e-38
0.053118858 0.12513188 0.017349958 1.1140162e-38
0.047647662 0.095038116 0.015907943 1.5649504e-38
0.047653079 0.09834756 0.014672637 1.5370746e-38
0.047704726 0.10238896 0.01677829 1.177693e-38
0.047732655 0.10622864 0.017055035 9.9330159e-39
0.047762986 0.11040223 0.017355978 1.0118857e-38
0.04909955 0.11375076 0.017330408 1.3440341e-38
0.049123824 0.11708961 0.017571151 1.4540957e-38
0.042378031 0.091665938 0.017073274 1.1967441e-38
0.043712743 0.095009148 0.016706586 1.1414959e-38
0.043761045 0.10233127 0.016439736 1.2240058e-38
0.043788508 0.10632508 0.016500711 1.1958817e-38
0.041065775 0.091656283 0.017339587 1.131956e-38
0.039776593 0.094980165 0.017505467 9.294482e-39
0.039799295 0.098306805 0.017177224 8.7412998e-39
0.039828777 0.10231403 0.01769352 9.5710675e-39
0.040022239 0.10616458 0.018363714 1.1136593e-38
0.034708738 0.074582182 0.0173769 1.5283584e-38
0.034494765 0.090272427 0.018574953 1.0314353e-38
0.03557951 0.095088124 0.018708467 8.836717e-39
0.035598941 0.097759202 0.01890111 8.926054e-39
0.031761058 0.074235424 0.017269135 1.4361998e-38
0.031126723 0.078228354 0.018374145 1.2980138e-38
0.031802282 0.080904283 0.018433571 1.2797885e-38
0.033163086 0.08759167 0.018648684 1.0677398e-38
0.031870246 0.0902531 0.01910758 9.3916705e-39
0.031714663 0.094639942 0.019462049 8.559763e-39
0.032579772 0.097603425 0.019504011 9.294468e-39
0.026485279 0.071516819 0.018824816 1.1408852e-38
0.027822934 0.074203625 0.018295705 1.2057829e-38
0.027849913 0.078205757 0.018812001 1.2153606e-38
0.027724043 0.082212046 0.018592417 1.1694444e-38
0.027922489 0.086214289 0.018477023 1.0956856e-38
0.027951546 0.09021502 0.01876545 8.193877e-39
0.027969763 0.094225422 0.019738972 7.4574021e-39
0.02386076 0.071497492 0.019357502 9.111897e-39
0.023903847 0.074184008 0.018409669 9.9416423e-39
0.023946874 0.078191116 0.018013716 1.0677756e-38
0.02411022 0.082673639 0.017710805 1.0495164e-38
0.024297141 0.086980961 0.017338634 9.5724744e-39
0.024218619 0.090340614 0.017857611 7.821856e-39
0.024043851 0.094190717 0.020080566 7.6381823e-39
0.025357515 0.096882515 0.020920813 9.1115565e-39
0.0195935 0.071132205 0.020199001 7.8225679e-39
0.019978777 0.074157909 0.018979132 8.4686408e-39
0.020025544 0.078164205 0.018582284 9.3909642e-39
0.019953713 0.082643434 0.018368304 9.8505116e-39
0.020114876 0.08681719 0.018177688 9.2033233e-39
0.020135924 0.090142921 0.01853168 8.0994967e-39
0.020106643 0.094164833 0.021107316 7.6399521e-39
0.02142074 0.096853532 0.021719694 9.5811036e-39
0.016506277 0.070642062 0.020791173 6.900606e-39
0.016013362 0.074113883 0.020919681 6.6240149e-39
0.016042478 0.078118823 0.021208405 7.5463496e-39
0.016232811 0.082612827 0.020239592 8.3746991e-39
0.015982486 0.086503945 0.019726396 8.2824797e-39
0.0161938 0.090119429 0.020014405 8.1909903e-39
0.01631511 0.093978062 0.022547245 7.8218434e-39
0.0133821 0.074091285 0.021680772 5.1489002e-39
0.012917422 0.082367808 0.022384346 6.8055573e-39
0.012849152 0.08610402 0.021650136 7.267962e-39
0.012903288 0.090100244 0.021251023 7.638548e-39
0.013518043 0.092788927 0.02302891 8.0062417e-39
0.10186673 0.090809986 0.010020077 1.9979479e-38
0.10222646 0.09484756 0.010243893 1.9518838e-38
0.10192052 0.098207735 0.01055342 1.7951896e-38
0.097843282 0.082710534 0.010242879 2.0349673e-38
0.098977432 0.086920068 0.0096822381 2.0349673e-38
0.099157356 0.090783387 0.009773612 1.988655e-38
0.099167213 0.09481103 0.0098406076 1.8780562e-38
0.099215977 0.098845199 0.010354936 1.7123919e-38
0.098636791 0.10288641 0.011395454 1.5096701e-38
0.098014414 0.10624881 0.011939943 1.4546392e-38
0.09823446 0.13651231 0.014122009 2.311916e-38
0.098780245 0.14347684 0.014114261 2.2956352e-38
0.098931313 0.14723319 0.014257371 2.2854797e-38
0.098337129 0.15063527 0.015140235 2.2650977e-38
0.098361611 0.1539979 0.015382826 1.2412615e-38
0.09478341 0.078846216 0.010435045 1.9981255e-38
0.095111877 0.082693234 0.0096604824 2.0165299e-38
0.095044054 0.08671876 0.0087200999 1.9614623e-38
0.095055066 0.090738207 0.0087861419 1.8600818e-38
0.095102116 0.094763279 0.0093001723 1.7034602e-38
0.095167369 0.09879373 0.010038078 1.5647365e-38
0.09526664 0.10284075 0.011225224 1.4729344e-38
0.095323086 0.10688116 0.011852145 1.3992505e-38
0.094517887 0.11003382 0.012930095 1.3347871e-38
0.094211005 0.12841286 0.014344871 2.3120568e-38
0.094729722 0.13134912 0.014046013 2.2941946e-38
0.095337979 0.13524219 0.013594866 2.3138577e-38
0.095415443 0.13899425 0.012377262 2.3233296e-38
0.095453426 0.14302444 0.012779772 2.3325134e-38
0.095535979 0.14710627 0.013745308 2.3039911e-38
0.095426902 0.15080883 0.014722228 1.9610324e-38
0.095865116 0.15412301 0.015644133 1.0020156e-38
0.09052562 0.075931795 0.011233211 1.9245879e-38
0.09115687 0.078631826 0.010621309 1.8406396e-38
0.091046162 0.082667977 0.0090082884 1.8782005e-38
0.09104149 0.086687557 0.0088500977 1.8964233e-38
0.091062434 0.09070462 0.0090277791 1.7493406e-38
0.09109991 0.094723634 0.009429574 1.647855e-38
0.091145277 0.098746605 0.0099436641 1.5280697e-38
0.091257721 0.10279304 0.0113554 1.4269794e-38
0.091287851 0.10682079 0.011645615 1.3532244e-38
0.091237426 0.11072027 0.013136446 1.2974751e-38
0.090809248 0.11493808 0.014045656 1.7311155e-38
0.090689883 0.11869311 0.01414156 2.2554442e-38
0.091054976 0.1234311 0.014108896 2.2834653e-38
0.091451667 0.12696126 0.013321757 2.247918e-38
0.091802672 0.13075274 0.012814641 2.2581097e-38
0.092134416 0.13459899 0.01153928 2.3325492e-38
0.092665352 0.13952318 0.011384249 2.341769e-38
0.092363566 0.14319873 0.011716187 2.341769e-38
0.091446988 0.14691891 0.012744784 2.2858381e-38
0.091609828 0.15110277 0.014838398 1.3431088e-38
0.09167856 0.15385111 0.015708804 6.6258114e-39
0.086953416 0.07536751 0.011918604 1.7124985e-38
0.087150201 0.078607559 0.010752797 1.9058227e-38
0.087064303 0.082640454 0.0093617439 2.0256764e-38
0.087086096 0.086657941 0.0095393062 1.9703583e-38
0.087077066 0.090670869 0.0092679858 1.7675648e-38
0.087137058 0.094691545 0.010006368 1.610976e-38
0.087196894 0.098717518 0.010745108 1.5098464e-38
0.087241843 0.10274173 0.011259437 1.3627304e-38
0.087317489 0.10678381 0.012223542 1.3256365e-38
0.087414749 0.11084567 0.013525724 1.4265859e-38
0.087459832 0.1148851 0.014041245 2.0628446e-38
0.087443471 0.11888332 0.013656616 2.3312174e-38
0.088187091 0.12259065 0.012686789 2.3323688e-38
0.088625744 0.12611969 0.011220098 2.2958513e-38
0.088815361 0.15219988 0.013100564 5.0656673e-39
0.083034053 0.07492134 0.01224488 1.9522771e-38
0.083142787 0.078584678 0.010770798 2.1456734e-38
0.083102509 0.082611546 0.0099384785 2.0073797e-38
0.083089605 0.086626478 0.0095545053 1.8873819e-38
0.08327581 0.090639904 0.0096982718 1.7768556e-38
0.083797775 0.094655856 0.0098875761 1.684949e-38
0.083191626 0.098670088 0.010647237 1.5837111e-38
0.08322081 0.10268433 0.010936677 1.5466542e-38
0.08329162 0.10671961 0.0119012 1.5556945e-38
0.083363965 0.11076333 0.012866199 1.6754767e-38
0.083407715 0.11479345 0.013381243 2.1732249e-38
0.083782941 0.11830615 0.012142301 2.1730489e-38
0.079256356 0.074509874 0.01296711 2.117943e-38
0.079177476 0.078557439 0.011348367 2.0071284e-38
0.079295442 0.082417302 0.010286927 1.8227027e-38
0.080449268 0.085938275 0.0099274516 1.8325682e-38
0.08058054 0.10399379 0.011229277 1.62016e-38
0.07945881 0.10683157 0.011794209 1.6663287e-38
0.079347789 0.11069223 0.012541413 1.6755839e-38
0.079529434 0.11453333 0.012602389 1.7489074e-38
0.080677785 0.11736824 0.01219362 1.701237e-38
0.074965134 0.071446069 0.014069676 2.1360958e-38
0.075288728 0.074482054 0.013658881 2.0718799e-38
0.075214237 0.078530625 0.011925578 1.8227027e-38
0.075158738 0.081218511 0.010656893 1.7488023e-38
0.076657608 0.10663965 0.01222229 1.7124984e-38
0.076691642 0.1113207 0.012559831 1.684552e-38
0.076711096 0.1139956 0.012752652 1.6382746e-38
0.071328335 0.071083039 0.014783144 2.1547496e-38
0.071332425 0.074451312 0.014575362 1.9885811e-38
0.071248755 0.078503728 0.0123896 1.6846222e-38
0.067167118 0.070766807 0.015460491 1.9425578e-38
0.067320198 0.074438863 0.014140368 1.7860021e-38
0.067081451 0.078097612 0.012509406 1.4543128e-38
0.063525274 0.070540234 0.015307903 1.6203388e-38
0.06333445 0.074423231 0.014040947 1.4175066e-38
0.063136689 0.078068562 0.013310015 1.3072279e-38
0.06202234 0.081790477 0.013372123 1.2059624e-38
0.062056392 0.086471543 0.013709724 1.1135148e-38
0.059400383 0.067640781 0.016616106 1.5189981e-38
0.059654195 0.070215605 0.015764773 1.4729697e-38
0.059383154 0.074394979 0.014842987 1.3715196e-38
0.059392311 0.078420639 0.01445514 1.3626567e-38
0.059418015 0.082437932 0.014631808 1.3627315e-38
0.059447221 0.086454064 0.014921427 1.28883e-38
0.0590926 0.090273798 0.015031099 1.1132264e-38
0.058819681 0.093134575 0.014858663 7.9979937e-39
0.055863615 0.066424973 0.017019033 1.4363424e-38
0.055419303 0.070330307 0.016032457 1.3624084e-38
0.055442885 0.074360378 0.01609689 1.4637517e-38
0.055451281 0.078389876 0.015482247 1.6664365e-38
0.05548051 0.082407914 0.015771925 1.6756927e-38
0.055509731 0.086425945 0.016061664 1.6019711e-38
0.055538934 0.090443984 0.016351402 1.5926435e-38
0.05533386 0.094006538 0.016143739 1.3345293e-38
0.054468215 0.12720558 0.018251061 1.086142e-38
0.054837987 0.13060069 0.019193053 1.1136583e-38
0.051707812 0.063009188 0.017977178 1.5283601e-38
0.051717184 0.066120058 0.017487824 1.4176164e-38
0.051477708 0.070288658 0.017513752 1.3715562e-38
0.051499676 0.074323639 0.017351329 1.4640387e-38
0.051503327 0.078360811 0.016283512 1.6205543e-38
0.051530495 0.08237917 0.016460001 1.703064e-38
0.05155421 0.086395875 0.016409636 1.583284e-38
0.051583402 0.09041138 0.016699195 1.6480708e-38
0.051978707 0.094232246 0.016477704 1.6661126e-38
0.050501544 0.12383293 0.018810093 1.1323105e-38
0.051692501 0.1267516 0.019933581 1.0401888e-38
0.05258067 0.13073099 0.021964073 1.1692991e-38
0.047893815 0.059029911 0.018665195 1.2609932e-38
0.04862117 0.062029108 0.017970443 1.3258189e-38
0.047480144 0.066254288 0.017120898 1.3624438e-38
0.047508948 0.070276968 0.017411053 1.3902093e-38
0.047526129 0.0743137 0.016795039 1.4453481e-38
0.047552936 0.078333884 0.016858041 1.6114439e-38
0.047571823 0.082352772 0.016354203 1.6480699e-38
0.047600985 0.086365111 0.016643465 1.5189966e-38
0.047630168 0.09037745 0.016932845 1.5004848e-38
0.047649615 0.093052328 0.017125726 1.5282157e-38
0.047756582 0.10776424 0.01818639 9.6532312e-39
0.04743275 0.11464612 0.018904865 1.2606323e-38
0.047841325 0.11849139 0.019543171 1.4265461e-38
0.048536595 0.12254491 0.020308912 1.1597159e-38
0.049254686 0.12603554 0.022806883 1.0489755e-38
0.050618067 0.13078183 0.023390412 1.215217e-38
0.050637607 0.13347192 0.023584366 1.3351432e-38
0.044636331 0.058290672 0.018889964 1.2611011e-38
0.04455696 0.062327333 0.017949641 1.2979796e-38
0.04351972 0.066248566 0.017016947 1.4454189e-38
0.043548934 0.070266604 0.017306626 1.4456351e-38
0.04357814 0.074284635 0.017596364 1.5008803e-38
0.043607369 0.078302674 0.017886043 1.5471584e-38
0.043634206 0.082321718 0.017835319 1.5284317e-38
0.043660641 0.086336881 0.017670691 1.4547457e-38
0.043850847 0.090182446 0.017687559 1.2887951e-38
0.043707237 0.0930233 0.017925858 1.1689406e-38
0.043998331 0.11025358 0.019390166 1.0759908e-38
0.044535786 0.11451238 0.021384656 9.4735217e-39
0.045235783 0.11859852 0.022770643 1.3438246e-38
0.046059489 0.12238827 0.023291111 1.2429042e-38
0.0408381 0.058089174 0.019804537 1.1968157e-38
0.040424123 0.062164575 0.018710494 1.2978725e-38
0.039571732 0.066219501 0.017818272 1.3901389e-38
0.039600648 0.070241593 0.017880917 1.4270894e-38
0.039629579 0.074263617 0.017830014 1.5101352e-38
0.039659023 0.078274786 0.01857388 1.5100991e-38
0.039688475 0.082292326 0.018749774 1.3810269e-38
0.039717816 0.086309671 0.019266725 1.3351795e-38
0.039580144 0.090151817 0.018682301 1.1965989e-38
0.039764866 0.092994273 0.018725991 9.7540336e-39
0.038557723 0.10769651 0.020053387 1.1967774e-38
0.040158406 0.11055802 0.021063685 1.3160531e-38
0.041246437 0.11454054 0.023306608 1.1869435e-38
0.041929908 0.11726814 0.024164021 1.057838e-38
0.037066765 0.058458317 0.020241737 1.1324229e-38
0.036739595 0.06194976 0.0201267 1.2704277e-38
0.035624482 0.066193096 0.018505871 1.2887208e-38
0.035656221 0.070221737 0.018227518 1.4177972e-38
0.036472864 0.073979333 0.017996728 1.5099567e-38
0.03571479 0.078250416 0.018806338 1.4820826e-38
0.035742849 0.082264386 0.019323349 1.2980509e-38
0.035772718 0.086278968 0.019499004 1.1506814e-38
0.035967045 0.090292379 0.019427836 1.0679918e-38
0.036153458 0.093302034 0.019483566 9.5728429e-39
0.036194794 0.098986179 0.019893348 9.2019108e-39
0.035890587 0.10232738 0.020201147 9.0186e-39
0.03591913 0.10634337 0.020604491 1.012711e-38
0.03610868 0.11021826 0.021632612 1.4176864e-38
0.037286244 0.11450708 0.023996413 1.4266543e-38
0.037309252 0.1179066 0.025151312 1.4083239e-38
0.033247001 0.059034154 0.021646082 1.0956481e-38
0.032946602 0.062089719 0.020908952 1.2704969e-38
0.03167668 0.066164032 0.019307196 1.298085e-38
0.031713754 0.070197403 0.018800676 1.417832e-38
0.033087306 0.078234002 0.018998861 1.3895989e-38
0.031802572 0.08240369 0.019694984 1.2336202e-38
0.031666018 0.086080611 0.019865334 1.1140178e-38
0.031860687 0.09026134 0.020133317 9.5742709e-39
0.032537185 0.092941061 0.020192921 8.8359898e-39
0.031397261 0.09881711 0.020857215 9.7557923e-39
0.031943366 0.10230982 0.021457791 1.0125631e-38
0.032339886 0.10616256 0.022521436 1.040152e-38
0.033079155 0.11043581 0.024268806 1.4363752e-38
0.034112155 0.11424352 0.025327802 1.4729341e-38
0.030275866 0.05934852 0.022273898 9.4838633e-39
0.028981157 0.06204585 0.022167385 1.1045821e-38
0.027887978 0.066289991 0.020584702 1.1598637e-38
0.027935475 0.070004657 0.019441664 1.2428371e-38
0.029174075 0.082217313 0.020088196 1.2246532e-38
0.027973086 0.098261766 0.021740556 1.0033824e-38
0.028357334 0.10212159 0.023326755 1.178516e-38
0.029142432 0.10655924 0.025210977 1.187559e-38
0.029319853 0.10909384 0.025787532 1.4824385e-38
0.023667902 0.059299868 0.023615003 5.42769e-39
0.025010973 0.062003002 0.02342689 6.7162652e-39
0.024205744 0.066087835 0.021617711 8.0980968e-39
0.023825206 0.069472879 0.020239055 8.926061e-39
0.024016552 0.0982458 0.023194194 1.0406929e-38
0.025534607 0.1023358 0.025719643 1.353221e-38
0.026126154 0.10611679 0.026354909 1.4087545e-38
0.022346325 0.059290133 0.023883283 7.2643957e-39
0.021235876 0.062356181 0.024334848 6.7162035e-39
0.020242423 0.066046722 0.022875905 7.3601562e-39
0.020144686 0.069312043 0.020976067 7.8225763e-39
0.020393491 0.098392159 0.024216235 1.1234161e-38
0.021988705 0.10098165 0.027023673 1.3995362e-38
0.01796709 0.062844485 0.025035977 9.1089361e-39
0.016128443 0.065895148 0.023178935 9.0135441e-39
0.015283376 0.069409989 0.021972656 7.0846483e-39
0.014815956 0.09548533 0.023986399 8.1855701e-39
0.016856156 0.098013833 0.025218785 1.0681337e-38
0.017393127 0.10092431 0.026931584 1.2892973e-38
0.01195132 0.066192545 0.023053348 1.2793174e-38
0.011994332 0.070049971 0.022916377 7.0817631e-39
0.011858173 0.074062429 0.023267746 5.1488918e-39
0.012035534 0.078073144 0.023953021 5.4269235e-39
0.011073247 0.081746422 0.024504483 5.8857408e-39
0.010805503 0.086094193 0.024111509 6.6218737e-39
0.010834686 0.090106532 0.02440083 6.9928283e-39
0.012161352 0.094134413 0.024865687 8.0044565e-39
0.013418421 0.097533397 0.027235031 9.5724632e-39
0.0086612254 0.066667542 0.023885787 1.3437843e-38
0.0081828982 0.070173614 0.024496794 1.1412755e-38
0.0080463737 0.074023023 0.024807811 5.9804336e-39
0.0080755875 0.078041062 0.025097489 4.5092874e-39
0.0081094131 0.082059257 0.025272667 5.1514282e-39
0.0081526116 0.086076319 0.025218427 5.6102413e-39
0.0083260834 0.08992967 0.025921464 5.8868338e-39
0.0091513917 0.093883216 0.028295279 6.7144365e-39
0.0056891367 0.069641978 0.025476754 1.3165556e-38
0.0048899725 0.074267633 0.02546829 5.7009768e-39
0.0047693178 0.078014418 0.026109517 2.853359e-39
0.0048229843 0.082035124 0.025882959 3.6802484e-39
0.0048440397 0.086052902 0.026344776 4.2326963e-39
0.0052415878 0.090087689 0.028095424 4.5085587e-39
0.13822433 0.12622006 0.0082961917 1.2240457e-38
0.13824394 0.12892155 0.0084909201 1.0864376e-38
0.13466224 0.12304226 0.0087872744 1.5744896e-38
0.13556993 0.12620053 0.0088348985 1.2978727e-38
0.13559939 0.13025275 0.0091270804 9.8480215e-39
0.13518319 0.13385147 0.0094766021 1.0501308e-38
0.1315617 0.1225049 0.0093787313 1.3720203e-38
0.13158835 0.1261712 0.0096430182 1.3072691e-38
0.13161781 0.13022342 0.0099352002 1.0494434e-38
0.13164729 0.13427567 0.010227323 8.5626931e-39
0.13167673 0.1383279 0.010519505 1.1422179e-38
0.1316964 0.14102937 0.010714352 1.299163e-38
0.12893398 0.12615165 0.010181785 1.1969226e-38
0.12896344 0.1302039 0.010473907 1.0957519e-38
0.12899292 0.13425612 0.010766089 9.2040646e-39
0.12902237 0.13830835 0.011058331 9.2991441e-39
0.129042 0.14100984 0.011253059 1.003965e-38
0.11411881 0.096327797 0.011002123 1.7493429e-38
0.11412863 0.097678557 0.011099517 1.6747973e-38
0.11007829 0.088194028 0.011225939 2.2097789e-38
0.11123555 0.090903893 0.011189878 2.0714135e-38
0.11107682 0.095147699 0.011534452 1.8595816e-38
0.11104003 0.09878137 0.01180923 1.6659369e-38
0.1101765 0.10170147 0.012199819 1.518779e-38
0.10603289 0.079384878 0.011400938 2.2838222e-38
0.10605746 0.082761735 0.011644542 2.2464786e-38
0.10703632 0.087013915 0.011758208 2.1727948e-38
0.10743302 0.090874761 0.011847854 2.0440413e-38
0.10744137 0.094923303 0.011916637 1.8874194e-38
0.10750251 0.098980442 0.012543738 1.721504e-38
0.10736483 0.1028626 0.012857437 1.5281434e-38
0.10622441 0.10572438 0.013300061 1.4913386e-38
0.10246591 0.075531714 0.011843383 2.246912e-38
0.10299441 0.078687169 0.011968017 2.154716e-38
0.10340306 0.082742199 0.012183189 2.0993626e-38
0.10339242 0.086792551 0.012028635 2.1084375e-38
0.10403343 0.090842567 0.011627793 2.0256051e-38
0.10419539 0.094890073 0.011892617 1.9518842e-38
0.10380968 0.09912622 0.012282908 1.7396921e-38
0.10350005 0.10298909 0.013084769 1.5464403e-38
0.10355001 0.107045 0.013600469 1.4729707e-38
0.1030745 0.11056361 0.014297128 1.4453111e-38
0.10248344 0.13878828 0.016494215 2.2465132e-38
0.10247803 0.14213747 0.016400695 2.2938304e-38
0.10244754 0.14613053 0.016018689 2.2949868e-38
0.10253695 0.15023941 0.01698488 2.2934413e-38
0.10258657 0.15297109 0.017516851 2.154494e-38
0.099151894 0.074996635 0.01218611 2.0995047e-38
0.099364147 0.078663379 0.01236397 2.0164578e-38
0.10001318 0.082719497 0.0120188 2.0440794e-38
0.1006809 0.085422792 0.011911273 2.0716666e-38
0.10080838 0.10295777 0.013175488 1.5648792e-38
0.099892572 0.10719001 0.013673365 1.4637871e-38
0.099627733 0.11107851 0.015036464 1.3993214e-38
0.099647388 0.11377998 0.015231311 1.3809908e-38
0.098442957 0.13065451 0.01671797 2.237078e-38
0.098780692 0.13435361 0.016665637 2.2464796e-38
0.1004447 0.13806054 0.016344011 2.2288664e-38
0.10057829 0.14181644 0.016286194 2.2670396e-38
0.10112222 0.14612077 0.016287625 2.2581817e-38
0.10064109 0.15045205 0.016908824 2.2837876e-38
0.10045366 0.15401679 0.01782316 1.6100796e-38
0.096024945 0.071882501 0.012885571 1.9699657e-38
0.09548822 0.074758887 0.012439072 1.9153309e-38
0.09665098 0.077974871 0.012183309 2.0071661e-38
0.096038349 0.11147745 0.015114188 1.3438979e-38
0.095656008 0.11455289 0.015895665 1.3715919e-38
0.096144214 0.11870667 0.016306698 1.8781254e-38
0.09587469 0.12234904 0.016373694 2.2102456e-38
0.095901683 0.12606263 0.016641438 2.2746397e-38
0.096529379 0.12965693 0.016420126 2.3016515e-38
0.097053073 0.13327748 0.016170681 2.2656018e-38
0.092248894 0.070806213 0.013461113 1.9522798e-38
0.091837734 0.074057616 0.013130307 1.9241914e-38
0.092925094 0.11234112 0.015470266 1.2334075e-38
0.093523458 0.11533909 0.016182899 1.4546008e-38
0.093233921 0.11911072 0.016417027 2.0625171e-38
0.093290195 0.12180564 0.016501606 2.2191781e-38
0.08842656 0.06723427 0.014089823 1.8509369e-38
0.088539869 0.070310168 0.014165223 1.8229183e-38
0.088226199 0.073641732 0.013578892 1.7492351e-38
0.084975868 0.067208864 0.014790177 1.7123912e-38
0.084719777 0.070452653 0.014853537 1.7768546e-38
0.084688745 0.073166095 0.014263809 1.7860688e-38
0.080283836 0.066814139 0.015716016 1.9516678e-38
0.080732651 0.070425332 0.015549242 1.8685843e-38
0.076741397 0.066337839 0.016401768 1.8221259e-38
0.076926693 0.07001657 0.01605016 1.9144294e-38
0.072740182 0.063607022 0.017015159 2.0435022e-38
0.072754666 0.066311151 0.017097414 1.9517393e-38
0.072764054 0.069017261 0.017067254 2.1453861e-38
0.068758599 0.063577712 0.017823219 2.03468e-38
0.06877353 0.066281833 0.017905474 2.1452061e-38
0.068755403 0.069002472 0.017199874 2.1636826e-38
0.064784378 0.066257797 0.01848805 2.0160607e-38
0.060526077 0.06297683 0.0194543 1.7212865e-38
0.060975119 0.065858305 0.018698037 1.657073e-38
0.055457216 0.059427764 0.020224631 1.4897596e-38
0.056795917 0.06214907 0.019811451 1.6018966e-38
0.058123376 0.064877868 0.019060016 1.5742057e-38
0.051446192 0.055346221 0.020740628 1.3805248e-38
0.052791003 0.058061391 0.020553052 1.4915164e-38
0.053333033 0.061598852 0.019998133 1.4913714e-38
0.048519958 0.05479262 0.021090806 1.29823e-38
0.049238294 0.057612471 0.020504057 1.3441835e-38
0.047967024 0.12617221 0.025636971 1.058013e-38
0.049311973 0.12887965 0.025562406 1.0308598e-38
0.044800937 0.054642498 0.021529555 1.2153628e-38
0.046136633 0.056696981 0.020897388 1.2706064e-38
0.043942004 0.11939871 0.025957644 1.2800108e-38
0.04441081 0.12279207 0.026452959 1.2430168e-38
0.046205185 0.12597355 0.026662886 1.1323414e-38
0.041088261 0.054754339 0.022190988 1.1504674e-38
0.040953144 0.11837718 0.026746511 1.1412468e-38
0.04218813 0.12056051 0.027423203 1.1875231e-38
0.036619447 0.054343455 0.023513556 9.8490851e-39
0.036196679 0.056623794 0.022914827 1.0588096e-38
0.038630918 0.11801084 0.026936293 1.2884704e-38
0.032860607 0.054534033 0.024463117 8.4646961e-39
0.032620244 0.057129141 0.023884356 9.3852357e-39
0.031950787 0.11193088 0.028871477 1.5099152e-38
0.030211128 0.05518987 0.025050461 8.0066102e-39
0.028745204 0.057734415 0.024896562 6.9020634e-39
0.02929531 0.11053612 0.028627217 1.4825104e-38
0.025314644 0.057881251 0.025514185 6.7166043e-39
0.02394446 0.10306621 0.028825343 1.3901364e-38
0.024302751 0.10677797 0.029025614 1.4455606e-38
0.025972106 0.10984293 0.029422939 1.5285734e-38
0.020984873 0.060558114 0.026299834 6.3485042e-39
0.02160193 0.10239363 0.030019879 1.4363434e-38
0.022616252 0.10578412 0.030318797 1.4455609e-38
0.018605217 0.10170259 0.030834675 1.3535484e-38
0.011987112 0.098931856 0.03095448 8.5636965e-39
0.0086492598 0.095535353 0.031383812 6.7147812e-39
0.0099691823 0.097578079 0.031777084 7.3658875e-39
0.0039812103 0.09145467 0.032033503 3.6795253e-39
0.0059809983 0.094169587 0.031996906 4.4145694e-39
0.0068018585 0.098239005 0.032981873 4.2330634e-39
0.0066555962 0.10093926 0.033210397 3.1295969e-39
0.0039471909 0.09349063 0.033213437 3.4032971e-39
0.002213642 0.098430328 0.033929646 2.024341e-39
0.0026740357 0.10090995 0.034018457 2.1179575e-39
0 0.098188929 0.034362435 1.6562787e-39
0.14258388 0.11828703 0.0098947883 1.7306874e-38
0.1432313 0.12234389 0.0097205043 1.721902e-38
0.14328516 0.12642112 0.010179996 1.7775791e-38
0.14300337 0.13015836 0.010682881 1.8421129e-38
0.14323336 0.13429698 0.010940611 1.9249804e-38
0.14272687 0.13795546 0.011312902 1.7682107e-38
0.13989857 0.11555453 0.010240257 1.8505402e-38
0.13979237 0.11822511 0.0095488429 1.7033503e-38
0.13980594 0.12228369 0.0097310543 1.4731495e-38
0.14050093 0.12635222 0.0098888874 1.2798307e-38
0.14006859 0.13059783 0.010545135 1.4735135e-38
0.13991058 0.13448259 0.010721028 1.6577589e-38
0.1400037 0.13858056 0.011458337 1.767924e-38
0.13962488 0.14221469 0.012086987 1.7772506e-38
0.13878274 0.14538646 0.012662292 1.7862559e-38
0.1359002 0.11552508 0.011051774 1.8138786e-38
0.13578363 0.11819066 0.010248423 1.694309e-38
0.13625352 0.12180604 0.010418773 1.6020398e-38
0.13679564 0.13535476 0.011305451 1.3452282e-38
0.13593136 0.1385088 0.011713386 1.5013129e-38
0.13597628 0.14258172 0.012117565 1.7128941e-38
0.13594235 0.14654182 0.013197482 1.6665472e-38
0.13323459 0.11550546 0.011592627 1.491877e-38
0.13180515 0.11816631 0.01116991 1.3995007e-38
0.13181055 0.12087035 0.011254072 1.3718412e-38
0.13197303 0.14322032 0.012865543 1.418549e-38
0.13204134 0.14663637 0.013444066 1.510243e-38
0.1321533 0.15008494 0.014357209 1.6206989e-38
0.12869942 0.11844644 0.012527406 1.0220757e-38
0.12784131 0.12220116 0.012273431 9.6693798e-39
0.12719169 0.12625423 0.01259011 1.0774598e-38
0.12722124 0.13031787 0.012883186 1.0865346e-38
0.12725079 0.13438149 0.013176203 1.0401872e-38
0.12728032 0.13844511 0.01346916 8.5572785e-39
0.12781021 0.14268175 0.013673067 9.114411e-39
0.1280186 0.14658716 0.014031649 1.2251215e-38
0.12814572 0.15072361 0.015105963 1.4366664e-38
0.12951237 0.15345642 0.01514262 1.5748522e-38
0.12528718 0.12222879 0.013704658 4.1376826e-39
0.12487579 0.126747 0.014120936 8.0091242e-39
0.12467996 0.13036254 0.014426768 9.4871101e-39
0.12537593 0.13443677 0.014584899 1.0219658e-38
0.12540552 0.13850611 0.014878392 9.4781334e-39
0.12452962 0.14300716 0.015217245 8.2820691e-39
0.12497329 0.1457088 0.015155077 9.9445149e-39
0.12548441 0.14935765 0.015660703 1.262213e-38
0.11837172 0.087590426 0.012563229 2.1912354e-38
0.11952564 0.091375917 0.012460947 2.053299e-38
0.11969624 0.095052227 0.012274384 1.9334448e-38
0.1195472 0.098732255 0.012705445 1.6756578e-38
0.11911371 0.1018319 0.013204396 1.5373975e-38
0.11849993 0.10522418 0.013834715 1.2892267e-38
0.11568148 0.084179692 0.012859762 2.2282193e-38
0.11581527 0.087060943 0.012533009 2.1726525e-38
0.11562279 0.090952799 0.012347043 2.0346803e-38
0.11581745 0.094848335 0.012593985 1.8597618e-38
0.11584946 0.099250607 0.012911379 1.5832459e-38
0.1155342 0.10275903 0.013379931 1.4270157e-38
0.11637042 0.10561541 0.01429683 1.3074147e-38
0.115859 0.10859567 0.014620125 1.3258156e-38
0.1120945 0.079632044 0.013255119 2.2470184e-38
0.11186954 0.082932852 0.012827635 2.2189291e-38
0.1120537 0.086562201 0.012863934 2.1911988e-38
0.11229546 0.090928309 0.013022244 2.0898168e-38
0.11298554 0.094319567 0.01313138 1.8781278e-38
0.11257966 0.09950871 0.01359576 1.5923952e-38
0.11188623 0.10328484 0.014014721 1.3994267e-38
0.11244835 0.10651727 0.014521837 1.2890095e-38
0.112509 0.10958003 0.01511848 1.2613505e-38
0.11189023 0.11263556 0.015725076 1.2056741e-38
0.10762555 0.075982153 0.013895988 2.2747159e-38
0.10892394 0.078709126 0.01326406 2.2836444e-38
0.10824359 0.082771651 0.013246596 2.2280043e-38
0.10893368 0.08616291 0.013355732 2.2096739e-38
0.10906664 0.10444924 0.014674246 1.5096302e-38
0.10841594 0.10647616 0.014955759 1.4359133e-38
0.10899081 0.11005381 0.015613556 1.353187e-38
0.10877078 0.11351039 0.016253829 1.316487e-38
0.10817786 0.15194297 0.01937288 1.7490723e-38
0.10819758 0.15465584 0.019568443 1.4456699e-38
0.10488427 0.074616224 0.013622522 2.2378344e-38
0.10532709 0.078235269 0.013506413 2.2748908e-38
0.10642448 0.10713873 0.015409768 1.4636435e-38
0.10564955 0.11038376 0.015806198 1.4360194e-38
0.10516396 0.11391103 0.016392052 1.4454528e-38
0.10442709 0.11771706 0.017208517 1.5190648e-38
0.10395757 0.12139355 0.017983794 1.6200487e-38
0.10400195 0.12749755 0.018423915 1.942772e-38
0.10402169 0.13021043 0.018619597 1.9974405e-38
0.10405127 0.13427977 0.018912971 1.9980514e-38
0.10408579 0.13902733 0.019255221 2.2279988e-38
0.10453069 0.1432983 0.019137859 2.301577e-38
0.10541102 0.14643964 0.018848896 2.2756466e-38
0.10544058 0.15050519 0.019142032 2.256629e-38
0.10549644 0.15392557 0.019723296 1.7492651e-38
0.10059634 0.071522199 0.014998257 2.1456761e-38
0.10085456 0.073235951 0.014048636 2.2009213e-38
0.10149014 0.11489061 0.016984344 1.4086123e-38
0.10119952 0.1179461 0.017495811 1.5372175e-38
0.1010859 0.12185529 0.018090606 1.7859983e-38
0.1011289 0.12626794 0.018534422 2.0622307e-38
0.10146289 0.13402231 0.01839757 2.1359155e-38
0.10264837 0.13690928 0.018368781 2.1271976e-38
0.10239873 0.15548487 0.020468533 1.3066926e-38
0.10155828 0.15799791 0.02116549 1.0677718e-38
0.095877118 0.066746145 0.015351415 1.8779455e-38
0.097052991 0.070105717 0.014884233 1.8505426e-38
0.097832561 0.11520229 0.017751575 1.3531521e-38
0.097983383 0.11764145 0.017900348 1.5556916e-38
0.098547265 0.12197991 0.018104792 2.0072691e-38
0.098576799 0.12604354 0.018397808 2.2096348e-38
0.098596498 0.12875265 0.018593132 2.2374359e-38
0.09284611 0.062997714 0.015607059 1.9794354e-38
0.092819788 0.066404432 0.015181124 1.9334788e-38
0.094170392 0.06912332 0.015106261 1.8603687e-38
0.088667296 0.062463485 0.01624769 1.9886913e-38
0.089152344 0.065361582 0.015850663 1.961536e-38
0.084671713 0.06243407 0.017058611 1.8131956e-38
0.084494114 0.065327287 0.016796112 1.7490168e-38
0.080184989 0.059503667 0.018267572 1.8412476e-38
0.080832057 0.062241804 0.017655432 1.8778393e-38
0.081722155 0.065419748 0.017367005 1.8228833e-38
0.077183738 0.059142478 0.018851817 2.0066602e-38
0.076819137 0.062223211 0.018129587 1.9881504e-38
0.072825715 0.058788992 0.01920104 2.0713086e-38
0.072821423 0.061516542 0.018891096 2.0530469e-38
0.068830147 0.058759578 0.020011961 1.9793285e-38
0.068828657 0.061487146 0.019701481 2.0253897e-38
0.064846508 0.05871845 0.021160662 2.0626986e-38
0.064840831 0.062135015 0.020560801 2.1822994e-38
0.060668945 0.058191083 0.021630943 1.9331927e-38
0.061173379 0.061092161 0.02123028 1.8320304e-38
0.05616514 0.0552577 0.022843301 1.6113713e-38
0.05699084 0.057844505 0.02184242 1.6575393e-38
0.052975986 0.053734697 0.022740722 1.4359126e-38
0.049471609 0.051139306 0.023902416 1.3349993e-38
0.049135961 0.052876707 0.023075342 1.3258165e-38
0.048704237 0.12977239 0.029332757 1.1045811e-38
0.046139635 0.051114772 0.024578691 1.1231323e-38
0.044807985 0.052506227 0.023928881 1.1967442e-38
0.044452555 0.12564504 0.029382825 1.1875906e-38
0.046701789 0.12843204 0.030153275 1.049262e-38
0.042141266 0.051085331 0.025390208 1.0036353e-38
0.04048495 0.052813012 0.024831176 1.1138389e-38
0.041320905 0.12191067 0.030001044 1.233654e-38
0.042679787 0.12533665 0.030488193 1.21525e-38
0.038804367 0.050382581 0.026017547 9.2991567e-39
0.038158298 0.053134501 0.025328338 1.021824e-38
0.034160592 0.052427832 0.026089847 8.4657751e-39
0.028856598 0.055097722 0.027365685 7.8196938e-39
0.030600078 0.11246273 0.031572819 1.5007329e-38
0.027525648 0.055087924 0.027635813 7.5413007e-39
0.027257979 0.11201243 0.032902002 1.4824412e-38
0.021225609 0.10380249 0.032502353 1.5281422e-38
0.021235459 0.10515703 0.032599986 1.4822944e-38
0.01988481 0.10243814 0.032674789 1.4180151e-38
0.015872337 0.099699654 0.03328979 1.1783019e-38
0.0098832026 0.099655554 0.034505367 6.0716006e-39
0.0098979771 0.10168738 0.034651875 4.3216633e-39
0.0052151084 0.098266721 0.035353184 2.7611745e-39
0.0031990111 0.095542938 0.035562992 2.5749882e-39
0.15551034 0.13500412 0.013610005 2.1089395e-38
0.1555302 0.13773601 0.013806999 2.1087956e-38
0.15555999 0.14183383 0.014102399 2.071918e-38
0.15137473 0.11994912 0.013343811 2.2289387e-38
0.15184528 0.1231396 0.013482809 2.1922383e-38
0.15209544 0.12678376 0.013700068 2.173263e-38
0.15212524 0.13088158 0.013995528 2.1087233e-38
0.15254182 0.134552 0.013596237 2.0628061e-38
0.15274456 0.13812093 0.013719976 2.0352177e-38
0.15304475 0.14198607 0.014625371 1.9707892e-38
0.15273651 0.14573994 0.014964283 1.9153994e-38
0.15192625 0.14966083 0.015417755 1.8784142e-38
0.14731359 0.11513867 0.013816237 2.1553281e-38
0.14821154 0.11872754 0.013313055 2.2012796e-38
0.14850739 0.12259042 0.01275748 2.274819e-38
0.1484682 0.12665406 0.012609661 2.1825898e-38
0.14853239 0.1307561 0.013125896 2.1180165e-38
0.14845955 0.13479887 0.01275599 1.9889431e-38
0.14852288 0.1389007 0.013272345 1.8323181e-38
0.14838406 0.14281563 0.013588607 1.8603347e-38
0.14894333 0.14620018 0.014893234 1.9155076e-38
0.14887528 0.14996026 0.015833259 1.9524219e-38
0.14876974 0.15390593 0.016372442 1.9427345e-38
0.14322761 0.10691337 0.014042556 2.0447262e-38
0.14361587 0.11056067 0.013004184 1.9982698e-38
0.14439663 0.1143709 0.012761772 1.8878881e-38
0.14492941 0.11841169 0.011813939 1.8970347e-38
0.14557785 0.12248219 0.01164037 2.0819293e-38
0.14560752 0.12656292 0.011934578 2.0727458e-38
0.14513448 0.13092503 0.012556553 2.0077772e-38
0.1453352 0.13506196 0.012615383 1.9614283e-38
0.14478603 0.13901433 0.013310373 1.7403742e-38
0.14448881 0.14293036 0.014048755 1.8141287e-38
0.14451355 0.14633414 0.014294147 1.9062887e-38
0.14458695 0.14976828 0.014872909 2.0258196e-38
0.14478219 0.15396267 0.016278684 2.0167081e-38
0.14444283 0.15765396 0.017187834 1.9520982e-38
0.14034951 0.10659949 0.014605224 1.8878492e-38
0.14028457 0.11023658 0.012839675 1.8969964e-38
0.14016747 0.11360124 0.012087941 1.8048734e-38
0.1412777 0.14375985 0.014081061 1.8047644e-38
0.14057809 0.14709844 0.014469147 1.8140579e-38
0.1404579 0.15034328 0.01490289 1.8693024e-38
0.14060149 0.15382513 0.015982509 1.9335894e-38
0.14067613 0.15789418 0.017801464 1.952314e-38
0.13959354 0.16083845 0.018749952 1.8786293e-38
0.13651201 0.106181 0.015355229 1.4639699e-38
0.13623932 0.11019863 0.013432682 1.6576143e-38
0.1361579 0.11357173 0.012901723 1.7863639e-38
0.13774663 0.14826775 0.015131414 1.731048e-38
0.13642493 0.1502983 0.015549779 1.6665124e-38
0.13652557 0.15375301 0.016351938 1.7588854e-38
0.13673756 0.15797429 0.017983556 1.8602258e-38
0.13690931 0.16081868 0.019294798 1.8233478e-38
0.13338703 0.10706857 0.016056538 1.2235756e-38
0.1327132 0.11039427 0.01497674 1.1691577e-38
0.1320335 0.11406617 0.01416117 1.3077011e-38
0.13245466 0.15368032 0.016720295 1.6666532e-38
0.13263041 0.1578756 0.018129945 1.7219339e-38
0.13279676 0.16071829 0.019442201 1.7218617e-38
0.12898633 0.08632049 0.015425444 2.2751804e-38
0.12852448 0.089956641 0.015446007 2.284362e-38
0.12856355 0.093685813 0.01543957 2.2470167e-38
0.12882154 0.098043613 0.015763521 2.0072695e-38
0.12904933 0.10174625 0.016138375 1.5464024e-38
0.12899613 0.10612566 0.016880751 1.3535467e-38
0.12966219 0.11005744 0.017034471 1.2057084e-38
0.12846854 0.11441573 0.015807569 1.022326e-38
0.12719932 0.11793742 0.015301943 9.1169501e-39
0.12816912 0.15445402 0.017535627 1.5470854e-38
0.12851617 0.15776668 0.018163502 1.731227e-38
0.12921086 0.16165397 0.019643903 1.7033852e-38
0.12470814 0.08241903 0.016009033 2.2935825e-38
0.12537347 0.086063929 0.015232325 2.2472343e-38
0.12532681 0.089699805 0.01524955 2.2473761e-38
0.12475434 0.093775384 0.014618337 2.1824105e-38
0.12480394 0.097863972 0.015079618 2.0442199e-38
0.12519166 0.10216212 0.015901744 1.5281422e-38
0.12577502 0.10610195 0.017534494 1.3350375e-38
0.12580483 0.11019978 0.017829895 1.325816e-38
0.12531215 0.11405113 0.017044365 1.1324205e-38
0.12491203 0.11828007 0.016218781 8.5648245e-39
0.12472807 0.12232868 0.015872061 3.8639474e-39
0.12466534 0.12595533 0.016151667 6.9953646e-39
0.12464654 0.13458686 0.017046452 9.6672274e-39
0.12431213 0.13864765 0.017157435 9.4817123e-39
0.12433191 0.14136814 0.017353594 8.7405165e-39
0.12482359 0.1477192 0.017720878 1.0131811e-38
0.12484337 0.15043969 0.017917037 1.2893685e-38
0.12508918 0.15361524 0.018100679 1.3997524e-38
0.12515914 0.15773068 0.018730402 1.6205546e-38
0.12566206 0.16217557 0.020514131 1.6391008e-38
0.12553103 0.1648325 0.021905601 1.6208058e-38
0.12018308 0.075328723 0.016408145 2.2755382e-38
0.12110597 0.079205483 0.016505539 2.2745696e-38
0.12128793 0.082461543 0.015831113 2.3027298e-38
0.12152877 0.086447164 0.015185118 2.2375477e-38
0.12161965 0.090001747 0.014125943 2.1361675e-38
0.12264924 0.093749799 0.014192164 2.0991102e-38
0.12267891 0.097830519 0.014486432 2.0343552e-38
0.12180542 0.10210952 0.015417635 1.5466163e-38
0.12154348 0.10601887 0.016570508 1.3076292e-38
0.12157319 0.11010656 0.016865253 1.2800033e-38
0.12160292 0.11419384 0.017159939 1.0036362e-38
0.12160651 0.11827147 0.017231882 7.0879148e-39
0.12166153 0.12237005 0.017749608 3.9597135e-39
0.12175458 0.12648965 0.018602252 4.3285269e-39
0.12215861 0.13038513 0.018741727 5.9858888e-39
0.12261916 0.13440587 0.019031584 8.2893208e-39
0.12183333 0.13848242 0.019389153 9.2073072e-39
0.12157226 0.14258805 0.018644452 9.5706779e-39
0.12174482 0.14643779 0.018691719 8.6501986e-39
0.12174847 0.14970218 0.018748403 9.6679491e-39
0.12174787 0.15359065 0.018778741 1.2066109e-38
0.12181628 0.15770605 0.019408822 1.4641115e-38
0.12200091 0.16193326 0.0210464 1.4824067e-38
0.12217572 0.1648078 0.022586584 1.5470149e-38
0.11702 0.070980176 0.016731799 2.2849056e-38
0.11749386 0.074625999 0.016903639 2.2935125e-38
0.11732893 0.078737587 0.015420794 2.3113412e-38
0.11744522 0.082658075 0.014946699 2.3021564e-38
0.11858032 0.085558817 0.014417529 2.2099257e-38
0.1180703 0.10731778 0.016122401 1.3166686e-38
0.11759013 0.11020461 0.016432524 1.3258137e-38
0.11748885 0.11412788 0.01708293 1.132493e-38
0.11755483 0.11822663 0.017712116 8.1920679e-39
0.11774353 0.12238827 0.019457877 6.2606134e-39
0.11875938 0.12562776 0.020398855 5.2493663e-39
0.11930276 0.13883513 0.021260142 8.7470297e-39
0.11779436 0.14955059 0.020081878 9.8501655e-39
0.11773831 0.15356112 0.019592583 1.0682101e-38
0.11778027 0.15765339 0.019998908 1.3075945e-38
0.11818589 0.16177028 0.022151828 1.3903545e-38
0.11949643 0.16547103 0.023180604 1.5193943e-38
0.11321899 0.066789545 0.017197013 2.2750739e-38
0.11343768 0.070498511 0.017425358 2.2654219e-38
0.11325925 0.074623793 0.015718937 2.2281496e-38
0.11366202 0.078264803 0.015222847 2.2929011e-38
0.11454604 0.082128689 0.014986157 2.2286157e-38
0.11475372 0.11069378 0.017045736 1.2891157e-38
0.11362354 0.11426122 0.017666101 1.1694413e-38
0.11354131 0.1181973 0.018526733 9.6671896e-39
0.11369928 0.12234696 0.020050347 7.5488229e-39
0.11383495 0.1251362 0.021364808 6.2606022e-39
0.11396406 0.14289343 0.022645175 1.2520903e-38
0.11391401 0.14556736 0.022169948 1.4643915e-38
0.11376899 0.14951074 0.020784438 1.3347802e-38
0.11372874 0.1535316 0.020406365 1.1231638e-38
0.11379339 0.15764698 0.021037042 1.2155423e-38
0.11420202 0.16153696 0.023091674 1.3168138e-38
0.10936168 0.063639164 0.017750204 2.2192884e-38
0.1093386 0.066381812 0.017501891 2.2560591e-38
0.10928083 0.070493989 0.016906738 2.1730105e-38
0.10937341 0.074430123 0.016111851 2.1915946e-38
0.11032996 0.11496843 0.018260479 1.1690838e-38
0.10949544 0.11815185 0.019005716 1.1691189e-38
0.10963553 0.12229306 0.020418704 1.1412023e-38
0.10930306 0.12597558 0.021666825 1.1874425e-38
0.10850123 0.12987746 0.022799194 1.4825061e-38
0.10955597 0.14316124 0.023050427 1.925086e-38
0.10978515 0.14612201 0.021891415 2.0259581e-38
0.10991216 0.14983705 0.021203637 1.7951089e-38
0.11010101 0.15350489 0.021142602 1.3810912e-38
0.10978197 0.15761745 0.021851301 1.2245434e-38
0.11007178 0.16130403 0.024791956 1.0590253e-38
0.10513645 0.062632427 0.018535912 2.2464803e-38
0.10516947 0.066391811 0.016759455 2.2099969e-38
0.10514776 0.070488445 0.016496897 2.1914859e-38
0.10646259 0.073228076 0.015976191 2.2193939e-38
0.10645732 0.11845368 0.019304991 1.5376469e-38
0.10591932 0.12241475 0.020290673 1.6479584e-38
0.10576057 0.12615046 0.020908535 1.7769968e-38
0.10639949 0.13048151 0.022248209 1.8595769e-38
0.10504068 0.13418743 0.022285819 1.9703553e-38
0.10551468 0.13783969 0.022969604 2.0622977e-38
0.10630647 0.14190762 0.022230923 2.1451312e-38
0.10584366 0.15766859 0.023452282 1.1779419e-38
0.10738255 0.16060129 0.025287449 1.0036363e-38
0.10124167 0.062233716 0.018617034 2.191378e-38
0.10113532 0.066367649 0.01735127 2.0808509e-38
0.10135808 0.069654047 0.016752005 2.1363839e-38
0.10281895 0.12352753 0.020418763 1.7771037e-38
0.10282885 0.12488776 0.020516872 1.8781637e-38
0.10334129 0.15852271 0.025956929 1.0582275e-38
0.097252741 0.0594524 0.019906282 2.0993616e-38
0.097091667 0.062252935 0.01787138 2.0993964e-38
0.097874112 0.066086389 0.017403126 1.9147534e-38
0.091854453 0.05531504 0.020700455 2.246945e-38
0.092993625 0.05825245 0.01991725 2.0530843e-38
0.093034305 0.060876507 0.01814121 1.9424509e-38
0.088832185 0.054951325 0.021288693 2.0809596e-38
0.089072794 0.058086541 0.019765198 2.016242e-38
0.090335295 0.060867798 0.018348634 1.9701441e-38
0.085408285 0.054721236 0.021968484 2.0714878e-38
0.085041359 0.058065567 0.020356715 1.8961359e-38
0.086325713 0.060838275 0.019162416 1.8967465e-38
0.08178851 0.055240929 0.022743344 2.1359131e-38
0.081216082 0.057647727 0.02113682 1.9055334e-38
0.078428246 0.054533258 0.023375154 2.0808129e-38
0.076998875 0.057330944 0.021825552 2.0433234e-38
0.073389664 0.054641217 0.023239076 2.0438656e-38
0.073662281 0.056615539 0.022707701 2.0621239e-38
0.069641039 0.053843066 0.023705721 1.9517061e-38
0.068921223 0.05662962 0.022394538 1.951526e-38
0.066324286 0.051029466 0.025580466 1.7212829e-38
0.066103712 0.053669207 0.023901045 1.776715e-38
0.065579906 0.056605019 0.02307272 1.9706476e-38
0.062297918 0.05099982 0.026397645 1.8043699e-38
0.06224468 0.053826265 0.024342775 1.9426994e-38
0.062906854 0.056585342 0.023615241 2.0164944e-38
0.058072712 0.04999309 0.027183414 1.7403044e-38
0.058389019 0.053639509 0.024829507 1.841285e-38
0.054206848 0.049637605 0.026579738 1.5007715e-38
0.055543087 0.053108253 0.025369525 1.6289851e-38
0.05036724 0.049246002 0.026796401 1.3165608e-38
0.049432147 0.13333572 0.032004714 1.3442918e-38
0.046151184 0.048955746 0.026975274 1.0583431e-38
0.046753719 0.13024855 0.034027934 1.1138026e-38
0.047444455 0.1334233 0.033950448 1.3532589e-38
0.042136244 0.046753764 0.030188143 1.1414243e-38
0.042138822 0.048926197 0.027789593 9.1951117e-39
0.042037606 0.12656698 0.034546256 1.2059593e-38
0.043391794 0.12862289 0.034421921 1.1139455e-38
0.040000282 0.12246577 0.034659028 1.2150683e-38
0.03055995 0.11423843 0.036486328 1.5007706e-38
0.02831021 0.11403484 0.037952363 1.4915869e-38
0.014400378 0.10023773 0.038062513 1.0957917e-38
0.012335703 0.10116911 0.0402565 8.6555319e-39
0.038804367 0.050382581 0.026017547 9.2991567e-39
0.015872337 0.099699654 0.03328979 1.1783019e-38
0.10284941 0.1236327 0.024321079 1.4640015e-38
0.11478142 0.12887152 0.019620299 1.4269802e-38
0.12496721 0.13880649 0.02019763 1.7218983e-38
0.15587819 0.14659324 0.017990589 2.025675e-38
0.15601094 0.11468218 0.016105354 2.2664621e-38
0.15657276 0.11770796 0.016213655 2.2660325e-38
0.15735611 0.1215423 0.015995383 2.2839682e-38
0.15709546 0.12587816 0.015378416 2.2286509e-38
0.15735331 0.12986308 0.015158713 2.1824087e-38
0.15721533 0.13356431 0.014435947 2.1271275e-38
0.15781973 0.13787436 0.015056491 2.1270913e-38
