# .PCD v0.7 - Point Cloud Data file format
VERSION 0.7
FIELDS x y z rgb
SIZE 4 4 4 4
TYPE F F F F
COUNT 1 1 1 1
WIDTH 973
HEIGHT 1
VIEWPOINT 0 0 0 0 1 0 0
POINTS 973
DATA ascii
0.089754432 0.078030579 0.012011051 1.0765312e-38
0.08831276 0.081691764 0.01143229 3.4004777e-39
0.087652527 0.084109269 0.010584295 6.8952937e-39
0.086509436 0.082693838 0.013069093 8.4611256e-39
0.085176408 0.08643847 0.011343002 1.215039e-38
0.081437081 0.087785311 0.012586057 1.2521695e-38
0.081379816 0.090674929 0.010932863 1.2981256e-38
0.081540801 0.094295718 0.010327756 1.4732937e-38
0.081403099 0.097056426 0.010236979 1.4825462e-38
0.076398671 0.083592542 0.014454305 1.3626221e-38
0.077376842 0.087175392 0.013545394 1.2337277e-38
0.07782311 0.090644442 0.012526453 1.2707521e-38
0.073870972 0.083659999 0.01482892 1.344039e-38
0.073854446 0.086712174 0.013853788 1.1968106e-38
0.07412374 0.090445749 0.013568521 1.188065e-38
0.068815589 0.079392336 0.016370773 1.3164157e-38
0.06965816 0.082933821 0.015604258 1.2242577e-38
0.070079423 0.086905845 0.014824629 1.1416039e-38
0.066287905 0.079459779 0.016745389 1.2796101e-38
0.066282026 0.08255627 0.015960455 1.2334406e-38
0.066287905 0.086835481 0.015417457 1.1784462e-38
0.065024048 0.090185396 0.015007675 1.2154333e-38
0.063128285 0.076399408 0.017779827 1.1781586e-38
0.06249363 0.078908421 0.017311037 1.316524e-38
0.062490895 0.082657419 0.016522288 1.2796461e-38
0.062611252 0.086933576 0.015962362 1.1784113e-38
0.063128285 0.090235986 0.015288651 1.2338042e-38
0.059968665 0.079628401 0.017681897 1.0775377e-38
0.059968665 0.082773067 0.017115712 9.0146035e-39
0.04859405 0.087479122 0.018008828 9.3866552e-39
0.10894731 0.083489023 0.01308912 2.2771243e-38
0.10961489 0.085536234 0.011205614 2.3140386e-38
0.11033631 0.090597861 0.010569215 2.341769e-38
0.10944536 0.093240865 0.0097159743 2.3416165e-38
0.10645679 0.082313724 0.011798084 2.3132482e-38
0.097512424 0.078103714 0.015808284 2.3387456e-38
0.094256632 0.077314802 0.015249729 2.2282194e-38
0.089265428 0.075196765 0.017764807 1.9332256e-38
0.086714178 0.075862966 0.017863929 1.5456817e-38
0.086255364 0.078508995 0.01576972 8.360291e-39
0.08567524 0.082205586 0.015339673 8.0919759e-39
0.085302211 0.084833287 0.013896167 1.1132579e-38
0.082917124 0.079184256 0.018132448 1.2875685e-38
0.082905807 0.082931064 0.017231226 1.3163443e-38
0.081896313 0.085590027 0.0148682 1.2796829e-38
0.078216314 0.079567306 0.018805623 1.7029543e-38
0.078582279 0.082693391 0.016804099 1.4271586e-38
0.07855165 0.085433342 0.014821053 1.2886875e-38
0.077074967 0.092611291 0.013754606 1.3076294e-38
0.07777486 0.094834752 0.014788568 1.3997908e-38
0.073775351 0.076438405 0.020253897 1.8686549e-38
0.073977366 0.079187445 0.018357933 1.5924291e-38
0.073910631 0.08198788 0.016151428 1.4176163e-38
0.0736131 0.092504583 0.014817357 1.206647e-38
0.074178405 0.095697798 0.016467929 1.2895149e-38
0.068944104 0.068848573 0.02235955 1.7030291e-38
0.069253907 0.072269641 0.021439314 1.6569649e-38
0.070186101 0.075591527 0.020042181 1.5465835e-38
0.070495062 0.078869231 0.017822683 1.4912638e-38
0.070957281 0.081856735 0.016627014 1.3255639e-38
0.070136122 0.091691129 0.015667021 9.9459723e-39
0.070200369 0.095916487 0.016837299 1.0865427e-38
0.070033863 0.099459521 0.016681671 1.4550349e-38
0.065765657 0.06513726 0.023514092 1.481797e-38
0.066221617 0.068300582 0.022104144 1.4637877e-38
0.066354908 0.071747236 0.020521343 1.4360546e-38
0.06632299 0.075306974 0.018743575 1.3071965e-38
0.066316262 0.077781431 0.018070817 1.2705355e-38
0.066469923 0.091597505 0.016016483 1.1049411e-38
0.066379488 0.095939748 0.017075241 1.1967436e-38
0.066574849 0.099483199 0.016912937 1.5285046e-38
0.062587202 0.06205865 0.02455467 1.5007709e-38
0.062428288 0.064751811 0.024094164 1.3254238e-38
0.062569745 0.068234511 0.022646189 1.2979079e-38
0.06253884 0.071759827 0.020646214 1.344004e-38
0.062338263 0.075008132 0.019178748 1.306979e-38
0.06220264 0.091748364 0.016185462 1.1318496e-38
0.062554806 0.09588524 0.016985178 1.0950408e-38
0.062755577 0.099516772 0.017197788 1.0675958e-38
0.059408762 0.061510779 0.02513963 1.3992489e-38
0.059136324 0.064862244 0.024577975 1.2979785e-38
0.05876527 0.068400554 0.023540974 1.2703924e-38
0.058751792 0.072039329 0.022088706 1.3073428e-38
0.058729038 0.07555484 0.020089209 1.2056741e-38
0.058360234 0.079073481 0.019055486 9.3762492e-39
0.058563657 0.083027236 0.018312454 8.0855286e-39
0.058721878 0.086802267 0.017608583 8.54399e-39
0.058724411 0.091249935 0.016978741 8.2721017e-39
0.058757685 0.096116744 0.018095315 1.0118489e-38
0.059086174 0.099104322 0.018163681 1.1871956e-38
0.055276759 0.069529586 0.024328172 9.5652801e-39
0.054949835 0.072229572 0.023092806 9.5602537e-39
0.05494751 0.075976126 0.022190332 1.0577292e-38
0.054941602 0.079672553 0.021069109 1.3804505e-38
0.054938652 0.083412893 0.020167828 1.5828136e-38
0.054936104 0.087149866 0.019266963 1.4533787e-38
0.054937348 0.09158013 0.018526196 1.2791435e-38
0.054952584 0.096297182 0.018987656 1.3253493e-38
0.051144786 0.073119618 0.024314106 1.4454907e-38
0.051139012 0.076077752 0.022754788 1.5927154e-38
0.051139012 0.079868235 0.022072315 1.5464749e-38
0.050501004 0.083458431 0.020496011 1.3255293e-38
0.050874352 0.086885683 0.018794298 1.0947536e-38
0.050622463 0.091363288 0.018300653 8.5583673e-39
0.051142879 0.096312217 0.019881845 8.7413194e-39
0.048602022 0.073820136 0.024576962 1.6392444e-38
0.047330387 0.07629288 0.023869634 1.5095971e-38
0.046868891 0.080097027 0.022684395 1.3808814e-38
0.046063393 0.083503984 0.020824313 1.1780875e-38
0.046064571 0.087139986 0.019484401 9.5699507e-39
0.046380311 0.091714121 0.019383252 8.4693512e-39
0.048093468 0.096357279 0.02059716 8.0988003e-39
0.048602022 0.099127524 0.020020604 8.9228072e-39
0.043879762 0.07665766 0.024788678 1.4452032e-38
0.042885229 0.080166914 0.023666799 1.3441109e-38
0.042256646 0.083750419 0.022047341 1.2337263e-38
0.042259529 0.08743953 0.020926058 1.0033106e-38
0.042412609 0.091415994 0.021071494 8.7441837e-39
0.039702363 0.081017129 0.024642885 1.3166684e-38
0.03906852 0.084161036 0.024002552 1.2154662e-38
0.039070413 0.087919749 0.023154378 1.0216424e-38
0.039193802 0.091786347 0.022781789 8.7445256e-39
0.033345461 0.088146292 0.024331987 1.2063191e-38
0.034871124 0.093926273 0.023057938 8.555824e-39
0.035252526 0.09568762 0.022682488 7.5481712e-39
0.030439451 0.084246956 0.025478721 1.5375393e-38
0.030808538 0.088164367 0.024488628 1.3900993e-38
0.030687131 0.092703544 0.02391839 9.939836e-39
0.030802697 0.095806353 0.023341954 9.4831472e-39
0.026140966 0.0815899 0.026614845 1.481973e-38
0.027002119 0.084422506 0.025516331 1.3717689e-38
0.027018592 0.088092797 0.024282157 1.2610625e-38
0.027011238 0.09257298 0.023733556 1.01235e-38
0.02673427 0.096421055 0.023853779 9.9430352e-39
0.022920132 0.081591465 0.027107298 1.1691177e-38
0.023198217 0.084475867 0.025860429 1.1140508e-38
0.023210108 0.088194422 0.024846554 1.021677e-38
0.023210071 0.09261664 0.024050295 9.5746282e-39
0.023178376 0.097249202 0.024134576 9.3920404e-39
0.023174405 0.099806018 0.023789108 1.0038853e-38
0.019678138 0.081867777 0.027553558 9.755079e-39
0.019383028 0.084601738 0.02653563 9.0164196e-39
0.019410372 0.088245995 0.025190353 8.3746725e-39
0.019387506 0.092795558 0.024945557 8.0080466e-39
0.019784078 0.096943952 0.024823129 7.9147705e-39
0.020207867 0.10030695 0.024152815 8.7452655e-39
0.015800379 0.08557754 0.027478993 6.9899178e-39
0.015561171 0.088546716 0.026638508 6.5307613e-39
0.015875258 0.091403 0.026161849 6.2559877e-39
0.11820199 0.087843455 0.016540587 2.3048906e-38
0.11809526 0.090502016 0.016078293 2.3411877e-38
0.11777506 0.093378745 0.015609324 1.4343615e-38
0.11393266 0.080733828 0.018473864 2.2836443e-38
0.11515877 0.083129786 0.017283976 2.2846539e-38
0.11503706 0.086682253 0.015407205 2.2584698e-38
0.11503684 0.090497725 0.014720201 2.3415849e-38
0.11477856 0.093550079 0.014187396 1.7488615e-38
0.11105087 0.080492042 0.01895833 2.2835727e-38
0.11102112 0.08273723 0.016275227 2.2756154e-38
0.1122672 0.08626277 0.013623178 2.286344e-38
0.1122672 0.090064503 0.012938678 2.3417662e-38
0.1122672 0.093232609 0.012368321 2.3398822e-38
0.10712556 0.080277883 0.019157052 2.2742088e-38
0.10671337 0.08177159 0.017336488 2.3119157e-38
0.10300629 0.078689985 0.019999921 2.2463703e-38
0.098437987 0.076977544 0.019808412 2.2648803e-38
0.099110141 0.078165539 0.017094076 2.3017227e-38
0.094456606 0.076003842 0.020764053 2.3110168e-38
0.08956638 0.072997309 0.023081183 2.2834653e-38
0.091569059 0.075730495 0.021563411 2.2003081e-38
0.086803347 0.072726123 0.02318579 2.0710938e-38
0.086801931 0.074269809 0.019678712 1.8777685e-38
0.081912719 0.070115529 0.025284827 2.0533339e-38
0.083111517 0.072321363 0.02310586 1.9975822e-38
0.08299347 0.075683914 0.02023524 1.5538589e-38
0.07807032 0.056833252 0.028264105 1.8505378e-38
0.07871072 0.06000302 0.02759546 1.8136946e-38
0.078924187 0.065521203 0.026569247 1.9978744e-38
0.078985177 0.069100998 0.025915444 2.1915546e-38
0.079277501 0.072423883 0.023674011 2.2375829e-38
0.079225272 0.076011874 0.021894395 2.0531122e-38
0.079798982 0.078258388 0.020032108 1.8322352e-38
0.078525715 0.097301029 0.016798496 1.5560915e-38
0.079283156 0.10000765 0.01882112 1.7038178e-38
0.075874664 0.056436568 0.028671503 1.8322426e-38
0.075508721 0.060725823 0.027955174 1.887346e-38
0.07549046 0.065103464 0.026713073 2.1637534e-38
0.075467169 0.068818577 0.025476933 2.1913043e-38
0.075163245 0.072531499 0.023622036 2.1360624e-38
0.075366832 0.075415395 0.02180934 1.997981e-38
0.074705921 0.097402953 0.017364562 1.3904996e-38
0.074740864 0.10013833 0.017723024 1.6484666e-38
0.074954748 0.10406651 0.017995059 1.8602643e-38
0.071025938 0.053834356 0.029881895 1.8504335e-38
0.071666323 0.056366749 0.029327869 1.9055707e-38
0.071399778 0.061035149 0.028219938 2.0904634e-38
0.07162708 0.065081067 0.026623249 2.0531918e-38
0.071329683 0.068549238 0.024822772 1.9702876e-38
0.071554601 0.071950294 0.023310065 1.9239387e-38
0.070886128 0.10130661 0.017246187 1.519718e-38
0.070935026 0.10418107 0.018134117 1.5381198e-38
0.071666338 0.10735645 0.020147681 1.6304259e-38
0.069104739 0.053885616 0.030166566 1.8779862e-38
0.067823939 0.056469269 0.029897332 1.9889777e-38
0.067271419 0.060816355 0.027760744 1.8136637e-38
0.067749269 0.064605318 0.025875151 1.7121774e-38
0.067702971 0.067175947 0.023878157 1.5645207e-38
0.065793082 0.10144251 0.01800102 1.6024739e-38
0.067107923 0.10428875 0.018725932 1.5472279e-38
0.067823939 0.10745899 0.020717144 1.5193167e-38
0.063981548 0.05402232 0.03092587 1.9060372e-38
0.063497044 0.056556039 0.029703021 1.8507907e-38
0.062844202 0.06018351 0.026822448 1.6294846e-38
0.063883178 0.063476138 0.025128722 1.4726487e-38
0.061973289 0.10154442 0.018567085 8.4604558e-39
0.062906578 0.10462701 0.019718885 1.2794001e-38
0.063981548 0.10756151 0.021286607 1.5102431e-38
0.059066445 0.053671315 0.031398535 1.8136234e-38
0.059092529 0.056346148 0.029919744 1.7493755e-38
0.058665827 0.060229637 0.026717067 1.4544936e-38
0.057516858 0.064279623 0.02595818 1.2889372e-38
0.058548369 0.10132325 0.019953012 1.4633896e-38
0.058989786 0.10458665 0.020916224 1.24122e-38
0.060779557 0.10764693 0.021761179 1.1685499e-38
0.054821864 0.053185314 0.03145057 1.7581642e-38
0.05499462 0.056480005 0.029917538 1.6200885e-38
0.0549808 0.060726628 0.028013468 1.3716948e-38
0.054970331 0.0649812 0.026221514 1.095328e-38
0.054715678 0.068029381 0.025711656 9.2901478e-39
0.054982588 0.1007328 0.020924568 1.5922132e-38
0.055005826 0.10440984 0.022371054 1.8873105e-38
0.051329337 0.053116433 0.0322541 1.785859e-38
0.05116526 0.056679845 0.031038284 1.4635353e-38
0.051165275 0.061132714 0.030236661 1.2334756e-38
0.05116526 0.065585546 0.02943486 1.1044729e-38
0.051163122 0.069314994 0.02830714 1.2607763e-38
0.051150545 0.071419336 0.025646806 1.3623686e-38
0.051150545 0.098031469 0.020855546 8.6498385e-39
0.051155649 0.10078134 0.021273017 1.0680303e-38
0.051168777 0.10451222 0.022939801 1.4916571e-38
0.047331125 0.053743377 0.033010006 1.7949686e-38
0.04733105 0.056840636 0.031938493 1.4727147e-38
0.047330901 0.061311074 0.031219244 1.2792515e-38
0.047330663 0.065792404 0.030555189 1.3258171e-38
0.04733102 0.069503956 0.029316068 1.5927524e-38
0.047171667 0.072782792 0.026780725 1.6205543e-38
0.046375804 0.097208433 0.021734297 9.3924033e-39
0.047171041 0.10119399 0.02243638 1.0592405e-38
0.04733108 0.10511263 0.023504376 1.4366651e-38
0.044342645 0.05412142 0.033912897 1.620085e-38
0.043855242 0.057083756 0.033307314 1.4085016e-38
0.043488771 0.061580196 0.032700598 1.417758e-38
0.043490618 0.065978266 0.031566024 1.5652001e-38
0.043498009 0.069541521 0.029553294 1.6940258e-38
0.043507271 0.073022492 0.027212679 1.5189962e-38
0.042237699 0.076092504 0.026169181 1.4544577e-38
0.043634586 0.096091859 0.022971272 8.653402e-39
0.043381587 0.10088133 0.023959756 1.0957947e-38
0.043490939 0.10479868 0.024405539 1.3721662e-38
0.039788701 0.062174655 0.033159673 1.5375073e-38
0.039653853 0.066017784 0.03180337 1.6108683e-38
0.039665028 0.069643788 0.030121386 1.4821901e-38
0.03967084 0.07334768 0.028882742 1.4730068e-38
0.03967499 0.077068441 0.027755678 1.5188867e-38
0.039366312 0.079758652 0.026462257 1.4083973e-38
0.038842328 0.092868499 0.023668289 8.4661381e-39
0.039573736 0.096309505 0.023123741 8.8388904e-39
0.039949238 0.10100404 0.024431765 1.1695464e-38
0.03990256 0.10463471 0.025497794 1.4825844e-38
0.035807118 0.063029103 0.033443868 1.4914453e-38
0.035815217 0.0661202 0.032372296 1.5283245e-38
0.035827912 0.069789521 0.030910552 1.5834618e-38
0.03583768 0.073494785 0.029671133 1.7496976e-38
0.03583768 0.077307768 0.028984666 1.7311505e-38
0.035396107 0.080978103 0.027083695 1.7033142e-38
0.035234742 0.084516458 0.025723994 1.473035e-38
0.035408378 0.088313572 0.025013864 1.1412797e-38
0.035234734 0.091866486 0.024400711 9.4773977e-39
0.035305478 0.097327821 0.023406625 8.5623078e-39
0.035653107 0.1005879 0.024968326 1.0956132e-38
0.035804003 0.10321439 0.026380599 1.547448e-38
0.031984091 0.066160209 0.032608747 1.4178702e-38
0.031984091 0.069978811 0.031921208 1.6665453e-38
0.032001384 0.073641144 0.030460119 1.7683191e-38
0.032006584 0.07740999 0.02955246 1.8876705e-38
0.031187743 0.080962159 0.027668118 1.7489458e-38
0.032051586 0.085235007 0.026081681 1.5924932e-38
0.032051586 0.092204861 0.024826825 1.0123499e-38
0.03077019 0.097597711 0.024394512 9.3001909e-39
0.031496339 0.10106482 0.025371671 1.1234164e-38
0.031969421 0.1047223 0.026353359 1.5473401e-38
0.02812358 0.063234128 0.034582615 1.2796466e-38
0.02812504 0.066410042 0.033953428 1.3350734e-38
0.028140873 0.070124097 0.032711506 1.5561268e-38
0.027529947 0.073765941 0.031150341 1.5838221e-38
0.027557313 0.077390812 0.029551625 1.6940946e-38
0.027678601 0.080433019 0.02790904 1.537326e-38
0.027276844 0.098351665 0.024450719 9.7579433e-39
0.027401745 0.10149083 0.024613738 1.1414614e-38
0.027533084 0.10553312 0.025344908 1.4366665e-38
0.026869707 0.10830133 0.025804281 1.6392772e-38
0.025557622 0.063970767 0.035013855 1.1691205e-38
0.024459779 0.066913746 0.034651935 1.2151829e-38
0.024299331 0.070247971 0.033391178 1.2977993e-38
0.023067378 0.073835529 0.031563759 1.2887577e-38
0.023099519 0.077463798 0.029992282 1.3900648e-38
0.02345705 0.08007855 0.028325081 1.3165621e-38
0.023138717 0.101947 0.024436593 1.0680945e-38
0.02309116 0.10544654 0.025183797 1.1601493e-38
0.023827225 0.10869094 0.025377572 1.3901012e-38
0.020434424 0.067294322 0.035199344 1.030864e-38
0.020001456 0.070449211 0.033856869 1.113767e-38
0.019231476 0.07395988 0.032242417 1.0862159e-38
0.019282617 0.077519991 0.030337751 1.1876283e-38
0.019064292 0.080385841 0.02894187 1.0402953e-38
0.018470094 0.098481052 0.025774896 7.6392683e-39
0.018894523 0.10184904 0.025103569 8.5612049e-39
0.019254215 0.10560333 0.025971055 9.6671868e-39
0.019455403 0.10974754 0.026575446 1.0772113e-38
0.019190565 0.11362613 0.026134551 1.0312928e-38
0.018555507 0.11616037 0.025661349 9.3942082e-39
0.017872825 0.068000041 0.035464227 9.6600443e-39
0.017018959 0.070572309 0.035131752 9.6664805e-39
0.015974179 0.074324511 0.034102321 9.8483606e-39
0.015546732 0.078085087 0.032334626 9.3902481e-39
0.015440673 0.081499793 0.030551612 7.7275206e-39
0.015156411 0.084209181 0.029365242 6.9935191e-39
0.015244499 0.093413658 0.027180791 5.9801169e-39
0.015555061 0.097051091 0.028019667 6.165936e-39
0.015267052 0.10165273 0.028216064 7.0864378e-39
0.015982009 0.10612864 0.028203845 8.0069788e-39
0.015982009 0.10994849 0.027516127 8.8428365e-39
0.015379496 0.11358433 0.026154399 9.5800666e-39
0.016637117 0.11621156 0.025945663 1.0224403e-38
0.011485748 0.079574041 0.034015238 6.1612725e-39
0.011526689 0.0819562 0.032780826 6.1619788e-39
0.011574082 0.085581146 0.031207621 5.7031418e-39
0.011619627 0.089194886 0.029636681 5.3332859e-39
0.011585362 0.093156569 0.029613614 4.9666754e-39
0.011532947 0.097203247 0.029920578 5.2436168e-39
0.011521474 0.10171007 0.029339254 6.2595498e-39
0.012221098 0.10577675 0.028728366 7.0886098e-39
0.01317656 0.10934203 0.028739512 7.9194579e-39
0.0083241761 0.079520203 0.03382355 5.154661e-39
0.0078302398 0.082290508 0.033657193 6.990994e-39
0.0076847002 0.085901596 0.032772422 8.1884441e-39
0.0076972395 0.089670263 0.031863689 9.2026115e-39
0.0076776221 0.093564741 0.031508088 9.0182356e-39
0.0076583922 0.097462319 0.031151831 6.0740767e-39
0.0079173148 0.10152362 0.030837655 6.6315707e-39
0.0089636445 0.10496049 0.02914542 7.364475e-39
0.0048265681 0.082581975 0.031752467 1.445486e-38
0.0045504272 0.085768573 0.032248557 1.4362658e-38
0.00448744 0.089805506 0.032558858 1.3993184e-38
0.003790915 0.093845509 0.032851398 1.2062838e-38
0.0041948259 0.097334884 0.031541586 5.2418414e-39
0.0050958619 0.10072824 0.031012952 5.8054296e-39
0.11808617 0.081261806 0.020825863 2.2933696e-38
0.11933806 0.083716922 0.019849837 2.2750383e-38
0.11973105 0.087045081 0.018848062 2.3042791e-38
0.12008076 0.091570847 0.018048167 2.238474e-38
0.11546331 0.080158673 0.020912111 2.2561663e-38
0.11165393 0.077592336 0.022470713 2.3109453e-38
0.11185465 0.079253234 0.021524489 2.3016891e-38
0.10753728 0.077190034 0.023173034 2.2648468e-38
0.10773611 0.07883779 0.022160947 2.2648831e-38
0.1039145 0.077426933 0.023427844 2.246334e-38
0.10513683 0.078837417 0.022216201 2.2558062e-38
0.09943267 0.074077331 0.024973512 2.2093488e-38
0.09968704 0.076389678 0.024224758 2.2003427e-38
0.095145509 0.073814638 0.025060296 2.2833922e-38
0.096823923 0.075325526 0.024634123 2.2466571e-38
0.089784302 0.069853492 0.027210236 1.9060389e-38
0.09128917 0.073149703 0.025770009 2.2928288e-38
0.085924953 0.053951889 0.030663669 1.9700033e-38
0.086439542 0.056498893 0.030126393 1.8228476e-38
0.08678259 0.061042152 0.029255927 1.7122839e-38
0.086439542 0.065717526 0.028466642 1.6018275e-38
0.087205119 0.069260351 0.027597487 1.8046586e-38
0.087854624 0.071825527 0.027150452 2.0900697e-38
0.083191253 0.052904509 0.031270504 1.9331208e-38
0.083329 0.056503505 0.030144811 1.7305066e-38
0.083317459 0.060942151 0.029119134 1.6755466e-38
0.083329201 0.065460436 0.028532207 1.6385962e-38
0.083473474 0.069076024 0.027545214 1.9334074e-38
0.078849487 0.050299585 0.032403827 1.9798314e-38
0.079477414 0.052786537 0.031517506 1.8319961e-38
0.079812542 0.056317642 0.030145526 1.7948639e-38
0.080087803 0.061606906 0.029151142 1.7308647e-38
0.080301888 0.064584337 0.028582275 1.7951485e-38
0.080730081 0.068621464 0.027789891 2.0629455e-38
0.075633369 0.049873248 0.032972693 1.896497e-38
0.074307255 0.056007929 0.031043589 1.8320628e-38
0.071130797 0.046664439 0.034239292 1.8785544e-38
0.071766257 0.049171306 0.033462405 1.8318862e-38
0.071921647 0.052510075 0.032038391 1.8413215e-38
0.073022693 0.059877679 0.030543387 1.9709006e-38
0.071757011 0.10798009 0.022590399 1.6760925e-38
0.06791468 0.046750247 0.03471595 1.7671321e-38
0.067911103 0.049292624 0.03414458 1.8227021e-38
0.067727417 0.052848458 0.032747626 1.8965325e-38
0.067895137 0.10932054 0.022768736 1.5379007e-38
0.066628233 0.1108029 0.023380697 1.5564481e-38
0.064055331 0.049413957 0.034826875 1.9241891e-38
0.064043038 0.052530304 0.033753991 1.9426276e-38
0.064030737 0.10933954 0.023014069 1.5287533e-38
0.064055331 0.11087155 0.023761988 1.5194977e-38
0.060195982 0.050157122 0.035283566 1.9424484e-38
0.060445324 0.052515239 0.034409881 1.8962774e-38
0.059860162 0.10919427 0.023935199 1.0576648e-38
0.056336641 0.050260097 0.035855532 1.9333009e-38
0.056323357 0.052013062 0.034514487 1.8409969e-38
0.056330003 0.10775249 0.02499187 1.8045472e-38
0.052473485 0.050280146 0.035929322 1.9055703e-38
0.05221542 0.1077094 0.025526404 1.7497008e-38
0.048617952 0.051106237 0.036884189 1.9147537e-38
0.047973678 0.052235849 0.035751939 1.8779472e-38
0.048617154 0.10811118 0.02621007 1.5564883e-38
0.044115387 0.050586194 0.037666738 1.7490541e-38
0.04304675 0.053303614 0.036827326 1.6290561e-38
0.042193137 0.057504058 0.035687864 1.3810968e-38
0.040899254 0.051312186 0.038028121 1.7763529e-38
0.039773621 0.054063 0.037705123 1.5189602e-38
0.0396211 0.057611473 0.036290467 1.3626574e-38
0.039195828 0.060567178 0.035595 1.399574e-38
0.038332894 0.10567384 0.028119683 1.7407669e-38
0.037039913 0.054616079 0.038023829 1.3989624e-38
0.035755545 0.057831563 0.037527263 1.362331e-38
0.035770319 0.060871676 0.036064386 1.3807407e-38
0.035761885 0.10574245 0.028500795 1.9623976e-38
0.032087542 0.058238983 0.03768903 1.2980139e-38
0.032237761 0.060646296 0.036645412 1.3346774e-38
0.033180565 0.1065739 0.029259741 1.971978e-38
0.031263076 0.10778115 0.028822005 1.8789539e-38
0.027789116 0.058761127 0.038281977 1.2429477e-38
0.028062932 0.061077327 0.03720659 1.2887941e-38
0.026748329 0.11058664 0.029521465 1.6942693e-38
0.024175435 0.05944062 0.039123535 9.6639596e-39
0.024076909 0.06236963 0.03805083 1.0124604e-38
0.023566939 0.065672003 0.037067235 1.0953286e-38
0.022924669 0.11043636 0.029106081 1.1691212e-38
0.024175435 0.11193564 0.029672265 1.3994242e-38
0.020652026 0.063306667 0.038581312 9.0196622e-39
0.02035553 0.065757684 0.037543178 9.5710339e-39
0.0216401 0.11174913 0.029066265 1.1508619e-38
0.0216401 0.11302762 0.028836131 1.1050862e-38
0.0177432 0.064733721 0.039154708 8.0980492e-39
0.016988963 0.066982694 0.038454235 8.0973541e-39
0.015538402 0.070680566 0.037393928 8.1870597e-39
0.013883844 0.071878709 0.038458824 7.3587423e-39
0.013121746 0.075571768 0.037705064 6.90099e-39
0.012370549 0.078070007 0.036959231 6.2549115e-39
0.01264815 0.11016264 0.030727804 8.0120123e-39
0.0094089881 0.07829722 0.037474155 7.1772153e-39
0.010079004 0.10886138 0.031355143 7.4609769e-39
0.13791072 0.060120158 0.025709152 1.5565562e-38
0.1384283 0.065086089 0.024735868 1.5378658e-38
0.1385577 0.068688668 0.024067461 1.4731861e-38
0.13791072 0.072569527 0.02346772 1.3352183e-38
0.13506395 0.05281236 0.027460396 1.3352527e-38
0.13529471 0.055857897 0.026648521 1.3350738e-38
0.13520601 0.060239419 0.025159538 1.2154714e-38
0.13508102 0.064562075 0.023401439 1.1326714e-38
0.13523793 0.06864778 0.023897767 1.095651e-38
0.13532275 0.072638579 0.023851335 1.0771413e-38
0.13118201 0.045188747 0.029426932 1.2055696e-38
0.13137336 0.048183307 0.028287709 1.0953276e-38
0.1313321 0.051988058 0.027266443 9.2973673e-39
0.13118254 0.055635177 0.025376856 8.6541236e-39
0.13115457 0.060091645 0.024350345 9.1118886e-39
0.13131763 0.064830311 0.024842262 8.8342409e-39
0.13137251 0.068773143 0.024580836 9.5714178e-39
0.13144082 0.072227009 0.024519324 9.022902e-39
0.12772059 0.044669375 0.030050039 1.279431e-38
0.12744197 0.048215218 0.028426707 1.1875594e-38
0.12753269 0.05220329 0.02849412 1.0862514e-38
0.12753248 0.056065015 0.027798891 9.9441268e-39
0.12838192 0.060099728 0.026828289 1.0035625e-38
0.12885284 0.064440079 0.026317298 1.0588462e-38
0.12885284 0.069591545 0.025389791 1.0957217e-38
0.12626487 0.081895314 0.023570597 2.16562e-38
0.12658837 0.084140442 0.023116887 2.2667855e-38
0.12453956 0.045451842 0.030395925 1.362693e-38
0.12403045 0.048263274 0.0298208 1.2244732e-38
0.12404662 0.052333608 0.029232323 1.1324222e-38
0.12339624 0.081414126 0.023890674 2.3032357e-38
0.12353046 0.084255092 0.022193968 2.2756504e-38
0.1235305 0.088111214 0.021499932 2.323294e-38
0.12296248 0.091360934 0.020522118 2.1370942e-38
0.11850098 0.078238882 0.025416851 2.0537663e-38
0.11979833 0.080301248 0.023305714 2.2102859e-38
0.11581402 0.077459656 0.02494067 2.1089065e-38
0.11625738 0.078959055 0.022547841 2.237906e-38
0.1118117 0.076007791 0.02444452 2.2835735e-38
0.10778508 0.073904045 0.026603818 2.2556622e-38
0.1082053 0.075647749 0.024376035 2.265206e-38
0.10297319 0.070926018 0.029109299 2.3388518e-38
0.10398236 0.073334672 0.026979923 2.2834273e-38
0.10401822 0.075951807 0.024961948 2.2463692e-38
0.10038522 0.070351131 0.029608786 2.1085094e-38
0.10040356 0.072774194 0.026967943 2.2373288e-38
0.10144155 0.075507663 0.025436163 2.1911587e-38
0.095209286 0.06211812 0.031883001 1.8781273e-38
0.096503273 0.066591121 0.030879676 1.8410691e-38
0.096479386 0.06974607 0.029972851 2.0255695e-38
0.096288234 0.072439559 0.026777029 2.2373297e-38
0.091327347 0.053850576 0.033965468 1.9976548e-38
0.091652036 0.057119168 0.03259331 1.9334437e-38
0.091862544 0.061244048 0.030754268 1.8412127e-38
0.091863021 0.06574101 0.029944599 1.7490867e-38
0.092239514 0.069426797 0.029069185 1.8966055e-38
0.09242323 0.071901567 0.027465284 2.2009194e-38
0.087818861 0.049914844 0.034183323 2.0899613e-38
0.088173106 0.052895337 0.032938719 2.034608e-38
0.088814467 0.056513608 0.031472981 1.8874549e-38
0.088558227 0.060891934 0.030038834 1.758417e-38
0.088236153 0.065281518 0.029297769 1.6660388e-38
0.084204078 0.045971446 0.036345541 2.1360973e-38
0.083923668 0.049079351 0.033808827 2.0899274e-38
0.084693246 0.051591963 0.032304585 2.0711253e-38
0.080328487 0.042553268 0.037682354 2.1266956e-38
0.080126293 0.045574248 0.036608875 2.0901057e-38
0.079723969 0.048793726 0.03356874 2.0349331e-38
0.075972542 0.042349286 0.038091958 1.9890496e-38
0.075711846 0.045560107 0.035678148 1.9981608e-38
0.075674914 0.048306435 0.034275949 1.9612838e-38
0.075093068 0.10864236 0.025043309 2.0169278e-38
0.071917608 0.039558031 0.039508522 1.9888705e-38
0.071898088 0.042048275 0.038492382 1.9707176e-38
0.071993962 0.04515326 0.035406947 1.9428443e-38
0.071871631 0.11005544 0.025453091 1.7592819e-38
0.070623621 0.11235692 0.026599705 1.703248e-38
0.068682648 0.039644346 0.039987981 1.9148993e-38
0.067998901 0.042049535 0.038403749 1.8688385e-38
0.067944929 0.045261301 0.036006987 1.7949746e-38
0.068148032 0.11281323 0.025226653 1.5379025e-38
0.06412366 0.042152934 0.03897804 1.8136256e-38
0.064079933 0.04573077 0.036513805 1.6655354e-38
0.064104527 0.11330571 0.025371313 1.5010594e-38
0.060259126 0.042342238 0.040106058 1.6757299e-38
0.060214929 0.045833901 0.037086606 1.7029926e-38
0.060214929 0.048398383 0.036624849 2.0069129e-38
0.060245566 0.11229464 0.026828825 1.0951878e-38
0.057031743 0.042479649 0.040917575 1.6204107e-38
0.056360908 0.046076857 0.038545907 1.7216479e-38
0.056349933 0.048501514 0.037197649 1.9795787e-38
0.056357548 0.11021709 0.026770234 1.7211418e-38
0.057036802 0.11207553 0.02872926 1.5457911e-38
0.052875116 0.046643592 0.040852845 1.7674223e-38
0.052484937 0.048604637 0.03777045 1.9423413e-38
0.052815616 0.11007514 0.027680218 1.906398e-38
0.051213883 0.11223089 0.029592216 1.9343453e-38
0.048625924 0.047584735 0.041627169 1.7490546e-38
0.048621275 0.049457081 0.038893223 1.8780194e-38
0.048619941 0.11025534 0.027262211 1.7315875e-38
0.048625879 0.11221523 0.029648542 1.8327496e-38
0.044743977 0.047688313 0.042202473 1.7396898e-38
0.044754952 0.048810892 0.038916051 1.7491255e-38
0.04448884 0.11035653 0.029931128 1.5471236e-38
0.040451825 0.049915813 0.040231884 1.6935226e-38
0.040873505 0.10942615 0.030480564 1.6299164e-38
0.037430406 0.050989337 0.04135716 1.6569664e-38
0.035920672 0.053992406 0.039334953 1.4358395e-38
0.036631487 0.10898852 0.031086087 2.1370997e-38
0.033745117 0.052167349 0.043078959 1.481974e-38
0.032491885 0.054456465 0.04093188 1.3347121e-38
0.031227455 0.05686529 0.039535761 1.2336211e-38
0.033113584 0.10962974 0.032059312 2.1919158e-38
0.02923923 0.054716691 0.042428732 1.2240785e-38
0.028328709 0.057263196 0.039907634 1.1875947e-38
0.029241972 0.11063495 0.032213867 1.7588492e-38
0.02560541 0.055664316 0.04328382 1.0678481e-38
0.024373032 0.05795639 0.041210175 9.8483354e-39
0.024737932 0.11287803 0.031985343 1.4361597e-38
0.022099286 0.056341685 0.044109285 8.6530292e-39
0.021281384 0.058732688 0.042605162 8.3753717e-39
0.019611813 0.061752662 0.040946841 8.0073053e-39
0.022781938 0.11402135 0.032592595 1.1968123e-38
0.018864319 0.060291596 0.043893099 6.6272617e-39
0.016666792 0.063295014 0.042147279 6.8094782e-39
0.015123323 0.067552917 0.0400756 5.5205849e-39
0.014335379 0.064919971 0.043752789 6.2555897e-39
0.01324936 0.068123363 0.041698158 6.5329291e-39
0.012163527 0.071350388 0.040138304 6.6222367e-39
0.011902496 0.074691184 0.039283216 5.8861038e-39
0.011100411 0.06951382 0.043420672 7.1757818e-39
0.0099699944 0.072178267 0.040031314 7.0824763e-39
0.0094546527 0.075654067 0.039484382 6.9928142e-39
0.1514537 0.057463042 0.028225541 2.17308e-38
0.1514537 0.060701452 0.027642488 2.173044e-38
0.15174139 0.064857028 0.026593328 2.2652783e-38
0.1514537 0.06847363 0.02624315 2.2565654e-38
0.14689839 0.049164727 0.030416548 1.9889076e-38
0.14715683 0.052556768 0.029619515 2.0073113e-38
0.14772275 0.056291133 0.028390825 1.9982691e-38
0.14807281 0.060632072 0.027273238 1.9795437e-38
0.14801803 0.0650912 0.026093423 2.0349337e-38
0.1480667 0.06903369 0.025718629 2.1272379e-38
0.14711589 0.07285247 0.025678098 2.1826269e-38
0.14624766 0.07703241 0.025498867 2.1549669e-38
0.14277694 0.045604512 0.031688213 2.0258924e-38
0.14356774 0.048514485 0.030472338 1.9061468e-38
0.14350513 0.052323863 0.029339433 1.8969624e-38
0.14345862 0.056146465 0.028315842 1.8968549e-38
0.14341277 0.060612679 0.027176261 1.7954404e-38
0.14338134 0.06509424 0.026145816 1.8324617e-38
0.14336562 0.068948753 0.02534008 1.8601567e-38
0.14344376 0.072932728 0.025181711 1.9615372e-38
0.14352125 0.076922961 0.025022268 1.9615012e-38
0.14263406 0.080638789 0.025145531 1.6759471e-38
0.14234307 0.083613403 0.024911344 1.445889e-38
0.13843852 0.04161828 0.033069611 2.1457828e-38
0.13951093 0.044910245 0.031799078 2.0259997e-38
0.13960621 0.048547424 0.030615866 1.8601926e-38
0.13953206 0.052334897 0.02937448 1.8140956e-38
0.13947238 0.056136496 0.028242528 1.7863999e-38
0.13990496 0.060717359 0.027351618 1.6759796e-38
0.14044568 0.06482891 0.026528537 1.6852004e-38
0.14077012 0.069017999 0.025724709 1.6482155e-38
0.14012125 0.072910167 0.025123298 1.5098167e-38
0.13950256 0.076847382 0.024737477 1.5193217e-38
0.13962129 0.080907904 0.024901509 1.5745654e-38
0.13945337 0.0841657 0.025048614 1.6388519e-38
0.13575067 0.041587405 0.03280139 1.9987369e-38
0.13567945 0.044735879 0.031674623 1.6942777e-38
0.13560803 0.048526198 0.030432284 1.5285764e-38
0.13590357 0.051388159 0.029643416 1.4732951e-38
0.13557914 0.076906197 0.025098801 1.1691219e-38
0.13562228 0.080850668 0.024724543 1.4363095e-38
0.13572198 0.084893458 0.024780571 1.7038202e-38
0.13453397 0.088355549 0.025252402 1.2148247e-38
0.13062944 0.038588233 0.034810007 1.6299182e-38
0.13178161 0.040960245 0.032950759 1.445313e-38
0.13201031 0.043742359 0.031615674 1.2611044e-38
0.13168588 0.073781036 0.026257098 9.5760855e-39
0.13168588 0.077010088 0.025675833 1.0768533e-38
0.13168588 0.080884926 0.024978161 1.3624049e-38
0.13174054 0.084855236 0.024711609 1.6850547e-38
0.13173786 0.088860802 0.025332332 1.6013212e-38
0.1280264 0.038139544 0.035289049 1.4731104e-38
0.12780562 0.040965207 0.032873213 1.3531504e-38
0.12649488 0.043566622 0.032491207 1.3812396e-38
0.12696579 0.061482683 0.029536068 9.4849787e-39
0.12752125 0.06584283 0.029204309 9.6661596e-39
0.12752096 0.069353737 0.028572261 1.0310782e-38
0.1280562 0.073406927 0.027778924 1.1139825e-38
0.12786992 0.077248849 0.026901662 1.1319853e-38
0.12795484 0.080823027 0.0255602 1.6200861e-38
0.12857127 0.085101195 0.024695635 2.1187332e-38
0.12787139 0.088885017 0.024806499 2.230297e-38
0.12726066 0.091561966 0.024760425 2.0619291e-38
0.12410299 0.038089819 0.035727024 1.491481e-38
0.12392389 0.041085564 0.03355962 1.4547448e-38
0.1234668 0.044508494 0.032784998 1.4179382e-38
0.12260163 0.049482763 0.032021761 1.1968856e-38
0.12260163 0.0527118 0.031440377 1.1233469e-38
0.12389939 0.056552023 0.03055048 1.0406548e-38
0.12403812 0.061297491 0.030959308 8.9317839e-39
0.12461984 0.065395735 0.030697584 8.0041159e-39
0.12542337 0.069815867 0.029984295 8.6480448e-39
0.12477261 0.075014688 0.029147863 1.0032054e-38
0.12406027 0.077509455 0.028236806 1.1775121e-38
0.12422381 0.080115311 0.026258409 1.8971091e-38
0.12460481 0.09345863 0.024311543 1.3800113e-38
0.12460481 0.095397465 0.023962498 7.8996688e-39
0.12086806 0.038848691 0.036256671 1.4454195e-38
0.12009957 0.041289367 0.034793139 1.4361982e-38
0.12001766 0.045048475 0.033329666 1.3442185e-38
0.12000614 0.048906215 0.032522738 1.17834e-38
0.12000614 0.05278106 0.031825125 1.0589876e-38
0.12000614 0.056655899 0.031127453 9.5778456e-39
0.1201645 0.061446257 0.031781971 7.5434699e-39
0.11956654 0.064790688 0.03178519 5.9765309e-39
0.120129 0.077772759 0.028505504 1.4998773e-38
0.11661267 0.042485774 0.03599602 1.1507523e-38
0.11625681 0.045360036 0.035219014 1.1140188e-38
0.11621282 0.049171619 0.03408283 1.0496261e-38
0.11616798 0.052977405 0.032947838 8.0988325e-39
0.11617887 0.056874976 0.032358587 5.3379718e-39
0.11672516 0.061007239 0.03213042 5.2411001e-39
0.11566199 0.075257786 0.030498087 1.4351565e-38
0.11628006 0.076468788 0.029842973 1.6482133e-38
0.1129288 0.046055496 0.03617388 8.9285932e-39
0.11237656 0.049383648 0.035316646 8.562319e-39
0.11232419 0.053174928 0.034071207 6.5311439e-39
0.11301089 0.05710572 0.033658147 4.4174729e-39
0.11370971 0.05976551 0.033586025 3.9564737e-39
0.11188071 0.074293725 0.030222654 1.9885829e-38
0.1089375 0.049314052 0.03619796 1.0767056e-38
0.10887553 0.05323264 0.035501957 9.478139e-39
0.10767031 0.070431374 0.031973302 2.0170691e-38
0.10869609 0.07287892 0.03045094 2.1550362e-38
0.10443641 0.049650036 0.036826134 1.7585955e-38
0.10443641 0.053374209 0.036155641 1.5005929e-38
0.10381819 0.057438716 0.035518408 1.3716268e-38
0.10355788 0.061590821 0.034810722 1.7120662e-38
0.10436498 0.066488124 0.032906413 1.7954043e-38
0.10462694 0.069893293 0.031482577 2.0814977e-38
0.10573088 0.072536163 0.03045249 2.191843e-38
0.099718407 0.046213679 0.038166702 1.8230623e-38
0.100513 0.049875356 0.037128925 1.7216824e-38
0.10064341 0.053523697 0.036023974 1.6659697e-38
0.10061722 0.057348683 0.034996867 1.7124625e-38
0.10061722 0.061875895 0.034181774 1.8414638e-38
0.1005487 0.066237114 0.032493711 1.8688725e-38
0.10053989 0.068799831 0.031919479 1.9332674e-38
0.096790016 0.039491162 0.039825141 1.9512361e-38
0.096790001 0.042081885 0.039358675 1.877768e-38
0.096758761 0.045898117 0.038219571 1.8225584e-38
0.096718326 0.049691789 0.036971986 1.8042274e-38
0.096702814 0.053534724 0.036054134 1.8596887e-38
0.096662983 0.057317533 0.034808338 1.9242965e-38
0.096764624 0.061737992 0.033768654 1.8873104e-38
0.096646637 0.065028869 0.033194065 1.8412462e-38
0.092690364 0.038653977 0.040456355 1.9976946e-38
0.092826962 0.042051472 0.039057076 1.9332298e-38
0.092812292 0.045897715 0.038138568 1.9887263e-38
0.092776038 0.049687512 0.036890924 2.034682e-38
0.093133882 0.053337559 0.035983324 1.9976949e-38
0.094051138 0.057348438 0.034973979 1.9519551e-38
0.087679379 0.035848163 0.041874945 2.1636085e-38
0.088960767 0.038354956 0.040885031 2.1727204e-38
0.088907525 0.042105071 0.039304674 2.1360248e-38
0.088873982 0.045897089 0.038056254 2.1452813e-38
0.08950901 0.049074143 0.037158668 2.1083651e-38
0.085076354 0.035917617 0.042260826 2.2003432e-38
0.085040271 0.038410254 0.04113239 2.2188547e-38
0.084973186 0.042108081 0.039221108 2.12677e-38
0.086264633 0.045285866 0.038337111 2.1543933e-38
0.081171811 0.036021806 0.042839468 2.1911253e-38
0.081090018 0.038368553 0.040716827 2.1728304e-38
0.081073634 0.040903725 0.03992039 2.1360236e-38
0.077253081 0.035430811 0.043202877 2.1636096e-38
0.077199914 0.038488708 0.041404545 2.1175486e-38
0.077180393 0.041007608 0.040497363 2.0255692e-38
0.077492803 0.11001442 0.029258549 2.220621e-38
0.075965732 0.11323484 0.029734433 2.2765119e-38
0.073343806 0.035511196 0.043615222 2.1547493e-38
0.073463529 0.038416646 0.041917861 2.0256054e-38
0.074584886 0.041076861 0.040881991 1.9888343e-38
0.074584886 0.11082403 0.028324664 2.0543075e-38
0.073139541 0.11333313 0.029121697 2.1005477e-38
0.069705226 0.035752185 0.044231355 2.0349668e-38
0.069247521 0.03854733 0.042667925 1.9428088e-38
0.070725657 0.11505979 0.02918011 1.8788865e-38
0.06864094 0.11687506 0.028966665 1.749918e-38
0.068156652 0.12186307 0.029375911 1.9799393e-38
0.065553606 0.03643854 0.045154095 1.8504696e-38
0.065088451 0.038860776 0.043533266 1.8505409e-38
0.065097906 0.11782726 0.029657066 1.4914814e-38
0.066421285 0.12104581 0.029788554 1.8509714e-38
0.061649054 0.036542721 0.045732796 1.5743138e-38
0.061195634 0.038996972 0.044332683 1.7953664e-38
0.060967989 0.11519117 0.030135632 1.2611e-38
0.061628848 0.11702778 0.030217648 1.3441494e-38
0.057744503 0.036646903 0.046311438 1.7402995e-38
0.057078369 0.039092787 0.04484266 1.6665442e-38
0.055118635 0.042887889 0.043534398 1.5926795e-38
0.056801289 0.1145082 0.031409979 1.4633501e-38
0.059046015 0.11692471 0.031658947 9.5797023e-39
0.053277515 0.039456874 0.045901775 1.5740968e-38
0.052526347 0.043024421 0.044363201 1.5833536e-38
0.051225401 0.046220802 0.043530047 1.7398703e-38
0.053087227 0.11420143 0.031886637 1.9523462e-38
0.049005754 0.040025957 0.047040164 1.5184556e-38
0.048631452 0.043195896 0.045384943 1.6662235e-38
0.04862991 0.046160899 0.043937981 1.7120333e-38
0.049282663 0.11502879 0.032637775 1.9523498e-38
0.044729345 0.04088027 0.047540665 1.6200501e-38
0.044732794 0.04333391 0.046184897 1.7027763e-38
0.044736654 0.046264783 0.044515014 1.7302924e-38
0.044734813 0.11368596 0.032890439 1.6576122e-38
0.04099305 0.043636307 0.046973884 1.7490504e-38
0.040839888 0.047196172 0.045286059 1.7119242e-38
0.040194526 0.11174165 0.033421397 1.8331017e-38
0.041088432 0.11393424 0.034533918 1.7313653e-38
0.037354082 0.044531368 0.04801178 1.5925729e-38
0.036926456 0.047494382 0.047086895 1.5923219e-38
0.036074392 0.050392859 0.045782149 1.6751544e-38
0.036950156 0.11182822 0.033902228 2.164542e-38
0.036666289 0.11405224 0.035189271 2.1366684e-38
0.033275977 0.048439905 0.047931969 1.5281432e-38
0.03286536 0.0509087 0.045788884 1.5188886e-38
0.033056907 0.11193209 0.034479201 2.17412e-38
0.033028059 0.11409848 0.035532117 2.1183357e-38
0.030412652 0.048386768 0.04837966 1.3259965e-38
0.029146783 0.051593944 0.046583116 1.3252066e-38
0.027865909 0.05394797 0.045713007 1.1967062e-38
0.030461401 0.11200135 0.034863889 2.0077028e-38
0.028974943 0.11471979 0.035629392 1.7308663e-38
0.025745571 0.052168585 0.047796309 1.0861075e-38
0.02493751 0.054390997 0.046338081 1.0310049e-38
0.025492415 0.11580127 0.036173046 1.4178636e-38
0.023938864 0.11760166 0.035881102 1.1877358e-38
0.022603549 0.053128906 0.048720717 8.8338514e-39
0.021345846 0.055338874 0.047316492 8.3757305e-39
0.020079397 0.058030576 0.046169341 7.6399689e-39
0.021988466 0.11636021 0.03640306 1.1049404e-38
0.021759652 0.11817818 0.036453247 9.4777494e-39
0.017414384 0.056566633 0.048484683 7.9097147e-39
0.017305031 0.059300102 0.046750665 6.5307445e-39
0.01349292 0.057258092 0.049371302 9.1093523e-39
0.01368615 0.059895225 0.048224688 7.8164358e-39
0.01326929 0.063642554 0.046886027 6.8065957e-39
0.012292914 0.067279644 0.045695484 6.8084146e-39
0.010173269 0.065416344 0.047177374 8.0944492e-39
0.0099269077 0.067993321 0.047727227 7.7282059e-39
0.11960461 0.056689195 0.03285259 1.7585249e-38
0.11893835 0.062846191 0.030115545 1.9245496e-38
0.11088706 0.060303725 0.032428741 1.7953673e-38
0.11573204 0.059951961 0.032443821 1.8689808e-38
0.10743487 0.048452072 0.035698175 1.8227384e-38
0.11378543 0.06609235 0.034079432 1.9060379e-38
0.11256657 0.069664426 0.033514202 1.8507191e-38
0.11143673 0.064254485 0.034481406 1.8049453e-38
0.11056166 0.069742061 0.033790886 1.7960487e-38
0.10883284 0.066489346 0.03506726 1.7957969e-38
0.12747633 0.072098248 0.031930923 1.9154361e-38
0.15598401 0.077594362 0.028017998 2.2193227e-38
0.15292957 0.041630015 0.034960449 2.1548585e-38
0.15329847 0.045023985 0.033836186 2.1273078e-38
0.15323083 0.048858494 0.032699525 2.0718826e-38
0.15314603 0.052670218 0.031455457 2.1454214e-38
0.15322371 0.056308925 0.030217469 2.1731177e-38
0.1537132 0.061005153 0.029297054 2.2559489e-38
0.15384373 0.065808393 0.028412342 2.3208466e-38
0.15347765 0.069697015 0.028061807 2.3121318e-38
0.15323083 0.073582046 0.02824831 2.2100311e-38
0.15331566 0.077597074 0.028083324 2.1823358e-38
0.15271139 0.081590272 0.027799368 2.1275585e-38
0.15249321 0.0846361 0.027284324 2.2658897e-38
0.1481297 0.038718067 0.03621906 2.1641509e-38
0.14871168 0.041231327 0.03516382 2.1457824e-38
0.14858994 0.045008197 0.033646166 2.0812089e-38
0.14916332 0.048480496 0.032376587 2.0166015e-38
0.14992788 0.052402109 0.031425178 2.0535858e-38
0.15044999 0.055895783 0.0307163 2.145421e-38
0.14992788 0.073707558 0.027589321 2.2006692e-38
0.14922702 0.077478103 0.027588546 2.1916637e-38
0.14860234 0.08143609 0.027171373 2.0996468e-38
0.1486633 0.08542677 0.026871741 2.1553264e-38
0.14809787 0.089481346 0.026856184 2.1645105e-38
0.14714792 0.093138747 0.026571333 2.1002287e-38
0.14401555 0.037897237 0.036996424 2.2196112e-38
0.1440635 0.041278936 0.035352767 2.1641855e-38
0.14438224 0.044608302 0.033848166 2.0625551e-38
0.14470676 0.081641547 0.026959777 1.7771078e-38
0.14412184 0.085511677 0.026609242 1.7495946e-38
0.14406307 0.0894159 0.026686132 1.8141328e-38
0.14417177 0.093493633 0.026734412 1.8785607e-38
0.14289351 0.09618371 0.026674092 1.8328952e-38
0.13896635 0.035053983 0.038280785 2.2013157e-38
0.14023122 0.037576437 0.037290633 2.2104634e-38
0.14045742 0.041123621 0.035492003 2.1734055e-38
0.14131302 0.043798015 0.0342924 2.1086886e-38
0.14036798 0.086423807 0.027019501 1.749558e-38
0.14011225 0.089472108 0.027052164 1.6021903e-38
0.14012691 0.093398772 0.026457131 1.556237e-38
0.14027542 0.096905001 0.026944876 1.5379057e-38
0.13634826 0.034472421 0.038786173 2.2105714e-38
0.13624877 0.037617221 0.037435949 2.2380513e-38
0.13609189 0.040039986 0.035767913 2.1922399e-38
0.1364834 0.089613445 0.026929557 1.2703232e-38
0.13619179 0.093478642 0.02693069 1.1413925e-38
0.13630554 0.097585134 0.027087271 1.0493374e-38
0.13634825 0.10026694 0.026940405 9.66181e-39
0.13214684 0.034203321 0.038743496 2.1919888e-38
0.13238561 0.037433036 0.037189603 2.0078146e-38
0.13348131 0.090775035 0.027032912 1.1584682e-38
0.13225773 0.093558498 0.02740407 1.0402264e-38
0.13240036 0.097076498 0.027947605 1.0402983e-38
0.12820676 0.034288205 0.039184272 1.8231343e-38
0.12826017 0.036676399 0.037571788 1.5833905e-38
0.12695488 0.074060716 0.031040788 1.1047987e-38
0.12851317 0.094008319 0.027798176 1.0676269e-38
0.12932768 0.09690275 0.028277814 1.0314005e-38
0.12446771 0.034010991 0.039773643 1.6294519e-38
0.12434433 0.036456101 0.038210571 1.5097741e-38
0.12374635 0.067095943 0.033299387 7.0814492e-39
0.12404976 0.070379861 0.032881916 7.5427805e-39
0.12422089 0.073876135 0.032079577 9.2005011e-39
0.12053405 0.034751721 0.040127933 1.4913718e-38
0.12025709 0.037513882 0.038792312 1.4453825e-38
0.12100467 0.066894002 0.034611583 6.0687224e-39
0.1219487 0.070685335 0.034469545 6.8069923e-39
0.12055732 0.074474387 0.033201039 7.4480317e-39
0.12108111 0.076815672 0.031443477 9.5610244e-39
0.11662889 0.034879856 0.040873587 1.2891528e-38
0.11662345 0.038125128 0.040233135 1.2061414e-38
0.11631077 0.041178465 0.039206088 1.0954342e-38
0.11560719 0.063134409 0.035514832 4.8733868e-39
0.1176184 0.066426568 0.035128295 4.6897438e-39
0.11583979 0.071716912 0.035218477 6.8955585e-39
0.11681358 0.074187152 0.033744097 9.3787197e-39
0.11343987 0.035083666 0.042181194 1.2607024e-38
0.11277466 0.038342409 0.041582108 1.2511226e-38
0.11269064 0.042115621 0.040002286 9.2940826e-39
0.11194413 0.045231201 0.038528025 9.5706976e-39
0.11129149 0.057590187 0.036402762 5.6116973e-39
0.11263172 0.062577344 0.036981344 5.5191303e-39
0.11211541 0.067007385 0.036464989 6.4371181e-39
0.1125635 0.070977025 0.035210848 1.0577343e-38
0.11349901 0.073619641 0.033521473 1.4269066e-38
0.10820366 0.039783396 0.042136192 1.8598241e-38
0.10882865 0.04232084 0.041241288 1.5835242e-38
0.10871045 0.046019264 0.039223373 1.2979722e-38
0.10781072 0.050321423 0.038244009 1.2796055e-38
0.10737564 0.054446891 0.037567794 1.196672e-38
0.1087006 0.057698496 0.037007928 9.0189601e-39
0.10881435 0.062476665 0.037443399 8.7387831e-39
0.10878988 0.066980578 0.036350727 1.1317761e-38
0.1096825 0.07034754 0.034608901 1.6478899e-38
0.10362198 0.035997063 0.04351896 2.3028011e-38
0.10454544 0.038742974 0.04273665 2.23776e-38
0.10485747 0.042342246 0.04127419 2.0165971e-38
0.10478372 0.046106644 0.039694369 1.8416058e-38
0.10607035 0.049934827 0.038579881 1.7493718e-38
0.10607035 0.055131279 0.037644327 1.4183352e-38
0.10574403 0.057738207 0.037224889 1.2977595e-38
0.10553518 0.062621586 0.036671162 1.3807015e-38
0.10615521 0.065708585 0.036754489 1.5467265e-38
0.10096584 0.035345033 0.043529034 2.2840047e-38
0.10091817 0.03851103 0.042338371 2.2377614e-38
0.10087563 0.042329751 0.041086555 2.034857e-38
0.10163239 0.045896083 0.039986074 1.8784152e-38
0.1021545 0.048740193 0.03939414 1.7862558e-38
0.097021177 0.034759291 0.043952584 2.1083659e-38
0.096933365 0.037837051 0.042155981 2.0252105e-38
0.093149573 0.03204219 0.04583329 2.0622306e-38
0.093069077 0.034801334 0.044093013 2.0621556e-38
0.09367016 0.037274562 0.042756557 1.9977661e-38
0.089222416 0.032472692 0.046356678 2.1543184e-38
0.08931011 0.034735151 0.044651508 2.1725772e-38
0.08529526 0.032577477 0.046938717 2.255518e-38
0.08524055 0.034391545 0.045593023 2.2279669e-38
0.084600627 0.10992941 0.032347798 2.3410452e-38
0.081040852 0.032365285 0.047627866 2.2188566e-38
0.081294492 0.034426905 0.045676589 2.2094571e-38
0.081314214 0.11057799 0.032362819 2.3139297e-38
0.080059066 0.11349464 0.033171475 2.3050341e-38
0.077615306 0.031812385 0.047958076 2.0899261e-38
0.077397533 0.03395123 0.046872199 2.1451703e-38
0.0787047 0.1119756 0.032624602 2.3141463e-38
0.077615708 0.11460725 0.03231746 2.2953836e-38
0.07613191 0.11750802 0.033049762 2.2760824e-38
0.073501542 0.032194749 0.048469663 2.0345375e-38
0.073476031 0.034055866 0.047453403 2.1455296e-38
0.074090898 0.11574375 0.031624675 2.2574642e-38
0.073283911 0.11821718 0.032183588 2.2482428e-38
0.072204761 0.12152138 0.03292805 2.2660002e-38
0.069570594 0.03227663 0.048884988 1.9795067e-38
0.069220185 0.034459256 0.04777503 1.9980175e-38
0.069796696 0.11908162 0.032091796 1.9336658e-38
0.070091002 0.12245967 0.032465994 2.0443365e-38
0.065910354 0.032518394 0.04950434 1.8780196e-38
0.065619797 0.034845151 0.04799962 1.8595456e-38
0.065179653 0.12299954 0.032024324 1.998773e-38
0.06625919 0.12504652 0.031148076 2.1459632e-38
0.061732359 0.033206195 0.050430775 1.7487329e-38
0.061701111 0.034949712 0.048580408 1.6473868e-38
0.061441384 0.1196171 0.033479273 1.3440795e-38
0.062589929 0.12203465 0.033621848 1.7408776e-38
0.057805195 0.03331098 0.051012814 1.7309761e-38
0.057790026 0.035123989 0.049661279 1.721715e-38
0.057528585 0.11852593 0.034685433 1.2058898e-38
0.054053895 0.036225751 0.049887598 1.6389911e-38
0.052553713 0.038371652 0.048850119 1.59257e-38
0.053859003 0.11628359 0.034623086 1.8781879e-38
0.053871378 0.11858018 0.035577655 1.6575328e-38
0.049947016 0.036635168 0.050589085 1.5188881e-38
0.049943149 0.038441308 0.049237013 1.4911576e-38
0.049945094 0.11846753 0.035342515 1.9062873e-38
0.04628554 0.036977082 0.051909864 1.4636069e-38
