# .PCD v0.7 - Point Cloud Data file format
VERSION 0.7
FIELDS x y z rgb
SIZE 4 4 4 4
TYPE F F F F
COUNT 1 1 1 1
WIDTH 981
HEIGHT 1
VIEWPOINT 0 0 0 0 1 0 0
POINTS 981
DATA ascii
0.14503461 0.14568302 0.030046463 2.0813888e-38
0.14525898 0.14771277 0.032389343 2.099899e-38
0.1410878 0.062870443 0.018994331 2.2835366e-38
0.14114366 0.066414893 0.017608106 2.274497e-38
0.14233984 0.06922102 0.016991973 2.2281132e-38
0.14104855 0.14635687 0.029675186 1.9985934e-38
0.1413323 0.14798956 0.032627106 2.0262145e-38
0.13742682 0.06273368 0.019163013 2.3019398e-38
0.13741173 0.066206217 0.017939389 2.3114448e-38
0.13695365 0.14583105 0.03116858 1.887851e-38
0.13726315 0.14817353 0.033258617 1.9154373e-38
0.13356687 0.065891802 0.018520474 2.3020112e-38
0.1333008 0.14619052 0.030701101 1.9522087e-38
0.13355465 0.14846841 0.03376168 1.906181e-38
0.12965074 0.062566727 0.020192623 2.2649896e-38
0.12951645 0.065495715 0.019152641 2.2465868e-38
0.12942693 0.14610735 0.031214058 1.9430966e-38
0.12960577 0.14829825 0.033589363 1.9155082e-38
0.12565121 0.062797084 0.01941067 2.1730455e-38
0.12555304 0.065002427 0.018589079 2.1731537e-38
0.12555304 0.14602417 0.031726956 1.9247269e-38
0.12571985 0.14773035 0.034025252 1.8510063e-38
0.12061683 0.059025168 0.021357059 1.648323e-38
0.12180951 0.061950386 0.020306528 1.8603004e-38
0.12167917 0.064919248 0.019102037 1.9063985e-38
0.12173258 0.14586455 0.032901764 2.0265424e-38
0.1215509 0.14726099 0.03502667 2.1183751e-38
0.11802292 0.058969468 0.021700561 1.1602278e-38
0.11791028 0.061920121 0.020604312 1.2156523e-38
0.11748248 0.065150663 0.019709826 1.2523863e-38
0.11790077 0.14570469 0.034077942 1.7220803e-38
0.11832856 0.14716318 0.035704315 1.8509023e-38
0.11542901 0.058913767 0.022044003 1.0037806e-38
0.11420152 0.061958924 0.021299183 1.0027011e-38
0.11393142 0.064752907 0.020127892 1.0395447e-38
0.11397602 0.14569801 0.033928812 1.5103513e-38
0.11374235 0.14715058 0.035558879 1.5653472e-38
0.11088967 0.06269142 0.023273408 1.270138e-38
0.1101642 0.065227017 0.022505522 1.1873039e-38
0.10880582 0.069634289 0.022297502 1.0673774e-38
0.11013886 0.14489502 0.035001457 1.464111e-38
0.11153814 0.14666584 0.036801934 1.5284318e-38
0.10764728 0.069726139 0.02485472 9.5688815e-39
0.10764728 0.072309554 0.025273621 7.8182449e-39
0.10578904 0.14080229 0.034247518 1.1417863e-38
0.10671657 0.1436882 0.03578186 1.3260679e-38
0.10024373 0.10844225 0.029072285 6.1659276e-39
0.10015765 0.11118399 0.029528558 5.4319499e-39
0.099727213 0.13260907 0.033061206 7.7325219e-39
0.10192001 0.13683663 0.034300566 7.7289822e-39
0.10287483 0.13963269 0.03649807 9.6679561e-39
0.10375641 0.14262366 0.037203968 1.1233491e-38
0.098435923 0.11071834 0.029687047 5.9833286e-39
0.096283779 0.12953433 0.03303057 8.2878649e-39
0.098141998 0.13252917 0.035015941 8.1942399e-39
0.098560899 0.13542967 0.036573112 8.0084431e-39
0.093459666 0.12867288 0.034041226 9.5746324e-39
0.094004333 0.13217127 0.036152899 9.8526808e-39
0.094455764 0.13512623 0.037081778 1.0864689e-38
0.09402924 0.13853972 0.037863612 1.4455984e-38
0.089192629 0.12890708 0.034233153 1.1326725e-38
0.089425698 0.13226818 0.035314322 1.1877036e-38
0.089926258 0.1361389 0.036823869 1.307701e-38
0.089945465 0.13969439 0.038048267 1.5563049e-38
0.088625267 0.14272936 0.039277315 1.6482122e-38
0.086168654 0.12974584 0.034439385 1.1785572e-38
0.085684419 0.13246833 0.03494668 1.2522048e-38
0.085523017 0.13616228 0.035567582 1.3627668e-38
0.085579537 0.13974677 0.038412571 1.5010245e-38
0.08559905 0.14223382 0.039608181 1.5932899e-38
0.081971951 0.13319241 0.035568595 1.2616039e-38
0.081649132 0.1360791 0.036080539 1.3352883e-38
0.081688486 0.13969034 0.038704991 1.4363805e-38
0.08170817 0.14215028 0.040123403 1.5009164e-38
0.078420907 0.13343768 0.03609091 1.2613862e-38
0.077947177 0.13606463 0.037347853 1.3441115e-38
0.077810869 0.13953888 0.039775193 1.436416e-38
0.073741585 0.13603817 0.037403941 1.3903186e-38
0.074083097 0.13931984 0.040061772 1.5194631e-38
0.069769263 0.13273749 0.037153065 1.3719142e-38
0.070030086 0.13568696 0.038731515 1.4179399e-38
0.07029406 0.13857193 0.0408898 1.4916979e-38
0.066153638 0.13253126 0.037610948 1.4457062e-38
0.066149674 0.13557486 0.039467871 1.4544608e-38
0.066144712 0.13794102 0.041555762 1.3808134e-38
0.062521279 0.072937354 0.030689955 2.3301363e-38
0.062279761 0.13309112 0.038228154 1.4643603e-38
0.062265366 0.1354489 0.040316045 1.537722e-38
0.062902324 0.1378714 0.041985095 1.4728639e-38
0.058377281 0.072119206 0.030916035 2.3025886e-38
0.058147632 0.13248798 0.038691878 1.4364875e-38
0.058375277 0.13530698 0.041275918 1.5193562e-38
0.053197011 0.06942834 0.03118366 2.1726501e-38
0.05536148 0.071267813 0.030847073 2.1822665e-38
0.053886369 0.12905273 0.038713932 1.4547458e-38
0.054522723 0.13157926 0.039491415 1.4085755e-38
0.054480791 0.13516536 0.042236507 1.445636e-38
0.055769071 0.13771825 0.042929649 1.4916626e-38
0.050594062 0.068613887 0.03191638 1.878341e-38
0.050012499 0.071096882 0.029842675 1.8323139e-38
0.050658144 0.12898341 0.039141357 1.4916264e-38
0.050634943 0.13143614 0.040450811 1.4638911e-38
0.050805628 0.13464151 0.042764544 1.4638571e-38
0.04539343 0.065160275 0.032574117 1.2981227e-38
0.046540022 0.068014279 0.032497883 1.5100974e-38
0.046138622 0.071013704 0.030355573 1.5281771e-38
0.046138629 0.12888637 0.039739788 1.4546386e-38
0.046738841 0.13127759 0.041522384 1.4823323e-38
0.047338858 0.13366213 0.043417513 1.4639299e-38
0.044096477 0.065132424 0.032745838 1.306048e-38
0.043185651 0.067977667 0.032893002 1.3347823e-38
0.042245321 0.071461365 0.031468332 1.39975e-38
0.041599683 0.12807642 0.040736318 1.4269798e-38
0.042815737 0.13104232 0.043153167 1.4825113e-38
0.040205613 0.06892398 0.033889413 9.5520365e-39
0.038959011 0.071952626 0.033357441 1.2594456e-38
0.036453925 0.074663937 0.032263577 1.7129636e-38
0.038348243 0.1277228 0.041631877 1.4083623e-38
0.039105847 0.13057208 0.043743253 1.4822988e-38
0.036314733 0.072715551 0.035032988 1.7220012e-38
0.03402061 0.075607836 0.034110188 1.8868438e-38
0.03258007 0.11702073 0.039658248 1.3162384e-38
0.03258007 0.11959285 0.040075302 1.3161316e-38
0.033225708 0.12346489 0.040615439 1.3807762e-38
0.035059169 0.12706175 0.043139875 1.3993218e-38
0.036314733 0.12955034 0.044248879 1.4454539e-38
0.030550651 0.075454324 0.0349316 1.7212868e-38
0.029739223 0.11644531 0.039950967 1.399537e-38
0.029972218 0.1194701 0.040863991 1.3810992e-38
0.03006117 0.12297896 0.042755425 1.3533324e-38
0.03147766 0.12596565 0.043813825 1.3808095e-38
0.026618317 0.075628385 0.036311865 1.5739176e-38
0.026102461 0.078872144 0.034693301 1.4265116e-38
0.024832316 0.11171015 0.039849997 1.5283936e-38
0.026109502 0.11513201 0.040458381 1.5007346e-38
0.026677646 0.11923891 0.042353272 1.3902459e-38
0.027039766 0.12294184 0.044097006 1.3164871e-38
0.028533012 0.12550816 0.044650912 1.3163092e-38
0.02464214 0.075048327 0.036997437 1.6474577e-38
0.022513673 0.079361171 0.036525905 1.4083202e-38
0.021342836 0.082346782 0.036244333 1.27003e-38
0.021892384 0.11124381 0.040684938 1.4273356e-38
0.022942089 0.11469489 0.043203056 1.4178688e-38
0.02464214 0.12154953 0.044537723 1.3071975e-38
0.020102799 0.079471812 0.038331568 1.5826619e-38
0.018237449 0.082887247 0.038003147 1.3528242e-38
0.017730199 0.08583647 0.036619604 1.0308633e-38
0.017084546 0.10382744 0.039624631 1.1510074e-38
0.018214442 0.10658457 0.039918184 1.2708226e-38
0.018270247 0.11004636 0.041948378 1.2891534e-38
0.019973099 0.1131824 0.043815434 1.2982666e-38
0.014609896 0.083602622 0.039492309 1.2977925e-38
0.014211558 0.086194947 0.037564695 1.0305373e-38
0.013210677 0.096027911 0.038886368 8.0040963e-39
0.013641112 0.099466637 0.039385438 9.6675805e-39
0.01428169 0.10251096 0.040558636 1.0866837e-38
0.014336266 0.10597977 0.042504907 1.1696598e-38
0.01447393 0.1093846 0.043654919 1.2155049e-38
0.010446392 0.083308622 0.039414227 1.1871965e-38
0.010628097 0.085683987 0.037559986 1.1500314e-38
0.010628097 0.095972463 0.03922832 8.2824615e-39
0.011058517 0.098982513 0.039657891 9.39096e-39
0.010535017 0.10220586 0.041387379 1.0033108e-38
0.010584965 0.10542762 0.043541789 1.0585215e-38
0.011024103 0.10834014 0.044246376 1.1233805e-38
0.0065589994 0.083225176 0.039928913 1.0124578e-38
0.0067542046 0.08651942 0.038221955 9.9394492e-39
0.0067541972 0.095246255 0.03963697 8.5586924e-39
0.0067542121 0.099747464 0.040366828 9.1100767e-39
0.0067346692 0.10228035 0.04100734 9.3870125e-39
0.0065210834 0.10495414 0.04390043 9.6642987e-39
0.0035215691 0.08334142 0.04053092 8.7416543e-39
0.002795063 0.086623624 0.039685369 7.9136803e-39
0.0015890673 0.089348078 0.039382458 6.8109411e-39
0.0024499074 0.094939485 0.04017216 7.9154712e-39
0.0028803721 0.10223641 0.041296899 8.2814105e-39
0.0029897615 0.10474505 0.043988585 8.5583295e-39
0 0.086790398 0.042250097 5.5191303e-39
9.9241734e-05 0.090215236 0.041769803 6.3456764e-39
0.0002316013 0.094336689 0.041057348 6.8102012e-39
0.00029776245 0.099608839 0.041221738 6.8105558e-39
0.00029776245 0.10218096 0.041638851 6.9013403e-39
9.9256635e-05 0.10504816 0.044175029 6.8998927e-39
0.070799597 0.097413525 0.0086065531 1.6572531e-38
0.097074986 0.10073233 0.008957088 1.64825e-38
0.071355671 0.10261148 0.020784676 1.2796829e-38
0.078058861 0.10375439 0.019196749 1.3531529e-38
0.15133861 0.10352731 0.010315657 1.4820828e-38
0.13944416 0.10813783 0.013209522 1.4547457e-38
0.14424565 0.11597517 0.016137123 1.5375435e-38
0.16658583 0.12790342 0.021168351 2.302771e-38
0.11105765 0.11458457 0.021822453 1.7496293e-38
0.081681848 0.11765664 0.029494286 7.4516512e-39
0.087787487 0.11067338 0.032708645 1.6849482e-38
0.16201404 0.066739932 0.021071017 2.2483513e-38
0.16267687 0.069273636 0.020077705 2.2579306e-38
0.16282642 0.14149256 0.031037748 2.2771243e-38
0.16251501 0.14483616 0.032530785 2.2489976e-38
0.15816063 0.065450951 0.020456493 2.3113764e-38
0.159141 0.068435848 0.019692123 2.2930089e-38
0.1593578 0.14573631 0.032197177 2.2388788e-38
0.15769236 0.14786959 0.033791661 2.2665372e-38
0.15349388 0.062088639 0.0211339 2.2932237e-38
0.15357257 0.064901114 0.020080149 2.2928294e-38
0.15339035 0.14875424 0.034349263 2.2477727e-38
0.14936781 0.061778262 0.021400928 2.283394e-38
0.14944494 0.064547718 0.020890355 2.2559142e-38
0.14946441 0.14912054 0.0347718 2.1922397e-38
0.14831671 0.15089521 0.036578357 2.155398e-38
0.14505544 0.058580488 0.022052467 2.3386389e-38
0.14559552 0.061427861 0.021418691 2.3017956e-38
0.1455054 0.14921676 0.034848392 2.109119e-38
0.14567031 0.15087467 0.036593974 2.0907171e-38
0.14179419 0.058510467 0.022484362 2.3113758e-38
0.14196007 0.06049782 0.021250844 2.3022269e-38
0.14158115 0.14967284 0.0352512 2.0539073e-38
0.14168768 0.15086171 0.036451697 2.0446869e-38
0.13747889 0.058274776 0.022265911 2.3293482e-38
0.13771257 0.060122848 0.021596849 2.3110888e-38
0.13832933 0.14960301 0.035681725 1.943167e-38
0.13778013 0.15142681 0.037074327 1.9154726e-38
0.13391955 0.057812974 0.022930205 2.2744611e-38
0.13380787 0.060038999 0.022113919 2.2836807e-38
0.13365841 0.15164763 0.037378252 1.8603341e-38
0.1300091 0.057242036 0.023369014 2.228578e-38
0.12990442 0.059955209 0.022630751 2.2375102e-38
0.12987457 0.14942148 0.036801219 1.9062174e-38
0.12991934 0.15131214 0.037612796 1.8511157e-38
0.12608461 0.057035953 0.023698628 2.1457828e-38
0.12597238 0.059950933 0.022823632 2.1638621e-38
0.12597238 0.14933771 0.037317932 1.8144879e-38
0.1263819 0.1508579 0.038531005 1.8327123e-38
0.12135692 0.053740934 0.024488211 1.7217911e-38
0.12228189 0.056965485 0.023479939 1.814239e-38
0.12233034 0.1487413 0.03771621 2.0261764e-38
0.12244057 0.15092462 0.039486229 1.9337634e-38
0.11831307 0.054108649 0.024961472 1.325998e-38
0.11820427 0.056422427 0.023818254 1.2796496e-38
0.11790785 0.14864635 0.038301766 1.9249798e-38
0.11800864 0.15082946 0.040073037 1.9805846e-38
0.1141775 0.056669131 0.025044262 1.3530803e-38
0.11296507 0.059671655 0.024545968 1.2515891e-38
0.11453894 0.14855188 0.038948655 1.6762687e-38
0.11469176 0.15055248 0.040581048 1.7865779e-38
0.11179053 0.057216674 0.02635175 1.4912991e-38
0.11043438 0.060417891 0.026203334 1.3347827e-38
0.10906288 0.064769715 0.025902867 1.1596464e-38
0.11040734 0.14762841 0.039886117 1.5194645e-38
0.11179053 0.15011096 0.041414797 1.685524e-38
0.10785787 0.064354971 0.027702987 1.1135495e-38
0.10615191 0.068148464 0.028014541 7.5452832e-39
0.10615218 0.072412506 0.028705955 4.1369371e-39
0.10653485 0.076086536 0.029444337 3.9507396e-39
0.105268 0.078513771 0.030691504 1.3779374e-39
0.10559426 0.14458197 0.039315999 1.3076292e-38
0.10652559 0.14684497 0.040748894 1.4089364e-38
0.10396349 0.07718654 0.030653536 2.6639483e-39
0.10169207 0.1406118 0.039202511 1.0404076e-38
0.10242757 0.14373904 0.040248573 1.1785936e-38
0.10237814 0.1465767 0.041711926 1.3903168e-38
0.098657027 0.13709208 0.039044201 9.3920712e-39
0.098657042 0.13968298 0.039464414 1.1878087e-38
0.098701246 0.14345208 0.041091681 1.5193528e-38
0.098730728 0.14662068 0.042282879 1.6572888e-38
0.094429657 0.13667744 0.039551437 1.2522373e-38
0.094940655 0.13997331 0.040016472 1.5656702e-38
0.094780542 0.14340793 0.041276634 1.8233857e-38
0.094654419 0.14702514 0.042859793 1.9152216e-38
0.090266168 0.072994784 0.031835198 2.1916251e-38
0.090048768 0.074722409 0.032144964 2.2648785e-38
0.092153378 0.14083882 0.04053551 1.740659e-38
0.091027573 0.14352386 0.041507244 1.7404439e-38
0.091090687 0.14674595 0.043244064 1.7958338e-38
0.086678781 0.072592959 0.032257557 2.2093128e-38
0.086977683 0.075089961 0.03159976 2.2925037e-38
0.086700819 0.1440434 0.042205036 1.6391026e-38
0.087254159 0.14625159 0.043714464 1.6945642e-38
0.083084203 0.071614623 0.032246649 2.2187836e-38
0.083069831 0.075284064 0.032162309 2.2842191e-38
0.083059043 0.14382401 0.042766571 1.6021879e-38
0.083091393 0.1455971 0.044582903 1.6666172e-38
0.079177871 0.068859041 0.032671452 2.21864e-38
0.079334728 0.071381122 0.032675743 2.2186756e-38
0.080464587 0.074301451 0.032356977 2.2839719e-38
0.078500479 0.14310169 0.043064475 1.4916609e-38
0.079177871 0.14551307 0.045101106 1.4640028e-38
0.075264357 0.068775028 0.033189654 2.0982494e-38
0.075525247 0.070599526 0.033449948 2.1170814e-38
0.072642416 0.1404199 0.043119013 1.546978e-38
0.074597351 0.14300916 0.043656528 1.500592e-38
0.075264357 0.14542904 0.045619309 1.3802012e-38
0.071024694 0.068359196 0.033698261 1.9881142e-38
0.071346253 0.070213661 0.032933235 2.0160984e-38
0.069715776 0.14003322 0.043453991 1.5378312e-38
0.070911959 0.14286959 0.044659972 1.5747069e-38
0.072655335 0.14537305 0.045964658 1.5008404e-38
0.0679591 0.067578793 0.033988297 1.9973709e-38
0.067251883 0.071020484 0.033766448 2.0897069e-38
0.066138759 0.13963252 0.043875158 1.4732228e-38
0.06700395 0.14274606 0.045511723 1.6298818e-38
0.062654123 0.067638129 0.034718931 2.311805e-38
0.06326808 0.070989802 0.034565628 2.2654529e-38
0.064828292 0.073747844 0.0354141 1.9044762e-38
0.062048286 0.13923225 0.044658184 1.5193192e-38
0.063154779 0.1422509 0.046311438 1.5930747e-38
0.057979636 0.068079114 0.035425603 2.3118066e-38
0.058962062 0.069780111 0.035312355 2.2936913e-38
0.058329605 0.13877648 0.04513824 1.5378302e-38
0.058684602 0.14196931 0.046873212 1.5746335e-38
0.053087741 0.064401209 0.03549397 2.1635371e-38
0.054405555 0.067395091 0.035118937 2.2280042e-38
0.054262102 0.13884598 0.045744836 1.4825497e-38
0.054402232 0.14179315 0.047353566 1.4732944e-38
0.050233953 0.063959271 0.035196841 1.7954024e-38
0.050513528 0.065950736 0.034732282 1.8414275e-38
0.050096408 0.13561763 0.045404077 1.4454545e-38
0.050512686 0.13856712 0.046507299 1.4089718e-38
0.050486632 0.14103945 0.047933817 1.4365945e-38
0.046763249 0.063064933 0.034986854 1.6017923e-38
0.047928527 0.066048041 0.034417808 1.6666167e-38
0.046432763 0.13500898 0.046095371 1.4361961e-38
0.046743676 0.13822085 0.047815025 1.3440762e-38
0.042449906 0.06376487 0.035200953 1.3526834e-38
0.041424878 0.066556141 0.035383999 1.1685816e-38
0.042713284 0.13455291 0.046575487 1.4640001e-38
0.042986587 0.13729696 0.048431277 1.3534388e-38
0.040042676 0.063471526 0.037115932 1.2329372e-38
0.038983054 0.066848367 0.037126124 1.1126851e-38
0.03815078 0.069612712 0.036835611 1.3516747e-38
0.03817305 0.13190708 0.04642272 1.4731139e-38
0.03879004 0.13441131 0.047540009 1.4456319e-38
0.039390422 0.1368635 0.049105287 1.3995709e-38
0.036129147 0.067934766 0.038371444 1.5558681e-38
0.034703352 0.070533678 0.038092315 1.8596502e-38
0.033620492 0.12792294 0.046395302 1.4178349e-38
0.034752361 0.13068342 0.046817005 1.4544934e-38
0.035174429 0.13326582 0.048583746 1.4359111e-38
0.030938089 0.071181267 0.039092243 1.8319234e-38
0.030747704 0.12731528 0.04689163 1.3440379e-38
0.030940883 0.1302617 0.048615098 1.3810243e-38
0.02733817 0.07137382 0.039868176 1.6658991e-38
0.026405908 0.073140785 0.03951484 1.6107243e-38
0.025816098 0.12386899 0.046798527 1.2979037e-38
0.026931904 0.12659368 0.047472119 1.2979038e-38
0.027442053 0.1297006 0.04939723 1.2981567e-38
0.022875778 0.074577853 0.040431976 1.7304317e-38
0.022564277 0.11991279 0.046598911 1.3164187e-38
0.023035504 0.12263961 0.047232628 1.2796468e-38
0.023295633 0.12606832 0.048775375 1.2980837e-38
0.019822806 0.075379983 0.041794598 1.9054529e-38
0.018830635 0.077804863 0.040959895 1.8316969e-38
0.018930405 0.11481571 0.046412289 1.2519542e-38
0.019288182 0.11849629 0.047155142 1.233802e-38
0.019233204 0.12227008 0.04856956 1.1691208e-38
0.019496679 0.12506819 0.049896002 1.1322061e-38
0.015497573 0.078405961 0.042143047 1.914858e-38
0.014516935 0.081239134 0.041762173 1.5646562e-38
0.014109537 0.11066304 0.046247959 1.2152895e-38
0.015378043 0.11386351 0.047020555 1.2428053e-38
0.01533366 0.11830998 0.048343778 1.2059975e-38
0.015457943 0.12196952 0.049431324 1.1047976e-38
0.015257046 0.12465235 0.050404727 1.0030983e-38
0.011384651 0.078551114 0.042944431 1.675725e-38
0.011833251 0.081142455 0.041770458 1.4173254e-38
0.01020734 0.10669288 0.046134472 1.0956865e-38
0.01124794 0.1100834 0.046542883 1.0773198e-38
0.011432029 0.11369959 0.048041284 1.1322437e-38
0.011750944 0.11796108 0.04935813 1.1875576e-38
0.012213193 0.1211224 0.050246 1.1048307e-38
0.0074739754 0.07846716 0.043462276 1.2888602e-38
0.0076058656 0.080727816 0.042277694 1.168688e-38
0.0072806925 0.10630617 0.04646945 1.021856e-38
0.0075563937 0.10913527 0.047458708 1.058378e-38
0.007588394 0.11334022 0.049147964 1.0308994e-38
0.0087345093 0.11671698 0.050004303 1.0772122e-38
0.00356327 0.078383192 0.043980062 9.1107886e-39
0.0033784956 0.080960914 0.042889953 8.8342115e-39
0.0033784956 0.10622239 0.046986163 9.0193062e-39
0.0035990551 0.10895871 0.048535645 1.0124219e-38
0.003702715 0.11258925 0.049763262 8.7441613e-39
0.00090748072 0.078871518 0.044931233 7.8229168e-39
0.0010372922 0.081745103 0.044016778 7.545988e-39
0.001053527 0.10576409 0.04773885 7.6345809e-39
0.00090748817 0.1087536 0.049776733 7.5391511e-39
0.00090748072 0.11200166 0.05030334 5.0585109e-39
0.069674388 0.098294437 0.0073052645 1.7217184e-38
0.06952025 0.096954435 0.0079849362 1.7221133e-38
0.085962899 0.093367621 0.0090993643 1.693449e-38
0.092790253 0.098084912 0.0097162724 1.2056401e-38
0.092183441 0.096774176 0.015683472 1.3255647e-38
0.13726833 0.12526257 0.017417729 1.3810627e-38
0.13497858 0.10306628 0.015700817 1.2884739e-38
0.10439843 0.12273528 0.026452899 1.7502421e-38
0.11803747 0.10039561 0.021114051 1.8049468e-38
0.07952451 0.1102199 0.026094437 1.0675959e-38
0.04596673 0.066587269 0.03253603 1.3995003e-38
0.061009519 0.12307203 0.034731865 1.3165968e-38
0.15792191 0.15070231 0.038989663 2.2384468e-38
0.15390715 0.05934839 0.02404052 2.3024082e-38
0.15509003 0.14951995 0.037479222 2.2846504e-38
0.15371734 0.15114199 0.039564192 2.2016001e-38
0.14973667 0.057382792 0.024493039 2.3205592e-38
0.15051106 0.059515938 0.023507059 2.3018704e-38
0.15012428 0.15208927 0.03946507 2.1000772e-38
0.14878055 0.15438998 0.041170597 1.8883154e-38
0.14606231 0.056311101 0.024784386 2.3113041e-38
0.14596915 0.15254655 0.039550126 2.0261772e-38
0.14579991 0.15467846 0.041366875 1.8879934e-38
0.14216731 0.055711105 0.02555722 2.3111974e-38
0.14206049 0.15244511 0.040235221 2.0078086e-38
0.14222027 0.15477182 0.042124033 1.8879925e-38
0.13762806 0.053531423 0.026331663 2.3111946e-38
0.13846506 0.055574208 0.025731444 2.3019049e-38
0.13818324 0.15296081 0.041356802 1.8878855e-38
0.13888969 0.15422922 0.041977525 1.8787019e-38
0.13404781 0.053031042 0.026328266 2.2931511e-38
0.13422161 0.055093169 0.025684953 2.2745329e-38
0.13481167 0.1529935 0.040798128 1.8235641e-38
0.13399658 0.15442505 0.042929709 1.8051967e-38
0.13036698 0.052846149 0.026696205 2.2838249e-38
0.13032222 0.054927424 0.026528656 2.2746404e-38
0.1302619 0.15286079 0.04173559 1.8511149e-38
0.13021417 0.15517345 0.043437362 1.8602628e-38
0.12637836 0.052926466 0.026569784 2.2474835e-38
0.1260965 0.15222213 0.042470694 1.851079e-38
0.12645134 0.15487343 0.043991387 1.869589e-38
0.12115102 0.048858628 0.026790857 1.9707186e-38
0.12287216 0.051805764 0.026694179 1.9984499e-38
0.12253939 0.15382656 0.04464519 1.8877053e-38
0.11855894 0.048831642 0.027547598 1.58375e-38
0.11846992 0.051619634 0.026751101 1.3811706e-38
0.11883961 0.15224601 0.04361397 1.9710048e-38
0.11532307 0.049132288 0.02864939 1.519176e-38
0.11458468 0.052034706 0.027971029 1.5096331e-38
0.11429878 0.15198985 0.043831766 1.8788107e-38
0.11466704 0.15365754 0.045687556 1.9525665e-38
0.1109933 0.052436858 0.029773653 1.6848763e-38
0.11028606 0.055650294 0.029222667 1.5557626e-38
0.10930017 0.058631107 0.028963804 1.353113e-38
0.10930017 0.14853682 0.043542266 1.5197163e-38
0.11050589 0.15122598 0.044836581 1.7869026e-38
0.11073087 0.15357304 0.046208739 1.9802245e-38
0.10695872 0.055649742 0.0308429 1.2426961e-38
0.10675045 0.05958733 0.030714631 1.16876e-38
0.10606586 0.063617676 0.030893326 1.0306107e-38
0.10670149 0.14844412 0.044221103 1.4826574e-38
0.10675736 0.15029311 0.045535505 1.6762321e-38
0.10417058 0.060653508 0.032033086 1.0308264e-38
0.10303858 0.063649043 0.032526731 9.2937519e-39
0.10282422 0.067309648 0.032613933 7.1757692e-39
0.10348867 0.071203649 0.033325493 3.9507284e-39
0.10411881 0.074590176 0.033277869 3.21532e-39
0.10311078 0.1480228 0.04481107 1.4734726e-38
0.10284221 0.15017307 0.046388745 1.7500242e-38
0.1002344 0.064489231 0.033189952 8.832401e-39
0.1002344 0.066449344 0.033507824 8.4618122e-39
0.098833911 0.14831209 0.044928074 1.75874e-38
0.098715976 0.15037486 0.046884954 1.8232418e-38
0.093655773 0.071644962 0.034733176 1.6387726e-38
0.093637444 0.073712707 0.034559906 1.8877801e-38
0.096217342 0.14825591 0.045274556 1.8784148e-38
0.094807714 0.15049514 0.04749018 1.9060379e-38
0.090393968 0.068198174 0.035128593 2.0260336e-38
0.091022596 0.070791453 0.034612 2.108649e-38
0.092292495 0.073901713 0.03375119 2.2006643e-38
0.090330072 0.14812952 0.046054065 1.8233124e-38
0.091223352 0.15021399 0.047877014 1.8875982e-38
0.086779475 0.067850232 0.035307884 2.2558408e-38
0.08732684 0.070362642 0.034056544 2.2281477e-38
0.086745448 0.14767143 0.046977997 1.7405901e-38
0.087289073 0.15012951 0.048398018 1.7496648e-38
0.083145306 0.067728251 0.034504235 2.3109774e-38
0.083159044 0.14719425 0.048069358 1.676017e-38
0.083177656 0.14971459 0.049327433 1.6758376e-38
0.078890562 0.066659197 0.03490907 2.2926121e-38
0.079220586 0.14716536 0.048088849 1.5560542e-38
0.079239137 0.14964817 0.049681485 1.620483e-38
0.073993251 0.063272446 0.036558628 2.246118e-38
0.075291649 0.066217512 0.035496891 2.1539598e-38
0.075289942 0.14709973 0.048442006 1.5184948e-38
0.07563331 0.14922592 0.050273299 1.6016864e-38
0.071532473 0.062787354 0.036558867 2.0803828e-38
0.071623854 0.066069573 0.035698771 2.0160253e-38
0.071199976 0.14648131 0.049280822 1.6944182e-38
0.072681189 0.14883585 0.050611258 1.7308652e-38
0.067432955 0.05986473 0.03689754 2.0617974e-38
0.067269392 0.062782466 0.036754012 2.0896732e-38
0.066780992 0.066513315 0.036019921 2.0619787e-38
0.067433588 0.14558929 0.04960537 1.7126792e-38
0.063500531 0.062522173 0.037294984 2.098748e-38
0.063946381 0.066561043 0.036412895 2.2007022e-38
0.064818569 0.069402888 0.036755145 2.3300595e-38
0.062856145 0.14363068 0.04905808 1.6115147e-38
0.063500986 0.14544821 0.050628066 1.6389934e-38
0.059569843 0.062489539 0.037596703 2.2558065e-38
0.059770286 0.066283524 0.037081361 2.3211689e-38
0.059585437 0.14356047 0.049491107 1.583783e-38
0.059566803 0.14534469 0.051316142 1.56527e-38
0.055632673 0.062327564 0.038446188 2.2835008e-38
0.055660598 0.06529732 0.037333906 2.3016905e-38
0.05565457 0.14343727 0.050346076 1.4732595e-38
0.055633463 0.14526024 0.051836967 1.5007723e-38
0.051688261 0.059526682 0.038982272 2.0070568e-38
0.051974423 0.061595976 0.038256884 1.9702158e-38
0.051449969 0.14274821 0.051487148 1.4732211e-38
0.052016273 0.14479864 0.052764773 1.5099186e-38
0.04776188 0.059521288 0.039174259 1.7952196e-38
0.049119174 0.06124793 0.037566245 1.7862154e-38
0.0477916 0.14170858 0.051474929 1.3902454e-38
0.043815911 0.059357658 0.040024698 1.6479595e-38
0.043231912 0.061121523 0.038345754 1.5283196e-38
0.043549746 0.13895097 0.051178336 1.3347127e-38
0.043833442 0.14108947 0.052764297 1.3994637e-38
0.039582752 0.061727792 0.040217757 1.2699206e-38
0.039919838 0.13845548 0.052357852 1.2796111e-38
0.040535763 0.14030522 0.053596258 1.3532943e-38
0.03725563 0.06313704 0.041529 1.2050616e-38
0.035815768 0.065638497 0.040816069 1.4264359e-38
0.035148077 0.13474101 0.051722646 1.4083603e-38
0.036337785 0.13746884 0.053268731 1.3717688e-38
0.032360956 0.066738203 0.042267025 1.8690492e-38
0.030803218 0.068672553 0.04125911 1.9426275e-38
0.031895205 0.13387936 0.052706361 1.4269452e-38
0.033319451 0.13623005 0.053916097 1.3899224e-38
0.028071202 0.066860065 0.043380797 1.8503614e-38
0.027294606 0.068957031 0.042122722 1.7214314e-38
0.026006192 0.13067834 0.051965415 1.2524191e-38
0.028368272 0.13280508 0.053420305 1.362551e-38
0.024177298 0.069754571 0.043697894 1.711992e-38
0.02295354 0.072412968 0.042932332 1.767418e-38
0.021645263 0.12711009 0.051979423 1.2334757e-38
0.023686655 0.12939116 0.052889526 1.1785545e-38
0.021510921 0.070639431 0.044885099 1.9150736e-38
0.019624963 0.073028564 0.044336259 2.0071613e-38
0.019028693 0.12640241 0.052220225 1.0493391e-38
0.020488523 0.12869164 0.054028511 1.0770683e-38
0.015972517 0.073894441 0.045654535 2.1453154e-38
0.014449701 0.076139331 0.044692218 1.9700367e-38
0.013795555 0.12303261 0.052384973 1.0404755e-38
0.015786864 0.12574783 0.053430796 9.8483817e-39
0.012406915 0.074578345 0.045738816 1.8590424e-38
0.011179 0.076069102 0.045125246 1.6942028e-38
0.0098707229 0.11838791 0.052165151 1.1323842e-38
0.011587664 0.12250268 0.052939773 1.0588391e-38
0.01262071 0.12512706 0.054519713 9.2033317e-39
0.0080651939 0.073833317 0.046646118 1.5653457e-38
0.0071662366 0.075770691 0.04664433 1.4544182e-38
0.0059458613 0.11504618 0.052156627 1.0401872e-38
0.0070354342 0.11774404 0.05308497 1.0033447e-38
0.0084283948 0.12138718 0.054437637 8.7448563e-39
0.0097024068 0.12396231 0.055136204 8.1952516e-39
0.0044770986 0.073594093 0.047423482 1.0951456e-38
0.0032980964 0.075829133 0.04649806 9.2022654e-39
0.0030022413 0.11465724 0.052493572 7.3579996e-39
0.0034111962 0.11730223 0.053761303 6.5289578e-39
0.0041500255 0.12110265 0.055171609 8.6476538e-39
0.001925543 0.12393804 0.05516696 1.389952e-38
0.0018300489 0.074137107 0.048126698 8.7369796e-39
0.00071273744 0.077147365 0.046722412 8.0037012e-39
0.00071273744 0.11428233 0.052743912 5.7067852e-39
0.0018300489 0.11856632 0.055331051 9.9406039e-39
0.0018300489 0.11987306 0.055542946 1.2155027e-38
0.076879896 0.095899329 0.0061932206 1.4909051e-38
0.072783448 0.097163439 0.0069122314 1.6291248e-38
0.093433931 0.10355825 0.010615766 1.3808122e-38
0.1192432 0.10738283 0.010986686 1.307379e-38
0.078834102 0.10899846 0.020487666 1.2520959e-38
0.10436125 0.11372047 0.023993075 1.3442202e-38
0.10893342 0.10961775 0.022153676 7.5423867e-39
0.08304026 0.11378437 0.028521001 8.4658003e-39
0.050634943 0.13143614 0.040450811 1.4638911e-38
0.098570503 0.13673814 0.034796536 1.7405535e-38
0.066157155 0.12818679 0.035770297 1.3350371e-38
0.006488733 0.090776712 0.037780225 9.1097152e-39
0.10394973 0.064741865 0.028126419 2.2560221e-38
0.15703475 0.053204149 0.026707709 2.2661448e-38
0.15852872 0.1519196 0.042170942 2.1740523e-38
0.15308158 0.053119272 0.027231157 2.2844001e-38
0.15434991 0.056655645 0.027223408 2.3023366e-38
0.1542758 0.058634907 0.02694118 2.3026225e-38
0.15460476 0.15267049 0.042144597 2.1186618e-38
0.15308158 0.1541727 0.043617249 2.0080628e-38
0.15044615 0.053062677 0.027580202 2.2842915e-38
0.15068719 0.054892451 0.027077496 2.29326e-38
0.15058117 0.15562125 0.043936431 1.9067545e-38
0.14618495 0.052545443 0.027666509 2.2842555e-38
0.14769664 0.054562137 0.02717483 2.2840757e-38
0.14664397 0.1562345 0.043804288 1.8604063e-38
0.14248656 0.052359596 0.028036714 2.3022284e-38
0.1424333 0.15634067 0.044393718 1.8142025e-38
0.14385754 0.15791181 0.045477033 1.7956565e-38
0.13853621 0.051400483 0.028418005 2.3021899e-38
0.13832636 0.15561563 0.045126319 1.8326768e-38
0.13419425 0.048339128 0.029022753 2.3023352e-38
0.13489152 0.050620392 0.028531253 2.3114464e-38
0.13483992 0.15594128 0.045769632 1.8141297e-38
0.13331577 0.15768547 0.046872854 1.8508633e-38
0.13064985 0.048785061 0.029235899 2.3204883e-38
0.1305908 0.050263345 0.028802276 2.302192e-38
0.13190663 0.15644228 0.045840681 1.8600833e-38
0.13061112 0.15901442 0.0466609 1.8877056e-38
0.13062125 0.16162606 0.047196567 1.9062517e-38
0.12672716 0.04861626 0.030082405 2.2655641e-38
0.1266433 0.050178602 0.029325008 2.2746757e-38
0.1266433 0.15632927 0.046537578 1.8880641e-38
0.12666193 0.15892942 0.047183812 1.9433808e-38
0.12730122 0.16158542 0.047300458 1.970896e-38
0.12335371 0.048797488 0.029548049 2.210749e-38
0.12300588 0.15540484 0.047495246 1.8785935e-38
0.11874829 0.047388077 0.029945374 1.5467303e-38
0.11878455 0.15414412 0.047762215 1.9616407e-38
0.11482339 0.046999604 0.030756354 1.6665449e-38
0.1148008 0.15443689 0.047840059 1.9524587e-38
0.11155758 0.047697797 0.031739235 1.6941668e-38
0.11052433 0.05016014 0.031512439 1.6664373e-38
0.11085329 0.15467975 0.04841584 1.9801166e-38
0.10712523 0.051301688 0.032743514 1.343969e-38
0.10558996 0.053658083 0.032750189 9.9412976e-39
0.10692367 0.15193935 0.048846126 1.8787402e-38
0.10727641 0.15354314 0.049484134 2.0171019e-38
0.10364114 0.056116074 0.03392458 1.0398262e-38
0.10279381 0.058676243 0.033943832 1.0491538e-38
0.10230038 0.061450467 0.034460783 9.3852497e-39
0.10164246 0.070609853 0.036035359 5.426199e-39
0.10230038 0.074555486 0.036585748 3.8578223e-39
0.10322146 0.077720463 0.036973834 5.4187399e-39
0.10300818 0.15178521 0.050034702 1.9434924e-38
0.10300817 0.15342569 0.050300658 2.072097e-38
0.09993349 0.059414983 0.035474479 1.17758e-38
0.09886241 0.062435523 0.035470903 1.0027343e-38
0.098634839 0.066800982 0.035826504 8.9174038e-39
0.099010795 0.070553347 0.036383808 7.7228319e-39
0.099668711 0.074498981 0.036934197 6.9827781e-39
0.10032663 0.077134117 0.037272096 9.3809701e-39
0.099691749 0.15176655 0.049971223 1.9524554e-38
0.098714992 0.15335932 0.050617754 2.0722746e-38
0.095357291 0.063212603 0.036507666 1.5007308e-38
0.095075712 0.066461176 0.036595643 1.3713687e-38
0.095439255 0.070289448 0.036826432 1.2228156e-38
0.096379131 0.15174797 0.049907386 1.9337704e-38
0.095089301 0.15361819 0.051067233 2.0351468e-38
0.092466392 0.06362927 0.037172496 1.6478519e-38
0.091331951 0.065886915 0.037546754 1.7212845e-38
0.09243162 0.069101587 0.037042499 1.7767798e-38
0.090457872 0.15162085 0.050691426 1.878308e-38
0.091405265 0.15339409 0.051667809 1.9245512e-38
0.085877791 0.063487813 0.03804487 2.3020796e-38
0.087448537 0.065450162 0.037740827 2.2194282e-38
0.086510368 0.15153609 0.051214099 1.7401935e-38
0.087195516 0.15275809 0.052341282 1.777037e-38
0.083242357 0.063431218 0.038393915 2.3208819e-38
0.083220787 0.064972311 0.037624598 2.3207736e-38
0.083220787 0.15146546 0.05164969 1.6663284e-38
0.082974866 0.15321308 0.052784085 1.6666886e-38
0.079116993 0.062310323 0.038261592 2.3025146e-38
0.0799312 0.064901695 0.038060188 2.3295273e-38
0.079273276 0.1513807 0.052172363 1.6388138e-38
0.079463795 0.15361716 0.05265516 1.648067e-38
0.075331368 0.059114486 0.038257837 2.3291671e-38
0.075703457 0.061969146 0.038305163 2.2647381e-38
0.075064279 0.15074512 0.052845657 1.6754428e-38
0.0762145 0.15295978 0.053866208 1.6846238e-38
0.071380556 0.05870156 0.03872776 2.1724005e-38
0.070062451 0.060758293 0.03872937 2.015774e-38
0.071116559 0.14932808 0.053356767 1.7770002e-38
0.067430124 0.05846183 0.039327979 2.0526155e-38
0.068746619 0.06073004 0.038903594 1.9975501e-38
0.067430787 0.14719494 0.053102911 1.8047661e-38
0.067429699 0.14839655 0.054320037 1.7864347e-38
0.063479885 0.058531925 0.039773881 2.0990372e-38
0.063483275 0.14711018 0.053625643 1.639066e-38
0.06347654 0.14831167 0.054843485 1.6576132e-38
0.059531637 0.057831049 0.040026426 2.0712357e-38
0.059535779 0.14702542 0.054148316 1.5744189e-38
0.059523374 0.1482268 0.055366933 1.5745643e-38
0.055582233 0.057746232 0.040549338 2.1913054e-38
0.055581614 0.14690362 0.055006504 1.546797e-38
0.051628903 0.056966037 0.041130424 2.0991773e-38
0.051624939 0.14590746 0.055723369 1.537576e-38
0.04767856 0.056881219 0.041653514 1.8597576e-38
0.047035366 0.14282551 0.055166006 1.4361625e-38
0.047945045 0.14463472 0.055744529 1.4636413e-38
0.044066437 0.057191402 0.041939139 1.7860027e-38
0.043745771 0.1427549 0.055601537 1.39943e-38
0.044369563 0.14396431 0.056734979 1.3993927e-38
0.040097155 0.058298796 0.0431692 1.4910065e-38
0.038482442 0.06008026 0.042910874 1.2425151e-38
0.039781973 0.14131236 0.056315124 1.4266202e-38
0.036047205 0.061221361 0.043937981 1.2422299e-38
0.034486651 0.13784638 0.057085931 1.3716611e-38
0.031618893 0.064296931 0.04493618 1.7860031e-38
0.031608857 0.13665377 0.056874812 1.3625486e-38
0.028184302 0.064439833 0.045630515 1.859475e-38
0.027611904 0.13418594 0.056660056 1.3166317e-38
0.028556898 0.1357505 0.05755192 1.3257428e-38
0.024634495 0.066222727 0.046299756 1.7674897e-38
0.02331771 0.067505896 0.046686769 1.7581264e-38
0.02262716 0.13037366 0.057485819 1.1323855e-38
0.023960732 0.13240372 0.057378232 1.1600446e-38
0.020026237 0.068964779 0.047370613 1.9890099e-38
0.020037726 0.12997009 0.057090819 1.0495884e-38
0.020650566 0.13164359 0.057960331 1.0403684e-38
0.015727319 0.06958279 0.048310518 2.0072718e-38
0.016113274 0.07172212 0.047838449 2.1269818e-38
0.015819833 0.12847202 0.057489276 9.3888174e-39
0.012085408 0.069777727 0.04909265 1.9614632e-38
0.012165762 0.071964994 0.04841423 1.9611054e-38
0.011261106 0.12584826 0.057615101 8.2813614e-39
0.012364633 0.1280809 0.058304191 7.8207658e-39
0.0079034641 0.069250897 0.04916662 1.316596e-38
0.0082182512 0.071224973 0.048830688 1.5189292e-38
0.0079784989 0.12499149 0.058476031 7.7260675e-39
0.0076929927 0.1278657 0.059108675 1.0491585e-38
0.0041790605 0.069607973 0.050139546 9.4781166e-39
0.0039184019 0.071405813 0.049699843 9.7511273e-39
0.0033935383 0.12179414 0.057686269 1.1966313e-38
0.0044008493 0.12465699 0.058396816 1.2517349e-38
0.0055866018 0.12752007 0.058316708 1.3165234e-38
0.0016391054 0.072394222 0.04991436 8.9214017e-39
0.072839335 0.096112624 0.01001364 1.2887222e-38
0.077181704 0.093214989 0.0052058101 1.6842948e-38
0.083067916 0.10171283 0.0098724365 1.5282508e-38
0.1148079 0.1070968 0.011745214 1.2979783e-38
0.078887664 0.10619567 0.019701421 1.2058552e-38
0.13300383 0.094052806 0.013398826 1.7861469e-38
0.10853325 0.13534662 0.026920915 1.2247239e-38
0.069862142 0.12689416 0.034546137 1.3902449e-38
0.06873142 0.11235816 0.027856767 1.1600787e-38
0.10838944 0.11772332 0.022996783 8.2860628e-39
0.065453455 0.10753635 0.03020519 1.0215003e-38
0.055403575 0.098469824 0.02493149 1.0217485e-38
0.10447705 0.0683994 0.025476873 2.0718454e-38
0.15353104 0.14233801 0.027327299 2.1743416e-38
0.058470853 0.068929613 0.035369039 2.3027309e-38
0.12121885 0.14568645 0.038961828 1.9342714e-38
0.083240032 0.11512981 0.033987224 1.500736e-38
0.15434991 0.056655645 0.027223408 2.3023366e-38
0.15568045 0.049291596 0.031368017 2.257497e-38
0.15582968 0.051642746 0.029684722 2.2664293e-38
0.15508683 0.054421201 0.029214144 2.2842929e-38
0.15598905 0.1546699 0.045517445 1.888387e-38
0.15634403 0.15637028 0.048640966 1.5745247e-38
0.15212308 0.049718678 0.029876471 2.2660692e-38
0.15134259 0.051269814 0.029211938 2.2751438e-38
0.15332484 0.053944662 0.029376268 2.2933684e-38
0.15332484 0.15528765 0.045809329 1.9159763e-38
0.1524843 0.15772702 0.048158944 1.6024351e-38
0.14830628 0.049301088 0.0316903 2.2843609e-38
0.14803883 0.051198885 0.029649377 2.3026572e-38
0.1479563 0.15817729 0.048642755 1.6669345e-38
0.14400406 0.048814252 0.031650841 2.2934039e-38
0.14413939 0.158455 0.048184395 1.8049087e-38
0.13890886 0.047416598 0.031469285 2.3022986e-38
0.14077061 0.049726695 0.030398369 2.302263e-38
0.13977632 0.15815209 0.04855293 1.832784e-38
0.13491906 0.045395225 0.031513274 2.2655651e-38
0.13614537 0.047653168 0.03069067 2.3023705e-38
0.13590086 0.15831639 0.04887259 1.8323882e-38
0.13630843 0.16003053 0.05059433 1.8047278e-38
0.13293399 0.045352608 0.03177613 2.2747135e-38
0.1322723 0.04665643 0.032077491 2.2930463e-38
0.13350238 0.15881048 0.049074233 1.8600099e-38
0.13359568 0.16069382 0.050389051 1.8508616e-38
0.12781006 0.044727832 0.034415364 2.2290459e-38
0.12830214 0.046571195 0.032603204 2.256453e-38
0.12581933 0.044685096 0.034678996 2.2107884e-38
0.12433199 0.046485946 0.033128858 2.2106056e-38
0.12361069 0.1579161 0.050528944 1.9614256e-38
0.12038663 0.15708452 0.051939487 1.9340157e-38
0.11625109 0.15682667 0.052502275 1.9615711e-38
0.10971542 0.047743767 0.034296989 1.6019731e-38
0.11210716 0.1565849 0.052898467 1.9984465e-38
0.10776189 0.047575027 0.035046101 1.5737034e-38
0.10707243 0.049003154 0.034860313 1.4911586e-38
0.10707243 0.15429458 0.051933587 2.0537987e-38
0.10853395 0.15672237 0.054610908 2.0535852e-38
0.10386939 0.05239062 0.037889123 1.1869103e-38
0.10379363 0.054075226 0.036639333 1.1129757e-38
0.10509019 0.15425202 0.052196085 2.090643e-38
0.10436133 0.15652213 0.054579735 2.1548578e-38
0.10077535 0.05467838 0.037658393 1.4452634e-38
0.099583946 0.057177946 0.037203491 1.4082849e-38
0.10046494 0.15415272 0.052808523 2.1275564e-38
0.10071705 0.15644389 0.055062115 2.1641466e-38
0.096871741 0.056111038 0.038421154 1.8140195e-38
0.096527107 0.058489069 0.038512945 1.6660724e-38
0.095839709 0.060607284 0.038268387 1.6203328e-38
0.096535124 0.15624174 0.054557383 2.1824077e-38
0.093036309 0.055757284 0.039566457 2.1640759e-38
0.092381686 0.0586036 0.039435565 1.9701406e-38
0.09253595 0.061633125 0.038883686 1.7489082e-38
0.092409186 0.15633917 0.055407584 2.1548216e-38
0.088658817 0.055783287 0.041528344 2.126695e-38
0.088619992 0.058740377 0.040650308 2.0529378e-38
0.088571467 0.15389736 0.054383337 1.9060393e-38
0.084677339 0.055697799 0.042055547 2.2096358e-38
0.084646061 0.058655053 0.041176498 2.2836085e-38
0.084606968 0.061682239 0.039969146 2.3022989e-38
0.08526773 0.15382642 0.054820776 1.8049108e-38
0.084636293 0.15615983 0.056562603 1.8694103e-38
0.080690548 0.055031464 0.04214859 2.3386759e-38
0.080823712 0.058596864 0.040877342 2.3297798e-38
0.081963979 0.061625496 0.040319085 2.3208471e-38
0.080653153 0.15577464 0.056376994 1.7219682e-38
0.076698206 0.055186838 0.041694164 2.3292027e-38
0.077558987 0.058021203 0.040333271 2.3292386e-38
0.075356491 0.15361363 0.056133091 1.7124984e-38
0.076699905 0.15543717 0.058120072 1.7033123e-38
0.073054984 0.054819494 0.041959286 2.3017965e-38
0.072713494 0.056601018 0.040761411 2.2831429e-38
0.072551325 0.15235086 0.056820631 1.7957257e-38
0.07272733 0.15464127 0.059042037 1.7773932e-38
0.068749994 0.053900093 0.041713893 2.2925396e-38
0.068088263 0.056063011 0.041302741 2.1725782e-38
0.067427501 0.14949496 0.056542754 1.7588835e-38
0.068749554 0.15208745 0.057464838 1.7957985e-38
0.070078567 0.1545181 0.060063362 1.7408042e-38
0.064769924 0.051305026 0.044048488 2.2099599e-38
0.064781576 0.0538553 0.042075396 2.1911984e-38
0.064123765 0.055977881 0.041827679 2.1175116e-38
0.064123765 0.14942402 0.056980193 1.6851636e-38
0.064777069 0.15192208 0.058772922 1.6020785e-38
0.060788438 0.051219538 0.044575691 2.06234e-38
0.060437955 0.053913862 0.042431951 2.0622318e-38
0.062141515 0.055935323 0.042090118 2.0898912e-38
0.060159273 0.1493389 0.057505131 1.6022228e-38
0.060798973 0.15111949 0.059751213 1.5192839e-38
0.058134124 0.051162556 0.04492718 1.8966748e-38
0.056581512 0.053563595 0.043074369 2.0902476e-38
0.056186222 0.14854203 0.058426917 1.5192099e-38
0.056826398 0.15092304 0.060054779 1.5009493e-38
0.052617617 0.053790554 0.043445408 2.145349e-38
0.052673355 0.1481 0.059635639 1.5191013e-38
0.052838787 0.15025266 0.06103307 1.5190295e-38
0.048912778 0.053554982 0.044012845 1.9700339e-38
0.049076572 0.1472538 0.060133278 1.4270147e-38
0.045153737 0.053192586 0.04620254 1.9055707e-38
0.043640561 0.055538103 0.044539869 1.8321736e-38
0.044962049 0.14506418 0.05887717 1.3718051e-38
0.044895701 0.14681834 0.061214864 1.335069e-38
0.040912874 0.053629488 0.046849728 1.841215e-38
0.040997557 0.055920064 0.044960976 1.7118521e-38
0.040802963 0.14401868 0.059418857 1.3713028e-38
0.041250713 0.14640963 0.061643898 1.3162011e-38
0.036916599 0.05423981 0.047900617 1.8042993e-38
0.036759488 0.057185248 0.045946419 1.5185979e-38
0.03697373 0.14342576 0.061059773 1.3899921e-38
0.03295999 0.057433829 0.048488975 1.5462208e-38
0.033042856 0.060678333 0.047324479 1.3990696e-38
0.03261672 0.13950828 0.059880972 1.362478e-38
0.033273987 0.14222047 0.062559664 1.3992492e-38
0.030263759 0.058494866 0.049903452 1.509235e-38
0.028954558 0.060526446 0.050070107 1.6664698e-38
0.028443344 0.13681266 0.059783876 1.3164871e-38
0.029015817 0.13926899 0.061710656 1.2980505e-38
0.025035836 0.062653527 0.049925387 1.7954407e-38
0.024447151 0.064225361 0.049067736 1.8502519e-38
0.024478845 0.13409525 0.059881985 1.1969945e-38
0.025046408 0.13589518 0.061629951 1.252384e-38
0.025286891 0.13802545 0.063475847 1.2797538e-38
0.021073438 0.0645843 0.050606668 1.6937729e-38
0.019853614 0.066872656 0.049610257 1.8972473e-38
0.021175109 0.13270816 0.060106039 1.0496244e-38
0.021023996 0.13489041 0.062780201 1.0495527e-38
0.017040685 0.064749211 0.052033126 1.7035322e-38
0.017210625 0.067473978 0.050066888 1.9247277e-38
0.017186329 0.1312632 0.060754478 9.2944806e-39
0.016802542 0.13449162 0.0640558 9.2944904e-39
0.013089143 0.065619454 0.052370489 1.5561634e-38
0.012585379 0.068032742 0.050786018 1.8045164e-38
0.013193786 0.13113368 0.061616719 8.831706e-39
0.013255998 0.1347546 0.06355828 1.1781934e-38
0.0091301426 0.065711334 0.052718997 1.0954717e-38
0.0099423602 0.067975998 0.051136017 1.5097067e-38
0.0089512542 0.12816826 0.061030984 9.6625008e-39
0.0052273124 0.066335082 0.052532792 9.6664665e-39
0.0046563968 0.067862511 0.051835895 9.6596127e-39
0.0025805533 0.064960226 0.052669525 1.3808056e-38
0.00267414 0.067819953 0.052098393 1.1319849e-38
0.074850358 0.096272022 0.0096952915 1.5278553e-38
0.13468713 0.11824912 0.014329553 1.3073425e-38
0.11882754 0.091599643 0.015638709 1.7585252e-38
0.099700049 0.10089519 0.017837346 1.5558746e-38
0.10458408 0.12179492 0.024789274 7.639634e-39
0.10457043 0.12969977 0.0257985 5.9844455e-39
0.032903582 0.09633331 0.029899836 1.2233219e-38
0.062922418 0.10803988 0.026983976 1.1596126e-38
0.079190932 0.108195 0.024116337 1.2058182e-38
0.073374055 0.10219533 0.022568583 1.2333695e-38
0.089945465 0.13969439 0.038048267 1.5563049e-38
0.079334728 0.071381122 0.032675743 2.2186756e-38
0.072745278 0.10729973 0.026863217 1.7676357e-38
0.08482103 0.058549583 0.038750648 2.0623379e-38
0.15526389 0.047453597 0.033170879 2.2479184e-38
0.15264317 0.047312781 0.033844948 2.2660695e-38
0.15248227 0.15883523 0.050587595 1.353651e-38
0.15276164 0.16127533 0.053330183 1.0494792e-38
0.15296121 0.1637875 0.055414081 8.9328825e-39
0.14761481 0.043866128 0.036695004 2.2934398e-38
0.14827505 0.04697074 0.034042299 2.2752149e-38
0.14982417 0.15877816 0.0509395 1.5192792e-38
0.14876127 0.16118944 0.05385989 1.2247197e-38
0.14895141 0.1637014 0.055945039 9.3012909e-39
0.1446313 0.043372542 0.036611497 2.3025155e-38
0.14508416 0.045921028 0.035583377 2.2934035e-38
0.14462885 0.16121326 0.053176105 1.4179022e-38
0.14473546 0.16457433 0.056513488 1.1234525e-38
0.14182287 0.043298036 0.037389994 2.2931155e-38
0.14082906 0.045307115 0.036828637 2.3023349e-38
0.14057812 0.16117653 0.05315268 1.6023645e-38
0.1407136 0.16473319 0.056720614 1.2524191e-38
0.13674372 0.16161042 0.055390954 1.7128222e-38
0.13778009 0.16393468 0.057160139 1.4364862e-38
0.1315756 0.043521762 0.038818717 2.2654958e-38
0.12952688 0.042940885 0.038491905 2.2473775e-38
0.12449838 0.042897731 0.038912714 2.2103939e-38
0.12072092 0.15996994 0.056961596 1.980225e-38
0.11792701 0.1580933 0.055163026 1.96168e-38
0.11674663 0.15985334 0.057823479 1.9985211e-38
0.11261082 0.15731734 0.055759609 2.0261033e-38
0.11319242 0.15999858 0.058329999 1.9893358e-38
0.10729462 0.15786502 0.056570888 2.081137e-38
0.10879596 0.15893951 0.059607446 2.0720246e-38
0.10438146 0.049232721 0.043099642 1.4911869e-38
0.10596557 0.15783648 0.05674684 2.0996839e-38
0.10474195 0.15894628 0.059137344 2.1087217e-38
0.10091996 0.050117269 0.042265415 1.9059953e-38
0.099320322 0.053124398 0.040670574 1.7862364e-38
0.099320322 0.1576938 0.057626724 2.1360581e-38
0.10070898 0.15892221 0.059000134 2.1363084e-38
0.095487401 0.046740472 0.044244766 2.2761155e-38
0.096788459 0.049650162 0.043631136 2.2935436e-38
0.096412219 0.053493738 0.041534543 2.0812414e-38
0.096662231 0.15763673 0.05797869 2.1547132e-38
0.097127818 0.15899833 0.06145817 2.127162e-38
0.0928142 0.046683088 0.044598699 2.3119152e-38
0.092782855 0.049564168 0.044161558 2.3118752e-38
0.092470974 0.053737655 0.04221189 2.2561641e-38
0.094004139 0.15757966 0.058330655 2.2286483e-38
0.092334829 0.15947321 0.061930895 2.1730078e-38
0.090141006 0.046625689 0.044952691 2.2923256e-38
0.088772058 0.049532741 0.044474483 2.1636484e-38
0.088697962 0.053476736 0.04251194 2.1728311e-38
0.084768951 0.049446791 0.045004427 2.1723274e-38
0.084705025 0.05343172 0.042876899 2.1632873e-38
0.084700786 0.15737993 0.059562504 1.8971408e-38
0.084751286 0.15916638 0.062059939 1.970825e-38
0.080761097 0.04941541 0.045316935 2.3290966e-38
0.080713652 0.052724883 0.043134332 2.33864e-38
0.080724895 0.15723076 0.06076014 1.804837e-38
0.081114024 0.1586076 0.064081967 1.8601546e-38
0.076764651 0.049220234 0.046282649 2.3294907e-38
0.076730542 0.05255796 0.043989241 2.3292757e-38
0.076738633 0.15711328 0.061623454 1.7498053e-38
0.076775014 0.15815818 0.064854324 1.666688e-38
0.072759882 0.049134254 0.046812892 2.3294891e-38
0.072739355 0.052553684 0.044190228 2.3201992e-38
0.072745368 0.15638167 0.061877131 1.7588094e-38
0.072765209 0.15807208 0.065385282 1.6112601e-38
0.068754561 0.049350291 0.046142995 2.3020097e-38
0.068586156 0.15577981 0.062514961 1.6482486e-38
0.069645584 0.15848009 0.065534651 1.4457739e-38
0.064747222 0.046164393 0.047987938 2.1822655e-38
0.06476263 0.048948318 0.045200646 2.2191425e-38
0.064923897 0.15532102 0.063449323 1.5101345e-38
0.060762122 0.048612565 0.046711922 2.0902492e-38
0.060777918 0.15289529 0.062086284 1.4918742e-38
0.061276756 0.15469027 0.065784752 1.4641084e-38
0.05675292 0.15224998 0.064828336 1.4177948e-38
0.058062598 0.15376288 0.066684425 1.34429e-38
0.053004608 0.049535543 0.049448848 1.9696386e-38
0.054112703 0.051909536 0.047639072 2.0996134e-38
0.053092636 0.15153301 0.064953923 1.4912268e-38
0.050043002 0.049758315 0.050909638 2.0158444e-38
0.048740707 0.15065485 0.066133082 1.4731112e-38
0.043500282 0.051925898 0.048061669 1.9149702e-38
0.044796154 0.14847419 0.064563334 1.3534747e-38
0.045372725 0.15018871 0.067573786 1.4181558e-38
0.039390936 0.049775705 0.051337838 1.767531e-38
0.039513133 0.05184029 0.048589647 1.8141689e-38
0.040765435 0.14761838 0.065994382 1.3531884e-38
