# .PCD v0.7 - Point Cloud Data file format
VERSION 0.7
FIELDS x y z rgb
SIZE 4 4 4 4
TYPE F F F F
COUNT 1 1 1 1
WIDTH 976
HEIGHT 1
VIEWPOINT 0 0 0 0 1 0 0
POINTS 976
DATA ascii
0.11778315 0.092109099 0.0037556291 1.3073055e-38
0.11777279 0.094579697 0.0041053891 1.3073415e-38
0.11488922 0.089238852 0.0031760931 1.3992499e-38
0.11422328 0.092476845 0.003595531 1.3440762e-38
0.11438786 0.09565258 0.0040556788 1.3074855e-38
0.11116327 0.086783811 0.0026057363 1.3991061e-38
0.096491441 0.12060891 0.0065279007 1.9424889e-38
0.096486256 0.1218442 0.0067027807 2.0257155e-38
0.094003141 0.12000163 0.006293416 1.840999e-38
0.093620613 0.12313643 0.0064902902 2.0160611e-38
0.092837155 0.12746558 0.0061786175 2.2841501e-38
0.092290863 0.13193515 0.0068719387 2.3040636e-38
0.091862932 0.13459125 0.0062114 2.3138226e-38
0.090016186 0.12038881 0.006110549 1.78586e-38
0.089575723 0.12310645 0.0059179068 1.9885465e-38
0.089801863 0.12745732 0.0045146346 2.2374385e-38
0.09087573 0.13578092 0.0065740943 2.3132097e-38
0.089460909 0.140233 0.006362319 2.341769e-38
0.089348659 0.14199071 0.0071107745 2.341769e-38
0.086527914 0.12065037 0.0059396029 1.675658e-38
0.085487336 0.1233283 0.0052456856 1.9333013e-38
0.087145269 0.12619117 0.0037270188 2.1081483e-38
0.087067872 0.14463566 0.0063381195 2.3394176e-38
0.082020551 0.12359899 0.0045713782 1.7030298e-38
0.080946609 0.12621696 0.0033610463 1.794936e-38
0.078552201 0.12387045 0.0044031739 1.4170065e-38
0.077337176 0.12635781 0.0037728548 1.6113003e-38
0.073961824 0.12871401 0.0045128465 1.6473857e-38
0.072127447 0.13169029 0.0041172504 1.4543121e-38
0.070530578 0.13140805 0.0054997206 1.44495e-38
0.070974529 0.13916938 0.0046033263 1.1775506e-38
0.15992357 0.068221569 0.0059158802 1.9246207e-38
0.16040996 0.071570039 0.0064198375 2.099361e-38
0.15989754 0.074426323 0.0067942739 2.0993263e-38
0.15619878 0.061411962 0.0047281384 1.7403746e-38
0.15618837 0.063893855 0.0050795078 1.8875999e-38
0.15667215 0.067862809 0.0056711435 1.9889768e-38
0.15746666 0.071490496 0.0056708455 2.0166728e-38
0.15750903 0.075363412 0.0056605935 1.9796155e-38
0.15705028 0.078681976 0.0069389343 1.9338381e-38
0.15610763 0.083128557 0.0078024864 1.7213982e-38
0.1530031 0.047775045 0.0026036501 1.1598298e-38
0.15310998 0.052117869 0.0032258034 1.5099557e-38
0.15297185 0.055220783 0.0036576986 1.555912e-38
0.15345356 0.059686095 0.0043196678 1.7863635e-38
0.15368608 0.063904271 0.0049317479 1.8691969e-38
0.15375638 0.06784977 0.0047084689 1.9060019e-38
0.15460104 0.071852982 0.0042923689 1.9057871e-38
0.15427352 0.075828791 0.0046343803 1.8045154e-38
0.15373415 0.079066589 0.0060730577 1.7308661e-38
0.15297978 0.083141565 0.0076178312 1.6297376e-38
0.15265006 0.08717598 0.0081703067 1.5190319e-38
0.15015608 0.047942027 0.0024574995 1.3440047e-38
0.14998472 0.051510394 0.0029533505 1.4823329e-38
0.14978866 0.055541173 0.0029062629 1.6110849e-38
0.14961585 0.059518531 0.0028218627 1.8323166e-38
0.14948681 0.063433617 0.0030969977 1.7769642e-38
0.14955762 0.067413419 0.0033153296 1.7493055e-38
0.14886406 0.076882258 0.0044611692 1.592862e-38
0.14994508 0.079352051 0.0048758984 1.5559123e-38
0.14989422 0.083175614 0.0061740279 1.5285378e-38
0.14957991 0.087236434 0.0072599053 1.4730777e-38
0.14942232 0.090851039 0.0083303452 1.5189623e-38
0.14562134 0.047805756 0.0021677613 1.4176885e-38
0.14564636 0.051631838 0.0023745894 1.5558383e-38
0.1455645 0.055500701 0.0020599365 1.675621e-38
0.14535129 0.059422046 0.0017755628 1.7490893e-38
0.1458002 0.063904867 0.0024380684 1.629416e-38
0.14566457 0.06650345 0.0027985573 1.601829e-38
0.14512202 0.076897815 0.0042401552 1.4636455e-38
0.14509776 0.079342365 0.0046979189 1.4270881e-38
0.14544883 0.082978159 0.0059497952 1.3810971e-38
0.14551961 0.08741574 0.0062277317 1.3716623e-38
0.14557132 0.091511101 0.0072669983 1.4820828e-38
0.14448899 0.094035044 0.0086563826 1.528146e-38
0.14123973 0.048444495 0.0019971132 1.5468687e-38
0.14131264 0.05175367 0.0017963052 1.6018268e-38
0.14144975 0.055211499 0.001114428 1.647603e-38
0.14138001 0.076913401 0.00401932 1.3809191e-38
0.14134122 0.079328164 0.0045843124 1.3718774e-38
0.14123981 0.082864106 0.0057542324 1.3810627e-38
0.14132529 0.087407976 0.0055887699 1.3535471e-38
0.14128928 0.091704115 0.006336391 1.4455623e-38
0.14093748 0.094918132 0.0081904531 1.4915527e-38
0.13978288 0.097467184 0.008862555 1.5192487e-38
0.13748629 0.048460096 0.0017755628 1.5834256e-38
0.1375628 0.05176948 0.0015748739 1.6200881e-38
0.13747002 0.055513129 0.0015100837 1.6384911e-38
0.13677646 0.059303105 0.001247406 1.6292716e-38
0.13645294 0.062088028 0.0016230345 1.5648069e-38
0.13640881 0.07260403 0.0031117797 1.3901737e-38
0.13887495 0.079398111 0.0042222738 1.3072704e-38
0.13778873 0.083467573 0.0047347546 1.3809908e-38
0.13759384 0.087444946 0.00528723 1.4362708e-38
0.13757566 0.091775075 0.0059002042 1.3993224e-38
0.13744134 0.095268846 0.0072870255 1.4177616e-38
0.13730571 0.098772019 0.0086750388 1.4821912e-38
0.13654333 0.10279889 0.0094255805 1.6391032e-38
0.13373287 0.048475727 0.0015539527 1.610868e-38
0.13381317 0.051785082 0.0013535023 1.666255e-38
0.13385957 0.055640519 0.0014533401 1.6477101e-38
0.13393731 0.059556916 0.0013389587 1.5924302e-38
0.13333459 0.062101007 0.0014389157 1.5464028e-38
0.13438602 0.087546661 0.0051103234 1.3902838e-38
0.13258371 0.092414439 0.0056931376 1.3626579e-38
0.13361862 0.095821589 0.0063826442 1.4178348e-38
0.1337094 0.099054277 0.0073764324 1.4640029e-38
0.13359773 0.1032334 0.0086369514 1.5100301e-38
0.13348809 0.10680032 0.0098108053 1.6020821e-38
0.12997943 0.048491329 0.0013324022 1.6570003e-38
0.13001499 0.051696867 0.0014518499 1.7215741e-38
0.1300965 0.055622339 0.0013387799 1.6569664e-38
0.12956652 0.059566706 0.0011078715 1.5740271e-38
0.13052678 0.062421978 0.0013170242 1.5188146e-38
0.12897561 0.08753705 0.0047863722 1.3349998e-38
0.12929738 0.09192197 0.0054274797 1.3163815e-38
0.12962246 0.095519632 0.005957067 1.390175e-38
0.12942463 0.099211723 0.0065531731 1.417905e-38
0.12948573 0.10334511 0.0074633956 1.4454544e-38
0.12980768 0.10693015 0.0091038942 1.5283939e-38
0.12705922 0.048710287 0.0011894107 1.6753305e-38
0.12561248 0.051663503 0.0013532043 1.7122104e-38
0.12573645 0.055665672 0.001000762 1.6475301e-38
0.12516868 0.059526578 0.001036644 1.5188883e-38
0.12459801 0.063374504 0.0010986328 1.4543148e-38
0.1252113 0.065846264 0.0014857054 1.4173655e-38
0.12513548 0.083909065 0.0040428638 1.3623708e-38
0.1251078 0.0874753 0.0046313405 1.3533312e-38
0.12584963 0.092071295 0.0052430034 1.3256383e-38
0.12472956 0.09571673 0.0056932569 1.3350019e-38
0.12498536 0.099116668 0.0067527294 1.3534757e-38
0.12518543 0.10363337 0.0072323084 1.3719145e-38
0.12546828 0.10762516 0.0086907744 1.3351084e-38
0.12459435 0.11123618 0.0096566677 1.150863e-38
0.12453919 0.11505869 0.010448396 8.8352877e-39
0.12593174 0.11862054 0.011036694 8.468631e-39
0.12214545 0.051936477 0.0013538599 1.7119946e-38
0.12119278 0.055353001 0.0017816424 1.6106878e-38
0.12122974 0.059175432 0.0019885898 1.5187098e-38
0.12140833 0.063256428 0.0013414025 1.4358403e-38
0.12115614 0.066172421 0.0012901425 1.3806292e-38
0.12019597 0.072052926 0.0020669103 1.3531151e-38
0.12018039 0.075764447 0.0025923848 1.3715517e-38
0.12047536 0.079783961 0.0031799078 1.4083228e-38
0.12124001 0.083337605 0.0037295818 1.3807375e-38
0.12173814 0.086715609 0.0042383075 1.3531518e-38
0.12260238 0.09307456 0.0051916242 1.3532599e-38
0.12152136 0.095906809 0.0055288672 1.3441129e-38
0.12124079 0.09913224 0.0065316558 1.34415e-38
0.12117799 0.10340226 0.0074145794 1.3166354e-38
0.1211686 0.10775012 0.0079743266 1.2891888e-38
0.12104675 0.11131881 0.0091477036 1.0588428e-38
0.12156837 0.11491594 0.010251105 8.7463403e-39
0.12218352 0.11739522 0.010639369 8.5619504e-39
0.11761659 0.055722386 0.0016208291 1.5553712e-38
0.11742113 0.059711918 0.0021748543 1.5002329e-38
0.11734333 0.063910335 0.0020430088 1.4356967e-38
0.11781699 0.06787549 0.0014247298 1.3805939e-38
0.11759078 0.07187584 0.0025609732 1.3898849e-38
0.11757519 0.075591147 0.0030869842 1.4176169e-38
0.11763307 0.079426184 0.0031846166 1.4176868e-38
0.1176539 0.083352536 0.0035178661 1.3900666e-38
0.11764417 0.08567223 0.0038462281 1.3532237e-38
0.11760002 0.096188232 0.0053349733 1.3074141e-38
0.11740395 0.099014655 0.0068483353 1.3259606e-38
0.11732151 0.10326247 0.0078392029 1.2338722e-38
0.11741844 0.10738955 0.0086832643 1.0774996e-38
0.11846135 0.10996516 0.0093637109 1.0957214e-38
0.1139948 0.056313634 0.001488626 1.5279275e-38
0.11366769 0.05972752 0.0019532442 1.5185636e-38
0.11355767 0.064025596 0.0021767616 1.4634972e-38
0.11401499 0.067975968 0.0016260743 1.3991052e-38
0.11386454 0.071922451 0.0022330284 1.4268359e-38
0.11381105 0.075576335 0.0029727817 1.5281444e-38
0.11375755 0.079232097 0.0037128925 1.4729683e-38
0.11382619 0.083329558 0.0037922263 1.4083611e-38
0.11358383 0.08723557 0.0038259029 1.3715909e-38
0.11325771 0.090639114 0.004289031 1.3716631e-38
0.11261068 0.096209005 0.0050403476 1.3074492e-38
0.11373103 0.099137604 0.0061970949 1.2613872e-38
0.11370816 0.10314082 0.0074686408 1.1875223e-38
0.11471833 0.10749888 0.0087907314 9.6700328e-39
0.11055284 0.056638181 0.0013294816 1.5371466e-38
0.11033101 0.05981037 0.0017660856 1.5184924e-38
0.11007327 0.06444025 0.0024073124 1.481828e-38
0.10989977 0.067840993 0.0027667284 1.4725741e-38
0.1097732 0.071909174 0.002538085 1.5003767e-38
0.10957799 0.07580854 0.0019664764 1.537075e-38
0.10971677 0.079382539 0.002573669 1.4911556e-38
0.10986825 0.08321321 0.0040456057 1.4542418e-38
0.10994926 0.088114217 0.0039866567 1.4175455e-38
0.11007475 0.091805607 0.0046019554 1.3624086e-38
0.10996076 0.095382959 0.0056647062 1.3073415e-38
0.11043394 0.09891066 0.0069800019 1.2244727e-38
0.11052122 0.10235175 0.0076081157 1.159827e-38
0.11093104 0.11558065 0.0097110271 2.3314668e-38
0.10678118 0.060997114 0.001722753 1.5093789e-38
0.10643585 0.068754375 0.0028022528 1.500448e-38
0.10538179 0.071540162 0.00276649 1.5187065e-38
0.10504824 0.07558167 0.0025635362 1.5186363e-38
0.10528035 0.07941851 0.0031327009 1.4635702e-38
0.10579401 0.083548337 0.0035803914 1.4359826e-38
0.10555733 0.087887734 0.0039067268 1.3991426e-38
0.10549425 0.091531664 0.0054703355 1.3163827e-38
0.10551298 0.094879717 0.0064522028 1.2242929e-38
0.10204384 0.071874946 0.0029829144 1.5278534e-38
0.101748 0.07533443 0.0032872558 1.5186721e-38
0.10148735 0.078912616 0.0036587119 1.4636061e-38
0.10127819 0.083664641 0.0034288764 1.3807379e-38
0.10131299 0.088071942 0.0037748814 1.3164168e-38
0.10090038 0.091142207 0.0053580999 1.1964555e-38
0.10031193 0.11190206 0.0085562468 1.6200171e-38
0.099673331 0.11500703 0.0089585185 1.8319587e-38
0.099971816 0.11841834 0.0094600916 2.0070243e-38
0.097316891 0.080270857 0.0038918257 1.3807374e-38
0.097401068 0.083504319 0.0038494468 1.2519886e-38
0.097458631 0.087944597 0.0040891171 1.0674185e-38
0.097313434 0.09149538 0.0052585006 8.7391712e-39
0.09718357 0.11203918 0.0083891153 1.4451323e-38
0.097171068 0.11501744 0.0088107586 1.7119942e-38
0.097703069 0.11900376 0.0073842406 1.8964263e-38
0.097499326 0.12351096 0.0087471604 2.2292648e-38
0.096354187 0.12666914 0.010077178 2.3234008e-38
0.093860596 0.084008053 0.0042156577 1.0217859e-38
0.09353219 0.087732196 0.0047242641 8.4661479e-39
0.093833268 0.090523019 0.0051379204 7.9122832e-39
0.093680352 0.11205375 0.0081822872 1.2974049e-38
0.093529418 0.11515167 0.008050561 1.5647703e-38
0.093809694 0.11793745 0.0070008636 1.7583465e-38
0.095031068 0.12411815 0.0079501867 2.1278464e-38
0.094687313 0.1275052 0.0088147521 2.2766923e-38
0.093966007 0.13113961 0.0093883872 2.3234019e-38
0.092945218 0.13510713 0.010227442 2.341733e-38
0.09256798 0.13861422 0.011882722 2.341769e-38
0.092057109 0.1410982 0.012204528 2.341769e-38
0.090103284 0.084954381 0.0041258335 7.6381991e-39
0.089989036 0.087333292 0.0044564009 8.1899085e-39
0.091019496 0.09022449 0.0049278736 9.5724898e-39
0.089973062 0.11597809 0.0085178018 1.408076e-38
0.089372098 0.11850381 0.0071538687 1.5924998e-38
0.091237128 0.13650548 0.0094807148 2.341769e-38
0.090431467 0.13883345 0.01060605 2.341769e-38
0.089655295 0.14181678 0.011657357 2.341769e-38
0.085278794 0.11894965 0.0071416497 1.4266566e-38
0.087044731 0.14298046 0.012172639 2.3411882e-38
0.082006291 0.11887278 0.0081160069 1.4079637e-38
0.069708958 0.128259 0.0085452795 1.5740612e-38
0.066245273 0.13045087 0.0091556311 1.3712663e-38
0.17210805 0.047982663 0.0088310242 7.3662757e-39
0.17214894 0.051314518 0.0086314678 8.4711897e-39
0.17207918 0.054859743 0.0098045468 1.1419624e-38
0.1683602 0.039870948 0.0074570775 6.2588337e-39
0.16898003 0.042369068 0.007848382 5.6156574e-39
0.16976933 0.046801358 0.0077883005 6.7198357e-39
0.16961038 0.051458716 0.0072526932 8.3782794e-39
0.16966245 0.055242151 0.0084781647 1.1786983e-38
0.16957107 0.058720857 0.0098653436 1.4916966e-38
0.16889606 0.062375143 0.010680556 1.8236753e-38
0.16888295 0.065501094 0.011123061 2.0450159e-38
0.16498834 0.038982794 0.0068266392 7.1804257e-39
0.16526705 0.042626858 0.0069047809 7.0896804e-39
0.16533478 0.046664163 0.0065539479 7.457049e-39
0.16534695 0.051133662 0.0068512559 9.1154928e-39
0.16531323 0.055446252 0.0076294541 1.2339094e-38
0.16529077 0.059162006 0.0082394481 1.5654903e-38
0.16525257 0.06283021 0.0090103149 1.7958706e-38
0.16524442 0.066596925 0.0094596744 1.9522827e-38
0.16516688 0.07069011 0.010697961 2.1550743e-38
0.16394728 0.074521244 0.011529863 2.1915932e-38
0.16315493 0.078653648 0.012646794 2.1734033e-38
0.16345303 0.082716078 0.013240755 2.1918089e-38
0.16375375 0.086153299 0.013746142 2.2467324e-38
0.16311294 0.088656694 0.014062941 2.2375492e-38
0.1601817 0.036153883 0.0064423084 8.0069662e-39
0.16083424 0.03876093 0.0065137744 7.3644484e-39
0.16089478 0.042761564 0.0062977672 7.6399773e-39
0.16099858 0.046894431 0.005653441 8.6498525e-39
0.16109505 0.050839439 0.0063536167 1.0405867e-38
0.16090691 0.05533959 0.0062630773 1.3810619e-38
0.16100147 0.059519991 0.0068820715 1.7313689e-38
0.1609965 0.063287526 0.0073036551 1.7956191e-38
0.16134012 0.066842377 0.0078283548 1.8969628e-38
0.16190767 0.070440769 0.008372426 2.099468e-38
0.1611093 0.075113952 0.0098981857 2.127128e-38
0.16079855 0.079111665 0.010884941 2.0626271e-38
0.16078243 0.082852945 0.011414647 2.0346086e-38
0.16071248 0.086452305 0.01248306 2.0899264e-38
0.15931262 0.093048751 0.014459193 2.053876e-38
0.15688366 0.035369575 0.0058453679 9.4838955e-39
0.15718165 0.039178655 0.0051185489 8.8378072e-39
0.15720055 0.043028414 0.0053284764 9.0200545e-39
0.15728825 0.047086805 0.0048974156 9.94095e-39
0.15724972 0.050751686 0.0056396723 1.1783408e-38
0.15726562 0.055212498 0.005935967 1.5378671e-38
0.15740485 0.059412792 0.0065399408 1.703638e-38
0.15785913 0.063300565 0.0071184635 1.8967104e-38
0.15815851 0.066722259 0.0076215863 1.9336602e-38
0.15766364 0.079980344 0.0094722509 1.9153291e-38
0.15750588 0.083395034 0.0099471807 1.8227408e-38
0.15706344 0.086782008 0.011075616 1.8601584e-38
0.15690875 0.090185374 0.012898088 1.9245869e-38
0.1566101 0.093327925 0.014337659 1.9427018e-38
0.15308753 0.031539232 0.0053648949 1.0499132e-38
0.15341212 0.035414264 0.0044723153 1.003889e-38
0.15354216 0.039596334 0.0037242174 9.5789652e-39
0.15353845 0.043367237 0.0041462779 1.0312929e-38
0.15447594 0.047133565 0.0046239495 1.0954368e-38
0.15402314 0.050371677 0.0050561428 1.3532956e-38
0.15450525 0.055099517 0.0057553649 1.5653822e-38
0.15473744 0.059579462 0.0064046383 1.7311189e-38
0.15464863 0.080739722 0.0094001889 1.7125351e-38
0.15463819 0.083229154 0.0097525716 1.6388512e-38
0.15409791 0.087163344 0.010480702 1.693988e-38
0.15329173 0.090563536 0.011274695 1.8233502e-38
0.15308696 0.094509989 0.013536572 1.8968539e-38
0.15223041 0.098454744 0.014803529 1.9615719e-38
0.14886996 0.028073639 0.004621923 8.1981804e-39
0.14956391 0.031422883 0.0044638515 8.1949756e-39
0.14976594 0.0358015 0.0031856298 8.4708506e-39
0.14980122 0.039684802 0.0032888055 9.2051717e-39
0.14978555 0.043418989 0.0038174987 1.0589896e-38
0.14852016 0.045913637 0.0040957928 1.3441834e-38
0.15042019 0.091544703 0.010680437 1.620414e-38
0.1493762 0.094668478 0.012747526 1.7679601e-38
0.14921685 0.098743662 0.014552474 1.8507571e-38
0.14904581 0.10234195 0.01503861 2.062988e-38
0.14833537 0.1053896 0.015554845 2.1368152e-38
0.14548142 0.024461702 0.0039075613 7.5438819e-39
0.14587787 0.027617201 0.0043787956 7.7282535e-39
0.14582647 0.031552091 0.0039220452 7.4573965e-39
0.14555147 0.035959333 0.00287503 7.9169538e-39
0.1460091 0.039627284 0.003279388 9.4803138e-39
0.1455639 0.043549702 0.0035843253 1.2337291e-38
0.14576384 0.0950789 0.011241257 1.6204837e-38
0.14547536 0.098604485 0.01304245 1.7954753e-38
0.14550021 0.10266539 0.014212549 1.9613209e-38
0.14539036 0.10623541 0.015499175 2.1368158e-38
0.1441192 0.10874143 0.01577872 2.2382293e-38
0.14109848 0.023675025 0.0033323765 8.7463473e-39
0.14124319 0.0275006 0.0034632683 8.5615903e-39
0.14154792 0.031910628 0.0027061105 8.1016883e-39
0.14115569 0.035527363 0.0031955242 9.0222153e-39
0.14150581 0.039362878 0.003844738 1.0405139e-38
0.14120141 0.04320015 0.0036792755 1.2797906e-38
0.1409905 0.045944974 0.0036513209 1.5191017e-38
0.14203648 0.095728591 0.010773838 1.5374006e-38
0.14147052 0.098871782 0.011590481 1.6204492e-38
0.14117609 0.1028325 0.013332069 1.8141686e-38
0.14099987 0.10629171 0.015076876 2.062845e-38
0.14033726 0.10875715 0.015555501 2.1458194e-38
0.13683742 0.023047671 0.0029157996 8.2853523e-39
0.13703313 0.027219445 0.0027832985 8.8356605e-39
0.13711074 0.031203702 0.0026447773 8.926445e-39
0.13729948 0.035519943 0.0026609302 1.0493381e-38
0.1370724 0.039298907 0.0038241744 1.2061417e-38
0.13719136 0.04336296 0.0033958554 1.353295e-38
0.13722563 0.045960635 0.0034289956 1.5740606e-38
0.13825074 0.10072313 0.011256516 1.6117334e-38
0.13792525 0.10352507 0.011634409 1.7125735e-38
0.13683589 0.10672617 0.013035297 1.8048413e-38
0.13642703 0.10992335 0.015234888 1.9894467e-38
0.13527629 0.11315447 0.015877366 1.8968237e-38
0.13526316 0.11628042 0.016319871 1.6481778e-38
0.13385203 0.023402631 0.0030640364 8.1906147e-39
0.13320702 0.027744263 0.0029668808 9.8483578e-39
0.13314489 0.031378835 0.0038158894 1.0767817e-38
0.133176 0.035238802 0.0040278435 1.1872358e-38
0.13326909 0.039241195 0.0038140416 1.2793953e-38
0.13347125 0.043486878 0.0028542876 1.4266566e-38
0.13346079 0.045976281 0.0032067895 1.546188e-38
0.1331996 0.10821235 0.012017429 1.6759098e-38
0.13298663 0.11038329 0.013774037 1.7315137e-38
0.13279977 0.11386189 0.015492857 1.6760892e-38
0.13279295 0.11825395 0.016031027 1.1047637e-38
0.12929575 0.03628239 0.0046189427 1.3348544e-38
0.12981616 0.039346516 0.0048822165 1.334748e-38
0.12954417 0.043143272 0.0036957264 1.4083253e-38
0.12969597 0.045991972 0.0029844642 1.5372188e-38
0.12943476 0.10822803 0.011795104 1.5655232e-38
0.12931156 0.11054584 0.012903452 1.4642182e-38
0.1291987 0.1141405 0.014081001 1.2521654e-38
0.12915933 0.11847973 0.014834642 8.46971e-39
0.12767828 0.12131341 0.016581416 1.0039213e-38
0.12550068 0.039424092 0.0048382878 1.4080379e-38
0.12570596 0.043015361 0.0038983226 1.4539921e-38
0.12550932 0.046839178 0.0028550625 1.6290896e-38
0.12660068 0.1107292 0.011980891 1.3718795e-38
0.12658632 0.11415218 0.012465477 1.0124918e-38
0.12582019 0.11786836 0.0133515 8.3771654e-39
0.12171871 0.039439797 0.0046150088 1.5183834e-38
0.12189754 0.04295975 0.0038882494 1.5735241e-38
0.12150677 0.047217637 0.0028386116 1.6935188e-38
0.12013851 0.05076158 0.0030910969 1.6844434e-38
0.11937167 0.11387102 0.011995375 9.6654113e-39
0.12312086 0.11758953 0.012746334 8.6534146e-39
0.11825062 0.039766848 0.0044544935 1.6200856e-38
0.11733368 0.042664468 0.0045579672 1.6476373e-38
0.11695851 0.046935618 0.003483057 1.6475666e-38
0.11712559 0.051023051 0.002948463 1.6200161e-38
0.11648767 0.053515121 0.0032638907 1.5738476e-38
0.11563034 0.10828546 0.010980129 9.6718797e-39
0.11653066 0.11067866 0.012511492 1.0494812e-38
0.11653294 0.11282501 0.013701379 1.1047969e-38
0.1132995 0.043017507 0.0046203732 1.6476371e-38
0.11309183 0.046775013 0.0037918687 1.6199431e-38
0.11330353 0.050934523 0.0030454397 1.5923927e-38
0.11309722 0.054027125 0.0031343699 1.5648415e-38
0.11188117 0.10456696 0.01022929 1.1230576e-38
0.11296882 0.10705182 0.010646522 9.7568418e-39
0.11288272 0.11049156 0.012478292 1.3167358e-38
0.11275923 0.11284071 0.013478577 1.9614204e-38
0.11035448 0.043863341 0.0045647025 1.6292302e-38
0.10916813 0.047152206 0.0044546127 1.6107234e-38
0.10913562 0.05145666 0.0041235685 1.5647717e-38
0.10940021 0.05496712 0.0030472279 1.5554793e-38
0.1083044 0.05977267 0.0036633611 1.5093803e-38
0.10892142 0.062259495 0.0040528178 1.4910128e-38
0.10813985 0.098981366 0.0092141032 1.1783373e-38
0.10895645 0.10374932 0.0099390149 1.1413149e-38
0.10932139 0.10701695 0.010648966 1.18752e-38
0.10916867 0.11058022 0.011932135 1.7869783e-38
0.10876317 0.11340065 0.013117373 2.2672569e-38
0.10560736 0.048571959 0.0049494505 1.5831724e-38
0.10540118 0.051592022 0.0046909451 1.5648053e-38
0.10570873 0.055879354 0.003518641 1.5646988e-38
0.10561595 0.059606016 0.0034794807 1.5278186e-38
0.10573799 0.06345208 0.0042570233 1.5094875e-38
0.10551531 0.066505641 0.0044519305 1.491193e-38
0.10564823 0.094635293 0.0084491372 1.2429463e-38
0.10561477 0.098971859 0.0091463923 1.1321682e-38
0.10561167 0.10334834 0.0096826553 1.2057796e-38
0.10557596 0.10705757 0.010318995 1.270212e-38
0.1055603 0.11079192 0.010847628 1.472651e-38
0.10534301 0.11428876 0.012454748 1.9984182e-38
0.10466674 0.11797203 0.013976693 2.3135717e-38
0.10197911 0.051919863 0.0048707128 1.5465449e-38
0.10171109 0.055524051 0.0044663548 1.5279262e-38
0.10186209 0.059533641 0.0041446686 1.5370383e-38
0.10184702 0.063273251 0.0046741962 1.4910846e-38
0.10172786 0.067363739 0.0044489503 1.5095244e-38
0.09997578 0.070760667 0.0047250986 1.5463288e-38
0.099457085 0.074745879 0.0052592754 1.5278549e-38
0.099438801 0.079102382 0.0058760047 1.4452381e-38
0.10126637 0.092164129 0.0078374147 1.0953294e-38
0.10119922 0.094580188 0.008479476 9.1108194e-39
0.10141285 0.098712042 0.0092807412 1.0219619e-38
0.1017001 0.1031829 0.010212958 1.2702101e-38
0.10135837 0.1069665 0.010034084 1.3619752e-38
0.10143952 0.11070943 0.010477841 1.5093813e-38
0.10179981 0.11456649 0.01104635 1.8780233e-38
0.10169072 0.11886606 0.012753367 2.220046e-38
0.10035759 0.12227802 0.013627827 2.3137867e-38
0.098958775 0.055789158 0.0055764318 1.5553726e-38
0.097933993 0.059669539 0.0060656667 1.5278193e-38
0.097754538 0.062801227 0.0060495138 1.5186716e-38
0.097737759 0.066625386 0.0057758093 1.5279265e-38
0.097181469 0.070997432 0.0053147674 1.5095242e-38
0.096903354 0.074694887 0.0053246617 1.4727183e-38
0.096934125 0.077868104 0.0055516958 1.4359122e-38
0.097321048 0.0944556 0.0088124871 8.3725327e-39
0.098130435 0.098960638 0.010637879 9.0196383e-39
0.097997949 0.10302593 0.01149559 1.0122428e-38
0.097055405 0.10719207 0.010616899 1.2331539e-38
0.096799612 0.10991968 0.010089159 1.3251696e-38
0.09886457 0.12413476 0.014251769 2.3325854e-38
0.097451389 0.12696601 0.013683736 2.341769e-38
0.095891163 0.12995802 0.013888538 2.341769e-38
0.095142707 0.063932359 0.0065038204 1.5277476e-38
0.094079912 0.066854268 0.0068548918 1.491085e-38
0.093216926 0.071061656 0.0068942904 1.3992122e-38
0.092768833 0.075348169 0.0061023235 1.2979063e-38
0.093164071 0.079128504 0.0055056214 1.2059254e-38
0.09252353 0.082242906 0.0059091449 9.8472886e-39
0.093529269 0.091781408 0.007321775 8.0970318e-39
0.094734564 0.094374582 0.0090262294 8.2803287e-39
0.093573257 0.1074332 0.010050118 1.1131552e-38
0.092721015 0.10993664 0.0098483562 1.2326511e-38
0.09435305 0.13135576 0.014332414 2.341769e-38
0.094153985 0.13387644 0.015099525 2.341769e-38
0.093892366 0.13799703 0.015314162 2.3325847e-38
0.0926238 0.14242689 0.015124738 2.3417686e-38
0.09164083 0.145805 0.016894221 2.3323318e-38
0.088805348 0.072086036 0.0072823167 1.2428366e-38
0.08897616 0.075454012 0.0068708062 1.1232001e-38
0.089327708 0.079676628 0.0056918859 8.6516237e-39
0.089133084 0.08275491 0.005779624 7.6378501e-39
0.089362651 0.087857217 0.0065168738 8.9267435e-39
0.089354843 0.11114514 0.010252714 1.2512326e-38
0.08900249 0.11387292 0.010184884 1.3522199e-38
0.089130461 0.14345588 0.015255213 2.3140007e-38
0.088792309 0.14672288 0.016404927 2.0155232e-38
0.089104071 0.1494709 0.015239358 2.0160303e-38
0.085218921 0.075623021 0.0074255466 9.9351473e-39
0.085064918 0.079067707 0.0077121854 8.0030005e-39
0.085400671 0.082900703 0.007348299 9.0186098e-39
0.086860597 0.086000562 0.0061044097 1.0768515e-38
0.085911632 0.11128716 0.011657417 1.2881819e-38
0.085561514 0.11470847 0.010477602 1.3247026e-38
0.08640416 0.14433274 0.015361428 1.9907641e-38
0.082486361 0.075863421 0.0074411631 9.751835e-39
0.082475856 0.078364179 0.0077952147 1.0487646e-38
0.082753941 0.11567648 0.011079848 1.3710478e-38
0.080455273 0.1171447 0.010139227 1.3894517e-38
0.079195097 0.11839464 0.010241389 1.3802311e-38
0.072266772 0.12464696 0.010714948 1.5097763e-38
0.071634084 0.12589431 0.010854065 1.6565689e-38
0.070148841 0.12445502 0.011573136 1.4724302e-38
0.069300473 0.12695172 0.011876702 1.5832438e-38
0.067614213 0.1294519 0.012130737 1.4449163e-38
0.065976351 0.12840724 0.010873199 1.4077872e-38
0.066108242 0.13113764 0.013291836 1.3435346e-38
0.17297749 0.038904727 0.01101011 6.720186e-39
0.173168 0.042708427 0.010956645 6.9974778e-39
0.1735197 0.046315551 0.011424899 7.3662715e-39
0.17375231 0.050171286 0.012274683 8.380792e-39
0.17373648 0.053939402 0.012808144 1.0683501e-38
0.17279005 0.057942867 0.013066471 1.4179389e-38
0.17232096 0.062295824 0.014197946 1.8513699e-38
0.17174536 0.065736994 0.014868379 2.1647976e-38
0.16867667 0.03164269 0.010356128 8.3768543e-39
0.16899811 0.034665227 0.010081291 7.1779286e-39
0.16962312 0.038448066 0.0094987154 6.0740963e-39
0.17070261 0.042342275 0.0099707842 5.7060635e-39
0.1706184 0.062408701 0.012811542 1.85155e-38
0.16949093 0.067079812 0.013695896 2.201281e-38
0.16926414 0.070379317 0.014535666 2.2569928e-38
0.16907181 0.074246556 0.015283346 2.2574261e-38
0.16919476 0.077792913 0.016032517 2.257498e-38
0.16912138 0.082022622 0.017274499 2.248566e-38
0.16874366 0.086434335 0.017841518 2.2490707e-38
0.16877398 0.089254156 0.018279254 2.2677977e-38
0.16425626 0.027258441 0.0094708204 8.9307708e-39
0.16540022 0.030096173 0.0094354749 8.8410653e-39
0.16566917 0.03417398 0.0086246133 7.7332533e-39
0.16630071 0.036717027 0.0089105368 6.7201636e-39
0.16679609 0.069322318 0.01356411 2.2380864e-38
0.1659312 0.074551433 0.014254093 2.2474496e-38
0.16549478 0.078106612 0.014732242 2.256236e-38
0.1656155 0.081645742 0.015494347 2.2653856e-38
0.16613346 0.085840538 0.016445279 2.2753624e-38
0.16526359 0.090011835 0.017142713 2.2665023e-38
0.16443364 0.093169838 0.018491507 2.2576776e-38
0.16066462 0.026854068 0.0091993213 8.6570439e-39
0.16114827 0.030042112 0.0089213848 8.3786564e-39
0.16149774 0.033944249 0.0083321333 7.9180132e-39
0.16179436 0.09078908 0.016436696 2.2010656e-38
0.16092373 0.094234377 0.017556369 2.2290841e-38
0.16004759 0.097529858 0.018462837 2.257067e-38
0.15887176 0.10149695 0.019678175 2.238554e-38
0.15886119 0.10401282 0.020034313 2.174269e-38
0.15668657 0.02614674 0.0085244179 1.0500924e-38
0.15682098 0.030409992 0.0076756477 1.022361e-38
0.15746531 0.032991394 0.0078553557 9.5778876e-39
0.15682492 0.09519884 0.016639292 2.062485e-38
0.15651332 0.098104879 0.017482579 2.192062e-38
0.15640533 0.10166246 0.01887995 2.2661758e-38
0.15536954 0.10497077 0.019961894 2.2478447e-38
0.15267265 0.02324 0.0076030493 1.1970679e-38
0.15303001 0.026623458 0.007025063 1.141966e-38
0.15368775 0.029244721 0.007098794 1.0868629e-38
0.15371305 0.098535225 0.016926944 2.0812479e-38
0.15272604 0.10193688 0.017575324 2.2381229e-38
0.15258855 0.10544889 0.019189358 2.2198633e-38
0.15123582 0.10781825 0.02011925 2.1827328e-38
0.14780059 0.019779459 0.0074290037 1.1422518e-38
0.14922518 0.022796452 0.0064803362 1.1051588e-38
0.15021607 0.10325275 0.017387509 2.1827355e-38
0.14934187 0.10614514 0.017914236 2.1645455e-38
0.14856446 0.10882331 0.019668937 2.1826244e-38
0.14506122 0.019429862 0.0068113804 8.9303238e-39
0.14581516 0.022066236 0.0056113601 8.0134444e-39
0.14422013 0.025521725 0.0060063004 8.0051851e-39
0.1451115 0.11010399 0.019158483 2.1733701e-38
0.14487341 0.11287631 0.020457268 2.1367073e-38
0.14063139 0.015616313 0.0064111352 9.5786149e-39
0.1415917 0.01890409 0.0059227943 8.9332553e-39
0.14233924 0.021767169 0.0053616762 8.2875271e-39
0.14142269 0.11049798 0.018194139 2.1273088e-38
0.14068505 0.11380431 0.020001769 2.0446559e-38
0.13978454 0.1166712 0.020691991 1.9617153e-38
0.13769853 0.015616879 0.006033957 8.5637385e-39
0.13750851 0.018587589 0.0050563812 8.1953217e-39
0.13838467 0.11040871 0.017696917 2.0998291e-38
0.13726127 0.11390007 0.018669724 1.92491e-38
0.13608053 0.11810672 0.019887805 1.4548886e-38
0.13596131 0.12108976 0.021090686 1.0683491e-38
0.13471287 0.015640929 0.0060616732 6.9028004e-39
0.13283738 0.018581584 0.0055798888 7.4559602e-39
0.1315861 0.023065999 0.0049048066 9.0218089e-39
0.13319644 0.12170288 0.019899726 9.4857088e-39
0.13004763 0.01922439 0.0062917471 8.9285736e-39
0.12985967 0.023035601 0.0058091879 1.0402594e-38
0.12927663 0.026721165 0.0061526299 1.1690091e-38
0.12896031 0.030450493 0.0062450171 1.2609548e-38
0.12901247 0.03373684 0.0062645674 1.3164147e-38
0.12836444 0.037501916 0.006759882 1.3531864e-38
0.12913106 0.12132272 0.0197047 1.0223249e-38
0.12546268 0.031009629 0.0074873567 1.3622628e-38
0.12533078 0.034593865 0.0066002011 1.3805944e-38
0.12520593 0.036887988 0.0064845681 1.4173289e-38
0.12612301 0.11965668 0.018277287 9.6693518e-39
0.12238267 0.032464251 0.0077123642 1.4266208e-38
0.12123668 0.034633517 0.0071084499 1.454173e-38
0.12141258 0.036903769 0.0062606335 1.4910131e-38
0.11737778 0.035795271 0.0073804259 1.5645916e-38
0.11698174 0.038176358 0.0061768889 1.6108307e-38
0.11381177 0.035902798 0.007284224 1.6108331e-38
0.11361186 0.039039195 0.0062427521 1.6383476e-38
0.11031838 0.036288142 0.0075352788 1.6292333e-38
0.10982786 0.039095923 0.0070047975 1.6199417e-38
0.10892632 0.042336375 0.0064551234 1.6476002e-38
0.10759698 0.11513528 0.016531527 2.341444e-38
0.10713454 0.039446145 0.0077933073 1.6383839e-38
0.10487855 0.042997479 0.0074035525 1.6201213e-38
0.10468284 0.046253949 0.0065890551 1.5832079e-38
0.10553449 0.11875014 0.017174065 2.341475e-38
0.10398716 0.12162998 0.017237306 2.3234019e-38
0.10140889 0.043872625 0.008079648 1.6107943e-38
0.1011555 0.046940774 0.0072348714 1.6199429e-38
0.10028395 0.049950987 0.0068511367 1.5740971e-38
0.10160083 0.12303613 0.01763165 2.341769e-38
0.09990485 0.12513466 0.017828166 2.341769e-38
0.097801447 0.047242031 0.0083424449 1.5830666e-38
0.097222283 0.05062671 0.0073265433 1.5738461e-38
0.096953735 0.054384187 0.0072812438 1.5462237e-38
0.096986309 0.057384998 0.0077087283 1.5461157e-38
0.095876127 0.09595409 0.013112366 7.9140601e-39
0.095735297 0.098303944 0.014111698 6.9885081e-39
0.095852435 0.10159776 0.013911307 7.1761363e-39
0.098273441 0.12729733 0.017700315 2.341769e-38
0.096268415 0.12971921 0.018430114 2.341769e-38
0.095332205 0.13195094 0.020208478 2.341769e-38
0.09459886 0.051756635 0.0077799559 1.5462953e-38
0.09370701 0.054592818 0.0087361336 1.5370047e-38
0.09339416 0.058173701 0.0081684589 1.5094884e-38
0.093234867 0.062479854 0.0082076192 1.5094165e-38
0.092203811 0.067124397 0.0088048577 1.4543886e-38
0.094217032 0.095476478 0.01496917 7.4531002e-39
0.094211757 0.096734405 0.015147328 6.8970537e-39
0.094451129 0.13421094 0.018452883 2.341769e-38
0.094443247 0.13609217 0.018719196 2.3234019e-38
0.089748159 0.058783829 0.0090653896 1.491121e-38
0.089735731 0.063004375 0.0084779859 1.4910484e-38
0.08949101 0.06709975 0.0087659955 1.4358745e-38
0.089032143 0.069645867 0.0089733005 1.353221e-38
0.087822944 0.10808209 0.016375661 1.205277e-38
0.086883754 0.062995151 0.0092510581 1.4726452e-38
0.085749105 0.066915512 0.0097814798 1.3808792e-38
0.084975809 0.070854247 0.0091275573 1.1230928e-38
0.083958536 0.073429361 0.0092073083 1.0304675e-38
0.085381478 0.085450023 0.013020456 1.1327406e-38
0.083870366 0.14331974 0.021137357 1.9522222e-38
0.084990084 0.14521597 0.020124018 1.6177174e-38
0.082918867 0.067849666 0.010377586 1.2335478e-38
0.081168279 0.070582777 0.0099018812 9.7572692e-39
0.080368757 0.074440598 0.0094258189 1.0303609e-38
0.080257431 0.078449056 0.010421276 1.2795394e-38
0.081765145 0.081902176 0.011492193 1.2889367e-38
0.082734093 0.11187695 0.016610444 1.3433544e-38
0.080110461 0.11382124 0.015920222 1.3802323e-38
0.077830017 0.071644545 0.010612309 1.1132639e-38
0.07729657 0.074299097 0.010451078 1.2795019e-38
0.07759881 0.077755362 0.010959208 1.417471e-38
0.073829889 0.11820352 0.016976714 1.3711938e-38
0.071280181 0.12135887 0.017272174 1.3522864e-38
0.071187794 0.14337251 0.020388603 1.5654149e-38
0.071587667 0.14882176 0.021185279 1.4640008e-38
0.068711519 0.14311099 0.019950867 1.2611371e-38
0.068797618 0.14600927 0.019945621 1.3073413e-38
0.068650872 0.14969069 0.021021008 1.3903166e-38
0.069458067 0.15260431 0.021594703 1.4088983e-38
0.066170201 0.13018543 0.018219233 1.3618661e-38
0.064849153 0.14276993 0.019925237 1.0859629e-38
0.064862579 0.14593318 0.020262122 1.1598645e-38
0.065141127 0.14874375 0.020789862 1.2243653e-38
0.061678499 0.14278314 0.019738019 1.0768494e-38
0.06230472 0.14466737 0.020042598 1.1137288e-38
0.11724197 0.087703317 0.0047907829 1.3993215e-38
0.16912138 0.082022622 0.017274499 2.248566e-38
0.14056644 0.061534837 0.0089353919 1.399717e-38
0.1715641 0.030448973 0.01390022 9.8508956e-39
0.17251235 0.034000933 0.013810098 7.364489e-39
0.17411575 0.058071017 0.016451955 1.4183345e-38
0.17402521 0.060933381 0.017864287 1.7867238e-38
0.17239305 0.065608054 0.018682778 2.2113614e-38
0.17204016 0.069015086 0.019397914 2.2579292e-38
0.17250839 0.073789001 0.019976437 2.2861639e-38
0.17222492 0.077591985 0.019866586 2.2491423e-38
0.17205417 0.081877306 0.020379782 2.267941e-38
0.17186904 0.085277915 0.021390617 2.3233299e-38
0.17130378 0.089208841 0.022386491 2.341769e-38
0.16825856 0.026255757 0.013209581 1.0867206e-38
0.16951427 0.029686257 0.012826681 9.3013105e-39
0.17040282 0.033483863 0.012743652 7.2730011e-39
0.17024133 0.071965545 0.018191397 2.2573185e-38
0.17018309 0.085844189 0.020156145 2.2771965e-38
0.1691131 0.090291113 0.02112782 2.3142182e-38
0.16862497 0.093146294 0.022237122 2.3325854e-38
0.16856559 0.096976623 0.023282647 2.3325494e-38
0.16868247 0.099259421 0.023992777 2.3140383e-38
0.16526519 0.023694828 0.012060881 1.1145594e-38
0.16575475 0.026085764 0.01158601 1.0499147e-38
0.16547051 0.093814015 0.021174133 2.2859127e-38
0.16501755 0.097141236 0.021787643 2.2771242e-38
0.16457747 0.10059477 0.022925794 2.2393823e-38
0.16148297 0.023343921 0.011380911 7.4570588e-39
0.16216886 0.025317252 0.011094511 8.3761537e-39
0.16251367 0.094707817 0.02095598 2.2479176e-38
0.16173771 0.097739041 0.021339536 2.2671845e-38
0.16128427 0.10113487 0.022401273 2.2387347e-38
0.16020352 0.10468158 0.023750305 2.229408e-38
0.15498257 0.019593447 0.011877835 1.1516137e-38
0.15705696 0.022698298 0.010755599 1.0317255e-38
0.15714696 0.10597047 0.022233307 2.2294066e-38
0.15624167 0.10952836 0.023695648 2.2388792e-38
0.15459487 0.11197248 0.02495575 2.2389173e-38
0.15222703 0.018694848 0.010574341 1.1053393e-38
0.15264782 0.020730734 0.0098763704 1.1511136e-38
0.15292026 0.10736445 0.022178829 2.229334e-38
0.15226163 0.10986634 0.02260685 2.1924929e-38
0.15194845 0.1132247 0.024343193 2.2298386e-38
0.15138929 0.11578214 0.025304914 2.2576426e-38
0.14827591 0.014791638 0.010652542 1.2528886e-38
0.14905065 0.018163547 0.0097025633 1.2344128e-38
0.1487087 0.11066231 0.022395492 2.1456035e-38
0.14837752 0.11357348 0.023350656 2.1091212e-38
0.14825481 0.116533 0.024718642 2.2378358e-38
0.14449254 0.01109533 0.010047197 1.1788454e-38
0.14496607 0.014438242 0.0091583133 1.1050874e-38
0.14503136 0.016977414 0.0088899136 1.021678e-38
0.14462274 0.11433816 0.022673249 2.1184127e-38
0.14452879 0.11735471 0.023769915 2.1000456e-38
0.14379475 0.12101093 0.024919093 1.8701317e-38
0.14306432 0.12340945 0.025890231 1.5192522e-38
0.14103004 0.010282904 0.009388268 9.6722763e-39
0.14161149 0.013505593 0.0085309744 9.8545039e-39
0.14165372 0.1145608 0.022527635 2.0814279e-38
0.14095166 0.11766532 0.022926092 1.8880691e-38
0.1407357 0.12122598 0.023755491 1.4269139e-38
0.14019851 0.12459099 0.025453389 1.2061808e-38
0.13727075 0.01048252 0.0086866021 8.8413792e-39
0.13741532 0.013118967 0.0078886747 8.747757e-39
0.1382492 0.11751887 0.022744179 1.7036037e-38
0.13732395 0.12148798 0.023251891 1.0865771e-38
0.13678321 0.12485507 0.024933815 1.252314e-38
0.13340163 0.010375753 0.0087779164 6.9013641e-39
0.13314962 0.013601571 0.0078713894 6.9009759e-39
0.13186774 0.12259212 0.02308315 1.0594185e-38
0.13302207 0.12495828 0.024274409 1.3351434e-38
0.12950072 0.011263177 0.0091770887 6.8102601e-39
0.12940755 0.014186859 0.0083720684 7.6378207e-39
0.12837879 0.018252119 0.008836627 9.7586761e-39
0.12765083 0.022040248 0.0089763999 1.1508204e-38
0.12827741 0.12231454 0.023032188 1.1144112e-38
0.12873168 0.12485281 0.024044573 1.1696209e-38
0.12693217 0.015281096 0.0095937252 8.8381169e-39
0.1264936 0.018446505 0.010016561 1.0496584e-38
0.12567687 0.022362202 0.010185897 1.2059953e-38
0.12464783 0.02627629 0.01034236 1.343966e-38
0.12391242 0.029722139 0.0099440217 1.3897777e-38
0.12338559 0.11853275 0.023519337 9.4867542e-39
0.12402245 0.12125409 0.023871005 9.3023671e-39
0.12399901 0.1242203 0.024362504 8.0102312e-39
0.12177826 0.027324259 0.010994375 1.4358751e-38
0.1204897 0.030040279 0.01029104 1.435805e-38
0.12137995 0.12223423 0.024430573 7.0918342e-39
0.12137198 0.12413242 0.024699271 6.0780901e-39
0.11692445 0.030244336 0.010486722 1.4816889e-38
0.11697896 0.033075333 0.0095002651 1.527607e-38
0.11673719 0.11381724 0.022960067 8.5637539e-39
0.11319321 0.030924082 0.010740101 1.5648066e-38
0.11280087 0.033324435 0.0095394254 1.5924665e-38
0.10903619 0.0337708 0.0098479986 1.6199795e-38
0.10556018 0.034743309 0.010270178 1.6474224e-38
0.10509463 0.037897453 0.0097647309 1.6568215e-38
0.10186887 0.038169593 0.010670841 1.6477807e-38
0.10135133 0.041085705 0.010109246 1.6385611e-38
0.099122465 0.044504672 0.010056496 1.6015757e-38
0.099679679 0.1248554 0.02350843 2.341769e-38
0.098028839 0.041978449 0.010982037 1.583318e-38
0.096118271 0.045305312 0.010159612 1.5921779e-38
0.098588392 0.12632048 0.022639394 2.341769e-38
0.096474081 0.12866507 0.023857534 2.341769e-38
0.095165268 0.1326519 0.023333192 2.341769e-38
0.093641996 0.043470278 0.011606574 1.5461528e-38
0.092552394 0.046741158 0.010993719 1.5369685e-38
0.092528686 0.05028981 0.010736763 1.5278916e-38
0.092089072 0.053365633 0.010893762 1.5553355e-38
0.091093108 0.090972036 0.01717943 8.8385275e-39
0.090886712 0.091990441 0.018323302 8.189575e-39
0.089799374 0.047071695 0.011888146 1.4818667e-38
0.089396328 0.05067426 0.011767983 1.481938e-38
0.088757426 0.054424211 0.01156795 1.4819381e-38
0.087618321 0.057800084 0.011256039 1.4910827e-38
0.087080359 0.086944506 0.017380714 1.0222495e-38
0.088458776 0.089608625 0.017278671 9.2076379e-39
0.088334978 0.092001066 0.018172681 7.6385452e-39
0.085937262 0.055313155 0.012826741 1.4543492e-38
0.08513397 0.058197573 0.01260978 1.4635685e-38
0.084384263 0.062180534 0.011853099 1.4633515e-38
0.083773017 0.064755306 0.012013197 1.4173632e-38
0.083693594 0.083680704 0.014692426 1.1787314e-38
0.084651783 0.08641538 0.015715599 1.1418513e-38
0.084704489 0.089358553 0.017454922 8.6548705e-39
0.085145324 0.092014343 0.017984331 5.7027971e-39
0.083587691 0.1089146 0.018264651 1.2882905e-38
0.083713368 0.14623372 0.024239302 1.6915867e-38
0.081010729 0.065799102 0.012249529 1.3069099e-38
0.080600187 0.082884729 0.014597476 1.3255974e-38
0.080994278 0.086045399 0.015541315 1.1506796e-38
0.080693081 0.088869244 0.01727289 5.9801239e-39
0.081891939 0.1072132 0.01994586 1.2882903e-38
0.080689609 0.10983774 0.019108117 1.32495e-38
0.080698833 0.14559098 0.025028288 1.9617486e-38
0.081721991 0.14770812 0.025678635 1.8690169e-38
0.077390626 0.065734103 0.013505936 1.1963084e-38
0.077115715 0.069348663 0.012701273 1.0949664e-38
0.076798767 0.079114377 0.013836145 1.4083593e-38
0.077017367 0.082069859 0.015527308 1.2612399e-38
0.076925963 0.085013509 0.016299069 1.0032019e-38
0.076707497 0.11391923 0.018901467 1.3802322e-38
0.075920925 0.11714737 0.018975139 1.3435294e-38
0.076905727 0.14563003 0.02466315 1.9800797e-38
0.076510444 0.14887759 0.025280774 1.5649135e-38
0.075324088 0.15216379 0.025929093 1.4915159e-38
0.074132204 0.069668055 0.013905644 1.2148919e-38
0.073927641 0.073940337 0.013909161 1.3163456e-38
0.074086741 0.077687144 0.014618635 1.3067283e-38
0.074348286 0.080670252 0.015731752 1.0214256e-38
0.074430838 0.11504899 0.019600451 1.3344945e-38
0.072819024 0.11787522 0.019095898 1.3619735e-38
0.072513759 0.12073629 0.01928097 1.3616166e-38
0.074529707 0.14554079 0.02291882 1.9056035e-38
0.073048979 0.14957672 0.023627937 1.4361279e-38
0.072556958 0.15286312 0.024759531 1.4454911e-38
0.071906731 0.15576343 0.026235759 1.4825138e-38
0.069147885 0.11775774 0.020428419 1.3436437e-38
0.067920789 0.12109101 0.019780099 1.3619039e-38
0.06674996 0.12392585 0.020401418 1.5734501e-38
0.066960901 0.1304322 0.020324945 1.3619692e-38
0.06668897 0.13845702 0.022458553 1.1500346e-38
0.066797137 0.14106993 0.022329628 1.1135875e-38
0.068034902 0.15361272 0.024110079 1.3901003e-38
0.068538114 0.15620343 0.025717914 1.4086474e-38
0.065476 0.12393114 0.020326138 1.4629609e-38
0.062901542 0.13025965 0.021070182 1.3156604e-38
0.064302519 0.13352069 0.021026134 1.2235372e-38
0.06419754 0.13787478 0.022002578 1.0950024e-38
0.064374417 0.14053634 0.021603644 1.0675935e-38
0.064079747 0.15012628 0.022946179 1.196779e-38
0.064079642 0.15299962 0.024365425 1.2151468e-38
0.065101251 0.15600266 0.025863886 1.3070537e-38
0.061161503 0.13365707 0.022257626 1.2235723e-38
0.060293749 0.13783123 0.022100925 1.1133689e-38
0.060046226 0.14131135 0.021455467 1.0767408e-38
0.060377374 0.14575738 0.022105753 1.0953244e-38
0.060328364 0.14926016 0.023386538 1.1412784e-38
0.060969308 0.15253988 0.025126398 1.1139485e-38
0.057005256 0.13904096 0.022469878 1.205635e-38
0.056882545 0.14186186 0.022212207 1.1044716e-38
0.056760371 0.14521971 0.023114741 9.9408856e-39
0.056902707 0.14848486 0.024056017 1.085964e-38
0.11513051 0.088558987 0.0031582713 1.4268361e-38
0.11593328 0.094353035 0.0046248436 1.4914097e-38
0.10773353 0.092935458 0.00251019 1.4913013e-38
0.10224485 0.10326384 0.0036569238 1.6295602e-38
0.09809266 0.11883387 0.0053445697 1.7957994e-38
0.10997876 0.10394455 0.0068718195 1.6850569e-38
0.1149934 0.085057586 0.0054559708 1.8596894e-38
0.14070871 0.064240694 0.0077590346 1.5193916e-38
0.14321193 0.074791998 0.0078748465 1.5375788e-38
0.15463819 0.083229154 0.0097525716 1.6388512e-38
0.14168444 0.068052679 0.0088745952 1.353764e-38
0.13766253 0.070074558 0.0094218254 1.2891193e-38
0.15651332 0.098104879 0.017482579 2.192062e-38
0.064590454 0.15450114 0.025114655 1.2611002e-38
0.17485841 0.083784208 0.025707543 2.341769e-38
0.17480728 0.086838216 0.026643395 2.341769e-38
0.171224 0.023203745 0.017405272 1.1421094e-38
0.17253117 0.025890917 0.017430782 1.0868633e-38
0.17291518 0.029286653 0.016142964 1.0037085e-38
0.1739876 0.032467782 0.015848637 8.5590806e-39
0.17378263 0.062597066 0.021121025 2.0723516e-38
0.17369197 0.06548579 0.022537112 2.2760426e-38
0.17347124 0.070033982 0.021651268 2.2768365e-38
0.17382006 0.072389394 0.02150023 2.3138228e-38
0.17379613 0.078092486 0.022307634 2.2771959e-38
0.17378283 0.08126083 0.022756219 2.3417328e-38
0.17330959 0.084936962 0.025019884 2.341769e-38
0.17282845 0.088116139 0.025694907 2.341769e-38
0.17157696 0.092585772 0.026109695 2.341769e-38
0.17091411 0.097038299 0.027858019 2.341769e-38
0.16739497 0.01812771 0.016457081 1.2156867e-38
0.1685605 0.021045595 0.016308188 1.1972481e-38
0.16982406 0.025024965 0.01505065 1.1237417e-38
0.16990167 0.092682973 0.02414459 2.341769e-38
0.16989103 0.095217675 0.024503469 2.341769e-38
0.16810137 0.10014659 0.02711916 2.2957075e-38
0.16356057 0.014324695 0.015689194 9.8584234e-39
0.16466168 0.017280295 0.016029418 1.1239207e-38
0.16497189 0.020631731 0.014981508 1.1238166e-38
0.16513702 0.10175961 0.02656424 2.2487826e-38
0.16390033 0.10489377 0.027710617 2.249106e-38
0.16316789 0.10789093 0.028935075 2.2864511e-38
0.15971017 0.014340729 0.015461802 8.2882446e-39
0.16101497 0.016999096 0.015579462 8.840317e-39
0.16116214 0.020446718 0.014390826 7.2726353e-39
0.1615932 0.10546559 0.026271403 2.2300913e-38
0.1605117 0.10854524 0.028110802 2.2675087e-38
0.15973018 0.11151204 0.029243767 2.323366e-38
0.15682369 0.014034495 0.015246332 8.6559649e-39
0.15720102 0.017132998 0.015033782 9.0251062e-39
0.15742719 0.020497054 0.013163567 9.8573542e-39
0.15822954 0.10962275 0.0268628 2.2489262e-38
0.15672705 0.11253643 0.027692199 2.2769092e-38
0.15543771 0.11492452 0.029471695 2.3417328e-38
0.15117154 0.010132939 0.014356017 9.3956726e-39
0.15253142 0.013785094 0.013740897 1.0133222e-38
0.15377809 0.016931355 0.013249636 1.0778222e-38
0.15398315 0.11372998 0.026854813 2.2581465e-38
0.15241617 0.11658362 0.028402686 2.2768372e-38
0.15092954 0.11876225 0.029747128 2.2491427e-38
0.14837 0.010541424 0.012560606 1.2067548e-38
0.14978987 0.013558507 0.011724174 1.141967e-38
0.14799744 0.1179831 0.027101099 2.2110403e-38
0.14762902 0.12001744 0.029096067 2.2485667e-38
0.14706042 0.12323381 0.030150592 2.2860919e-38
0.14511979 0.0099871755 0.01093936 1.270933e-38
0.14542745 0.12053221 0.027309358 2.1373917e-38
0.14405808 0.12422103 0.028377175 1.7677854e-38
0.14325836 0.1265287 0.029885232 1.62063e-38
0.14165522 0.12511742 0.027060211 1.3074867e-38
0.13990796 0.12722573 0.02887392 1.5748871e-38
0.1360203 0.12832925 0.029102087 1.805379e-38
0.1354745 0.13155644 0.030640066 2.0539109e-38
0.13241805 0.12857926 0.029024005 1.6116957e-38
0.13226262 0.13233359 0.030558765 1.7595686e-38
0.12873635 0.12779889 0.028693676 1.1882058e-38
0.12657972 0.010570347 0.011434197 7.3633918e-39
0.1252058 0.014843464 0.012463987 9.6703943e-39
0.12534711 0.017104939 0.011781394 1.0496226e-38
0.12394798 0.021318913 0.01297003 1.2519151e-38
0.12504163 0.1258202 0.0261693 8.099194e-39
0.12463338 0.12721048 0.029040217 7.4545211e-39
0.12120468 0.022208393 0.014079392 1.353115e-38
0.12108625 0.025323272 0.01283735 1.4174004e-38
0.12066123 0.11697003 0.025664687 8.3804094e-39
0.12067329 0.12038803 0.025981605 7.4563119e-39
0.12045059 0.12476599 0.02736485 5.2454721e-39
0.11731831 0.023428023 0.01422298 1.4174734e-38
0.11662492 0.025739089 0.013064027 1.445097e-38
0.11522906 0.028276622 0.011750758 1.5002712e-38
0.11582317 0.11296919 0.025820613 8.6534272e-39
0.11738741 0.11629355 0.026818931 6.9049514e-39
0.11819308 0.12080795 0.028085291 5.4305626e-39
0.11224563 0.02614148 0.013871729 1.5280004e-38
0.11255645 0.028906986 0.012355268 1.5556235e-38
0.11155696 0.11179735 0.026411831 1.3900278e-38
0.10960148 0.027279079 0.014308929 1.5739908e-38
0.10854179 0.029642001 0.013231933 1.6108324e-38
0.10457589 0.030281872 0.013760626 1.6293072e-38
0.10498834 0.032754868 0.011775255 1.6475306e-38
0.10537709 0.11640581 0.026696861 2.2856072e-38
0.1041851 0.12060592 0.026614487 2.2581391e-38
0.10341983 0.12405187 0.027664542 2.2955636e-38
0.10340113 0.12850741 0.028295338 2.3140379e-38
0.10124289 0.031132847 0.01435709 1.6201621e-38
0.10056685 0.033601761 0.013799787 1.6384919e-38
0.10050021 0.036575541 0.012049496 1.638562e-38
0.10084321 0.12452585 0.026132822 2.341769e-38
0.10023931 0.12856871 0.027862608 2.3325493e-38
0.099920273 0.13221356 0.028613329 2.3046734e-38
0.096480176 0.034462437 0.014545321 1.546727e-38
0.09687458 0.037884846 0.013410091 1.583317e-38
0.096009418 0.041029871 0.012413383 1.5648792e-38
0.097247913 0.12879662 0.026090384 2.341769e-38
