# .PCD v0.7 - Point Cloud Data file format
VERSION 0.7
FIELDS x y z rgb
SIZE 4 4 4 4
TYPE F F F F
COUNT 1 1 1 1
WIDTH 978
HEIGHT 1
VIEWPOINT 0 0 0 0 1 0 0
POINTS 978
DATA ascii
0.16168913 0.07152462 0.013641477 1.8137349e-38
0.16223592 0.076016359 0.012754083 1.684949e-38
0.16168299 0.079947889 0.012964785 1.5837133e-38
0.16165932 0.08382643 0.012556851 1.6111572e-38
0.16170667 0.087737165 0.012473047 1.6574342e-38
0.16177729 0.09166196 0.012497187 1.6852004e-38
0.16050364 0.094276547 0.0125615 1.6020814e-38
0.15700111 0.055419516 0.016288757 2.0997556e-38
0.1579335 0.059288654 0.015681922 2.0073812e-38
0.15781862 0.06314303 0.014839649 1.8874197e-38
0.1581122 0.06700094 0.014139473 1.8046933e-38
0.15838471 0.070882186 0.013783216 1.7215379e-38
0.15774883 0.079440713 0.013256192 1.5008079e-38
0.15793052 0.084211551 0.012850404 1.5190682e-38
0.15774883 0.087730005 0.012617052 1.5743499e-38
0.15791065 0.091699421 0.013073921 1.5833919e-38
0.15779713 0.09545482 0.013035715 1.583641e-38
0.15668269 0.098228998 0.01305449 1.8416114e-38
0.15286174 0.052243002 0.01739794 2.1826595e-38
0.15339871 0.055448193 0.016526461 2.0811004e-38
0.15393348 0.058741502 0.015648723 1.9704665e-38
0.15520525 0.063161843 0.015042305 1.8504697e-38
0.15520525 0.067047454 0.014742732 1.7678159e-38
0.15456936 0.080009669 0.013876081 1.58353e-38
0.1543574 0.084330402 0.013587236 1.5558024e-38
0.15379217 0.08764942 0.013449311 1.5927893e-38
0.15339854 0.091740802 0.013728201 1.7403743e-38
0.15349856 0.09568575 0.01391536 1.8417886e-38
0.15249784 0.09940777 0.013837337 1.9155813e-38
0.14904079 0.051655594 0.018240929 2.1363826e-38
0.14905608 0.055126935 0.017092049 2.0257832e-38
0.15011811 0.058062438 0.016497612 1.9701791e-38
0.14948224 0.09174791 0.014033139 1.6943482e-38
0.14888996 0.095669091 0.014082134 1.7679254e-38
0.14901939 0.09963537 0.014432132 1.8233141e-38
0.14776714 0.10226297 0.014604867 1.8417879e-38
0.14521983 0.051716737 0.019033968 2.0719179e-38
0.14503098 0.054905839 0.017803133 2.007237e-38
0.14587882 0.096554644 0.014414787 1.7494494e-38
0.14515731 0.099670224 0.015008152 1.7309399e-38
0.14467297 0.10306555 0.014984012 1.8505796e-38
0.1413378 0.051760919 0.01949954 2.0167455e-38
0.14153355 0.054638006 0.018553913 2.0259263e-38
0.14124648 0.10031921 0.015262485 1.758815e-38
0.14129749 0.10359298 0.015283942 1.869377e-38
0.14114416 0.10677911 0.015639424 2.0173185e-38
0.1373232 0.04873006 0.020912945 2.1086522e-38
0.13746689 0.051645741 0.020017862 2.0350754e-38
0.13867204 0.10098732 0.015577674 1.7311926e-38
0.13740027 0.10424569 0.015592039 1.7680701e-38
0.13749897 0.10755697 0.015885174 1.8786341e-38
0.13694111 0.11021884 0.016251683 1.8967843e-38
0.13375698 0.048657417 0.02166307 2.1086891e-38
0.13387406 0.051079255 0.020632327 2.0350409e-38
0.13403782 0.10799182 0.016175926 1.7037833e-38
0.13333243 0.11070895 0.016967297 1.7223657e-38
0.1298528 0.048695829 0.021963 2.1178729e-38
0.12976953 0.050616845 0.021320045 2.0810669e-38
0.13040543 0.10889083 0.016694188 1.4825847e-38
0.12484143 0.045557339 0.023763478 2.1457447e-38
0.12622009 0.048098337 0.022596836 2.1457828e-38
0.12722597 0.050657548 0.021847963 2.1180879e-38
0.12595418 0.10896206 0.017618001 1.0951848e-38
0.1260972 0.1116742 0.018289626 1.0126758e-38
0.12535089 0.1153333 0.018277168 8.9307161e-39
0.12221649 0.044929571 0.023847759 1.887705e-38
0.12341061 0.046832994 0.022939444 1.9434855e-38
0.12185924 0.10873766 0.018746316 9.2962476e-39
0.12290508 0.11171766 0.018895864 7.7339428e-39
0.11842297 0.044997349 0.024805248 1.5929643e-38
0.11705168 0.046934754 0.02425921 1.463319e-38
0.11705168 0.10521892 0.019765317 9.6589233e-39
0.11838981 0.10784791 0.019738555 9.0243103e-39
0.11490697 0.045197472 0.025865376 1.5280716e-38
0.11436736 0.047915529 0.025036812 1.500592e-38
0.11323632 0.072899878 0.023053765 7.2704717e-39
0.11323632 0.07678549 0.022754192 6.1598768e-39
0.11323632 0.083261505 0.022254884 8.2792763e-39
0.11323632 0.10527997 0.020557165 1.0194117e-38
0.11521699 0.10758215 0.020478308 7.3594514e-39
0.11178651 0.048684731 0.026247978 1.4176889e-38
0.11063698 0.052095272 0.025968909 1.1967062e-38
0.11005686 0.054817911 0.025111794 1.1046511e-38
0.10942097 0.067780122 0.024245083 3.5851759e-39
0.11076203 0.07276509 0.024092972 4.5997034e-39
0.11210493 0.076891616 0.024006665 5.6102876e-39
0.11139791 0.085931987 0.022944927 8.8320815e-39
0.11073862 0.087869093 0.022762597 1.029927e-38
0.10828398 0.053604912 0.026599884 8.2810588e-39
0.10711922 0.056357808 0.026246667 9.0207762e-39
0.10560562 0.060069956 0.025636137 8.649135e-39
0.10595633 0.064291485 0.025493503 5.8886527e-39
0.10786447 0.067499429 0.024847746 3.9546871e-39
0.10828398 0.070467249 0.025299728 3.8653697e-39
0.1063412 0.086038232 0.0242486 1.0759132e-38
0.10777019 0.087700732 0.02339524 1.158712e-38
0.10395357 0.060419142 0.026978612 8.4636746e-39
0.10446303 0.063394323 0.026642799 7.0839547e-39
0.10183147 0.084339991 0.024894297 1.5738786e-38
0.096821122 0.077784747 0.027128756 1.3897432e-38
0.097768873 0.081215531 0.0260517 1.6473865e-38
0.093636997 0.07394439 0.028089643 1.6019711e-38
0.094223455 0.077138223 0.027265668 1.6016476e-38
0.095431328 0.079660825 0.026249826 1.6480688e-38
0.090198144 0.068940729 0.029193401 1.7859284e-38
0.090317674 0.072862148 0.028679848 1.7213225e-38
0.091192044 0.07627479 0.027395964 1.6662565e-38
0.08535827 0.061754398 0.030757964 1.8688739e-38
0.086190499 0.064755835 0.030182064 1.8506866e-38
0.086740062 0.068018302 0.029474318 1.8413554e-38
0.086804204 0.072432116 0.028813303 1.7582357e-38
0.081537321 0.057924237 0.031851053 1.9881153e-38
0.082615368 0.060862478 0.031253099 1.9239026e-38
0.082735568 0.064336672 0.030309737 1.8688004e-38
0.083349369 0.066902131 0.029756069 1.8414287e-38
0.077716365 0.054094072 0.032944083 1.9980542e-38
0.078735292 0.056931395 0.032512605 1.9980177e-38
0.079352997 0.060079128 0.03145802 1.9609241e-38
0.080169901 0.063067406 0.030715525 1.8872751e-38
0.080169901 0.072133824 0.030016482 1.6198339e-38
0.074850656 0.053815655 0.033563852 2.0347525e-38
0.075125933 0.056052368 0.032821715 2.0071651e-38
0.071348108 0.053547431 0.034315825 1.9887256e-38
0.071082339 0.056323655 0.033474326 1.9610672e-38
0.069995612 0.059344605 0.033126771 1.8875255e-38
0.070671864 0.11380292 0.029298782 2.1651201e-38
0.070711292 0.11516999 0.029697478 2.2482071e-38
0.067527167 0.053608578 0.035108864 1.924333e-38
0.067477092 0.056813084 0.034189284 1.8689786e-38
0.067197695 0.059907466 0.033667564 1.776856e-38
0.067452043 0.063270919 0.033355117 1.7395844e-38
0.067489624 0.11579856 0.029809415 2.1280266e-38
0.064343043 0.053659528 0.035769701 1.9242965e-38
0.063659862 0.056874171 0.034981549 1.7397985e-38
0.063954636 0.059765078 0.034355581 1.7491261e-38
0.063989393 0.11650264 0.030485809 1.9065079e-38
0.060288206 0.0573797 0.035987914 1.7397982e-38
0.059503384 0.059836309 0.035279453 1.81352e-38
0.059843257 0.11784019 0.031077623 1.5010654e-38
0.058611624 0.11925493 0.031908691 1.2981993e-38
0.056064315 0.05833187 0.037137866 1.8870956e-38
0.055389225 0.060246427 0.03644824 1.8319585e-38
0.057277761 0.11783229 0.031272411 1.3073778e-38
0.051606543 0.058403209 0.038063049 1.859436e-38
0.051318809 0.06024272 0.037688613 1.7673137e-38
0.050070979 0.11751588 0.032801449 1.2428804e-38
0.05288019 0.1199952 0.033048213 1.4364848e-38
0.04778558 0.058464352 0.038856089 1.850037e-38
0.046947949 0.060673952 0.038421631 1.7580218e-38
0.045831695 0.11412984 0.033947587 1.0490849e-38
0.047492735 0.11659177 0.033996463 9.0099848e-39
0.043314271 0.06175692 0.039194286 1.6935551e-38
0.042440258 0.06410291 0.038512945 1.4355183e-38
0.043519944 0.11337397 0.035000741 1.4634269e-38
0.039506853 0.062488142 0.040274322 1.5833892e-38
0.039491296 0.065051496 0.039624631 1.3899929e-38
0.038518928 0.068590939 0.03898555 1.3071606e-38
0.039317824 0.072635487 0.038635015 1.2244004e-38
0.038200982 0.076691046 0.038427413 1.3534406e-38
0.038200982 0.11036634 0.035830915 1.1600813e-38
0.03923168 0.11247788 0.035862684 1.4458499e-38
0.036110461 0.065569066 0.040745854 1.3898499e-38
0.035682544 0.069026336 0.040454745 1.3623354e-38
0.035556838 0.073362604 0.039794922 1.4358773e-38
0.035021529 0.076741926 0.039087296 1.5465457e-38
0.035657406 0.11040704 0.036358833 1.0773546e-38
0.035928875 0.11229917 0.03677088 1.2984462e-38
0.032820202 0.06940493 0.04113704 1.417473e-38
0.031978518 0.073803216 0.040880561 1.500198e-38
0.031484976 0.077933311 0.040026546 1.4820469e-38
0.030570269 0.080698773 0.039711535 1.463535e-38
0.031691685 0.10938801 0.037649512 1.0316169e-38
0.032501794 0.11189014 0.037927747 1.2336215e-38
0.028362408 0.075313233 0.041612148 1.4544927e-38
0.028041884 0.078226849 0.04134059 1.4728964e-38
0.027524546 0.081561357 0.04069066 1.5190684e-38
0.027712613 0.10635722 0.038585842 8.7452627e-39
0.028223231 0.10897499 0.038899481 1.0590599e-38
0.025178298 0.078606941 0.042023003 1.6386699e-38
0.02422002 0.082168274 0.041720808 1.6758711e-38
0.023578733 0.086024292 0.041102111 1.7124627e-38
0.022939548 0.089887306 0.040596247 1.675261e-38
0.022939548 0.092477709 0.040396512 1.3622625e-38
0.024215877 0.10674779 0.039371252 7.9137084e-39
0.024223059 0.10877986 0.039896011 1.132924e-38
0.020402119 0.08354751 0.042639256 1.8042983e-38
0.020400062 0.086107977 0.042100728 1.7028834e-38
0.020759359 0.089737169 0.04106307 1.5095982e-38
0.021667778 0.092498064 0.040660441 1.417652e-38
0.020715922 0.10841294 0.039888144 9.5786275e-39
0.016581133 0.083608657 0.043432295 1.5374333e-38
0.016580984 0.086169094 0.04289341 1.5094875e-38
0.017852396 0.08867351 0.041751921 1.3344972e-38
0.016898975 0.10918842 0.041137516 1.0221114e-38
0.013078615 0.083340429 0.044184208 1.3350329e-38
0.012761489 0.086230427 0.043686092 1.2332605e-38
0.012002215 0.089803293 0.042886257 1.0491921e-38
0.012129366 0.10689794 0.041541576 9.4835032e-39
0.012443066 0.10893545 0.042087317 9.9430562e-39
0.012129381 0.12049758 0.040493011 7.4548994e-39
0.010212898 0.083710566 0.044753969 1.2147828e-38
0.0098945051 0.086634137 0.044595063 1.0304296e-38
0.0085220188 0.090152644 0.043927372 8.2760225e-39
0.0071694255 0.10153747 0.042990506 6.4414313e-39
0.008732006 0.10572106 0.042853832 7.8239748e-39
0.0097883493 0.10879467 0.042908549 9.1147192e-39
0.0095857978 0.12053828 0.04102093 6.0741342e-39
0.0051182956 0.090493783 0.045294642 6.0690895e-39
0.0044896007 0.094123572 0.044633806 5.7042292e-39
0.0044896007 0.09801203 0.044333994 4.9688138e-39
0.0054367036 0.10227071 0.044320107 4.7876847e-39
0.0057551265 0.10453553 0.044079006 6.4403649e-39
0.0025710016 0.091615468 0.045739949 3.8639432e-39
0.0019341558 0.094219863 0.045672119 6.1623123e-39
0.0025710016 0.096803874 0.045339942 6.1623095e-39
0.083990909 0.084938914 0.01858443 2.3016165e-38
0.072863132 0.084779575 0.020595431 1.8133379e-38
0.068786524 0.09110415 0.021150589 1.4721788e-38
0.066084303 0.095516622 0.020213485 1.3993214e-38
0.062944002 0.096457928 0.020603061 1.3717337e-38
0.061107241 0.097673014 0.022531927 1.4178327e-38
0.05815433 0.091767251 0.02327913 1.3348919e-38
0.097675338 0.079345003 0.021640658 1.638669e-38
0.098763227 0.081066512 0.021836638 1.2241502e-38
0.097701259 0.084410228 0.020948231 1.6848759e-38
0.09637665 0.085699856 0.022106647 1.3440048e-38
0.10032395 0.076530159 0.022218406 1.795439e-38
0.091155425 0.077768542 0.023293734 1.7493052e-38
0.075542212 0.089902565 0.025262713 1.5742055e-38
0.04067263 0.11134719 0.03319025 1.5007003e-38
0.012129381 0.12049758 0.040493011 7.4548994e-39
0.085636199 0.080818519 0.028798401 1.4453823e-38
0.084121875 0.079486825 0.029155672 1.4545673e-38
0.10412496 0.076674961 0.025039315 1.5465107e-38
0.13474569 0.071300797 0.018942475 1.7308655e-38
0.11208521 0.10474433 0.021607041 1.9988446e-38
0.10818979 0.10573383 0.021945775 1.9433842e-38
0.093481593 0.078103572 0.026102722 1.7677803e-38
0.082946323 0.087132968 0.028637946 1.5651662e-38
0.16225667 0.052616917 0.01924938 2.3114825e-38
0.16234748 0.055487651 0.017899215 2.2375473e-38
0.16253859 0.059153169 0.016747415 2.0901064e-38
0.16326593 0.06317091 0.015407562 2.0070246e-38
0.16214986 0.095826179 0.013122737 1.7033879e-38
0.16229846 0.099736422 0.014269948 1.7771793e-38
0.15793237 0.048676752 0.020712137 2.2753235e-38
0.15832631 0.051598273 0.018128037 2.2472692e-38
0.15892918 0.055446297 0.016908586 2.1458184e-38
0.15943938 0.097006187 0.013597667 1.6111936e-38
0.15837564 0.099814609 0.013859332 1.7957985e-38
0.15854441 0.10349045 0.016065359 1.8234154e-38
0.15380608 0.04807654 0.02039057 2.2838968e-38
0.15433733 0.050973266 0.018212199 2.2285432e-38
0.15510264 0.099933386 0.014277399 2.1089398e-38
0.15406916 0.10382241 0.016071618 2.0441867e-38
0.15314956 0.10737777 0.017184615 1.9892303e-38
0.14853756 0.044695549 0.022980511 2.3023332e-38
0.14953798 0.047872804 0.021046877 2.2010286e-38
0.14954148 0.10391884 0.015899539 1.8877063e-38
0.14958607 0.10774396 0.017516136 1.9154728e-38
0.14853756 0.11058284 0.017900407 1.9432029e-38
0.14591271 0.044723406 0.023184955 2.2100312e-38
0.14566055 0.047925003 0.021624744 2.1364188e-38
0.14604647 0.10436502 0.015826464 1.9613173e-38
0.14557743 0.10773963 0.01657486 1.9892284e-38
0.14591269 0.1112314 0.01805687 1.9985554e-38
0.14204037 0.044778302 0.023818433 2.1545355e-38
0.14170435 0.047957487 0.021765232 2.12702e-38
0.14190106 0.10865311 0.016361296 2.0998993e-38
0.14176607 0.1117188 0.017177641 2.0813172e-38
0.14172056 0.11486067 0.018481612 2.108867e-38
0.138111 0.044820905 0.024123311 2.1637908e-38
0.13807452 0.047011767 0.021912992 2.1454611e-38
0.13793784 0.11201043 0.016929984 1.9245118e-38
0.13799319 0.1150786 0.01804781 1.933769e-38
0.13427328 0.04488232 0.024919808 2.1639336e-38
0.13404506 0.046781056 0.023455083 2.1547151e-38
0.13414167 0.11213304 0.01771301 1.860371e-38
0.13416427 0.11557685 0.01993078 1.897035e-38
0.13032517 0.044917211 0.025058448 2.1271282e-38
0.13010255 0.046814587 0.023592591 2.1271282e-38
0.13010255 0.11306368 0.018484533 1.6487531e-38
0.13041703 0.115932 0.02013284 1.6487903e-38
0.12640977 0.044525012 0.025393903 2.118088e-38
0.12755151 0.046855409 0.024122059 2.1547872e-38
0.12731402 0.1161045 0.019344568 1.2156849e-38
0.12553293 0.11886501 0.019674361 8.1942483e-39
0.12259741 0.041312337 0.028247416 2.1090123e-38
0.12255424 0.04306414 0.026140749 2.1089379e-38
0.12117393 0.11190756 0.020437837 8.3800353e-39
0.12248355 0.11581624 0.02009064 8.5587036e-39
0.12281184 0.11872353 0.021960795 9.1093649e-39
0.11899719 0.041235801 0.028902531 1.8598696e-38
0.11872396 0.043125432 0.026935697 1.7402637e-38
0.11973113 0.11174613 0.021776021 9.025755e-39
0.12035316 0.11560033 0.023397863 9.6686427e-39
0.11542693 0.041427083 0.029735625 1.6388844e-38
0.11469366 0.043546878 0.028598309 1.5834956e-38
0.11120069 0.0452374 0.029368043 1.3809892e-38
0.1102045 0.048172206 0.02764225 1.2150389e-38
0.10989928 0.073893756 0.027259469 4.1394343e-39
0.11110835 0.077085495 0.026248753 5.2397072e-39
0.11201367 0.081066296 0.026777267 6.804135e-39
0.11102428 0.084588051 0.02641958 7.9093713e-39
0.10882317 0.04598343 0.031172812 1.205352e-38
0.10761818 0.048745345 0.030571163 1.058051e-38
0.10708259 0.052254599 0.028747678 8.6483587e-39
0.10586776 0.054996416 0.028021514 9.1085773e-39
0.10643038 0.068267882 0.027290583 4.4167246e-39
0.10760158 0.072362825 0.028625667 4.6915178e-39
0.10747559 0.084443912 0.027976513 7.8185966e-39
0.10359909 0.052549079 0.03096056 1.3625059e-38
0.10340078 0.056372471 0.029113472 1.0952144e-38
0.10236008 0.059923802 0.028373897 8.9249932e-39
0.10306037 0.064379632 0.028762341 7.0853742e-39
0.10360253 0.068028919 0.029794753 6.4414285e-39
0.10280284 0.082144573 0.029300153 1.1683616e-38
0.10379616 0.084054247 0.027494133 1.214424e-38
0.099655256 0.053018719 0.032398105 1.8139094e-38
0.099801697 0.056539562 0.031787038 1.5924232e-38
0.098953545 0.060356155 0.029905438 1.3992838e-38
0.098974481 0.064268135 0.029770374 1.2515913e-38
0.099035643 0.068208009 0.029965937 1.0032739e-38
0.098927885 0.072649151 0.029816806 1.0030594e-38
0.099201523 0.077284127 0.028833151 1.0949668e-38
0.10001835 0.080714211 0.028113604 1.3803774e-38
0.095371522 0.050112791 0.033662856 2.0346763e-38
0.095960677 0.052689053 0.032886028 1.9060352e-38
0.095123604 0.056515068 0.031001329 1.7033849e-38
0.094388112 0.060376126 0.030003428 1.5740971e-38
0.09438812 0.064273134 0.029702961 1.4359845e-38
0.09438812 0.068170138 0.029402494 1.4173651e-38
0.094706997 0.072062038 0.029035807 1.4821887e-38
0.091192096 0.049593553 0.033990145 1.831742e-38
0.091319554 0.052686691 0.032346785 1.7674206e-38
0.090561576 0.056540355 0.031098068 1.647779e-38
0.090561576 0.060437359 0.030797601 1.6293409e-38
0.090561576 0.064334363 0.030497134 1.7120647e-38
0.090880454 0.067252018 0.030205607 1.7584135e-38
0.091837093 0.070808962 0.029731631 1.7123905e-38
0.087014593 0.049300842 0.035177588 1.8593647e-38
0.086872481 0.052770369 0.03352499 1.8132326e-38
0.086735025 0.056601591 0.0318923 1.7951171e-38
0.086894467 0.060333669 0.031571209 1.8228835e-38
0.087585375 0.063515991 0.031181633 1.8321745e-38
0.083168499 0.048987322 0.035955966 1.9976954e-38
0.08299429 0.05280976 0.033876181 1.9884392e-38
0.083067924 0.056497902 0.032665908 1.9885827e-38
0.083546236 0.059250623 0.032353759 1.9699644e-38
0.079327025 0.049048796 0.036753237 2.0898883e-38
0.079241373 0.052662127 0.033760548 1.9884749e-38
0.079932272 0.055844452 0.033370912 1.9978733e-38
0.075460866 0.049259719 0.037245452 2.0803823e-38
0.075510487 0.052104805 0.034582436 2.034538e-38
0.071563378 0.04912553 0.03734374 1.9978018e-38
0.071428843 0.051650524 0.035469651 1.9977658e-38
0.070738077 0.11733655 0.032598257 2.3315041e-38
0.067652375 0.04914251 0.037134469 1.9425574e-38
0.067602299 0.051711757 0.036263824 1.9334815e-38
0.067752548 0.11825222 0.033150971 2.2850482e-38
0.067187108 0.11971286 0.03418082 2.3216745e-38
0.064004257 0.049379468 0.038219392 1.8875272e-38
0.063265547 0.05256056 0.037103832 1.8509005e-38
0.064484917 0.11815763 0.032816052 2.06313e-38
0.063714579 0.12026056 0.03465873 2.1094092e-38
0.060444839 0.0503335 0.040681779 1.7671703e-38
0.05999101 0.053166345 0.038423836 1.6470621e-38
0.059098862 0.056177843 0.037694871 1.7396523e-38
0.060031421 0.12087511 0.033829033 1.6944235e-38
0.056297682 0.050738074 0.041772544 1.6846936e-38
0.056245409 0.053301089 0.040675163 1.6195824e-38
0.056122676 0.05644197 0.038295865 1.8415367e-38
0.056471646 0.1217875 0.03369689 1.4088282e-38
0.056259409 0.12369885 0.035472035 1.4181571e-38
0.052454352 0.050799578 0.042570233 1.5648427e-38
0.052431755 0.053759035 0.041907728 1.6386347e-38
0.052348882 0.056558091 0.040099323 1.8783426e-38
0.051930927 0.12142002 0.035356224 1.4086839e-38
0.05306761 0.12377568 0.036303222 1.3626589e-38
0.048611023 0.054775175 0.043066084 1.7214673e-38
0.048603483 0.056722738 0.042746782 1.859832e-38
0.04951106 0.12078779 0.036507845 1.0954757e-38
0.044718601 0.05802976 0.042432666 1.8868788e-38
0.04336752 0.059893586 0.040692747 1.8500717e-38
0.044268653 0.11721437 0.037337184 1.3806663e-38
0.046048805 0.12005113 0.03856802 1.2056748e-38
0.040906392 0.058130451 0.043903768 1.8503953e-38
0.039552316 0.060624614 0.041774452 1.739834e-38
0.039540961 0.11451289 0.037280321 1.5378305e-38
0.040397078 0.11733377 0.038548887 1.5838561e-38
0.038346037 0.058171425 0.044435143 1.693413e-38
0.036265276 0.061653569 0.043474197 1.5368615e-38
0.034864075 0.064359672 0.042123735 1.3989984e-38
0.035409793 0.11432485 0.038669586 1.4273403e-38
0.036898136 0.11748014 0.039908469 1.5652731e-38
0.033413105 0.061896283 0.045397401 1.5003415e-38
0.032265402 0.065491728 0.043164432 1.3440039e-38
0.031122565 0.068922751 0.042553067 1.4269799e-38
0.030612379 0.071788713 0.042438626 1.5002692e-38
0.032180741 0.11381663 0.04050988 1.3720933e-38
0.034091771 0.11676328 0.04131794 1.4916955e-38
0.029384792 0.065702736 0.045725405 1.2885433e-38
0.028238088 0.069464855 0.044138014 1.3809201e-38
0.027901888 0.072968721 0.042913556 1.4269438e-38
0.02742359 0.1108098 0.040095687 1.2434052e-38
0.029007494 0.11327028 0.041477919 1.3629079e-38
0.026191607 0.066876233 0.046813786 1.3070543e-38
0.025333315 0.069473833 0.046451271 1.2519886e-38
0.024238393 0.073865391 0.043950737 1.3809183e-38
0.023469493 0.078138232 0.043440342 1.6110499e-38
0.024258226 0.11113145 0.042780757 1.4552148e-38
0.025544733 0.11313471 0.042869925 1.6210222e-38
0.022561803 0.070413515 0.047298908 1.2702835e-38
0.020529419 0.074148476 0.045293212 1.3625154e-38
0.020408243 0.078447014 0.044055641 1.5376162e-38
0.020408243 0.081694528 0.043805301 1.7216098e-38
0.020416826 0.11044179 0.042867541 1.1144567e-38
0.021707714 0.11261246 0.044223487 1.6302434e-38
0.016780019 0.073995158 0.047520638 1.178375e-38
0.016581804 0.078527391 0.045076013 1.344112e-38
0.016581699 0.081755757 0.044599473 1.5190671e-38
0.017223194 0.11121015 0.043987393 1.2065054e-38
0.016949311 0.11324777 0.045167983 1.381491e-38
0.013026297 0.074733354 0.048501432 1.0494428e-38
0.012748271 0.078666978 0.046776295 1.1506083e-38
0.012500048 0.081691176 0.045456588 1.334925e-38
0.012755141 0.11071979 0.043165147 1.0678861e-38
0.012585089 0.11376099 0.045015097 1.1695482e-38
0.011479631 0.11885895 0.042803884 8.5565891e-39
0.010177746 0.076265395 0.049433231 1.0310032e-38
0.0096688271 0.079108298 0.048910558 9.850513e-39
0.008912608 0.082661062 0.047594488 1.0859615e-38
0.0081632882 0.086177178 0.046016157 8.6454944e-39
0.0076530874 0.10722917 0.044499516 7.5398728e-39
0.0085034221 0.11024657 0.044089317 8.6498231e-39
0.0089128464 0.11392029 0.045314193 9.9437624e-39
0.0089262426 0.11763261 0.04365921 8.1924448e-39
0.0050581098 0.084143646 0.049553275 6.3438603e-39
0.0050811321 0.086606756 0.047878683 6.0647623e-39
0.0044642985 0.089094177 0.046563506 6.160911e-39
0.0038265437 0.1020944 0.045694292 5.0628479e-39
0.0049146563 0.10638222 0.045429289 6.4407223e-39
0.0050759315 0.11007665 0.046411574 7.1775684e-39
0.0050759465 0.11398168 0.04611057 7.7343436e-39
0.0052641183 0.11745263 0.04538089 7.7379309e-39
0.0014701784 0.087604888 0.050172031 9.3833762e-39
0.0010957867 0.09037549 0.04806447 8.2745567e-39
0 0.094361626 0.047089458 9.2007856e-39
0.0011101365 0.098432839 0.046799898 5.8882519e-39
0.0012447238 0.10229929 0.04758352 6.0733607e-39
0.0012309998 0.10628895 0.047961771 5.705297e-39
0.001226753 0.11022648 0.047886789 5.4333764e-39
0.0012463778 0.11401369 0.046679974 5.80431e-39
0.10193688 0.097600706 0.013178289 2.2479177e-38
0.092531994 0.096683837 0.010041833 2.1731896e-38
0.087204963 0.091754213 0.011423469 2.080455e-38
0.081323244 0.094278768 0.0094500184 2.0623401e-38
0.075957522 0.09366978 0.0087603927 1.6475645e-38
0.075321153 0.10140347 0.003287673 1.4728995e-38
0.074039027 0.10631496 0.002745688 1.454061e-38
0.071192317 0.09955962 0.0049548745 1.4636788e-38
0.078434326 0.10557972 0.0049203634 1.7317649e-38
0.067946412 0.097673059 0.017091572 1.6028356e-38
0.059440956 0.091925979 0.020984769 1.3348574e-38
0.051663153 0.089014649 0.02442193 1.2423411e-38
0.090997331 0.081959479 0.024024069 1.4638938e-38
0.12936983 0.07174819 0.016679406 1.3347856e-38
0.14430726 0.071443453 0.012751997 1.8414296e-38
0.13664065 0.089550398 0.012501121 1.6575054e-38
0.093557775 0.085497476 0.023415565 1.7494134e-38
0.078544788 0.074522026 0.027124047 1.7031358e-38
0.035576344 0.08069212 0.039349794 1.0768515e-38
0.10082524 0.085832819 0.025133014 1.4544941e-38
0.16168299 0.085781798 0.012514949 1.6297039e-38
0.10233034 0.079753265 0.025143743 1.7676381e-38
0.10097601 0.081504397 0.025568604 1.7125364e-38
0.095067456 0.065773606 0.027695417 1.7768202e-38
0.10733286 0.077258699 0.0299263 1.6671934e-38
0.10792676 0.070256695 0.028831065 1.8514039e-38
0.096335568 0.080963954 0.030356646 1.4544595e-38
0.089157373 0.08326555 0.031003356 1.3808454e-38
0.15934016 0.044633009 0.023461998 2.2486384e-38
0.15962978 0.047436103 0.022502363 2.2573179e-38
0.15984389 0.10544272 0.017985106 1.685485e-38
0.15927088 0.10811384 0.018240273 1.8692688e-38
0.1531737 0.041506581 0.026356339 2.2845087e-38
0.15467536 0.044173464 0.024533391 2.2752159e-38
0.15598938 0.046622019 0.023325145 2.2934421e-38
0.15553053 0.1085026 0.018649757 2.0167822e-38
0.15485586 0.11217062 0.019276142 2.0167092e-38
0.15026143 0.041013569 0.026592612 2.3025528e-38
0.1506861 0.043925047 0.025225759 2.2840027e-38
0.15149245 0.10950185 0.019415736 1.970934e-38
0.15046568 0.11236919 0.019921243 2.0077754e-38
0.15059656 0.11503637 0.021224976 2.1643294e-38
0.14635308 0.042850733 0.025627792 2.2380489e-38
0.14635308 0.11350959 0.020179749 2.1548199e-38
0.14630394 0.11585763 0.020740747 2.1733325e-38
0.14274296 0.040337339 0.027941227 2.2466213e-38
0.14249857 0.042912416 0.026427746 2.2010269e-38
0.14290331 0.11708403 0.021444023 2.1641858e-38
0.13882217 0.040388256 0.028414428 2.200811e-38
0.13864405 0.0429741 0.027227759 2.1915554e-38
0.13864405 0.11755845 0.021477044 2.0536597e-38
0.13870656 0.11965869 0.023146093 2.1639708e-38
0.13448945 0.037868686 0.030537724 2.2192877e-38
0.13498098 0.040454231 0.029325187 2.191592e-38
0.13478953 0.043035783 0.028027773 2.1731529e-38
0.13543195 0.11760984 0.022143722 1.9985226e-38
0.13498098 0.12040256 0.023160875 2.1463222e-38
0.13126805 0.037920237 0.031206429 2.2282187e-38
0.13111982 0.040516019 0.030126572 2.1730821e-38
0.13093501 0.043097466 0.028827727 2.1454244e-38
0.13110195 0.12044725 0.023853481 1.7501e-38
0.13062376 0.12322976 0.024763167 1.6672311e-38
0.12740234 0.037982099 0.032008708 2.1453142e-38
0.12724206 0.040573779 0.030817866 2.1270913e-38
0.12780431 0.043166883 0.029988229 2.1179801e-38
0.12764287 0.1209145 0.024368882 1.0682824e-38
0.12740234 0.12328131 0.025431812 1.040553e-38
0.12353663 0.038043961 0.032811046 2.1088313e-38
0.12366369 0.03964017 0.031380832 2.1180158e-38
0.12327746 0.12112647 0.024751663 9.0204034e-39
0.12353663 0.12334318 0.02623415 9.9444911e-39
0.11967093 0.038105823 0.033613324 1.9981611e-38
0.11947192 0.03937738 0.032190919 1.9427371e-38
0.11944634 0.11335652 0.026321352 8.6591459e-39
0.1199002 0.11664721 0.02614373 9.5793267e-39
0.11580521 0.038167682 0.034415603 1.823024e-38
0.11526734 0.039766293 0.032867908 1.6942723e-38
0.11183155 0.040827923 0.034243345 1.564807e-38
0.11166243 0.043405876 0.032827735 1.3808472e-38
0.11037759 0.07744737 0.030471265 4.7783661e-39
0.11076716 0.081413016 0.030596435 6.4353581e-39
0.10893285 0.041777119 0.035572171 1.5093449e-38
0.10776293 0.044647738 0.034442484 1.3986743e-38
0.10652307 0.04741361 0.033591688 1.3803674e-38
0.10695136 0.074449033 0.031417727 5.242535e-39
0.10788117 0.077536434 0.031554818 5.5162506e-39
0.10788159 0.081464246 0.031251848 6.8966712e-39
0.10414378 0.045551017 0.035768807 1.9335106e-38
0.10398149 0.048772637 0.034245253 1.6847603e-38
0.1039534 0.069699183 0.032409906 6.4428593e-39
0.1039748 0.072984129 0.032322943 6.7162063e-39
0.10401063 0.077588171 0.03224504 7.448382e-39
0.10440324 0.081047609 0.031611741 8.0019075e-39
0.1003221 0.045626011 0.036902428 2.200702e-38
0.10016634 0.048848897 0.035377383 2.0164169e-38
0.1007413 0.051431626 0.034489036 1.850499e-38
0.10138372 0.074974298 0.032539666 8.181638e-39
0.10138372 0.076282799 0.032438755 8.5493121e-39
0.096399546 0.045667872 0.037205815 2.2466224e-38
0.096478231 0.048528273 0.036042035 2.1543879e-38
0.091966689 0.042486049 0.039059639 2.0624818e-38
0.092525192 0.045069329 0.037947059 2.0438981e-38
0.092711054 0.047961764 0.036433101 1.9606346e-38
0.088582188 0.04510089 0.037971079 1.9885096e-38
0.08917775 0.047691181 0.037191689 1.8962063e-38
0.08513727 0.042070419 0.040517569 2.0619789e-38
0.084735818 0.045166738 0.038882852 2.0344274e-38
0.085965656 0.047742583 0.037858307 1.9423043e-38
0.081013873 0.042661324 0.04133296 2.1263727e-38
0.08088883 0.045232601 0.039794862 2.1080027e-38
0.077148169 0.042723186 0.042135239 2.1172996e-38
0.076785184 0.045434646 0.040772617 2.0990012e-38
0.075686939 0.047907069 0.039991617 2.0897452e-38
0.073282458 0.042785048 0.042937577 2.0989293e-38
0.072771579 0.045376007 0.04181999 2.0897459e-38
0.072556511 0.11745252 0.036307514 2.2663562e-38
0.071993873 0.12023111 0.0372352 2.3393924e-38
0.069416746 0.042846911 0.043739915 2.0719526e-38
0.06889458 0.045429043 0.042397678 2.0440788e-38
0.069018781 0.12144104 0.036738575 2.3036299e-38
0.064908184 0.04564786 0.043440759 1.9608868e-38
0.062838547 0.048112676 0.042658269 1.8597255e-38
0.064923257 0.12246302 0.036900222 2.2751102e-38
0.064871967 0.12464215 0.037869751 2.2840759e-38
0.060616113 0.046374246 0.044690609 1.7769629e-38
0.060011923 0.048681315 0.043204665 1.7769988e-38
0.061553717 0.12271759 0.037174225 2.1002601e-38
0.060701512 0.12494356 0.038205087 1.9802626e-38
0.056882545 0.046222363 0.045803785 1.7309375e-38
0.056414358 0.048869736 0.0439412 1.7308274e-38
0.057116993 0.12621811 0.038855135 1.5377593e-38
0.053953916 0.047031239 0.046645522 1.6665439e-38
0.052585997 0.049444094 0.045208454 1.5648423e-38
0.052559838 0.052202657 0.044488907 1.5649853e-38
0.052428789 0.12601249 0.039849877 1.3625151e-38
0.053094886 0.12884475 0.040516853 1.4921668e-38
0.048942767 0.050070249 0.046579421 1.5187454e-38
0.048720755 0.052935027 0.045575559 1.6018995e-38
0.047943488 0.12191911 0.040282309 1.0399797e-38
0.049018502 0.12493661 0.040849626 1.206035e-38
0.044913143 0.050432585 0.047758579 1.6017926e-38
0.044864677 0.053650983 0.046325386 1.6935209e-38
0.044850796 0.056251511 0.045786262 1.795259e-38
0.045120664 0.1218733 0.042036176 1.3718055e-38
0.046222501 0.1245804 0.042280376 1.3068016e-38
0.041311182 0.05062627 0.04859817 1.6657529e-38
0.041020274 0.053729817 0.047463477 1.6658593e-38
0.040996291 0.056313194 0.046586215 1.749303e-38
0.040996291 0.11912107 0.041743517 1.6024016e-38
0.041032277 0.12057779 0.042648196 1.6112978e-38
0.038491093 0.05121557 0.049551249 1.721105e-38
0.037616223 0.054264992 0.048986554 1.6107943e-38
0.036787152 0.057526283 0.047810555 1.6383111e-38
0.03714177 0.060300365 0.047083557 1.6933054e-38
0.037172154 0.12063956 0.043449342 1.6391001e-38
0.0339811 0.055224627 0.050183773 1.5736663e-38
0.033316918 0.057814393 0.049325943 1.6570381e-38
0.032644838 0.06037233 0.048016906 1.4910872e-38
0.032874584 0.11847632 0.044171929 1.4825473e-38
0.033336818 0.12084973 0.045258403 1.5009863e-38
0.029724613 0.058692813 0.050600111 1.4820107e-38
0.029436797 0.061745822 0.048808455 1.3345336e-38
0.02879031 0.064359501 0.048514187 1.3069085e-38
0.02879031 0.1153909 0.044579506 1.4549252e-38
0.02982752 0.11801178 0.045624435 1.5194611e-38
0.030759677 0.12089096 0.045793176 1.4732923e-38
0.025591195 0.061856404 0.050399601 1.2331906e-38
0.025396362 0.065358058 0.049292207 1.2978351e-38
0.024293378 0.068356961 0.049144864 1.2794668e-38
0.025259942 0.11515557 0.045590818 1.6948503e-38
0.026893958 0.11701594 0.04689908 1.6578644e-38
0.021895528 0.062103253 0.051536322 1.0953635e-38
0.021727055 0.065811083 0.050332308 1.2057464e-38
0.021295443 0.069277272 0.049699903 1.242624e-38
0.02172637 0.11489677 0.046433926 1.6578639e-38
0.020451143 0.11711904 0.048236251 1.5747094e-38
0.018130839 0.062814087 0.052702904 9.2962757e-39
0.017870918 0.06590347 0.051585615 9.848711e-39
0.018192217 0.11533928 0.047564566 1.436628e-38
0.019162551 0.11713966 0.048503697 1.464038e-38
0.014438272 0.066449851 0.053057015 8.0065948e-39
0.014011592 0.069887489 0.051970363 8.6512594e-39
0.012729838 0.072467498 0.051242173 9.3016468e-39
0.014656439 0.11568768 0.048019707 1.2987294e-38
0.01358436 0.11793495 0.048411846 1.2060663e-38
0.011431143 0.067396149 0.05395329 6.6254456e-39
0.011114657 0.070296884 0.053027391 7.4523463e-39
0.0098699182 0.074002691 0.052176297 7.9144006e-39
0.0088753253 0.07776317 0.051638603 8.5633756e-39
0.011444986 0.11763121 0.048028111 1.0311118e-38
0.0066021383 0.076310366 0.054018021 5.8818074e-39
0.006045416 0.082275718 0.052086413 5.8893548e-39
0.0032762438 0.080182195 0.054328501 9.4676713e-39
0.0022723526 0.083020553 0.053508282 1.0396435e-38
0.001808688 0.085727237 0.05249995 9.3833706e-39
0.10481144 0.09716925 0.01299274 2.2195043e-38
0.09760119 0.10085576 0.0096421838 1.8604074e-38
0.089970551 0.096560366 0.0060300827 2.2011739e-38
0.086286299 0.093962789 0.0062468648 2.303381e-38
0.065961063 0.10146166 0.015681863 1.5934013e-38
0.051984422 0.091384634 0.026074648 1.2519872e-38
0.099929854 0.07592535 0.021780074 1.647961e-38
0.13694972 0.069299653 0.015800297 1.6663636e-38
0.13299254 0.059413131 0.016440153 1.8323164e-38
0.083561853 0.080347694 0.023925185 1.5189237e-38
0.085281737 0.088497028 0.028443754 1.2794671e-38
0.10057147 0.072819829 0.026561379 1.813843e-38
0.16234748 0.055487651 0.017899215 2.2375473e-38
0.086311549 0.062561385 0.032363355 1.7768554e-38
0.090561576 0.056540355 0.031098068 1.647779e-38
0.13468628 0.042401746 0.032298565 2.1284237e-38
0.12626094 0.044758271 0.032407463 2.1006926e-38
0.11232102 0.11435696 0.030207694 1.8234567e-38
0.15396649 0.037681185 0.03058368 2.2659254e-38
0.15574974 0.040263418 0.029192686 2.2571376e-38
0.15744698 0.042827774 0.027411222 2.2484575e-38
0.15562601 0.11664338 0.022697568 2.173368e-38
0.15587752 0.11989909 0.023674726 2.210176e-38
0.15103784 0.037187677 0.030823469 2.2383397e-38
0.15145536 0.039329104 0.02970022 2.2749659e-38
0.15106884 0.11707008 0.023457587 2.247053e-38
0.15127721 0.12014309 0.024274826 2.2377265e-38
0.14720654 0.036615055 0.03143698 2.256345e-38
0.14775474 0.11800022 0.023638725 2.2010279e-38
0.14734009 0.12082386 0.024759769 2.2193601e-38
0.14662233 0.12403166 0.025459111 2.2470547e-38
0.14295025 0.033897799 0.033175409 2.2193263e-38
0.14343557 0.036502641 0.031962574 2.2375459e-38
0.14333375 0.12078752 0.024916053 2.1918805e-38
0.14359829 0.12430005 0.02606982 2.2194676e-38
0.13971019 0.033949647 0.033847868 2.2101405e-38
0.13945352 0.036550801 0.03222096 2.2009564e-38
0.13967788 0.12174873 0.025035977 2.1646171e-38
0.13943738 0.12476455 0.026262343 2.1923474e-38
0.13552886 0.033483539 0.034551919 2.2376185e-38
0.13573629 0.036230385 0.03289175 2.2009214e-38
0.13565001 0.12493205 0.026655972 2.2018562e-38
0.13193402 0.034074087 0.035461783 2.2006692e-38
0.13171171 0.036019575 0.033992171 2.209924e-38
0.13190509 0.12532315 0.027114987 1.8055232e-38
0.131286 0.1277968 0.028370738 1.639285e-38
0.12804593 0.034136306 0.036268711 2.089782e-38
0.12783109 0.036081675 0.034797609 2.0899971e-38
0.12785789 0.1256884 0.028053701 1.1327117e-38
0.12804593 0.12817863 0.029017746 1.1788084e-38
0.12415785 0.034198526 0.037075698 2.0808485e-38
0.12400253 0.03615265 0.035932899 2.0810283e-38
0.12400253 0.12577617 0.029022574 1.1141629e-38
0.12415785 0.12791087 0.029850125 1.187704e-38
0.12156579 0.034240007 0.03761369 2.1355916e-38
0.12016967 0.036223073 0.037069321 2.0350029e-38
0.11867803 0.11320115 0.030079365 8.1045414e-39
0.11903809 0.11750942 0.029928207 9.4882059e-39
0.12010281 0.12120929 0.030075192 1.1327082e-38
0.12043179 0.12516573 0.030839801 1.2340868e-38
0.11634053 0.03657743 0.03823173 1.859725e-38
0.11638168 0.11087671 0.032787025 6.8127544e-39
0.11648896 0.11362752 0.032168388 7.3659114e-39
0.11633302 0.11742862 0.031950474 7.5488817e-39
0.11638169 0.12143585 0.031972945 8.0130941e-39
0.1166409 0.12459944 0.031674922 9.5782492e-39
0.11240065 0.03766571 0.03858012 1.7952959e-38
0.11378963 0.11883754 0.032714427 6.3524993e-39
0.11378963 0.12081738 0.032561779 5.3426578e-39
0.10860553 0.037747145 0.040049195 1.8416768e-38
0.10797474 0.040565364 0.038426816 1.6845491e-38
0.10471743 0.038469296 0.040805161 2.0348235e-38
0.10466045 0.041094091 0.040159404 1.9979422e-38
0.10454703 0.043700069 0.039071441 2.0441083e-38
0.10082935 0.038531516 0.041612148 2.1731903e-38
0.10076192 0.041152395 0.040854931 2.2103191e-38
0.10066765 0.043762151 0.03987658 2.2290075e-38
0.096941262 0.038593736 0.042419076 2.1181611e-38
0.096812636 0.041196231 0.041106939 2.2009944e-38
0.096708968 0.043799743 0.040017188 2.2561306e-38
0.095645241 0.11780801 0.036581993 1.767564e-38
0.09294261 0.038626675 0.042226851 2.1267669e-38
0.093032755 0.040855065 0.041158199 2.1175482e-38
0.093266159 0.11473559 0.036291003 2.0435035e-38
0.093053199 0.11718954 0.037170887 1.9329749e-38
0.089112647 0.038043559 0.04358381 2.0070202e-38
0.089304492 0.040307209 0.042088509 2.0251707e-38
0.08942432 0.11737961 0.037913859 2.06212e-38
0.085456371 0.038224734 0.044025838 2.0346083e-38
0.08477959 0.040379617 0.043027639 2.0621588e-38
0.085227825 0.11856169 0.03818661 2.2096338e-38
0.084628999 0.12062408 0.038664818 2.016421e-38
0.081357062 0.03883278 0.045312881 2.1451342e-38
0.081248291 0.040773392 0.043990731 2.1356279e-38
0.081295155 0.11855164 0.038496137 2.0530464e-38
0.081203796 0.12162168 0.039303124 1.8507581e-38
0.077500835 0.038904835 0.046453893 2.1911231e-38
0.077368595 0.040835477 0.04479593 2.1451705e-38
0.077177413 0.11825226 0.038793564 1.9611703e-38
0.07750085 0.12469783 0.03983897 1.9518116e-38
0.073612787 0.038307119 0.047311783 2.0159898e-38
0.073488899 0.040897559 0.04560113 2.0436846e-38
0.074239872 0.11815315 0.039180338 2.2568441e-38
0.073661469 0.12207703 0.039434016 2.1174755e-38
0.0731401 0.12556998 0.040169954 2.0715947e-38
0.069724701 0.038369339 0.04811877 1.9238299e-38
0.06960921 0.040959645 0.046406388 2.0159551e-38
0.070863001 0.12317897 0.039292932 2.2932902e-38
0.069673799 0.12603955 0.040686727 2.2378672e-38
0.065824702 0.038426563 0.048757732 1.9148624e-38
0.065725341 0.041678224 0.047104895 1.9884756e-38
0.064401515 0.044316746 0.046722531 1.9700362e-38
0.066070437 0.12699364 0.040767729 2.2930407e-38
0.065188587 0.12885453 0.042089045 2.2564152e-38
0.061948523 0.038493775 0.049732685 1.7766056e-38
0.06189695 0.041767016 0.048694193 1.8045515e-38
0.061860159 0.044383176 0.047930956 1.8138068e-38
0.061816916 0.12727201 0.040865958 2.0539822e-38
0.061663382 0.12937483 0.042375147 1.9890512e-38
0.058384433 0.038880777 0.050446868 1.7399796e-38
0.058040373 0.041843794 0.049948752 1.6565708e-38
0.058000222 0.044457816 0.049072564 1.6199438e-38
0.057970144 0.12938876 0.042018175 1.7033517e-38
0.054166086 0.04191396 0.050979912 1.6479955e-38
0.05365967 0.045385357 0.049395084 1.6756543e-38
0.055355422 0.12737541 0.042207062 1.4455288e-38
0.054998733 0.12979074 0.043461323 1.6116614e-38
0.05060827 0.042964891 0.051755488 1.601969e-38
0.050245941 0.045908071 0.050807357 1.5832803e-38
0.048893936 0.048513185 0.049636662 1.4634281e-38
0.049540088 0.12746847 0.043413997 1.3438965e-38
0.050194085 0.12945917 0.043294668 1.4916606e-38
0.04654412 0.046341233 0.051465571 1.4174005e-38
0.04630933 0.048554547 0.050173044 1.4357334e-38
0.046344884 0.12655351 0.045005381 1.3255284e-38
0.042501509 0.046717256 0.052987993 1.4726445e-38
0.042432442 0.048616584 0.050977707 1.5648051e-38
0.042444743 0.12302656 0.045579314 1.555943e-38
0.042822197 0.12554413 0.046757817 1.4637853e-38
0.039916039 0.047425643 0.053643882 1.5273504e-38
0.038397782 0.049660042 0.052617788 1.6844078e-38
0.037263252 0.052647591 0.05174613 1.6843337e-38
0.038582407 0.12316465 0.046887338 1.6022947e-38
0.034722745 0.050792433 0.054127097 1.5920682e-38
0.034691982 0.053371802 0.052739382 1.5828843e-38
0.034705274 0.12325213 0.047860742 1.5193175e-38
0.032139868 0.051509757 0.054952502 1.4908711e-38
0.030989602 0.054293029 0.05420959 1.5094888e-38
0.029509455 0.057158649 0.053017139 1.5283215e-38
0.028217167 0.11925509 0.048499107 1.675762e-38
0.030808792 0.12211539 0.048078954 1.463858e-38
0.027814031 0.055080753 0.055238843 1.4453814e-38
0.026566133 0.057935216 0.054303586 1.371662e-38
0.026163816 0.11903924 0.049968898 1.6853419e-38
0.027595133 0.12146237 0.049995482 1.5195696e-38
0.023322582 0.059018441 0.05580461 1.1782287e-38
0.020463377 0.060812995 0.054624021 1.0033478e-38
0.023320988 0.11808759 0.051045656 1.7683547e-38
0.020475626 0.059615768 0.056762755 9.7576111e-39
0.01788038 0.06133398 0.05580616 8.9289267e-39
0.018691272 0.11907853 0.0516541 1.3903131e-38
0.015077487 0.062277663 0.056660116 8.0001475e-39
0.013140351 0.065317161 0.055805683 6.163055e-39
0.015551552 0.11979427 0.05253619 1.2338331e-38
0.013998672 0.12292354 0.052209258 8.7452683e-39
0.012057453 0.062985927 0.057235897 7.8153835e-39
0.010638401 0.065998614 0.056685328 6.7144057e-39
0.0075247586 0.066699967 0.05815208 9.7507434e-39
0.0067043453 0.070200741 0.057797313 8.8280864e-39
0.0060807019 0.074069262 0.056988895 6.3445652e-39
0.0030030757 0.074971706 0.057946026 1.1597494e-38
0.0021087527 0.079286039 0.057236731 1.205594e-38
0.1071732 0.096968822 0.013926625 2.2942686e-38
0.086287916 0.10182527 0.0042530298 1.7586673e-38
0.075195186 0.099274307 0.0013017654 1.6479606e-38
0.069430359 0.095447898 0.013330519 1.8046939e-38
0.049210496 0.080861799 0.026700735 1.3625496e-38
0.10312438 0.059079014 0.024181604 1.9058939e-38
0.092141584 0.083713226 0.021748245 1.8231695e-38
0.061268739 0.073950067 0.034462929 1.0585575e-38
0.10015117 0.085464604 0.026060939 1.7861476e-38
0.11155978 0.089050889 0.026440263 1.6484661e-38
0.15826216 0.038998224 0.031634152 2.2477408e-38
0.15652254 0.1219501 0.026011288 2.2564184e-38
0.15130703 0.033840112 0.034508407 2.2845107e-38
0.15208831 0.035456873 0.033196211 2.2845456e-38
0.15182881 0.12254453 0.026877105 2.2565255e-38
0.15130703 0.12398019 0.027558267 2.2747504e-38
0.14778608 0.032938745 0.034873962 2.2750003e-38
0.14916386 0.035172749 0.033828676 2.2749636e-38
0.14819999 0.12552679 0.027473092 2.2655301e-38
0.14284648 0.029998735 0.036570966 2.2011717e-38
0.14420316 0.032232713 0.035383821 2.2195044e-38
0.14408763 0.12669414 0.028514802 2.228688e-38
0.14024326 0.030040398 0.037111342 2.1917377e-38
0.14006555 0.032009121 0.035972178 2.2101057e-38
0.14136532 0.12663218 0.028405011 2.2104641e-38
0.13959244 0.12814441 0.029682994 2.2473415e-38
0.13633838 0.030102886 0.037921786 2.2004182e-38
0.13649122 0.031735398 0.036739528 2.2282205e-38
0.13622427 0.12809153 0.029707313 2.2569222e-38
0.13113189 0.030186199 0.039002299 2.1820864e-38
0.13229476 0.032137062 0.03775537 2.2005966e-38
0.13237801 0.12975268 0.030723751 1.7502794e-38
0.12852864 0.030227859 0.039542615 2.154427e-38
0.12844819 0.032205805 0.038894713 2.1175845e-38
0.12836775 0.13028178 0.030837238 1.1694106e-38
0.12787783 0.13230866 0.031807721 1.2337675e-38
0.12397297 0.030300759 0.040488124 2.0898541e-38
0.12454613 0.032268248 0.039704561 2.0899615e-38
0.12446848 0.1302118 0.031656742 1.2429481e-38
0.1248841 0.1328868 0.032388151 1.2981209e-38
0.12046286 0.032827273 0.040385902 2.0806697e-38
0.11926945 0.12698577 0.032990932 1.3075893e-38
0.12110259 0.12927064 0.033115089 1.3352143e-38
0.11674978 0.033056471 0.04132843 1.9610686e-38
0.11580342 0.11027449 0.035003066 5.7968116e-39
0.11537017 0.11248758 0.034922898 6.7230685e-39
0.11638056 0.12674065 0.033869088 9.671528e-39
0.11746486 0.12849852 0.034275532 1.1881673e-38
0.11288638 0.033787921 0.042363167 1.9887975e-38
0.11277065 0.035755131 0.041381955 1.9242611e-38
0.1142108 0.11065514 0.0363307 4.2330971e-39
0.11329625 0.11415793 0.03591001 6.6330505e-39
0.11334598 0.11760761 0.035360575 6.8141879e-39
0.11262267 0.12187272 0.035285115 5.6163566e-39
0.11345516 0.12513237 0.034603894 5.8918603e-39
0.10896 0.033846527 0.043007672 2.0811e-38
0.10887139 0.03581753 0.042191267 2.0164899e-38
0.10505731 0.033908982 0.043817639 2.1729372e-38
0.10497211 0.036541775 0.042949498 2.0900697e-38
0.10379782 0.11347295 0.038287461 1.1031065e-38
0.10113371 0.033967547 0.044461608 2.2188918e-38
0.10107283 0.036604173 0.04375881 2.2098161e-38
0.1011001 0.114071 0.038007796 1.4358004e-38
0.10076072 0.11771926 0.038594186 1.2610966e-38
0.097250685 0.034033909 0.045437872 2.2186756e-38
0.097173572 0.036666572 0.044568062 2.2096355e-38
0.098473325 0.11540535 0.038225651 1.5183126e-38
0.097843111 0.1180873 0.038321197 1.5834251e-38
0.096638903 0.12087825 0.039211094 1.7586317e-38
0.093347371 0.034759164 0.046196938 2.1357351e-38
0.093274288 0.036728971 0.045377374 2.1267305e-38
0.093274295 0.11945962 0.038998544 1.96189e-38
0.092517115 0.12138608 0.040032566 2.0906445e-38
0.08941 0.034813721 0.046673298 2.08049e-38
0.089375027 0.036129523 0.046237648 2.043863e-38
0.089375027 0.11952202 0.039807796 2.0254599e-38
0.089251906 0.12206288 0.040021777 2.1368158e-38
0.085508235 0.034876157 0.047483087 2.0527241e-38
0.085150808 0.036528047 0.047088861 2.0436489e-38
0.086775512 0.11956362 0.040347338 2.1089384e-38
0.085675888 0.1226286 0.040486991 2.136491e-38
0.085575126 0.12503208 0.041200817 2.2287581e-38
0.082321055 0.034944069 0.048826218 2.1543179e-38
0.081623368 0.036929037 0.048306644 2.1634653e-38
0.082226358 0.12360749 0.040985286 1.9798663e-38
0.081623361 0.12568086 0.041463554 1.9706097e-38
0.078416198 0.035006557 0.049636662 2.2190691e-38
0.077735677 0.036996108 0.049283862 2.2190325e-38
0.077721298 0.12706795 0.042171299 2.0164566e-38
0.073860519 0.035079461 0.05058223 2.053012e-38
0.073777936 0.036379118 0.049474776 1.9794353e-38
0.07467258 0.12731096 0.042618334 2.1270915e-38
0.073494755 0.12945299 0.042869806 2.1453868e-38
0.070606463 0.035131533 0.051257551 1.9887603e-38
0.06987866 0.036441516 0.050284088 1.9058569e-38
0.06987866 0.12909985 0.043139756 2.1641113e-38
0.067352399 0.035183605 0.051932931 1.8870245e-38
0.065979391 0.036503915 0.05109334 1.877913e-38
0.066026352 0.130152 0.044545889 2.2654558e-38
0.062080115 0.036566313 0.051902652 1.7858611e-38
0.062123358 0.13153942 0.045253754 2.0076322e-38
0.057944618 0.037172869 0.053129077 1.7674949e-38
0.058180854 0.13193442 0.045363486 1.7586687e-38
0.057530969 0.13326851 0.045396328 1.89696e-38
0.05428157 0.038676649 0.053368092 1.6571457e-38
0.054336198 0.13215993 0.047173321 1.7955476e-38
0.050398618 0.039410979 0.054463685 1.5921775e-38
0.05012235 0.041258216 0.054037452 1.5553e-38
0.049780503 0.13223283 0.04811877 1.6669042e-38
0.050431311 0.13354801 0.047881484 1.7776127e-38
0.047828071 0.039472807 0.055678546 1.5646987e-38
0.046661772 0.04228586 0.055064857 1.4912281e-38
0.045833156 0.044768453 0.054662287 1.435695e-38
0.045183271 0.12817134 0.048367321 1.3811681e-38
0.045875639 0.13030693 0.049082518 1.4734746e-38
0.043923214 0.043512069 0.056182325 1.4353743e-38
0.042608343 0.044845816 0.056012511 1.4725024e-38
0.042612128 0.12766887 0.049711168 1.454567e-38
0.043923214 0.12967537 0.049538851 1.454855e-38
0.038692087 0.046878871 0.056246579 1.5460422e-38
0.038700603 0.12636773 0.050372005 1.5466179e-38
0.035462663 0.04762423 0.057631671 1.5648779e-38
0.034785211 0.048916318 0.056649029 1.5832449e-38
0.034472667 0.126104 0.051275074 1.48244e-38
0.031158537 0.050590523 0.057891846 1.4358403e-38
0.029586181 0.052970588 0.057421923 1.3532959e-38
0.030892938 0.12403858 0.052011013 1.4361642e-38
0.026735991 0.05410555 0.058544159 1.2702464e-38
0.028303728 0.12329739 0.053291678 1.4545671e-38
0.024398878 0.055754811 0.059314668 1.2241806e-38
0.022764459 0.057395678 0.05876106 1.1047586e-38
0.022766933 0.12033044 0.054164171 1.6756911e-38
0.019190162 0.059333384 0.059443295 9.112962e-39
0.019192398 0.1221176 0.055284917 1.3166645e-38
0.01528886 0.059817836 0.059878945 8.3692691e-39
0.013989106 0.061162323 0.060046673 8.183087e-39
0.015938997 0.12209527 0.055453658 1.2428031e-38
0.012689337 0.059859432 0.060418487 8.6447714e-39
0.012039468 0.061193522 0.060451329 8.5504332e-39
0.080569513 0.098815128 0.00021511316 1.684193e-38
0.13140878 0.092166781 0.013164043 1.9890866e-38
0.10291259 0.095734335 0.012179315 2.3116278e-38
0.080080941 0.10292791 0 1.4545339e-38
0.048323363 0.093944684 0.02388531 1.1131548e-38
0.13312618 0.10332582 0.013823211 1.4918762e-38
0.1643246 0.071516104 0.013518691 1.8872759e-38
0.11762356 0.087881595 0.016201794 1.1138379e-38
0.070147052 0.077064127 0.028596997 1.6203394e-38
0.094930112 0.079099491 0.025145531 1.7216831e-38
0.13416427 0.11557685 0.01993078 1.897035e-38
0.076951154 0.067148253 0.032188833 1.5097772e-38
0.097051859 0.082893811 0.026089072 1.187669e-38
0.11590429 0.077133939 0.023238182 1.8781657e-38
0.098567039 0.090536579 0.026466727 1.5004496e-38
0.097629637 0.075937435 0.02869612 1.767636e-38
0.01358436 0.11793495 0.048411846 1.2060663e-38
0.10577262 0.079132557 0.030529857 1.7491255e-38
0.12446848 0.1302118 0.031656742 1.2429481e-38
