# .PCD v0.7 - Point Cloud Data file format
VERSION 0.7
FIELDS x y z rgb
SIZE 4 4 4 4
TYPE F F F F
COUNT 1 1 1 1
WIDTH 976
HEIGHT 1
VIEWPOINT 0 0 0 0 1 0 0
POINTS 976
DATA ascii
0.078855485 0.098346397 0.0019634366 1.647529e-38
0.078837588 0.10190935 0.00071412325 1.6113014e-38
0.07772819 0.10481535 0.00042498112 1.5741373e-38
0.075786471 0.095258579 0.0044301748 1.408544e-38
0.074977428 0.098862395 0.002976954 1.5282858e-38
0.0742428 0.10241844 0.001432538 1.6661486e-38
0.071255811 0.10370211 0.0011233687 2.1285288e-38
0.070608571 0.10550724 0.00040453672 2.3401829e-38
0.16976172 0.047289059 0.023930073 1.8782708e-38
0.16976172 0.050898209 0.022444725 1.8506834e-38
0.17060755 0.05409573 0.02055639 1.8414282e-38
0.17104794 0.057964578 0.019128144 1.8507193e-38
0.17041181 0.061717197 0.017967999 1.8876709e-38
0.16976172 0.064131781 0.01699841 1.9335521e-38
0.16690131 0.043356344 0.025654733 1.8969628e-38
0.16729052 0.046980247 0.023202181 1.8599395e-38
0.1673087 0.050192162 0.02174437 1.8045511e-38
0.16809694 0.058033153 0.01848805 1.8782366e-38
0.16714907 0.06162329 0.017767131 1.8324633e-38
0.16716135 0.065368816 0.016585827 1.8048035e-38
0.16672796 0.068783119 0.015196741 1.7769298e-38
0.1615272 0.035767123 0.028977573 2.04426e-38
0.16221187 0.038973108 0.027308166 1.9705402e-38
0.16353193 0.042478994 0.025539815 1.8967479e-38
0.16258211 0.061443165 0.017379642 1.6295249e-38
0.16259593 0.06522043 0.016275406 1.6479633e-38
0.16260831 0.069002494 0.015169263 1.6387792e-38
0.16109382 0.071864352 0.014137745 1.5837145e-38
0.15821351 0.03511928 0.02896148 1.9982695e-38
0.15933354 0.03802602 0.027047336 1.9705377e-38
0.15881422 0.065302089 0.015841126 1.4914832e-38
0.15804395 0.068816587 0.014783978 1.5099211e-38
0.15789752 0.072557762 0.013971031 1.574422e-38
0.15414995 0.034674957 0.029159963 1.9337319e-38
0.15457317 0.069121554 0.014426649 1.4639306e-38
0.15415354 0.072615251 0.013725698 1.5743856e-38
0.15415949 0.075163081 0.013037562 1.6022594e-38
0.15025893 0.033107206 0.030490518 1.9155079e-38
0.15006582 0.034959301 0.029117227 1.8967455e-38
0.15024556 0.069378302 0.014481604 1.4363456e-38
0.15024811 0.072476462 0.013446927 1.5837135e-38
0.14999889 0.075698659 0.01297158 1.6667973e-38
0.14619584 0.031957224 0.031114638 1.8416443e-38
0.14635326 0.035315767 0.029005229 1.8322821e-38
0.14764899 0.037578002 0.027665436 1.8414284e-38
0.14764899 0.070012853 0.014316797 1.4547486e-38
0.14635071 0.07303305 0.013122022 1.6481773e-38
0.14619488 0.076266035 0.012744009 1.7219341e-38
0.1424578 0.029599965 0.032223523 1.777075e-38
0.1424578 0.031965122 0.031129897 1.7770729e-38
0.14261815 0.035090998 0.028875768 1.7676717e-38
0.14245586 0.037645862 0.027830243 1.776674e-38
0.14288862 0.073278472 0.0131495 1.7399784e-38
0.14229456 0.076209441 0.012641609 1.7955113e-38
0.13855724 0.029650912 0.032347322 1.7768574e-38
0.13855849 0.031934187 0.031046987 1.74927e-38
0.13856101 0.034693494 0.029189944 1.7309024e-38
0.13874568 0.076602772 0.012244403 1.6759465e-38
0.13855724 0.07897605 0.01204747 1.8326754e-38
0.13439664 0.029224038 0.032677472 1.7491258e-38
0.134663 0.03186284 0.030860245 1.7309388e-38
0.13466616 0.034744367 0.029313564 1.7584523e-38
0.13492581 0.076906309 0.011952102 1.5379014e-38
0.13449416 0.080081806 0.011743188 1.7036742e-38
0.13075612 0.029151291 0.032842517 1.7858958e-38
0.13076246 0.03199546 0.031190872 1.7584899e-38
0.13033855 0.035001114 0.02936852 1.7585952e-38
0.13077131 0.077441081 0.01188612 1.3903923e-38
0.13075972 0.080184206 0.011599183 1.5745996e-38
0.13010603 0.082695588 0.010830343 1.6664726e-38
0.12815575 0.029786795 0.032677472 1.7859675e-38
0.12704401 0.032498524 0.031448185 1.7674582e-38
0.12661225 0.034803525 0.029804587 1.7491264e-38
0.12687646 0.077491954 0.01200974 1.3259619e-38
0.12686253 0.08018674 0.011622608 1.381349e-38
0.12321504 0.032979265 0.03154701 1.6843381e-38
0.12280934 0.035488591 0.029853165 1.6940959e-38
0.12298161 0.077542827 0.01213336 1.114519e-38
0.12296233 0.079914704 0.011930883 1.1511099e-38
0.11905444 0.033514842 0.031481028 1.7309737e-38
0.11906141 0.035837814 0.030284286 1.7310446e-38
0.11908676 0.037951127 0.028572023 1.7126418e-38
0.11875363 0.077406153 0.012617111 9.3881028e-39
0.11937949 0.079527333 0.012532413 9.3869845e-39
0.11547893 0.033260778 0.031718314 1.6113e-38
0.11515789 0.035930321 0.03051132 1.5928965e-38
0.1146726 0.038489297 0.028514445 1.5557319e-38
0.11519191 0.074040726 0.013863802 9.0254355e-39
0.11604539 0.075775251 0.013478994 9.4839362e-39
0.11255351 0.033599779 0.031687379 1.5651296e-38
0.11190341 0.036615893 0.030470192 1.500736e-38
0.11011789 0.039211437 0.028987408 1.4176162e-38
0.1087005 0.043292388 0.026759326 1.3076633e-38
0.1087005 0.062713251 0.018766642 7.0903628e-39
0.10997549 0.065607056 0.018069327 7.4563007e-39
0.11125332 0.069106802 0.017122626 6.9089073e-39
0.10735276 0.0402845 0.029129326 1.2242574e-38
0.10738985 0.043606237 0.026949346 1.2149646e-38
0.10740222 0.047714099 0.024987757 1.0486917e-38
0.10672739 0.051524207 0.023985803 8.738081e-39
0.10606246 0.055259809 0.022797585 6.624064e-39
0.10542816 0.058754221 0.0210585 4.2337963e-39
0.10628607 0.062418267 0.019699037 4.5064371e-39
0.10735276 0.064947054 0.018979371 3.0424264e-39
0.089150146 0.097667262 0.0061889291 2.2923622e-38
0.090450332 0.10306399 0.0039196014 2.341769e-38
0.085899681 0.09410055 0.0077774525 2.3301351e-38
0.086417697 0.096477315 0.0063743591 2.1726498e-38
0.086603686 0.099796399 0.0046858191 2.0163155e-38
0.086567946 0.10361184 0.003597796 2.2110447e-38
0.085574634 0.10733838 0.0023414493 2.2851919e-38
0.086387239 0.11078654 0.00089222193 2.0907903e-38
0.082865492 0.092502311 0.0078716278 2.2376542e-38
0.084033117 0.095470354 0.0062009692 2.2095991e-38
0.08360035 0.10408525 0.0026715398 1.8502616e-38
0.082706928 0.10705857 0.0018417239 2.0723136e-38
0.082696572 0.11071743 0.00045651197 2.0817878e-38
0.08134903 0.11340885 0 1.6221795e-38
0.078302026 0.091430977 0.0082925558 1.8598312e-38
0.079002269 0.1070985 0.0016021729 1.7494153e-38
0.07877931 0.1108761 0.00077706575 1.8698468e-38
0.078748651 0.11344282 8.2552433e-05 1.6039206e-38
0.074904382 0.092174247 0.0083472729 1.1410321e-38
0.073646851 0.09620668 0.006283462 9.4717238e-39
0.074945137 0.10459875 0.0027814507 1.6113377e-38
0.074945129 0.10700135 0.0017927289 1.8233494e-38
0.074848101 0.11108766 0.0011965632 1.9438165e-38
0.075498186 0.11348526 0.00018572807 1.6221781e-38
0.072247706 0.096685007 0.0072205663 1.0473596e-38
0.071648046 0.10006933 0.0053090453 1.4357661e-38
0.070208527 0.10350148 0.0040581226 1.8697713e-38
0.071915798 0.10784177 0.0015592575 2.238338e-38
0.072247714 0.11052011 0.0015266538 1.9248767e-38
0.067913771 0.10476197 0.0040573478 2.027584e-38
0.14245048 0.039968714 0.023876309 1.7216815e-38
0.14244816 0.049295053 0.018748343 1.5282878e-38
0.14244838 0.06009014 0.014425814 1.3719141e-38
0.14108522 0.058245942 0.016998589 1.6021522e-38
0.1385726 0.041913167 0.022871912 1.6481052e-38
0.16363458 0.042667642 0.029170334 1.8507216e-38
0.13523215 0.05277355 0.022372425 1.5377586e-38
0.13431783 0.053080007 0.021892488 1.4916587e-38
0.1330592 0.05444102 0.021614254 1.3258153e-38
0.1265237 0.067980185 0.01594317 1.4639662e-38
0.12226995 0.065377787 0.017386734 1.6571096e-38
0.12058806 0.0737582 0.013530076 1.436271e-38
0.12765485 0.074336186 0.014980018 1.4548915e-38
0.16991542 0.036619946 0.03228265 2.145568e-38
0.17104205 0.040227786 0.030305266 2.0077046e-38
0.17114702 0.043793991 0.027390838 1.9154719e-38
0.17175677 0.047652617 0.02478838 1.91515e-38
0.17175677 0.051267073 0.023300827 1.8691217e-38
0.17197379 0.055280283 0.021641135 1.8322433e-38
0.17240782 0.062101886 0.018817604 1.7861832e-38
0.17126849 0.065881804 0.017304242 1.8600473e-38
0.16642986 0.033843681 0.033554614 2.1178751e-38
0.167256 0.036200419 0.031231523 2.0902878e-38
0.16719946 0.039278463 0.028403938 2.0258932e-38
0.16850156 0.042273477 0.027122974 1.9248363e-38
0.16806751 0.069789067 0.01581502 1.832427e-38
0.16725557 0.073629692 0.015827417 1.8139866e-38
0.16730978 0.077873752 0.015641749 1.7956901e-38
0.16730776 0.080874607 0.014346659 1.7863269e-38
0.16182104 0.030315742 0.035538256 2.044798e-38
0.16269058 0.03265737 0.032919288 2.1087611e-38
0.16372722 0.03530778 0.030166984 2.0811037e-38
0.16459528 0.038710073 0.028734505 2.0350064e-38
0.16314851 0.073333904 0.014538705 1.666474e-38
0.16267519 0.077119276 0.014080405 1.657542e-38
0.16253841 0.08122696 0.013870418 1.6666886e-38
0.15813884 0.029940754 0.034927607 2.0074898e-38
0.15809076 0.032249674 0.031875193 2.0441884e-38
0.15938692 0.074320093 0.014272451 1.6299544e-38
0.15808482 0.076746747 0.013322055 1.5746731e-38
0.15814796 0.081478134 0.014137626 1.5377563e-38
0.15419763 0.029568866 0.033964634 1.9890864e-38
0.15417856 0.032219663 0.031792283 1.9890133e-38
0.15417856 0.077142015 0.013304472 1.5929307e-38
0.15421268 0.081190124 0.013560653 1.5561592e-38
0.15423578 0.084143177 0.013666987 1.547015e-38
0.14900458 0.02733691 0.037239909 1.8417165e-38
0.15028904 0.029096007 0.034544647 1.850901e-38
0.15027228 0.032120094 0.03197825 1.9061099e-38
0.15059781 0.077748165 0.013187826 1.6851637e-38
0.1502901 0.081047103 0.013284326 1.66676e-38
0.14997922 0.084280953 0.013227344 1.639245e-38
0.14620051 0.026407197 0.037417471 1.8143075e-38
0.14637217 0.028986946 0.034254074 1.823348e-38
0.14766811 0.032304719 0.031998932 1.8694129e-38
0.14766811 0.078087643 0.013156891 1.731047e-38
0.14637622 0.081098214 0.013408542 1.7865063e-38
0.14638515 0.084630445 0.013216913 1.7128569e-38
0.14246428 0.025974289 0.037322283 1.7862565e-38
0.14246169 0.028515562 0.03483367 1.7862563e-38
0.14376183 0.078138664 0.013280869 1.9337306e-38
0.1424619 0.081052169 0.013332248 1.9246197e-38
0.14246525 0.084755108 0.013491392 1.8046597e-38
0.13854405 0.026065037 0.037550628 1.7953308e-38
0.1385497 0.028566673 0.034957886 1.8136979e-38
0.13855347 0.081218734 0.012206614 1.8604766e-38
0.13854405 0.084732875 0.013465762 1.8322097e-38
0.13462351 0.026740789 0.037478089 1.8044766e-38
0.13495851 0.028492197 0.03566283 1.7767851e-38
0.1359493 0.081855163 0.01204133 1.8694455e-38
0.13464047 0.084675357 0.011891067 1.8231697e-38
0.13334511 0.086708441 0.010140598 1.795548e-38
0.13070296 0.026792005 0.037602544 1.8229171e-38
0.13072067 0.028186455 0.035765648 1.8043695e-38
0.13092695 0.084674641 0.01106745 1.7314074e-38
0.13069536 0.088080987 0.012920141 1.7499183e-38
0.1270989 0.027320549 0.038059771 1.8136622e-38
0.12665622 0.029083923 0.034915924 1.7860028e-38
0.12618361 0.031380564 0.03317678 1.7583104e-38
0.12681565 0.084778562 0.012139022 1.4642166e-38
0.1270989 0.088430479 0.01290983 1.5290068e-38
0.12350246 0.027670056 0.0380494 1.8043343e-38
0.12290747 0.029293463 0.034998894 1.7858585e-38
0.12260287 0.031728551 0.033166468 1.6661852e-38
0.12292839 0.082025275 0.012454629 1.1419276e-38
0.12287454 0.085321888 0.01326406 1.1879911e-38
0.11915707 0.029975221 0.035716414 1.7216465e-38
0.11902212 0.032076523 0.033156157 1.70328e-38
0.11872292 0.082125023 0.013868153 9.479906e-39
0.11892514 0.085088506 0.014588594 1.0310793e-38
0.11501379 0.030685425 0.036762834 1.6386353e-38
0.11482424 0.032302871 0.034084499 1.6111562e-38
0.11548649 0.078828022 0.015850127 9.9441422e-39
0.11600066 0.082004324 0.015425503 1.0957546e-38
0.11098048 0.033181474 0.034622967 1.5557305e-38
0.11068875 0.035920307 0.031883538 1.4913009e-38
0.10990749 0.067737594 0.01881808 5.7035342e-39
0.10983901 0.070177689 0.019439459 4.7830268e-39
0.10771649 0.034116015 0.035116911 1.528179e-38
0.10740329 0.037060514 0.03288883 1.3992139e-38
0.10630106 0.039960548 0.030924678 1.2336206e-38
0.10574079 0.044418648 0.028569698 1.0401872e-38
0.10600121 0.048511609 0.026875556 8.8266683e-39
0.10469912 0.053347871 0.024933517 6.4364287e-39
0.10469912 0.055155084 0.02418977 5.4273046e-39
0.10469912 0.062986389 0.020966768 5.1532359e-39
0.10708115 0.067212388 0.019912064 4.7840666e-39
0.10805914 0.070348874 0.020336688 4.2301894e-39
0.10453933 0.038203612 0.034418166 1.3072328e-38
0.10340832 0.041300371 0.032915175 1.242444e-38
0.10314222 0.045218155 0.030993044 9.8468949e-39
0.10326768 0.049456403 0.029112935 7.8222022e-39
0.1031092 0.052901104 0.027611017 7.1757916e-39
0.10267053 0.056317016 0.025229573 7.360166e-39
0.10268892 0.05980368 0.023433268 6.6265443e-39
0.10330001 0.063421801 0.022733033 6.2602897e-39
0.1045926 0.066225961 0.021801531 5.7067474e-39
0.099962026 0.042498752 0.032820404 1.6204803e-38
0.099438921 0.045893893 0.031442583 1.3257756e-38
0.099308133 0.049767897 0.029853106 1.0676682e-38
0.09968178 0.053220406 0.028418243 9.2066038e-39
0.1001046 0.056696013 0.02675581 8.9303784e-39
0.10061593 0.059431568 0.025827348 8.377185e-39
0.098000325 0.095768675 0.010969818 1.2516692e-38
0.092769124 0.038962409 0.034542739 1.7122879e-38
0.093723379 0.041434988 0.033180594 1.7494127e-38
0.094554044 0.04579933 0.031508327 1.6388108e-38
0.094730832 0.04982774 0.029998422 1.3995707e-38
0.095384717 0.052239314 0.028981507 1.2889735e-38
0.093423016 0.094618365 0.011613131 1.5185632e-38
0.094643585 0.096784934 0.0096774101 1.8508309e-38
0.094610989 0.10039775 0.0076577067 2.2672933e-38
0.094238006 0.10279171 0.0056944489 2.3234012e-38
0.090153515 0.038996592 0.034625769 1.6846619e-38
0.090184279 0.045492485 0.031500518 1.5926075e-38
0.090153515 0.049887493 0.030143678 1.4543862e-38
0.089779854 0.053349778 0.028732538 1.33493e-38
0.088845722 0.056560084 0.027446032 1.2245462e-38
0.089922033 0.093998179 0.011565626 1.9066119e-38
0.090481363 0.09622322 0.0080125928 2.2936911e-38
0.091352701 0.10020874 0.0061432123 2.2763703e-38
0.090376124 0.10430925 0.0044919252 2.3325849e-38
0.089725077 0.10776009 0.0030958056 2.3136409e-38
0.086230114 0.039047852 0.034750342 1.6292345e-38
0.086230129 0.041468069 0.033754349 1.6018276e-38
0.086236939 0.045671299 0.031934142 1.5097399e-38
0.086239211 0.049895301 0.030165434 1.4174016e-38
0.086257398 0.053437039 0.028466761 1.3071976e-38
0.086066648 0.057050183 0.027347505 1.2428776e-38
0.084922314 0.091099128 0.013377011 1.5836455e-38
0.086167723 0.093086526 0.011160493 2.0265039e-38
0.087771952 0.095135048 0.0083642006 2.3120577e-38
0.087251112 0.10779239 0.0031743646 2.3224304e-38
0.083614513 0.042712316 0.033339262 1.5739899e-38
0.082437485 0.04611598 0.031982243 1.5188856e-38
0.08231622 0.049946353 0.030290067 1.4357327e-38
0.082392327 0.053224251 0.027976394 1.362227e-38
0.08232595 0.057161793 0.027200043 1.316382e-38
0.080998912 0.059687838 0.026450038 1.3254942e-38
0.082157105 0.090078488 0.013436019 1.9153658e-38
0.082364425 0.092041835 0.012362719 2.1180552e-38
0.079037204 0.047007427 0.0317415 1.5832813e-38
0.078756958 0.050209209 0.030434191 1.5187456e-38
0.078546785 0.053820655 0.028955698 1.472648e-38
0.078383312 0.057301834 0.02752918 1.4452751e-38
0.078383304 0.059722021 0.026533067 1.4267993e-38
0.077542514 0.087013826 0.014971614 1.9611747e-38
0.078587338 0.088975832 0.012081504 2.053156e-38
0.079308361 0.091028765 0.010368288 2.0533013e-38
0.074369214 0.086214945 0.014967382 1.8504282e-38
0.074751049 0.088678673 0.01150465 1.5001245e-38
0.069228709 0.058026448 0.027570665 1.4730044e-38
0.070751123 0.086373225 0.01530695 1.5002635e-38
0.07066083 0.089527711 0.013230562 1.0390725e-38
0.071375936 0.09286575 0.011169076 9.3808987e-39
0.070375822 0.096745059 0.009835124 1.1317004e-38
0.069490358 0.10042404 0.0074070692 1.4644317e-38
0.066613093 0.055035368 0.028898776 1.4735441e-38
0.06644962 0.057608977 0.027845621 1.4547468e-38
0.066613093 0.059875771 0.026906669 1.4270525e-38
0.067920901 0.087690935 0.015410721 1.1218021e-38
0.067765899 0.10126404 0.0087484717 1.5378295e-38
0.06689512 0.10366689 0.0060606003 1.7038537e-38
0.062689692 0.055086628 0.02902329 1.555588e-38
0.063343592 0.058103338 0.027757466 1.4269097e-38
0.063343592 0.059918478 0.027010441 1.3900686e-38
0.15019663 0.052893743 0.017300248 1.5008083e-38
0.15020801 0.063607171 0.013812363 1.3626602e-38
0.14627337 0.041861072 0.022602558 1.7126767e-38
0.14632036 0.054615006 0.016405106 1.4454918e-38
0.14627764 0.067317918 0.012741685 1.4271248e-38
0.14115749 0.035713986 0.026509464 1.7401907e-38
0.13857609 0.052913859 0.017362714 1.4638942e-38
0.13857476 0.063817754 0.013275921 1.3811708e-38
0.1370593 0.060426727 0.016250551 1.6113729e-38
0.13468827 0.038067654 0.025420249 1.7309756e-38
0.17126849 0.065881804 0.017304242 1.8600473e-38
0.13912919 0.050990745 0.023247004 1.601972e-38
0.13741076 0.055136517 0.020655632 1.6389221e-38
0.13240731 0.05141522 0.022048235 1.602008e-38
0.11862849 0.06196399 0.017182827 1.2520949e-38
0.10888326 0.06720899 0.017147422 1.5283602e-38
0.12938051 0.06461297 0.018940389 1.3904973e-38
0.12995145 0.075100645 0.014540374 2.0262879e-38
0.099308133 0.049767897 0.029853106 1.0676682e-38
0.1425418 0.083530173 0.015285134 1.8509365e-38
0.16741607 0.030479833 0.038148463 2.1551823e-38
0.16739002 0.0836391 0.015550196 1.7773239e-38
0.16741586 0.08636196 0.01515007 1.9338062e-38
0.1619415 0.024461269 0.042271256 1.8327499e-38
0.16284418 0.027162269 0.040494978 1.924801e-38
0.16347316 0.029976413 0.038399041 2.0079569e-38
0.1647668 0.083673343 0.015633464 1.7311547e-38
0.16281258 0.086311117 0.015071392 1.7958347e-38
0.16217408 0.089007691 0.01461637 1.9521352e-38
0.15760063 0.017701969 0.045214176 1.3078801e-38
0.15727177 0.019836262 0.044348001 1.4460667e-38
0.1582505 0.023661822 0.042376578 1.7406263e-38
0.15823101 0.027034953 0.040147543 1.8511886e-38
0.15820876 0.029146105 0.03831774 1.952388e-38
0.15821703 0.086334273 0.015142202 1.6206995e-38
0.15464094 0.01743634 0.045433342 1.3262131e-38
0.15431209 0.020179212 0.044316709 1.4827283e-38
0.1543034 0.023674205 0.042397797 1.6299893e-38
0.15428475 0.026967436 0.039961219 1.8051277e-38
0.15427393 0.029197499 0.038442612 1.9339159e-38
0.15428348 0.087066516 0.015167236 1.6023662e-38
0.15386662 0.089819238 0.015312016 1.8049111e-38
0.15036584 0.017187938 0.045694351 1.3262844e-38
0.15036584 0.02023077 0.044441998 1.5565216e-38
0.15035692 0.0236478 0.042314708 1.6671566e-38
0.15050808 0.026800677 0.039974689 1.8510811e-38
0.15060715 0.087191418 0.015143991 1.6576481e-38
0.15017793 0.090479806 0.015537858 1.8048405e-38
0.14641958 0.017239481 0.04581964 1.4088627e-38
0.14641958 0.020282313 0.044567227 1.5377579e-38
0.1464113 0.023543805 0.042023063 1.7127142e-38
0.1470601 0.025650874 0.040170014 1.8418233e-38
0.14640428 0.087554112 0.014717937 1.7311886e-38
0.1464166 0.090678051 0.015114963 1.8048761e-38
0.14510417 0.093328103 0.014553905 1.9062529e-38
0.14266126 0.020679191 0.044543505 1.6112987e-38
0.14247161 0.023672447 0.042356849 1.7219349e-38
0.14246945 0.087605491 0.014842808 1.777073e-38
0.14247118 0.0904309 0.014641762 1.7864725e-38
0.14280219 0.093662456 0.01450175 1.8877779e-38
0.1385271 0.020994022 0.044567406 1.6665445e-38
0.13852981 0.02376312 0.042586029 1.7217545e-38
0.13853464 0.0876569 0.01496774 1.80455e-38
0.13853149 0.090482369 0.014766812 1.8047662e-38
0.1385271 0.093414053 0.0147627 1.850829e-38
0.13458085 0.021045581 0.044692636 1.7122484e-38
0.1345998 0.025813654 0.040565491 1.8229158e-38
0.13475309 0.090789422 0.015036166 1.7773232e-38
0.13589627 0.093448386 0.014846146 1.8048024e-38
0.13063745 0.021039203 0.044661283 1.8596164e-38
0.13064979 0.023788884 0.042627454 1.8782343e-38
0.13066497 0.025865063 0.040690422 1.8506475e-38
0.13065802 0.091018334 0.014417708 1.7127166e-38
0.13031001 0.093712822 0.014674127 1.6480703e-38
0.12668835 0.021148667 0.044943154 1.9148264e-38
0.12670925 0.023840353 0.042752564 1.8965325e-38
0.12646784 0.026405364 0.040623903 1.8412145e-38
0.12646784 0.090969965 0.014052153 1.5471222e-38
0.12669879 0.093951449 0.014439523 1.5192109e-38
0.12361905 0.02139163 0.044957101 1.9424135e-38
0.12275667 0.02404733 0.043294966 1.8870967e-38
0.12259982 0.026938871 0.040857136 1.8135546e-38
0.12278646 0.090439722 0.014767706 1.2431659e-38
0.12275709 0.094586059 0.014264524 1.3810648e-38
0.11880092 0.024844319 0.043534517 1.8503242e-38
0.11883156 0.027549639 0.041398168 1.7767838e-38
0.1182047 0.029668689 0.039587498 1.7309036e-38
0.1188605 0.087610498 0.015717089 1.0957232e-38
0.11883494 0.090689942 0.015292287 1.1600815e-38
0.1188174 0.094587192 0.014290094 1.2983375e-38
0.11550732 0.025554702 0.043544769 1.8228095e-38
0.11486229 0.027878091 0.042251825 1.7675648e-38
0.11488764 0.030071706 0.040626824 1.6940594e-38
0.11488722 0.087194845 0.017117679 1.1416038e-38
0.11488321 0.09089081 0.01571697 1.169227e-38
0.11488765 0.094486937 0.014116585 1.4919786e-38
0.11489631 0.098030731 0.012417376 1.7679476e-38
0.11090337 0.028049141 0.042689085 1.7493755e-38
0.1109712 0.031136677 0.039732814 1.6385978e-38
0.11188993 0.087980554 0.017987549 1.1413902e-38
0.11091267 0.091241166 0.016441405 1.1688701e-38
0.11094224 0.094588622 0.014341414 1.657474e-38
0.11095176 0.0981334 0.012641728 2.3222094e-38
0.10714503 0.028446019 0.042665303 1.7769259e-38
0.10701185 0.031348631 0.040273428 1.6755109e-38
0.10640022 0.034070566 0.038214087 1.6203382e-38
0.10574442 0.037113175 0.036986232 1.4360553e-38
0.10676327 0.072790727 0.02291441 4.6032851e-39
0.10714503 0.091737494 0.016617537 1.1593619e-38
0.10699008 0.094740525 0.014665961 1.3530124e-38
0.10700657 0.098236039 0.012866139 2.0820058e-38
0.10682954 0.10184871 0.011656404 2.0898155e-38
0.10327395 0.028879091 0.042630732 1.786182e-38
0.10304765 0.031561628 0.040813744 1.7124262e-38
0.10310873 0.034801498 0.038275898 1.5743134e-38
0.10274646 0.038192615 0.03665334 1.4088246e-38
0.10180961 0.040805444 0.035612702 1.4087901e-38
0.10218972 0.06629391 0.026190817 6.8119991e-39
0.10338062 0.068914846 0.025338411 6.351028e-39
0.10284659 0.09160094 0.016369522 1.1778028e-38
0.10307872 0.094540343 0.014292479 1.223937e-38
0.10307871 0.098185703 0.01279223 1.7960898e-38
0.10305968 0.10198547 0.011589766 2.2020698e-38
0.10238074 0.10460694 0.010956824 1.8771192e-38
0.098406911 0.029429525 0.042584836 1.8136608e-38
0.099105202 0.031613126 0.040938914 1.7400489e-38
0.099139228 0.035057083 0.03891921 1.6570385e-38
0.099186376 0.038412496 0.036694944 1.6111568e-38
0.098999001 0.04170908 0.035345197 1.6389933e-38
0.098530576 0.04448916 0.034218371 1.62073e-38
0.097874776 0.054813489 0.029993713 1.0401906e-38
0.098202676 0.05814667 0.028609753 9.573573e-39
0.098975815 0.061930284 0.027835488 8.5583519e-39
0.099303827 0.065390036 0.027391195 8.0087542e-39
0.099722326 0.06836094 0.026513696 7.3637394e-39
0.098187678 0.088666722 0.018213809 1.141353e-38
0.099132687 0.09099628 0.016017735 1.1779458e-38
0.099179819 0.094289288 0.013819158 1.2056049e-38
0.099350326 0.098029479 0.012153387 1.6113392e-38
0.099146418 0.10183094 0.01131773 2.2393089e-38
0.099105835 0.10457186 0.010912538 2.2841046e-38
0.095324174 0.03182967 0.041035235 1.7675998e-38
0.095199548 0.035108551 0.039044261 1.7309011e-38
0.095243946 0.038505152 0.036923349 1.6939888e-38
0.09603852 0.041851774 0.035396397 1.7130731e-38
0.095907353 0.044523403 0.034301639 1.7033884e-38
0.095251553 0.054847792 0.03007704 1.1875948e-38
0.095244154 0.05792658 0.028930426 1.104726e-38
0.095169947 0.062019691 0.028450906 1.0496949e-38
0.094742544 0.065817848 0.027745187 1.031508e-38
0.094899125 0.069235399 0.026332915 9.6646784e-39
0.094949745 0.088118449 0.018250585 1.1504621e-38
0.095214561 0.090898231 0.015842795 1.1686527e-38
0.09541551 0.094136611 0.013901532 1.1961648e-38
0.09656316 0.10276864 0.010306358 2.3325854e-38
0.09656316 0.10398225 0.0098068714 2.3414052e-38
0.091208272 0.032384798 0.04109472 1.7490893e-38
0.091268525 0.035118952 0.039065659 1.7123548e-38
0.09131673 0.037908509 0.03719449 1.6939522e-38
0.09210369 0.054524824 0.030326784 1.3073064e-38
0.091308698 0.057977989 0.029055297 1.196851e-38
0.091236174 0.06202583 0.028474152 1.1325287e-38
0.091363192 0.06573011 0.027500868 1.0588805e-38
0.09215869 0.069372609 0.026378095 9.9426694e-39
0.092487544 0.072106883 0.025240541 1.0220356e-38
0.091236606 0.087552592 0.017968535 1.1872693e-38
0.091292635 0.090849981 0.015767872 1.1962759e-38
0.09157905 0.093610272 0.01426059 1.3805894e-38
0.087264881 0.032436326 0.04121989 1.712282e-38
0.087329894 0.035170391 0.03919071 1.6570015e-38
0.087381899 0.037959918 0.037319422 1.6478523e-38
0.088037707 0.059189662 0.028557837 1.1969945e-38
0.087329894 0.061897054 0.028191268 1.1508975e-38
0.087251887 0.06595324 0.027606845 1.1140913e-38
0.088541299 0.069724128 0.026367664 1.0772496e-38
0.08699438 0.084904775 0.019744635 1.1784116e-38
0.087321438 0.08745645 0.017792761 1.2242583e-38
0.087381899 0.090752408 0.015592515 1.3253856e-38
0.088037707 0.093171045 0.01457268 1.6750095e-38
0.083167292 0.031988487 0.041421056 1.7399064e-38
0.083381735 0.035262927 0.039419413 1.6108685e-38
0.083009876 0.038623825 0.037208438 1.6384179e-38
0.081971526 0.042126551 0.035805404 1.6017203e-38
0.081479669 0.044711903 0.034759581 1.5742404e-38
0.082939848 0.061941788 0.028007925 1.2518825e-38
0.083084278 0.065694556 0.027363002 1.233658e-38
0.083279625 0.069792882 0.026534677 1.196852e-38
0.083321482 0.084787145 0.019821167 1.2149296e-38
0.082947291 0.087400004 0.017431915 1.3621189e-38
0.083774976 0.089889273 0.016081512 1.4540295e-38
0.079269812 0.038846031 0.038202524 1.7304346e-38
0.078575388 0.042322621 0.035850763 1.6384909e-38
0.077872738 0.04597266 0.034374714 1.6109047e-38
0.076889031 0.050233141 0.032657683 1.5740641e-38
0.076889031 0.053267196 0.031409025 1.51878e-38
0.078200646 0.061897144 0.027808726 1.3900295e-38
0.07881172 0.065584227 0.026809633 1.3073061e-38
0.079393633 0.069566265 0.026050806 1.2520627e-38
0.079180367 0.073293254 0.02511096 1.206069e-38
0.07918378 0.084611729 0.020124257 1.5187367e-38
0.078924857 0.086827829 0.017830729 1.8140188e-38
0.075715989 0.036724523 0.040424764 1.7582385e-38
0.075482272 0.039094135 0.038376272 1.7673137e-38
0.075076789 0.042619839 0.036579669 1.6938082e-38
0.074376397 0.046825275 0.034251988 1.6569299e-38
0.074265815 0.050874248 0.032491326 1.6016123e-38
0.074265815 0.054515108 0.030992925 1.5372918e-38
0.074265815 0.058155969 0.029494464 1.4914457e-38
0.074265815 0.061796859 0.027996063 1.4545297e-38
0.074861914 0.065687314 0.027049065 1.3349645e-38
0.075482272 0.069478676 0.025871396 1.2797191e-38
0.075615816 0.073016837 0.025028586 1.2245809e-38
0.075210817 0.084231034 0.019918382 1.7032407e-38
0.075577423 0.086052105 0.017965019 1.8966359e-38
0.07144089 0.037084684 0.040435314 1.6939889e-38
0.0710641 0.039262339 0.038471043 1.6844817e-38
0.070705868 0.042802677 0.037027299 1.6845174e-38
0.070493683 0.046682462 0.034772694 1.6571806e-38
0.070330992 0.050925657 0.032616198 1.6201584e-38
0.070330992 0.054566517 0.031117797 1.5833531e-38
0.070705727 0.0580291 0.029678822 1.4914101e-38
0.070330992 0.061848238 0.028120995 1.4269777e-38
0.070761912 0.065781161 0.026978195 1.3441821e-38
0.071045592 0.06950213 0.026223242 1.316523e-38
0.071457371 0.072920218 0.02550602 1.2704987e-38
0.071081914 0.084216729 0.02020973 1.4546746e-38
0.069019385 0.086137757 0.018173158 1.3436077e-38
0.069019377 0.094633117 0.014676929 1.0771027e-38
0.067494638 0.037136242 0.040560603 1.518602e-38
0.067195468 0.039134577 0.038976431 1.601576e-38
0.066287696 0.042860404 0.037167549 1.7031358e-38
0.066359863 0.046856955 0.034798741 1.6294479e-38
0.066383913 0.051020309 0.032843947 1.5559093e-38
0.066396177 0.054466233 0.031305134 1.5008082e-38
0.067707777 0.05702801 0.030202091 1.4915885e-38
0.066396169 0.062506452 0.027996123 1.3719145e-38
0.066347957 0.065724269 0.027154505 1.2981929e-38
0.06670206 0.069686219 0.026352346 1.2521625e-38
0.067165777 0.072741941 0.02591908 1.2335478e-38
0.067252874 0.085007027 0.020651758 1.2153963e-38
0.066855729 0.087402448 0.018382311 1.1776581e-38
0.066491857 0.09115319 0.016879141 1.08575e-38
0.066678211 0.095225915 0.015447378 1.0586652e-38
0.066724151 0.098673776 0.013562977 1.2243276e-38
0.065542981 0.10199569 0.012425125 1.37213e-38
0.065084562 0.1050003 0.01055634 1.5651656e-38
0.063109919 0.040033475 0.039530873 1.5833161e-38
0.0622833 0.043121919 0.03780967 1.6111196e-38
0.062346838 0.04716529 0.03554213 1.5466182e-38
0.062359639 0.051375911 0.033688545 1.5006647e-38
0.062461331 0.054517612 0.031430006 1.5005589e-38
0.061936691 0.0578316 0.030085623 1.4544604e-38
0.062273957 0.06230025 0.028234005 1.3534052e-38
0.06241037 0.065775737 0.027279556 1.2890466e-38
0.062598825 0.069810346 0.026321352 1.2059645e-38
0.062530309 0.073467776 0.025467813 1.2057843e-38
0.061575264 0.076162115 0.024719 1.2610651e-38
0.064425334 0.088702068 0.019452453 1.2889016e-38
0.062671453 0.092241153 0.018060982 1.0587021e-38
0.062890679 0.095375821 0.016762733 1.0218592e-38
0.063767627 0.098853514 0.015299022 1.0863251e-38
0.063548386 0.10169636 0.014137089 1.2802215e-38
0.063548386 0.10595636 0.012383878 1.5835696e-38
0.059602141 0.040282175 0.039558768 1.5374338e-38
0.059273288 0.043633595 0.038191676 1.5560181e-38
0.0583262 0.047473416 0.036285818 1.4913722e-38
0.058406614 0.05147104 0.033916354 1.4360902e-38
0.058459267 0.054940805 0.032005548 1.4544232e-38
0.058526516 0.058361575 0.029994071 1.4175814e-38
0.058512971 0.062047675 0.028597713 1.3624777e-38
0.058446363 0.06591858 0.027608275 1.288793e-38
0.058406606 0.069701746 0.026413441 1.2519174e-38
0.058380395 0.073442057 0.02511555 1.2981217e-38
0.058313578 0.077327445 0.024120033 1.3994996e-38
0.056971312 0.088393703 0.019855976 1.1876666e-38
0.058023646 0.09227483 0.01821965 1.0770677e-38
0.05784826 0.09527944 0.016989648 1.0403667e-38
0.054632798 0.048123285 0.03651619 1.417616e-38
0.054381713 0.051783338 0.034658492 1.4082858e-38
0.054423571 0.055300817 0.032848656 1.4265122e-38
0.054479823 0.058769956 0.03093797 1.3990349e-38
0.054479823 0.062415913 0.029437482 1.3622614e-38
0.054466076 0.066107079 0.028039098 1.3532597e-38
0.054466076 0.069753245 0.026538491 1.3349635e-38
0.054466076 0.07339938 0.025037944 1.2153613e-38
0.054424636 0.077188656 0.023840606 1.205891e-38
0.053964652 0.080956265 0.023028553 1.1875958e-38
0.054207213 0.084669515 0.021220744 1.1691922e-38
0.054354444 0.088378713 0.019839048 1.1139106e-38
0.054410249 0.091829434 0.017935932 1.0126024e-38
0.054361418 0.095046923 0.017034471 1.021928e-38
0.051709652 0.053165272 0.034549594 1.3529747e-38
0.050558656 0.055766746 0.033521712 1.408253e-38
0.050481766 0.058999643 0.031472683 1.4543155e-38
0.050525546 0.062512413 0.029664755 1.3715895e-38
0.050525546 0.066158578 0.028164148 1.3255998e-38
0.050525546 0.069804713 0.026663601 1.2611713e-38
0.050496154 0.073545262 0.02536571 1.141352e-38
0.050496563 0.07719256 0.023864627 1.150789e-38
0.050394237 0.081176773 0.023070276 1.1783407e-38
0.050394237 0.084828183 0.021567523 1.1047951e-38
0.050394237 0.088479623 0.020064712 1.1230572e-38
0.050394237 0.092131063 0.018561959 1.0955417e-38
0.050723091 0.094865337 0.017424464 1.0955084e-38
0.046908975 0.059652403 0.031877637 1.4727196e-38
0.046523899 0.062744305 0.030198693 1.399105e-38
0.046585009 0.066210046 0.028289258 1.3254927e-38
0.046585009 0.069856182 0.026788652 1.2979063e-38
0.04650867 0.073737964 0.025795043 1.2335132e-38
0.046447992 0.077576891 0.024698257 1.2153256e-38
0.046886459 0.08081691 0.023348629 1.2979781e-38
0.0477634 0.084862575 0.021651089 1.297723e-38
0.0477634 0.088514015 0.020148277 1.2796794e-38
0.0477634 0.092165455 0.018645525 1.2156863e-38
0.042501748 0.060588434 0.03183639 1.4632859e-38
0.042666167 0.063172713 0.030766726 1.3895641e-38
0.042548686 0.06653659 0.029025972 1.3438955e-38
0.042548686 0.070186272 0.027523994 1.3165604e-38
0.043378688 0.073154137 0.026632428 1.2518063e-38
0.15020843 0.041883692 0.022792876 1.7493768e-38
0.13469775 0.043965474 0.021910667 1.6020802e-38
0.13470408 0.051173076 0.018222749 1.4731139e-38
0.1417927 0.04903917 0.022541404 1.5836403e-38
0.13777949 0.062625453 0.016806722 1.3902808e-38
0.17041181 0.061717197 0.017967999 1.8876709e-38
0.13173668 0.066080436 0.018552959 1.961355e-38
0.10708362 0.063021556 0.021811426 1.1782671e-38
0.10327416 0.067904726 0.023243487 1.5282872e-38
0.10659523 0.045745865 0.033184409 1.6573975e-38
0.10464516 0.037027791 0.039947569 1.0771044e-38
0.10422403 0.042481348 0.0380795 1.0770676e-38
0.10400927 0.054629013 0.032372057 1.1413897e-38
0.10205284 0.050770804 0.033760011 1.4916966e-38
0.070394054 0.078610584 0.022498786 1.1415328e-38
0.15835747 0.011715174 0.051978052 9.2991567e-39
0.15834668 0.014014259 0.050551474 1.0129994e-38
0.1585108 0.01699844 0.048252225 1.2338723e-38
0.15909943 0.021051958 0.045943856 1.4737623e-38
0.15832189 0.091865972 0.017430305 1.8599409e-38
0.15835367 0.095496997 0.017317355 1.9428095e-38
0.15419666 0.010847792 0.052335024 9.9438185e-39
0.15436931 0.013880625 0.050152838 1.0683162e-38
0.15409364 0.016614258 0.048388898 1.2247284e-38
0.1545701 0.092072532 0.016883314 1.9243695e-38
0.15437567 0.095934823 0.01674372 2.0538009e-38
0.14909627 0.0081635863 0.053783476 9.1129732e-39
0.15041803 0.010557875 0.052628815 9.9423794e-39
0.15040191 0.013820395 0.049964309 1.1324944e-38
0.15039256 0.016038895 0.048330188 1.2430591e-38
0.15105218 0.092932269 0.016660035 1.9887643e-38
0.15040869 0.095936075 0.016770184 1.9984133e-38
0.14689122 0.011048868 0.052677989 1.0310788e-38
0.14644468 0.014095426 0.050719321 1.1416416e-38
0.1464349 0.016090602 0.048455834 1.2798273e-38
0.14660722 0.095981315 0.016516984 1.9705751e-38
0.14512718 0.098805442 0.016626954 2.0261065e-38
0.14314263 0.011913925 0.052461028 1.1320995e-38
0.14248025 0.01422146 0.051055014 1.2428759e-38
0.14247723 0.017400578 0.048183799 1.3995003e-38
0.14181761 0.019812912 0.047095299 1.648103e-38
0.14221455 0.096494332 0.016171336 1.9614249e-38
0.14215034 0.099036232 0.016371965 1.998341e-38
0.13851234 0.014978796 0.05119127 1.3257109e-38
0.13851768 0.017565146 0.048623681 1.5007367e-38
0.13851956 0.019855991 0.047199965 1.648284e-38
0.13851956 0.096147642 0.015801907 1.8971419e-38
0.13834924 0.099679396 0.015842617 1.9245827e-38
0.13520445 0.015690193 0.051201522 1.3812795e-38
0.13454925 0.017919675 0.049586952 1.5928254e-38
0.1345619 0.019907698 0.047325552 1.7307943e-38
0.13439296 0.09591414 0.016457021 1.7865088e-38
0.13454799 0.099913821 0.015962362 1.9245125e-38
0.13058397 0.017971471 0.049712837 1.7860034e-38
0.13060422 0.01995939 0.047451198 1.8320292e-38
0.13086237 0.096551672 0.016352713 1.6666153e-38
0.1305808 0.10001655 0.016187549 1.7128215e-38
0.12925081 0.10268541 0.015619457 1.6757639e-38
0.12661868 0.018023267 0.049838722 1.8597955e-38
0.12664655 0.020011097 0.047576845 1.9057134e-38
0.12664655 0.096913084 0.015927613 1.5468331e-38
0.1266152 0.099431023 0.016515493 1.565415e-38
0.12282819 0.018601164 0.050308347 1.9426247e-38
0.12223583 0.021054417 0.047852218 1.9608874e-38
0.1226629 0.099253878 0.016194224 1.3628376e-38
0.1199896 0.019561514 0.050173044 2.0068019e-38
0.11868072 0.021872804 0.048789442 1.9516671e-38
0.11872107 0.023892984 0.046634018 1.8963509e-38
0.11855014 0.099537417 0.015689135 1.2796089e-38
0.11800504 0.1028323 0.015976369 9.1997472e-39
0.11486737 0.022186428 0.049147666 1.9423394e-38
0.11456308 0.024902597 0.046630502 1.8596518e-38
0.11105914 0.023044705 0.049071014 1.9701411e-38
0.11076219 0.02552931 0.047217906 1.8506837e-38
0.11046378 0.078202233 0.026392937 6.1652382e-39
0.11205141 0.082098857 0.024730265 8.0073333e-39
0.11092538 0.085610822 0.022515118 9.6636022e-39
0.10999733 0.088606551 0.020613432 1.0860367e-38
0.10808232 0.023389637 0.049039543 1.9150756e-38
0.10676986 0.025776997 0.047865272 1.8689423e-38
0.10619859 0.027602211 0.045211673 1.850467e-38
0.10543627 0.076064333 0.027459323 5.5248714e-39
0.10746836 0.076837137 0.025983751 5.6163552e-39
0.10675929 0.087064758 0.022882998 9.479225e-39
0.10680304 0.089118287 0.021074414 1.0583056e-38
0.10619859 0.091076866 0.019088507 1.1411739e-38
0.10279734 0.026016012 0.048019648 1.8964575e-38
0.10257073 0.027954772 0.045201242 1.8690504e-38
0.10221239 0.071196422 0.027959347 6.7187483e-39
0.10281755 0.074511543 0.027654588 6.5354332e-39
0.10212868 0.078249887 0.026682675 7.1775572e-39
0.10199639 0.082475081 0.024948716 8.6494405e-39
0.10241219 0.086072281 0.023452878 9.6610911e-39
0.10283966 0.089170441 0.021200061 1.0857842e-38
0.10356015 0.091111317 0.019172251 1.1594699e-38
0.098831564 0.026512221 0.047917545 1.90557e-38
0.099114202 0.028667897 0.045345187 1.8412482e-38
0.098503128 0.067577854 0.029045224 8.4707848e-39
0.098719887 0.071010515 0.028242826 8.1009597e-39
0.098855346 0.074692413 0.027667046 7.8232896e-39
0.098842032 0.078456655 0.026358902 8.4672255e-39
0.098848589 0.082078978 0.02474755 9.6650484e-39
0.098862328 0.085652277 0.023036063 1.058377e-38
0.099362642 0.088464871 0.020777941 1.1135509e-38
0.09505026 0.026307657 0.048167765 1.9149691e-38
0.094970189 0.029048309 0.045273781 1.8780547e-38
0.093665972 0.031427935 0.044102371 1.8042989e-38
0.096304424 0.067403123 0.029198766 1.0038843e-38
0.095424935 0.071280047 0.027635813 9.3898852e-39
0.094948627 0.074368969 0.0269835 9.4820794e-39
0.094918609 0.078223512 0.025879085 1.0035256e-38
0.094911419 0.081938669 0.024470568 1.0678123e-38
0.094918601 0.085558072 0.022860527 1.1229151e-38
0.095644817 0.087552711 0.020930588 1.1413163e-38
0.090882927 0.027286887 0.048074007 1.9517739e-38
0.090971075 0.029298037 0.04592061 1.8873812e-38
0.091027528 0.031462401 0.044186115 1.7861103e-38
0.089708306 0.068099633 0.029156923 1.0496988e-38
0.090235993 0.070778206 0.028034985 1.040442e-38
0.090844303 0.074446455 0.026773155 1.0772115e-38
0.090955228 0.078275278 0.02600491 1.0863234e-38
0.090955228 0.081942543 0.024495602 1.1322392e-38
0.091166027 0.085181251 0.02247858 1.1688305e-38
0.086913839 0.027338728 0.048200011 1.8963153e-38
0.086991839 0.029428765 0.046254933 1.8779825e-38
0.087069869 0.031514093 0.044311762 1.7953293e-38
0.086692937 0.070580348 0.028247893 1.1141633e-38
0.087043852 0.074378774 0.027032256 1.1141274e-38
0.086991847 0.078327045 0.026130676 1.1324934e-38
0.086991847 0.08199434 0.024621427 1.1875581e-38
0.087399669 0.084303603 0.022573829 1.2150365e-38
0.084267765 0.027373299 0.048283994 1.9240098e-38
0.083028473 0.029480532 0.046380639 1.9242234e-38
0.08443141 0.03154856 0.044395506 1.8228093e-38
0.083103098 0.074336216 0.026955605 1.1509332e-38
0.083037987 0.078331485 0.026155412 1.1325667e-38
0.083047509 0.081949666 0.02454567 1.2060354e-38
0.083112188 0.084054455 0.022835553 1.233585e-38
0.079177164 0.030186847 0.047160506 1.9057125e-38
0.078854524 0.032253578 0.044745207 1.7674926e-38
0.080473743 0.075544253 0.026435852 1.1693689e-38
0.079144791 0.078050539 0.025573969 1.1693356e-38
0.079154521 0.081664786 0.023965836 1.233586e-38
0.079814129 0.08409752 0.022940218 1.2976869e-38
0.075006574 0.030554786 0.047318459 1.8135173e-38
0.07510107 0.033251986 0.045122802 1.7857506e-38
0.074913591 0.035896167 0.043175936 1.7950806e-38
0.07453724 0.075621799 0.026624262 1.2061777e-38
0.075196847 0.078054473 0.025598526 1.1510053e-38
0.075196847 0.081716493 0.024091423 1.2059259e-38
0.071037456 0.031218693 0.047192514 1.7580947e-38
0.071104698 0.033424661 0.045560777 1.7767126e-38
0.071188748 0.036176398 0.04352349 1.7581659e-38
0.071239181 0.075664893 0.026728988 1.2245457e-38
0.071205556 0.07824944 0.026027203 1.1693715e-38
0.071227968 0.081816152 0.024318039 1.1323849e-38
0.06731829 0.033858433 0.045625865 1.693951e-38
0.067192398 0.036350831 0.043960631 1.6383124e-38
0.067545354 0.075224862 0.027047157 1.2149995e-38
0.067234583 0.078348503 0.026254058 1.1783012e-38
0.067222528 0.082060263 0.024847269 1.1690824e-38
0.067281514 0.084261253 0.02333802 1.2244013e-38
0.063099287 0.034382895 0.046184957 1.5833915e-38
0.06323652 0.036992565 0.043783307 1.5648434e-38
0.062664233 0.039156929 0.042072177 1.5557277e-38
0.064643063 0.07514073 0.027189553 1.1874498e-38
0.063488752 0.078360006 0.025907397 1.233478e-38
0.06321156 0.082304969 0.02537626 1.3902803e-38
0.063248567 0.085825667 0.023565292 1.4362331e-38
0.0628841 0.088997915 0.021551847 1.3255995e-38
0.062004626 0.10080917 0.016723514 1.095581e-38
0.062486634 0.10428445 0.015708148 1.390496e-38
0.061890446 0.10738201 0.015104711 1.5930754e-38
0.059130192 0.034434751 0.046310961 1.4636802e-38
0.058838487 0.039939299 0.041892231 1.5096668e-38
0.058046952 0.04348956 0.040460467 1.5096705e-38
0.060685396 0.078854427 0.025808036 1.3627297e-38
0.059327476 0.082067803 0.024896741 1.4640726e-38
0.05931437 0.085780278 0.023489475 1.3718769e-38
0.059340164 0.089345559 0.021780729 1.2520233e-38
0.058838487 0.092427954 0.020290375 1.1045837e-38
0.058926433 0.096780494 0.018495798 1.0219291e-38
0.059287503 0.10054047 0.017656326 1.0588803e-38
0.059181996 0.10461904 0.016943514 1.3997158e-38
0.060089611 0.10735752 0.015542388 1.5378299e-38
0.056484133 0.035081372 0.046142995 1.4910142e-38
0.055215865 0.037382737 0.044762015 1.500199e-38
0.055366844 0.040596709 0.042111158 1.4357687e-38
0.055408493 0.044134334 0.040292978 1.3807025e-38
0.054089285 0.046592936 0.039330184 1.4175803e-38
0.056200042 0.082208797 0.024594009 1.3441461e-38
0.056397922 0.085624084 0.02318114 1.261279e-38
0.05672773 0.089281783 0.021663547 1.178483e-38
0.055408508 0.097843692 0.018188834 1.0774285e-38
0.055284806 0.10074614 0.01808089 1.1325646e-38
0.055425704 0.10413949 0.01776129 1.2338378e-38
0.051456623 0.038329974 0.044992685 1.4819728e-38
0.051292248 0.040980652 0.043066323 1.4174367e-38
0.051335588 0.044522747 0.041246235 1.3714822e-38
0.051173843 0.048256144 0.03886205 1.3716614e-38
0.050659299 0.052496925 0.037027657 1.3254198e-38
0.051088192 0.097708657 0.018675327 1.1319563e-38
0.051438048 0.10081492 0.018601239 1.178303e-38
0.047884434 0.038866296 0.04490447 1.4081788e-38
0.04725273 0.041239843 0.043710589 1.389955e-38
0.047327608 0.044700906 0.041682422 1.4085419e-38
0.047369145 0.048863187 0.039637268 1.3072331e-38
0.047417469 0.05299969 0.037542343 1.343932e-38
0.047077097 0.056388035 0.035868406 1.4360197e-38
0.046173938 0.058902994 0.03455776 1.4913039e-38
0.046173938 0.083316311 0.024510384 1.4551403e-38
0.046173938 0.085757658 0.023505628 1.4913292e-38
0.046173938 0.089419648 0.021998525 1.3990285e-38
0.046128273 0.09323211 0.020791888 1.213961e-38
0.04722622 0.097222939 0.019559562 1.1877382e-38
0.047487542 0.10057063 0.019524693 1.3074493e-38
0.044576854 0.04196997 0.043749928 1.3991759e-38
0.043651685 0.045163319 0.042315543 1.306945e-38
0.043300137 0.049203977 0.040459514 1.2702109e-38
0.043300152 0.053486571 0.038696945 1.3071253e-38
0.043363377 0.056980833 0.036775649 1.4819384e-38
0.043475136 0.059980914 0.034678042 1.5187465e-38
0.04260844 0.075773075 0.028107882 1.1224097e-38
0.042875879 0.078476742 0.02662456 9.4695028e-39
0.043299474 0.082501963 0.025493264 1.0121718e-38
0.043409675 0.086182758 0.024395108 9.8411383e-39
0.04334709 0.09004651 0.02328819 8.4589858e-39
0.043284714 0.093915626 0.022179127 8.5500898e-39
0.043783054 0.097191319 0.021053016 9.0078184e-39
0.039946258 0.051211879 0.040118277 1.3346393e-38
0.039662749 0.053489104 0.039191663 1.3436418e-38
0.039316893 0.057253107 0.037414908 1.4634989e-38
0.039463431 0.060522392 0.034981966 1.5279281e-38
0.039158747 0.063818261 0.03310436 1.4080019e-38
0.038819551 0.067817882 0.031883121 1.3070509e-38
0.03874597 0.071692362 0.030832291 1.2152541e-38
0.039787285 0.075162247 0.029339969 1.1781588e-38
0.039994471 0.079225734 0.028226733 1.0946796e-38
0.039946243 0.083040819 0.027019083 1.0858188e-38
0.04060778 0.086092636 0.025738478 9.7514861e-39
0.04060778 0.090377286 0.023975074 1.0030245e-38
0.04060778 0.092825666 0.022967458 9.6611149e-39
0.035504654 0.057740644 0.037596285 1.4543501e-38
0.035349078 0.060976371 0.036029935 1.4360184e-38
0.035416529 0.064466819 0.03410995 1.3532954e-38
0.035365991 0.068273857 0.032905757 1.3348909e-38
0.035756662 0.071669802 0.031854331 1.2796473e-38
0.032669589 0.061100468 0.036318719 1.3433937e-38
0.032008067 0.064781711 0.034828305 1.3163447e-38
0.032669589 0.067833498 0.033547699 1.3992479e-38
0.15761583 0.038065627 0.024930775 1.9060369e-38
0.15797149 0.045843855 0.021075249 1.7493053e-38
0.15796852 0.056770012 0.016458333 1.5283236e-38
0.15507241 0.045799002 0.021802425 1.7310463e-38
0.15408318 0.045736089 0.020823061 1.6940245e-38
0.15408254 0.05668439 0.016277194 1.4731132e-38
0.15273318 0.055597141 0.017736554 1.5652385e-38
0.13470408 0.05654718 0.016011059 1.3811332e-38
0.13470408 0.060129926 0.01453656 1.335216e-38
0.13852152 0.048917815 0.021977305 1.6021519e-38
0.13749054 0.047437593 0.021963179 1.6205193e-38
0.142046 0.050370947 0.0219962 1.6113361e-38
0.13304883 0.049594089 0.022173226 1.3718425e-38
0.12901764 0.066745624 0.01560843 1.4271243e-38
0.12836596 0.045059189 0.023795962 1.6020085e-38
0.12252377 0.074523225 0.015725493 1.9801192e-38
0.10059563 0.037265971 0.035599768 1.6570747e-38
0.10881463 0.060216323 0.023667216 9.661817e-39
0.10691375 0.074723586 0.020502388 1.8600498e-38
0.087144382 0.050927624 0.0309093 1.3808462e-38
0.10337731 0.050780609 0.034154356 1.4179769e-38
0.10308069 0.078024343 0.022963166 1.6572895e-38
0.073242046 0.079544827 0.021090508 1.4819012e-38
0.092378438 0.06882067 0.02475816 1.1046531e-38
0.1416626 0.099841699 0.017916024 1.9613195e-38
0.15798098 0.0080977231 0.056366146 8.1953021e-39
0.15840705 0.010535911 0.054625511 8.6541349e-39
0.15840705 0.09831734 0.018498838 2.0353633e-38
0.15842611 0.10019453 0.018537045 2.0996491e-38
0.15444562 0.0053838938 0.057974994 7.8279153e-39
0.15443099 0.007590279 0.056225836 8.1963797e-39
0.15508996 0.00996539 0.054983437 9.2062605e-39
0.15416841 0.10027482 0.018283427 2.2747836e-38
0.15045939 0.0054359585 0.058101535 8.0105409e-39
0.15061188 0.0074150115 0.056199253 8.6541349e-39
0.15011717 0.10007481 0.01835382 2.1547503e-38
0.14780191 0.0054706484 0.058185816 8.2874725e-39
0.14668921 0.008136794 0.056408525 9.2998476e-39
0.14558095 0.010498852 0.055116832 1.0126765e-38
0.14673547 0.1007091 0.018596947 2.0626987e-38
0.14337277 0.0088071376 0.056977153 9.3895517e-39
0.14229545 0.011056319 0.05516398 1.0770338e-38
0.14248644 0.10182415 0.018187582 2.0076703e-38
0.14182258 0.10390662 0.017896175 2.1457123e-38
0.13883337 0.012574404 0.055324614 1.2430194e-38
0.13850449 0.013865188 0.053994119 1.3072345e-38
0.13983132 0.10224311 0.017572701 1.9244428e-38
0.13831306 0.10463251 0.017264009 2.0442951e-38
0.13717198 0.10765581 0.016525805 2.209889e-38
0.13584323 0.013003707 0.055529475 1.3162736e-38
0.13433143 0.014891878 0.054035664 1.4271959e-38
0.13452081 0.10492302 0.017027557 1.9616432e-38
0.13053332 0.016034499 0.054118514 1.5744931e-38
0.13070361 0.10514577 0.017122686 1.7865091e-38
0.12687898 0.016417697 0.054186702 1.6388497e-38
0.12656294 0.10241644 0.017993808 1.491948e-38
0.12655386 0.10507862 0.017379403 1.5104244e-38
0.12255582 0.01686573 0.054433286 1.7125704e-38
0.12189145 0.018103868 0.053948343 1.8509707e-38
0.12258243 0.10246845 0.01812017 1.104871e-38
0.12276465 0.10470344 0.017502785 1.05888e-38
0.11842395 0.01901184 0.053027093 1.9426641e-38
0.11992875 0.10250311 0.018204391 9.7601251e-39
0.11892603 0.1047806 0.017574847 9.0178867e-39
0.11461475 0.019758686 0.052635729 1.9609964e-38
0.11329457 0.021560788 0.0517627 1.9520637e-38
0.11060413 0.020038545 0.053390801 1.9426282e-38
0.11037552 0.022090003 0.051653266 1.9425553e-38
0.10993278 0.080963239 0.028522253 6.7191084e-39
0.10994039 0.083349839 0.027359545 7.5467041e-39
0.10931405 0.085453823 0.025615096 8.6491e-39
0.10687668 0.020267159 0.053615332 1.9518831e-38
0.10648811 0.022766918 0.05165422 1.9516667e-38
0.10644257 0.079948083 0.028605938 5.984765e-39
0.10661642 0.083417311 0.027515173 7.2708235e-39
0.10666038 0.086102322 0.025446713 8.7423746e-39
0.1026247 0.020814523 0.053547978 1.933333e-38
0.10266739 0.023003727 0.051803768 1.924045e-38
0.10267986 0.025382593 0.050583839 1.9147498e-38
0.10267986 0.076946482 0.029362559 6.627982e-39
0.10321061 0.079640523 0.028234124 6.809125e-39
0.103675 0.082765117 0.026930928 7.6374354e-39
0.10400671 0.086137012 0.025530934 8.7416543e-39
0.099967226 0.020849213 0.053632259 1.9701063e-38
0.098672085 0.023132518 0.052139461 1.9148968e-38
0.098699346 0.025434583 0.050710142 1.9056055e-38
0.094879843 0.023527667 0.05210042 1.9057478e-38
