# .PCD v0.7 - Point Cloud Data file format
VERSION 0.7
FIELDS x y z rgb
SIZE 4 4 4 4
TYPE F F F F
COUNT 1 1 1 1
WIDTH 977
HEIGHT 1
VIEWPOINT 0 0 0 0 1 0 0
POINTS 977
DATA ascii
0.11138393 0.087894507 0.0098571777 1.4637161e-38
0.11576262 0.081423156 0.011413753 1.334462e-38
0.14019029 0.078533955 0.012427926 1.6205895e-38
0.14412159 0.072871216 0.013737619 1.5744215e-38
0.14718029 0.082894914 0.0118137 1.4362347e-38
0.05511231 0.10124157 0.016311347 1.2061071e-38
0.10754076 0.092448257 0.013371587 1.3166687e-38
0.13211313 0.072574235 0.01621902 1.5190682e-38
0.122446 0.079198234 0.015749097 1.2889372e-38
0.11442915 0.11400145 0.015390217 1.0313997e-38
0.10473405 0.083819427 0.023771584 1.3810274e-38
0.10456643 0.09369915 0.021028757 1.4913029e-38
0.16656637 0.046710752 0.033999562 2.2202237e-38
0.16668476 0.050168209 0.032058179 2.2574986e-38
0.1679709 0.052560531 0.030661285 2.2484948e-38
0.16665713 0.11351537 0.016994834 2.0721003e-38
0.16632912 0.11722475 0.017345488 2.1829475e-38
0.16516978 0.1200471 0.016973794 2.1919183e-38
0.16183132 0.043462418 0.035025179 2.1738018e-38
0.16208446 0.04640872 0.03347069 2.2199716e-38
0.16248904 0.049188189 0.031780005 2.2937646e-38
0.16183612 0.11434714 0.016607344 1.8604457e-38
0.16185592 0.11729341 0.017114818 1.9891219e-38
0.16186157 0.12005775 0.017065942 2.035218e-38
0.15765068 0.042900495 0.035276592 2.1186642e-38
0.1576394 0.045956455 0.033239126 2.2565619e-38
0.15721297 0.11703175 0.01642406 1.7957973e-38
0.15705664 0.12111982 0.016697526 1.8783072e-38
0.15351066 0.042833112 0.035025477 2.1367066e-38
0.15324664 0.11710715 0.016206086 1.6574324e-38
0.1534424 0.12091275 0.016812742 1.749486e-38
0.1482313 0.040191971 0.036180973 2.100076e-38
0.14954185 0.04262238 0.034888625 2.1180168e-38
0.14985247 0.045229234 0.032898545 2.1548938e-38
0.14928705 0.11784332 0.016506314 1.6758362e-38
0.14929031 0.12009826 0.01741606 1.6390321e-38
0.14532176 0.039685823 0.036382973 2.0440054e-38
0.14557454 0.042493068 0.034347475 2.0808509e-38
0.14556521 0.044921748 0.033093214 2.1087602e-38
0.1449948 0.11809834 0.016723335 1.8231702e-38
0.14532045 0.12011104 0.017526686 1.8048025e-38
0.1416198 0.039202802 0.036161721 2.0625561e-38
0.14161229 0.042505853 0.034457803 2.0808157e-38
0.14160678 0.044934489 0.033203483 2.0531929e-38
0.14136562 0.11773971 0.016346157 1.7587763e-38
0.14135037 0.12066003 0.017168999 1.7770345e-38
0.13764711 0.039581649 0.036626935 2.0900339e-38
0.13765004 0.042518608 0.034568191 2.0714866e-38
0.13764833 0.044947229 0.033313751 2.06209e-38
0.13740818 0.11755938 0.016296208 1.7127518e-38
0.13738252 0.12124469 0.016917169 1.7677456e-38
0.13368021 0.039559476 0.036574364 2.117727e-38
0.13369153 0.042483918 0.0344612 2.0808502e-38
0.13344735 0.11762594 0.016565144 1.7774297e-38
0.13341582 0.12125745 0.017027617 1.8784155e-38
0.1327364 0.12401817 0.016970634 1.9155079e-38
0.12952849 0.039241739 0.036498547 2.0441153e-38
0.12995799 0.042008586 0.034394085 2.0532275e-38
0.13037024 0.11779623 0.01644206 1.6761954e-38
0.12945402 0.12119784 0.016926527 1.7679964e-38
0.12916182 0.12454524 0.016949356 1.8324603e-38
0.12593916 0.039253302 0.036598563 2.0531176e-38
0.12558614 0.042109035 0.034617782 2.0347526e-38
0.1268502 0.11823597 0.016439617 1.6761598e-38
0.12549452 0.12113842 0.016825378 1.6944553e-38
0.12545832 0.12404161 0.01717335 1.7772161e-38
0.12209739 0.03995394 0.036984444 2.0071307e-38
0.12180449 0.042545937 0.034900963 1.9705042e-38
0.12151155 0.1219578 0.017261147 1.6118031e-38
0.12148844 0.12405439 0.017283976 1.6854518e-38
0.11911893 0.040285744 0.036991835 1.9698949e-38
0.11781661 0.042701058 0.035663724 1.8871331e-38
0.11653662 0.045015238 0.033901811 1.7950807e-38
0.11629435 0.11826997 0.016733646 1.1787339e-38
0.11756165 0.12120009 0.017152131 1.3353962e-38
0.11751857 0.12406718 0.017394543 1.4001121e-38
0.11354402 0.045454733 0.034398139 1.7032795e-38
0.1132623 0.11731627 0.017484367 8.9285623e-39
0.11357694 0.12135764 0.017685831 8.0080228e-39
0.110175 0.043858938 0.036410034 1.7494477e-38
0.10988972 0.046515636 0.034653485 1.5649138e-38
0.10847948 0.087451376 0.024182916 7.3630275e-39
0.1084731 0.089379124 0.023731053 7.9179795e-39
0.10839022 0.11443993 0.01785773 8.0069774e-39
0.10966169 0.11725668 0.017960191 8.3757557e-39
0.10977762 0.12114616 0.018300891 8.9285399e-39
0.10588991 0.047307007 0.035210431 1.5556937e-38
0.10555462 0.050135694 0.033602655 1.4450931e-38
0.10460049 0.05480697 0.032461405 1.2147849e-38
0.10461879 0.05790519 0.031220615 9.4756195e-39
0.10450692 0.083102487 0.025829911 3.9564779e-39
0.105615 0.086647592 0.025609255 5.7975109e-39
0.10576259 0.090374939 0.024830997 6.9020423e-39
0.10536151 0.09355437 0.023183703 8.2831901e-39
0.106411 0.1144463 0.017912865 6.9046011e-39
0.10637746 0.1165342 0.017938197 7.4570364e-39
0.10189272 0.047430001 0.035809755 1.8598297e-38
0.10193 0.050476976 0.034295082 1.8047282e-38
0.10193378 0.054912679 0.032941043 1.5189938e-38
0.1019777 0.058556281 0.031143546 1.1871284e-38
0.10060084 0.075910322 0.027114093 6.8120019e-39
0.10128273 0.079419322 0.027916014 6.0755075e-39
0.10111812 0.081587426 0.027823389 5.9818699e-39
0.10220239 0.087169014 0.026483774 6.0726474e-39
0.1017494 0.090768583 0.025652826 7.2690172e-39
0.10180564 0.094154097 0.023715734 8.831685e-39
0.097801365 0.046822272 0.035427034 1.942879e-38
0.097979546 0.0504402 0.034188271 1.9246546e-38
0.09798196 0.054886751 0.03288883 1.6571799e-38
0.098283581 0.058439665 0.031276524 1.4732207e-38
0.097327635 0.068209939 0.029013216 1.0125294e-38
0.097273216 0.070949905 0.029057384 9.1100473e-39
0.097549424 0.074967586 0.028009653 8.0969898e-39
0.097901091 0.078696541 0.027337313 7.3644526e-39
0.097805627 0.082886986 0.02761358 7.0867881e-39
0.097792841 0.086753629 0.026707292 7.4498337e-39
0.097795278 0.090557121 0.025587142 8.5543736e-39
0.092640348 0.044237636 0.036822855 1.9245489e-38
0.094003797 0.04666435 0.035529792 1.9244407e-38
0.094032034 0.050402813 0.034081697 1.924333e-38
0.094194092 0.05455061 0.0323053 1.7491611e-38
0.095382422 0.057934932 0.031477869 1.5376867e-38
0.093579747 0.067406975 0.029479921 1.2246522e-38
0.093955621 0.071017109 0.029364884 1.0957582e-38
0.093975589 0.074762397 0.028029501 9.8537472e-39
0.09396261 0.078620575 0.027125359 9.0221831e-39
0.093901038 0.082658924 0.026865304 8.8338528e-39
0.09388034 0.086551391 0.026067436 9.8454726e-39
0.093883857 0.090350337 0.024948299 1.0487633e-38
0.091317058 0.044241898 0.036859691 1.8879233e-38
0.090037748 0.046677135 0.035640299 1.8413209e-38
0.090086021 0.050365202 0.033975124 1.8320995e-38
0.089898735 0.053668745 0.032635033 1.6845143e-38
0.090513147 0.067375101 0.029403925 1.2153278e-38
0.089983121 0.071058132 0.029583097 1.1415667e-38
0.089970358 0.074919216 0.028678179 1.0769608e-38
0.089957587 0.078780286 0.027773261 1.0953268e-38
0.08995381 0.082611226 0.026760995 1.1411726e-38
0.089976534 0.086348914 0.025427461 1.1870919e-38
0.090364829 0.089936458 0.024265349 1.2238635e-38
0.09130922 0.092647307 0.023455858 1.214894e-38
0.086023889 0.044258945 0.037007153 1.8869873e-38
0.086071678 0.04668989 0.035750806 1.8135533e-38
0.086087063 0.050478511 0.034519613 1.7400112e-38
0.086324267 0.053947978 0.03267175 1.6383463e-38
0.086771786 0.068243943 0.029307246 1.2887209e-38
0.086075358 0.070901833 0.029046416 1.3624423e-38
0.086006209 0.074931987 0.028788626 1.3715181e-38
0.085993439 0.078793056 0.027883708 1.307162e-38
0.086018488 0.082533814 0.026549339 1.3069098e-38
0.086052544 0.086238436 0.025108814 1.3623354e-38
0.086044043 0.088808782 0.02450645 1.4823688e-38
0.083377317 0.044267468 0.037080944 1.9149698e-38
0.082055308 0.046824925 0.036404967 1.840962e-38
0.082319759 0.071232341 0.028880656 1.5098826e-38
0.082082815 0.074829362 0.028468251 1.4544951e-38
0.082099944 0.078599013 0.027241468 1.3623375e-38
0.082106858 0.082395665 0.02612263 1.3991011e-38
0.082758076 0.084963895 0.025501966 1.4081818e-38
0.078075632 0.046862282 0.036624253 1.896279e-38
0.078104831 0.050629191 0.035283506 1.8317434e-38
0.07815621 0.054339103 0.033727229 1.7489837e-38
0.078782335 0.076111428 0.028204978 1.463715e-38
0.078537546 0.078735299 0.02708298 1.3715558e-38
0.078812391 0.081121139 0.026515782 1.3531511e-38
0.07410454 0.047243319 0.036648512 1.8686915e-38
0.074150071 0.050616972 0.035285354 1.8318498e-38
0.074213751 0.054943673 0.033470035 1.7856438e-38
0.073608845 0.058647655 0.031933725 1.7396542e-38
0.0755307 0.075991072 0.027812421 1.3992117e-38
0.074202172 0.078726299 0.027209103 1.3348204e-38
0.074194208 0.081136011 0.026644409 1.2977979e-38
0.070133761 0.047532283 0.036694348 1.8781266e-38
0.070218727 0.050554357 0.035069942 1.8229162e-38
0.070242375 0.054975621 0.033661664 1.7949731e-38
0.070308007 0.059300832 0.031874895 1.7397268e-38
0.070244268 0.078578405 0.027357042 1.2796107e-38
0.069855131 0.082251541 0.02650696 1.3251009e-38
0.066428125 0.047673129 0.036767364 1.8321357e-38
0.066215411 0.050642096 0.035506427 1.7767107e-38
0.066251084 0.055046491 0.034016192 1.7399773e-38
0.066336803 0.059339829 0.032093644 1.7031712e-38
0.065857328 0.075165458 0.028282762 1.3440015e-38
0.066260889 0.078650407 0.027682424 1.3071606e-38
0.066273063 0.082446657 0.026563704 1.3990725e-38
0.067584053 0.085012756 0.025924623 1.7041447e-38
0.062348247 0.05094064 0.036117971 1.7214652e-38
0.062227525 0.055174641 0.03461498 1.7031339e-38
0.062324919 0.059457906 0.032637358 1.638886e-38
0.061063156 0.061900951 0.031529844 1.5832439e-38
0.062716521 0.074930795 0.02842766 1.4175809e-38
0.062314384 0.078633435 0.027685165 1.5098121e-38
0.062976502 0.081814714 0.026806235 1.5742767e-38
0.059534676 0.051433019 0.036082983 1.6571799e-38
0.058208786 0.055284403 0.035132229 1.5832812e-38
0.058308169 0.059577055 0.033181131 1.5832812e-38
0.058043547 0.063012235 0.031355739 1.5832801e-38
0.058080502 0.066087313 0.030633688 1.5280362e-38
0.058723249 0.071225874 0.029410541 1.4911962e-38
0.05970116 0.074756898 0.028554678 1.5372952e-38
0.059688412 0.078612424 0.027651072 1.6114062e-38
0.054359756 0.055702947 0.035229981 1.5183481e-38
0.054314874 0.059642278 0.03350836 1.6385971e-38
0.054388508 0.063342474 0.031953812 1.6294848e-38
0.05445087 0.066420294 0.030659497 1.6110471e-38
0.055755481 0.070914142 0.029568493 1.6570734e-38
0.053844474 0.11075056 0.021310747 1.2430205e-38
0.050252445 0.057262801 0.034981668 1.6753664e-38
0.050289243 0.059760608 0.034052432 1.7399399e-38
0.050367087 0.063463666 0.032497048 1.6202303e-38
0.050621726 0.066813819 0.031117141 1.5928239e-38
0.051799148 0.070284314 0.029829383 1.6017905e-38
0.050214402 0.10979763 0.021638095 1.2797903e-38
0.050069161 0.11268463 0.021992922 1.2706775e-38
0.04646188 0.060221009 0.034396589 1.7028828e-38
0.046308063 0.063638397 0.033257306 1.5371476e-38
0.04627867 0.067083292 0.031380117 1.4913721e-38
0.045203865 0.069662966 0.030163765 1.3992126e-38
0.045377731 0.10604463 0.021885753 1.242804e-38
0.046169288 0.10961897 0.022382915 1.2704605e-38
0.04317075 0.064589195 0.033466578 1.4545303e-38
0.042409427 0.067376919 0.031921327 1.4266915e-38
0.042233981 0.069993816 0.030171156 1.3622636e-38
0.041992493 0.10228073 0.022779405 1.3531152e-38
0.042264894 0.10602937 0.022977293 1.3438954e-38
0.042803854 0.10884143 0.023101807 1.4724616e-38
0.039132111 0.067817219 0.032619774 1.3714109e-38
0.038413994 0.071280323 0.031234682 1.3532238e-38
0.037698105 0.075217478 0.030617535 1.2150341e-38
0.037685342 0.079081349 0.029712021 1.0668092e-38
0.037762225 0.086624689 0.027256072 8.4632976e-39
0.037561491 0.090331517 0.026769519 8.6455211e-39
0.037578046 0.094649784 0.02555114 8.5511871e-39
0.037801489 0.098057993 0.024060607 8.9203339e-39
0.038346514 0.10211314 0.023779273 1.1227002e-38
0.038514905 0.10531088 0.024052322 1.094862e-38
0.035621665 0.079865091 0.030101061 1.1041187e-38
0.035613142 0.082442842 0.029496849 9.7483191e-39
0.034906745 0.095978223 0.026343644 8.3688935e-39
0.034898221 0.098556004 0.025739551 8.6422673e-39
0.035217315 0.10209931 0.024899662 8.9163752e-39
0.1402484 0.086229078 0.010088682 1.4178325e-38
0.14357311 0.091979794 0.0098335743 1.4087203e-38
0.10585044 0.080004953 0.017015636 1.4546376e-38
0.11225346 0.066038512 0.017792642 1.3533656e-38
0.17286697 0.091944106 0.015122414 1.5835683e-38
0.13051382 0.073143966 0.018801033 1.3349998e-38
0.1576394 0.045956455 0.033239126 2.2565619e-38
0.091645688 0.087451123 0.021410763 1.344113e-38
0.073758543 0.07201267 0.026997745 1.3163805e-38
0.083415896 0.073701702 0.030435503 1.5560192e-38
0.090037748 0.046677135 0.035640299 1.8413209e-38
0.067584053 0.085012756 0.025924623 1.7041447e-38
0.16180313 0.040518545 0.03879863 1.9527499e-38
0.16257451 0.042158626 0.037570059 2.0540925e-38
0.16191113 0.12272795 0.01875031 2.0537653e-38
0.15992922 0.12492137 0.019063354 2.0535872e-38
0.15754242 0.040039085 0.038519144 1.9250186e-38
0.15619972 0.041878335 0.037612617 2.081858e-38
0.15858459 0.12330287 0.018453836 1.9520652e-38
0.15726586 0.12481984 0.018820822 1.9887637e-38
0.15355827 0.0400519 0.038630128 2.0447994e-38
0.15354553 0.041886874 0.037686527 2.0998296e-38
0.15261266 0.12332209 0.018620133 1.7772175e-38
0.15328075 0.12483268 0.018931866 1.8509732e-38
0.14974292 0.039255641 0.038926005 2.0355435e-38
0.14929892 0.12279596 0.019180834 1.6575437e-38
0.14929721 0.12495562 0.019359529 1.795189e-38
0.14592727 0.038408346 0.038976908 2.007488e-38
0.14531636 0.12280878 0.019291759 1.8046954e-38
0.14477603 0.12574685 0.019303381 1.8600841e-38
0.14228229 0.036752872 0.039212525 1.988727e-38
0.14161447 0.038047574 0.038928032 2.0256767e-38
0.14133233 0.12335844 0.018934309 1.8047308e-38
0.14099157 0.1252234 0.019277453 1.8231704e-38
0.13763317 0.038060404 0.039038956 2.1085437e-38
0.13717028 0.12600344 0.019075453 1.8968545e-38
0.13365188 0.038073234 0.039149821 2.1544252e-38
0.13335234 0.12635139 0.018974721 1.9429157e-38
0.12967487 0.036793463 0.039563596 2.1083284e-38
0.13033414 0.038083903 0.039242208 2.0715932e-38
0.12970345 0.12703398 0.018662155 1.9339464e-38
0.12802035 0.12890741 0.019041717 1.9982688e-38
0.12569357 0.036806278 0.03967458 2.0715562e-38
0.12502575 0.03810101 0.039390087 2.0529698e-38
0.12538691 0.12675256 0.01893723 1.8599408e-38
0.12669134 0.1289117 0.019078732 1.9797931e-38
0.12168964 0.03695529 0.040439188 2.0070576e-38
0.12144087 0.038629584 0.039368749 2.0163129e-38
0.121387 0.12693179 0.019523382 1.7776832e-38
0.11902127 0.037031941 0.04083997 2.0528672e-38
0.11753725 0.039359607 0.039822936 1.970143e-38
0.11708362 0.12651134 0.019402623 1.3537994e-38
0.11403637 0.040555231 0.039899766 1.9059296e-38
0.11306905 0.042017244 0.038814008 1.8782709e-38
0.11362018 0.1258536 0.019729316 9.1143689e-39
0.10970542 0.040945239 0.040189087 1.9425196e-38
0.10946372 0.042630516 0.039184332 1.8597946e-38
0.10948199 0.123461 0.019821465 9.5760505e-39
0.11080482 0.12474931 0.019481599 9.9433911e-39
0.10571841 0.040958069 0.040300131 1.9334096e-38
0.10573447 0.043451391 0.03925842 1.8136616e-38
0.10575718 0.045918517 0.038108468 1.6662554e-38
0.10306041 0.040966623 0.04037416 1.9423062e-38
0.10174339 0.043487959 0.039478123 1.8873475e-38
0.10177589 0.045931332 0.038219333 1.8688365e-38
0.10180579 0.083940051 0.029894233 5.6127469e-39
0.10141863 0.087079458 0.028582096 6.072653e-39
0.10163055 0.089879356 0.02791965 6.7183559e-39
0.097758278 0.043500803 0.039589167 1.9334097e-38
0.099121705 0.045939885 0.038293242 1.9242974e-38
0.093092903 0.040998735 0.040651739 1.9425915e-38
0.093960896 0.043289147 0.039447784 1.9428433e-38
0.088441394 0.041013725 0.040781319 1.8504686e-38
0.089645691 0.043303035 0.039567947 1.8690162e-38
0.086227812 0.040589385 0.040944159 1.8230973e-38
0.08583869 0.043288849 0.039551735 1.8596164e-38
0.083125383 0.041030847 0.040929377 1.8870219e-38
0.081678815 0.043328695 0.039789855 1.9147896e-38
0.078021593 0.04385189 0.040414035 1.9514886e-38
0.07407704 0.04442548 0.040392399 1.8595095e-38
0.073906854 0.046021096 0.038995683 1.8779473e-38
0.06982252 0.04495699 0.040389538 1.8319604e-38
0.069925554 0.046033911 0.039106488 1.8597264e-38
0.065835536 0.044969834 0.040500581 1.813555e-38
0.065611415 0.046370976 0.039150953 1.8230604e-38
0.061923273 0.047783904 0.039218783 1.776819e-38
0.06062305 0.049941622 0.0384565 1.7488358e-38
0.057871245 0.048194744 0.039801121 1.5924649e-38
0.057567947 0.051091187 0.038421154 1.5925349e-38
0.055190668 0.048887394 0.039886534 1.6016495e-38
0.054067031 0.051556982 0.038907468 1.5464741e-38
0.053311191 0.053842895 0.037751019 1.5188891e-38
0.052804306 0.11394348 0.024359405 1.4177955e-38
0.049861811 0.052787863 0.039124608 1.4359484e-38
0.049943455 0.055222608 0.037866414 1.4819012e-38
0.048473977 0.11202433 0.024248302 1.2705698e-38
0.049712524 0.11427771 0.024301112 1.2982641e-38
0.046090804 0.056986295 0.037954509 1.601719e-38
0.045331508 0.0590389 0.036761105 1.7400109e-38
0.045819774 0.11203288 0.024322212 1.2520551e-38
0.045994073 0.11403082 0.024465382 1.2243942e-38
0.043199681 0.057987012 0.03809613 1.7122466e-38
0.04192698 0.060474195 0.037092745 1.66615e-38
0.04155571 0.063790493 0.035755038 1.518637e-38
0.041609511 0.11121226 0.024928749 1.3716595e-38
0.043015599 0.11364805 0.025051296 1.2796075e-38
0.037714511 0.064608 0.036572278 1.4725742e-38
0.037008286 0.067790575 0.034947217 1.3530419e-38
0.037575275 0.10772591 0.025773466 9.2848018e-39
0.03870599 0.11074948 0.02585417 1.0117068e-38
0.035202131 0.065132134 0.036649704 1.4265108e-38
0.034526914 0.068370394 0.035909832 1.3530393e-38
0.034566388 0.072169103 0.034675539 1.2979058e-38
0.034283713 0.076026402 0.033681452 1.2426587e-38
0.033512622 0.079724871 0.032836378 1.2148928e-38
0.03352125 0.083936609 0.031701863 1.1136239e-38
0.033868201 0.087666266 0.030947924 1.067054e-38
0.033837721 0.091578327 0.030145824 9.7500666e-39
0.033674449 0.095021956 0.029098451 9.4723895e-39
0.032591552 0.099149756 0.027721226 1.1221238e-38
0.033162296 0.10317545 0.027274787 1.094395e-38
0.035224378 0.10560413 0.026132703 9.55956e-39
0.031150892 0.084561609 0.032210231 1.1690854e-38
0.02978123 0.096863128 0.029365301 1.1600044e-38
0.030305974 0.098932497 0.028865099 1.2334017e-38
0.031093106 0.1020366 0.028114736 1.4081063e-38
0.024482369 0.091702454 0.03072679 1.1785887e-38
0.027125388 0.09622445 0.029590964 9.941994e-39
0.073802963 0.10721458 0.0030505657 2.0169954e-38
0.15072186 0.072349869 0.01643014 1.8695195e-38
0.14959469 0.065172784 0.017769277 1.8507923e-38
0.12173124 0.10929462 0.014572382 1.3630902e-38
0.10988125 0.10162934 0.0139575 1.2612792e-38
0.10630303 0.090562157 0.015535474 1.4362361e-38
0.13195631 0.07525117 0.017509282 1.6390306e-38
0.11310688 0.079914235 0.020908296 1.1140164e-38
0.099960864 0.066543676 0.028643489 1.6112652e-38
0.10327022 0.08344733 0.02264744 1.8047322e-38
0.074098803 0.085926495 0.024485111 1.0955061e-38
0.069617122 0.085048012 0.025487185 1.3164169e-38
0.052804306 0.11394348 0.024359405 1.4177955e-38
0.059172727 0.083530359 0.027997077 1.242374e-38
0.16301703 0.03530363 0.045124173 1.4919504e-38
0.16292177 0.03989514 0.040967822 1.9435292e-38
0.16264513 0.12633294 0.021052361 2.2011379e-38
0.1620115 0.12949035 0.022042632 2.2564539e-38
0.15900147 0.035316564 0.045235991 1.538443e-38
0.15896857 0.037000634 0.043472052 1.6761604e-38
0.15892763 0.038609885 0.041383386 1.7867926e-38
0.15863571 0.12688422 0.020695269 2.0073472e-38
0.15849464 0.12990707 0.021788716 2.136563e-38
0.15498383 0.034610845 0.045173943 1.6396761e-38
0.15494932 0.03715729 0.042865396 1.878884e-38
0.15404066 0.03862562 0.041519582 1.961569e-38
0.15397087 0.12689924 0.020825148 1.8968909e-38
0.15438257 0.12983581 0.02156347 1.9981972e-38
0.15399328 0.13311031 0.022450805 2.1087266e-38
0.15080014 0.034051932 0.044996619 1.7128957e-38
0.15094495 0.036857568 0.042878866 1.8506858e-38
0.14997244 0.12691212 0.020936608 1.8230261e-38
0.15046945 0.12992164 0.020987391 1.9613896e-38
0.15036742 0.13323605 0.02129209 2.0718817e-38
0.14695626 0.033873878 0.045005441 1.8325685e-38
0.14693964 0.036734991 0.042337179 1.9336236e-38
0.14664042 0.12692285 0.021029353 1.8694466e-38
0.14663304 0.12966901 0.020842373 1.9611755e-38
0.14689445 0.13338304 0.021767974 2.0628042e-38
0.14275697 0.033465199 0.044960499 1.9152922e-38
0.1426093 0.036066152 0.042446673 1.9612472e-38
0.14197558 0.1269379 0.021159291 1.8692322e-38
0.14196561 0.12966907 0.020930231 1.9613917e-38
0.14261585 0.13314697 0.022767723 2.0535499e-38
0.1391025 0.034039937 0.045077205 1.9980165e-38
0.13827299 0.036779769 0.042660296 2.0901046e-38
0.13840561 0.13020316 0.021180809 2.0168501e-38
0.13860029 0.13315991 0.022879601 2.0628389e-38
0.13524982 0.034966923 0.045483768 2.1729736e-38
0.13493653 0.036841087 0.042998314 2.1636114e-38
0.13462915 0.13007343 0.021074712 2.0442222e-38
0.13089252 0.035407104 0.046018958 2.1822289e-38
0.1312646 0.036578961 0.043421686 2.1543188e-38
0.1306259 0.13038859 0.021188676 2.0718812e-38
0.12721267 0.035093032 0.046197832 2.1363465e-38
0.12692341 0.03631898 0.043863714 2.1083299e-38
0.12628388 0.13081157 0.021470606 2.0075953e-38
0.12521507 0.13320303 0.023252428 2.0262877e-38
0.12375517 0.034995519 0.046319604 2.1358429e-38
0.12289727 0.036466815 0.044629216 2.071451e-38
0.12262334 0.1304144 0.021411598 1.9894791e-38
0.12186876 0.13321379 0.02334559 2.0539112e-38
0.11808428 0.037028544 0.044772208 2.0622304e-38
0.11818565 0.12986755 0.021495521 1.5104602e-38
0.11798447 0.13400853 0.023270369 1.445994e-38
0.11415238 0.038068421 0.04587388 2.0716285e-38
0.11334383 0.039275937 0.042531431 1.9703576e-38
0.11435119 0.13008499 0.021828234 8.9332343e-39
0.11049759 0.037652172 0.045562208 2.099215e-38
0.11027794 0.03941562 0.042586386 1.9979437e-38
0.1106059 0.12737101 0.022982657 1.0865696e-38
0.11193631 0.12866673 0.022640824 9.1993366e-39
0.10546061 0.035489 0.0467273 2.2094917e-38
0.10666273 0.037486218 0.045050502 2.0900685e-38
0.10694449 0.039859079 0.042577744 2.0071291e-38
0.10278356 0.035497628 0.046801865 2.172685e-38
0.10292625 0.036944173 0.04388988 2.0716652e-38
0.10275616 0.039718039 0.042730689 2.0070931e-38
0.098822027 0.034828566 0.046250105 2.2004161e-38
0.098924957 0.036957078 0.044001341 2.0622673e-38
0.098946914 0.040101193 0.042749822 1.9796509e-38
0.095007658 0.034419663 0.046396494 2.1452778e-38
0.094923675 0.036969952 0.044112802 2.0529753e-38
0.095115617 0.039951272 0.042894542 1.9794337e-38
0.090736873 0.035536431 0.04713738 2.0623728e-38
0.090896465 0.03705097 0.044551432 2.0164546e-38
0.090783991 0.039965235 0.043015242 1.9239024e-38
0.088059828 0.035545059 0.047212005 2.0898162e-38
0.086797349 0.03730052 0.045809031 1.9887947e-38
0.087220758 0.039360084 0.043259025 1.8503621e-38
0.083065465 0.037388824 0.044867635 1.9333714e-38
0.082762793 0.040153332 0.043200672 1.8962067e-38
0.078827254 0.037863798 0.04533422 1.9700352e-38
0.07895261 0.040814675 0.043154538 1.9975846e-38
0.07760907 0.044064336 0.042431056 1.9606724e-38
0.074798867 0.037921719 0.045664191 1.9242258e-38
0.074903734 0.040932246 0.043756604 1.9147177e-38
0.074947745 0.042774774 0.042809546 1.9147541e-38
0.070823237 0.038517721 0.045295715 1.8229151e-38
0.070850395 0.041049562 0.04435879 1.7303658e-38
0.070280768 0.043438874 0.042787373 1.7950109e-38
0.066633634 0.03859394 0.0471102 1.7399774e-38
0.066846259 0.041062467 0.04447037 1.7305803e-38
0.066282339 0.043451749 0.042898774 1.795081e-38
0.063062593 0.039102115 0.047093213 1.7121372e-38
0.062614784 0.041667514 0.0449633 1.7029201e-38
0.062566139 0.044483684 0.042763174 1.7676008e-38
0.061606765 0.046712153 0.042268097 1.7862556e-38
0.058879599 0.042109393 0.045480311 1.6383477e-38
0.058607951 0.044772841 0.043425024 1.5830313e-38
0.058274746 0.046722896 0.042360961 1.5647724e-38
0.054570913 0.043475129 0.046310782 1.5281426e-38
0.05459214 0.045341454 0.044111252 1.4631407e-38
0.054672718 0.047772996 0.042217791 1.5648076e-38
0.054716252 0.11521112 0.026405156 1.4270182e-38
0.054451831 0.11746923 0.027938306 1.6485062e-38
0.050846986 0.046040826 0.044788361 1.5372184e-38
0.050870225 0.048803739 0.042598605 1.5647697e-38
0.050663143 0.051161073 0.041538119 1.3992142e-38
0.050039917 0.11824682 0.02753973 1.4270878e-38
0.047420643 0.046974711 0.045694888 1.4732577e-38
0.046595909 0.049469881 0.043335378 1.3713391e-38
0.046904378 0.052205838 0.041571915 1.3900306e-38
0.046030134 0.054983862 0.040774405 1.4271596e-38
0.046872109 0.11758161 0.027358174 1.2334403e-38
0.043313272 0.050459959 0.043967783 1.3711956e-38
0.042757526 0.052877091 0.042560756 1.4726114e-38
0.042714737 0.055754773 0.040945351 1.4820093e-38
0.041575983 0.058459915 0.040086806 1.7214296e-38
0.042314455 0.11540879 0.027227342 1.2244355e-38
0.042471476 0.11740205 0.027954221 1.1968159e-38
0.039467424 0.053367876 0.043738544 1.4636082e-38
0.038876727 0.056350552 0.042071462 1.4819373e-38
0.038482435 0.059649386 0.040190101 1.6660779e-38
0.038451783 0.062797107 0.039159298 1.5923921e-38
0.037401535 0.11169704 0.027724385 1.0211396e-38
0.038515314 0.11472981 0.028419971 1.0765641e-38
0.034937292 0.057321183 0.042598784 1.5187802e-38
0.034784779 0.059962414 0.040727973 1.6567493e-38
0.033693962 0.064067282 0.038997591 1.5093065e-38
0.032214127 0.068226106 0.038064837 1.380736e-38
0.032203399 0.07147149 0.037304282 1.3254207e-38
0.032189094 0.075798653 0.036290169 1.2794668e-38
0.032091781 0.10522344 0.02939409 1.2138187e-38
0.033378378 0.10724256 0.02914077 1.1309855e-38
0.035421818 0.1108178 0.029357255 1.0025583e-38
0.03176865 0.05788929 0.043583691 1.5278211e-38
0.030749731 0.060669921 0.042080224 1.5003407e-38
0.030399062 0.064091049 0.040113747 1.3989228e-38
0.030204177 0.071477927 0.037359953 1.3531513e-38
0.030189164 0.076021455 0.036295176 1.3162733e-38
0.030176282 0.079915904 0.03538245 1.2518801e-38
0.030033126 0.082902096 0.034686387 1.2150033e-38
0.030018531 0.08731582 0.033652008 1.1966356e-38
0.030139774 0.090950213 0.032796383 1.2332613e-38
0.030126892 0.094844662 0.031883717 1.242732e-38
0.029441185 0.10068851 0.030533195 1.1325999e-38
0.030096859 0.10393172 0.029754043 1.2702438e-38
0.029982716 0.10756847 0.030959725 1.2793209e-38
0.027729347 0.065072648 0.042015016 1.3716226e-38
0.026904501 0.06830927 0.040399134 1.3164894e-38
0.026628576 0.071853153 0.038858473 1.3531881e-38
0.0266909 0.07564161 0.037511826 1.3714822e-38
0.026715226 0.079482548 0.036382258 1.3531143e-38
0.026814595 0.083201759 0.034822345 1.3069088e-38
0.02682063 0.087066479 0.033801913 1.2609558e-38
0.026807748 0.090960942 0.032889187 1.2151082e-38
0.026795417 0.094693117 0.032014549 1.0403698e-38
0.026589148 0.099492259 0.030895293 8.4654402e-39
0.026454091 0.1030676 0.030959964 8.5576442e-39
0.026347674 0.10690316 0.03166002 9.1101132e-39
0.023685746 0.073559739 0.040140927 1.353002e-38
0.022548445 0.076268829 0.039281368 1.390063e-38
0.022556521 0.079730548 0.037356377 1.4361263e-38
0.022718377 0.083364658 0.035472274 1.4176145e-38
0.022763528 0.08717107 0.034235954 1.3255989e-38
0.022621267 0.090846948 0.033164203 1.2337971e-38
0.022796452 0.094868265 0.032087862 9.6636149e-39
0.022705927 0.098893069 0.031603456 8.3753661e-39
0.022730105 0.10319313 0.032633364 8.466501e-39
0.023577973 0.10615265 0.032502353 9.2037073e-39
0.019313991 0.080092333 0.038734317 1.3992491e-38
0.019085079 0.08382418 0.03718096 1.3993203e-38
0.018585563 0.08754795 0.036236644 1.3808105e-38
0.018590644 0.091329865 0.034293652 1.2155377e-38
0.01863791 0.095135443 0.033057511 9.3891776e-39
0.018660173 0.099087827 0.032886624 8.1902784e-39
0.01559855 0.090533905 0.03639251 1.2337264e-38
0.0147302 0.095587693 0.034645379 8.8331381e-39
0.015572697 0.098356195 0.03455925 8.0988045e-39
0.1080678 0.082033299 0.010394752 1.4914801e-38
0.10691199 0.091052495 0.0090473294 1.5837858e-38
0.10382861 0.092253022 0.008810401 1.4180835e-38
0.069591552 0.10857198 0.00093495846 1.555946e-38
0.1496612 0.072832905 0.015687168 1.684877e-38
0.14966531 0.083111979 0.012738407 1.4823339e-38
0.14843988 0.077119492 0.015072703 1.6665085e-38
0.12295076 0.097615801 0.015045762 1.7772161e-38
0.11705304 0.10159668 0.014270604 1.7219699e-38
0.11066918 0.06617 0.022656083 1.7214659e-38
0.11176988 0.053210579 0.032051742 1.9339851e-38
0.11160999 0.083511882 0.024753928 1.6850205e-38
0.10484985 0.070296578 0.027697206 1.7404818e-38
0.10076466 0.081094526 0.024267018 1.6756584e-38
0.073225968 0.091774873 0.023880959 1.1597552e-38
0.069922604 0.067997344 0.029599667 1.4175803e-38
0.044524491 0.063942976 0.03422612 1.3991409e-38
0.15910892 0.03095872 0.050821364 1.2525281e-38
0.15902828 0.033558615 0.046674967 1.5105325e-38
0.1600427 0.13212484 0.023536384 2.3118415e-38
0.15856834 0.13530457 0.025016546 2.2563449e-38
0.15524258 0.031120889 0.049703419 1.3814931e-38
0.15500915 0.032918774 0.046939969 1.4367394e-38
0.15487987 0.13551733 0.024062991 2.1825899e-38
0.15333554 0.13771376 0.023445487 2.3203806e-38
0.15101218 0.031360291 0.049474716 1.4641805e-38
0.1523283 0.032927401 0.047014594 1.5378678e-38
0.15098928 0.13600171 0.023657084 2.136384e-38
0.15065087 0.13772243 0.023520231 2.2194313e-38
0.14629547 0.13644585 0.024971485 2.1271271e-38
0.14796622 0.13773105 0.023594975 2.2193217e-38
0.14260338 0.13578722 0.024204195 2.136562e-38
0.13890176 0.031690694 0.051284909 1.9520984e-38
0.13758361 0.032974891 0.04742533 2.0626603e-38
0.13856114 0.1358293 0.026364923 2.0904989e-38
0.13486049 0.031703718 0.051397502 2.1363801e-38
0.13462979 0.033545963 0.047581434 2.1913752e-38
0.13437098 0.13529739 0.025453568 2.0720601e-38
0.13082248 0.031049825 0.051609278 2.1454216e-38
0.13087605 0.033682071 0.047622681 2.1730096e-38
0.13049772 0.13563013 0.025957286 2.0536588e-38
0.126973 0.031434111 0.051612973 2.218891e-38
0.12658533 0.033571891 0.047805488 2.2372211e-38
0.12674673 0.13493547 0.02567941 2.044474e-38
0.12273668 0.031742759 0.051735222 2.2095994e-38
0.12237857 0.033959828 0.047971964 2.163501e-38
0.12244459 0.13547301 0.025676489 2.0448706e-38
0.11867701 0.031853296 0.052339196 2.1819767e-38
0.11879677 0.034428604 0.048078656 2.1267665e-38
0.11911309 0.13586378 0.024858296 1.6119103e-38
0.11463289 0.031866334 0.052451968 2.17283e-38
0.11476374 0.03448572 0.048408926 2.1360582e-38
0.11478343 0.036965005 0.047142148 2.0716648e-38
0.11312781 0.13227594 0.024843097 7.3648478e-39
0.11442055 0.1351876 0.025036871 1.0223277e-38
0.11058877 0.031879358 0.052564621 2.1912684e-38
0.11073864 0.034498684 0.048520982 2.19116e-38
0.11143237 0.036975794 0.047235489 2.1268018e-38
0.10902052 0.12838116 0.027928829 1.0592017e-38
0.11018369 0.13181564 0.027090371 1.1785151e-38
0.11056294 0.13513318 0.027329087 1.2339071e-38
0.10681382 0.032022797 0.052638888 2.1910163e-38
0.10688414 0.034339555 0.048625886 2.1727583e-38
0.10762383 0.12871778 0.028917313 1.086787e-38
0.10756268 0.13167512 0.029253244 1.3074115e-38
0.10249835 0.032561906 0.052636087 2.1635733e-38
0.10271083 0.033805586 0.048570752 2.163466e-38
0.098476633 0.032509886 0.052420735 2.1819415e-38
0.098710194 0.033426486 0.048431575 2.2095285e-38
0.094709486 0.03198383 0.052583337 2.1359156e-38
0.094019771 0.033115201 0.048638761 2.145063e-38
0.090365976 0.032600991 0.052973926 2.1359487e-38
0.090628177 0.033877291 0.049070895 2.1358057e-38
0.086323589 0.032088794 0.053209603 2.0899241e-38
0.086445183 0.034355737 0.048949838 2.1359851e-38
0.083625764 0.032622673 0.053161621 2.1174392e-38
0.082523413 0.034676991 0.049743056 2.1081105e-38
0.078451216 0.035155468 0.05022049 2.0066975e-38
0.074380673 0.034879766 0.050841868 1.9056066e-38
0.07039395 0.034804307 0.050516903 1.8321372e-38
0.070549391 0.03710749 0.048374236 1.8507926e-38
0.066289335 0.034949951 0.051285267 1.7213598e-38
0.066528104 0.037120424 0.048486233 1.7309012e-38
0.062499382 0.035389967 0.05253011 1.7027033e-38
0.062201746 0.038139604 0.049056053 1.7119216e-38
0.057999939 0.036644153 0.052951992 1.6385986e-38
0.05831749 0.038722999 0.049715459 1.656822e-38
0.05713217 0.041067354 0.047829628 1.6476396e-38
0.053955816 0.036657177 0.053064644 1.4728617e-38
0.054145515 0.038963877 0.05091989 1.5923584e-38
0.05438441 0.041833229 0.04824245 1.5741334e-38
0.053768136 0.12031823 0.030577898 1.8787045e-38
0.052321181 0.12331871 0.032792926 1.989121e-38
0.05015444 0.03933116 0.051904082 1.5465459e-38
0.050291173 0.042603843 0.048692644 1.5002328e-38
0.049076661 0.045009963 0.047135711 1.5097392e-38
0.051061712 0.12029066 0.029428899 1.6852359e-38
0.04940787 0.12372413 0.03237015 1.6300977e-38
0.046528563 0.040619992 0.052347958 1.4819006e-38
0.046388909 0.043193243 0.050574422 1.4633892e-38
0.045875661 0.045997672 0.047509491 1.4359117e-38
0.04573825 0.12054177 0.030549824 1.2336571e-38
0.046570309 0.12355905 0.032216072 1.325711e-38
0.043447211 0.043476142 0.051560819 1.4080751e-38
0.042209893 0.046984978 0.049180984 1.3525778e-38
0.041764289 0.049821131 0.046627939 1.3804153e-38
0.042245299 0.12025515 0.031230569 1.2153251e-38
0.044232942 0.12334477 0.033018231 1.2609928e-38
0.040449351 0.0445785 0.051593721 1.4262973e-38
0.039128833 0.047482662 0.050693691 1.4079286e-38
0.038370542 0.050622396 0.047025204 1.4634263e-38
0.037432291 0.053316019 0.045521498 1.4725751e-38
0.03766153 0.1177986 0.033478975 9.7594076e-39
0.039302379 0.11846989 0.031219721 1.1507896e-38
0.034515865 0.051377736 0.049141824 1.5555517e-38
0.03409417 0.053844683 0.046863019 1.5278916e-38
0.033964485 0.056116618 0.045375049 1.4541718e-38
0.033053741 0.11240109 0.033437848 1.2328663e-38
0.034871548 0.11626846 0.034602523 1.1684729e-38
0.030987002 0.052486815 0.050010264 1.5000894e-38
0.030638158 0.054525293 0.048857331 1.5004839e-38
0.030132525 0.05701717 0.045743227 1.5095963e-38
0.029593006 0.05943384 0.044311345 1.5466173e-38
0.030015066 0.11195423 0.033526719 1.3991046e-38
0.030778572 0.11551026 0.035240054 1.5741675e-38
0.02828224 0.055121474 0.049470007 1.5006994e-38
0.026707612 0.057334028 0.047968745 1.4824049e-38
0.026523799 0.061070211 0.044602692 1.3713757e-38
0.02581799 0.064515911 0.043374598 1.2704263e-38
0.02487345 0.067935161 0.04245317 1.2334067e-38
0.026077859 0.10905629 0.032777607 9.2970128e-39
0.026446894 0.1122066 0.03382653 1.2247609e-38
0.026734456 0.1155233 0.035352707 1.5561247e-38
0.023551069 0.059075646 0.048678279 1.3714819e-38
0.022829473 0.061362796 0.047391951 1.2702475e-38
0.022196621 0.065084554 0.044225574 1.2058168e-38
0.022035502 0.068816252 0.043241084 1.2056752e-38
0.021988459 0.072382011 0.041621566 1.2979771e-38
0.020828418 0.075128742 0.040882349 1.3536522e-38
0.020643204 0.10465372 0.034479082 8.3746865e-39
0.022225901 0.10786399 0.03350991 9.5707088e-39
0.022785895 0.11253782 0.035651743 1.1233103e-38
0.019291356 0.062521882 0.047221482 1.1410307e-38
0.018450782 0.065233357 0.045582235 1.1779787e-38
0.017989412 0.068856902 0.043461502 1.1504651e-38
0.017976433 0.072779186 0.042542279 1.2333339e-38
0.018082902 0.076528721 0.040975153 1.3162736e-38
0.016776904 0.084280692 0.038852513 1.3716616e-38
0.016759649 0.089502953 0.037628531 1.2981239e-38
0.016720802 0.10125308 0.034874856 7.7282199e-39
0.018108442 0.10388256 0.03486073 7.9122496e-39
0.018676907 0.10884672 0.036120951 9.6654113e-39
0.019556493 0.11204515 0.036373556 1.1141995e-38
0.014897898 0.065495811 0.046686649 1.0400098e-38
0.014325708 0.069279425 0.045179784 1.0678483e-38
0.014226347 0.073121719 0.043156445 1.1599025e-38
0.01393646 0.076714419 0.041735172 1.2519896e-38
0.014005333 0.080519326 0.040384531 1.3717702e-38
0.013992354 0.084438913 0.039465904 1.3899929e-38
0.013999984 0.088328533 0.038439512 1.2887584e-38
0.013831988 0.092391543 0.037420452 1.1048671e-38
0.012716785 0.096043758 0.036210716 9.0185944e-39
0.01380606 0.10022958 0.035583436 7.5466887e-39
0.014286682 0.10454141 0.036485314 7.1779328e-39
0.011392653 0.066992633 0.047169864 9.1129536e-39
0.011477962 0.069494329 0.046067238 9.853027e-39
0.010694578 0.073174797 0.04484123 1.0865048e-38
0.010128483 0.077134557 0.042626441 1.1875964e-38
0.0098965168 0.080649666 0.040928125 1.3167047e-38
0.009904772 0.084541775 0.039901197 1.3716254e-38
0.0098915845 0.088463642 0.038982034 1.288578e-38
0.009857595 0.092416488 0.038170457 1.1876275e-38
0.0099077523 0.096243314 0.03692919 9.2948169e-39
0.009831652 0.10026105 0.036331952 7.9154726e-39
0.010262504 0.10453922 0.036549568 6.7183685e-39
0.010645002 0.10825353 0.037174761 8.8374471e-39
0.0069424063 0.073577516 0.045111001 1.0123508e-38
0.0066670477 0.077089839 0.043910205 1.1135522e-38
0.0064093918 0.080836572 0.04166913 1.2335158e-38
0.0061831772 0.084846996 0.040343881 1.2795368e-38
0.0058435947 0.088507198 0.039201796 1.1967392e-38
0.0058524758 0.09239804 0.038175166 1.1600064e-38
0.0059274882 0.096192412 0.036826789 9.7550636e-39
0.005848676 0.10020953 0.03622967 8.6540844e-39
0.0060651749 0.10460579 0.036334336 8.2842327e-39
0.0062180609 0.10838612 0.036927879 9.0207201e-39
0.0035044551 0.074458249 0.045645297 9.2991329e-39
0.0029134452 0.07749442 0.044179618 1.0310059e-38
0.0018225312 0.10022252 0.036341786 8.7487814e-39
0.0024359971 0.10463228 0.036986589 8.5622629e-39
0.0026701838 0.10876726 0.036711693 9.3891818e-39
0.0027483702 0.11265693 0.036197126 1.1144088e-38
1.3008714e-05 0.10480867 0.03760165 8.0094549e-39
0 0.10874207 0.036679864 8.8342087e-39
0.10800983 0.078788929 0.011366367 1.6111924e-38
0.17024302 0.091888644 0.014982104 1.638993e-38
0.12605052 0.072823517 0.012838662 1.3719162e-38
0.10598212 0.083834328 0.024583995 1.6663293e-38
0.067562461 0.066330276 0.030409575 1.491336e-38
0.051797435 0.058774062 0.034941912 1.5740606e-38
0.10948199 0.123461 0.019821465 9.5760505e-39
0.15531862 0.027998127 0.054837048 1.141786e-38
0.15443401 0.030151032 0.053770423 1.2801468e-38
0.15106767 0.029034518 0.055155993 1.2522042e-38
0.15105438 0.03016191 0.053864539 1.3262095e-38
0.14700641 0.029047601 0.055269182 1.5470484e-38
0.14699884 0.030174963 0.053977489 1.5379022e-38
0.14294079 0.030379228 0.055073261 1.6300268e-38
0.14258187 0.13947389 0.028477907 2.1733691e-38
0.13887952 0.030392312 0.05518645 1.9063598e-38
0.13853067 0.13817027 0.02889955 2.1273426e-38
0.13987134 0.1398277 0.029500008 2.1826954e-38
0.13346887 0.029091187 0.055646122 1.8599037e-38
0.13483219 0.030214153 0.054316401 1.9983749e-38
0.13582698 0.13817897 0.028974771 2.1087223e-38
0.13377945 0.13984734 0.029669702 2.0999702e-38
0.13077508 0.028973646 0.055065811 1.8691962e-38
0.13039507 0.13985828 0.029763997 2.0169961e-38
0.12670791 0.029049836 0.055506706 2.016853e-38
0.12604517 0.030242465 0.054561198 2.1454598e-38
0.12635477 0.13832387 0.029554367 2.0629484e-38
0.12701069 0.13986912 0.029858291 2.0719521e-38
0.12263884 0.02912607 0.05594784 2.0814603e-38
0.12263449 0.030444629 0.05563885 2.1458172e-38
0.12295379 0.13856366 0.030280411 2.0635616e-38
0.11858532 0.031171195 0.055173337 2.15457e-38
0.11822435 0.1397824 0.029787421 1.4736527e-38
0.11454091 0.030343242 0.05520916 2.1455331e-38
0.11417932 0.13968039 0.029584646 1.0773576e-38
0.11048347 0.03035631 0.05532217 2.182195e-38
0.11012703 0.13793725 0.030109227 1.2890814e-38
0.11076564 0.13992146 0.03031069 1.2889021e-38
0.10610428 0.030635856 0.055039406 2.2003432e-38
0.10570701 0.12901264 0.03242594 7.277282e-39
0.10568494 0.13338959 0.031547308 1.0036723e-38
0.10633059 0.13637137 0.030859113 1.2155416e-38
0.10237536 0.031008892 0.055229902 2.1542847e-38
0.1033527 0.13005629 0.032835782 6.0744383e-39
0.098307975 0.031053863 0.055506945 2.1358102e-38
0.093884349 0.030818589 0.05611676 2.1081854e-38
0.088795006 0.029235072 0.056890488 2.0896355e-38
0.090180583 0.031111889 0.055897117 2.0990714e-38
0.086087488 0.029243805 0.056966007 2.0528655e-38
0.086143419 0.030747928 0.055841029 2.0528671e-38
0.082067907 0.031782977 0.055898488 2.0529747e-38
0.07885585 0.032783203 0.056343019 2.0437902e-38
0.07799542 0.034445636 0.055464089 2.0252077e-38
0.074473232 0.032895155 0.056031168 1.9517736e-38
0.070956737 0.032379054 0.056252778 1.8875252e-38
0.067437619 0.032654114 0.056288958 1.7769653e-38
0.064414337 0.033269204 0.056642115 1.6846253e-38
0.059113353 0.035066433 0.055344999 1.5003422e-38
0.05501572 0.035145201 0.055786312 1.4817233e-38
0.05089891 0.036558978 0.05600071 1.5465786e-38
0.048156209 0.037277184 0.056167662 1.5468334e-38
0.046580315 0.039046936 0.055386841 1.4731137e-38
0.045697615 0.12628907 0.034683526 1.3260326e-38
0.043138899 0.040816329 0.054967701 1.3990331e-38
0.041964531 0.042802311 0.054021895 1.4172595e-38
0.041249752 0.1226834 0.035313606 1.2338352e-38
0.042487189 0.12489747 0.035529733 1.261172e-38
0.038957447 0.044121258 0.054620683 1.4265126e-38
0.03784617 0.046836756 0.053536236 1.4079996e-38
0.038511917 0.12178492 0.035859466 1.205923e-38
0.03505908 0.048270993 0.05379349 1.4726473e-38
0.034054063 0.050288998 0.052492917 1.5279296e-38
0.034003459 0.11798342 0.03696543 1.2698163e-38
0.035851046 0.12006741 0.036081433 1.2243275e-38
0.030928232 0.051725693 0.05275923 1.5002701e-38
0.029309526 0.054254316 0.051698923 1.4817941e-38
0.030291408 0.11776554 0.037807703 1.6204446e-38
0.026498646 0.053095154 0.052736044 1.3715922e-38
0.026266791 0.054880612 0.052050114 1.4728639e-38
0.026057661 0.11811844 0.037229538 1.6116938e-38
0.022271566 0.057948671 0.051474452 1.3898494e-38
0.021674044 0.11484634 0.037711084 1.2706099e-38
0.022212528 0.11754879 0.037832737 1.4457786e-38
0.018572003 0.059260197 0.051859915 1.1966699e-38
0.018129334 0.061493956 0.050732434 1.1321337e-38
0.017757028 0.11413578 0.038503528 1.2983731e-38
0.018786699 0.1171433 0.038282692 1.4273022e-38
0.014915109 0.059799396 0.0518381 9.7564691e-39
0.014290303 0.062359504 0.050913393 1.0033083e-38
0.013052493 0.06484016 0.049682081 9.2015703e-39
0.012900084 0.11092453 0.03888166 1.215324e-38
0.014185682 0.11233913 0.038855672 1.3537622e-38
0.011519834 0.063106678 0.051159859 8.7427488e-39
0.01021868 0.066107057 0.050151229 8.7427418e-39
0.0089157969 0.070201866 0.048885822 9.2951939e-39
0.010196388 0.11093325 0.038957 1.2155418e-38
0.011356309 0.11255235 0.039571643 1.4280592e-38
0.0074433088 0.067734681 0.050191462 8.7416515e-39
0.006145373 0.07029324 0.049286187 8.5547562e-39
0.0049152523 0.072766446 0.048056483 9.4863856e-39
0.0070435107 0.1105045 0.039147675 1.0312542e-38
0.0061364621 0.11226302 0.038761318 1.1417131e-38
0.0022877157 0.071179472 0.049531221 6.530055e-39
0.0016907901 0.07373815 0.04826349 7.3644764e-39
0.00084665418 0.076729603 0.047243714 8.9328587e-39
0.11015992 0.090106122 0.0090293884 1.4728979e-38
0.10895061 0.078472666 0.011889279 1.5837477e-38
0.1376842 0.075307034 0.013607562 1.6297024e-38
0.14772786 0.083564989 0.013600886 1.5929319e-38
0.12063567 0.095773749 0.015960217 1.8784156e-38
0.12934178 0.04283113 0.031992555 2.0164213e-38
0.10840756 0.071330346 0.023577094 1.3534392e-38
0.10945488 0.079151772 0.021559596 1.0955071e-38
0.095012493 0.08649721 0.023930252 1.1046902e-38
0.093583837 0.088659398 0.023497045 1.3346408e-38
0.069344237 0.072442226 0.028482616 1.1965262e-38
0.06829834 0.084338985 0.025645196 1.1505723e-38
0.057055756 0.070214532 0.03240484 1.565022e-38
0.054391079 0.055480085 0.036308765 1.6387774e-38
0.12628388 0.13081157 0.021470606 2.0075953e-38
0.15518855 0.024272405 0.059123099 1.0034571e-38
0.15448818 0.02675765 0.05764699 1.1323512e-38
0.15110978 0.024967991 0.05919081 1.0773197e-38
0.15109657 0.027522497 0.058078468 1.178521e-38
0.14737016 0.02531106 0.059217334 1.2337682e-38
0.14701962 0.02747377 0.05786407 1.4639654e-38
0.1457402 0.14117044 0.031757355 2.1826605e-38
0.14431027 0.025651939 0.059224904 1.4089004e-38
0.14294322 0.028199784 0.058095872 1.5838917e-38
0.14256847 0.14183149 0.031008124 2.1918444e-38
0.1416533 0.14394689 0.031565845 2.2288669e-38
0.13903612 0.028411649 0.05834353 1.759063e-38
0.13822602 0.14131656 0.031253159 2.1733326e-38
0.1393898 0.1438379 0.031313777 2.2102825e-38
0.13506058 0.02878385 0.058344245 1.7958712e-38
0.13475949 0.1416128 0.031539619 2.1366343e-38
0.13072057 0.028218932 0.05832684 1.7128595e-38
0.13033026 0.14221787 0.032295227 2.081139e-38
0.12630236 0.027933411 0.058691561 1.7314074e-38
0.12592003 0.14181474 0.032258987 2.0902129e-38
0.1262475 0.1435551 0.032098413 2.0999024e-38
0.12391828 0.025717609 0.059792936 1.4921986e-38
0.12256777 0.027614407 0.058873236 1.7499539e-38
0.12186056 0.14099324 0.032054007 2.0538728e-38
0.11848042 0.025735147 0.05994451 1.454892e-38
0.11849616 0.02825769 0.058667541 1.8600505e-38
0.11809507 0.14225727 0.032635987 1.5290061e-38
0.11457811 0.028490655 0.059024692 1.8785968e-38
0.11405966 0.14192331 0.031802237 1.0865408e-38
0.11058413 0.029203229 0.059357166 2.1086168e-38
0.10944658 0.14114481 0.032116771 1.3626592e-38
0.10959293 0.14393979 0.03248471 1.3719504e-38
0.10598389 0.029142313 0.059092045 2.1637183e-38
0.10590011 0.1407426 0.032655001 1.4275196e-38
0.10585549 0.14362079 0.032666445 1.5010933e-38
0.10217154 0.028393812 0.059559345 2.1174781e-38
0.10226452 0.12618688 0.036122799 6.1677409e-39
0.10140109 0.12912619 0.035678506 6.165922e-39
0.10208815 0.13276151 0.034464002 6.6272827e-39
0.10265048 0.13654208 0.033801317 6.6269688e-39
0.1031497 0.1396572 0.033673167 1.3077699e-38
0.10313657 0.14362955 0.032742202 1.5095206e-38
0.098495461 0.028555728 0.059414506 2.0894939e-38
0.094613105 0.028757416 0.059478402 2.0714147e-38
0.090915576 0.028418057 0.059810519 2.0344991e-38
0.08720395 0.028484084 0.060194731 2.0163092e-38
0.082869157 0.028989814 0.059994698 1.9978364e-38
0.079042763 0.029834472 0.060111582 1.9425218e-38
0.078789897 0.031298764 0.058747947 2.0068779e-38
0.075327463 0.031508245 0.058797956 1.9518458e-38
0.07020624 0.029862903 0.06035763 1.6940612e-38
0.070985012 0.030993335 0.059042931 1.7952236e-38
0.067487307 0.02987168 0.060433447 1.7124995e-38
0.066544086 0.031385981 0.059334755 1.7216843e-38
0.062753499 0.032479458 0.059663951 1.6202687e-38
0.059008278 0.033491544 0.059570491 1.4174374e-38
0.055238985 0.03388343 0.059843302 1.4451312e-38
0.052897632 0.12525395 0.038487792 2.099576e-38
0.050607003 0.03546647 0.05857712 1.5282124e-38
0.051664293 0.12625733 0.037260354 1.9707901e-38
0.046436697 0.03737592 0.058933854 1.4085416e-38
0.045546517 0.12892151 0.036810696 1.4639268e-38
0.043670379 0.03789299 0.059234142 1.2882554e-38
0.042147644 0.03958904 0.058058023 1.3252765e-38
0.040658049 0.12661746 0.03851819 1.270356e-38
0.042917997 0.12837568 0.038041472 1.3349281e-38
0.038597181 0.041499101 0.058277011 1.3622982e-38
0.037407309 0.043511741 0.057411015 1.4360182e-38
0.036744222 0.12233865 0.038605928 1.2886472e-38
0.037541017 0.12475441 0.038701713 1.2705673e-38
0.035086595 0.045353375 0.057388246 1.5003387e-38
0.033319607 0.047493495 0.056594372 1.4819735e-38
0.03268031 0.11970722 0.039339185 1.4266562e-38
0.033992961 0.12176614 0.039075732 1.3535083e-38
0.030996986 0.049336962 0.056571066 1.4820804e-38
0.029286079 0.051402085 0.055450916 1.399178e-38
0.029965177 0.11971598 0.039414763 1.6757621e-38
0.031159319 0.12135164 0.040024579 1.5932527e-38
0.027997114 0.049860381 0.056876719 1.3436465e-38
0.026713803 0.051740237 0.055958927 1.3436821e-38
0.027250051 0.11972471 0.039490402 1.7128228e-38
0.027760647 0.12136259 0.04011929 1.6941337e-38
0.024589695 0.052519552 0.056350708 1.2608495e-38
0.022268556 0.055788927 0.054828644 1.472573e-38
0.021819793 0.11974221 0.039641678 1.5007733e-38
0.019140154 0.056068055 0.055674732 1.3161997e-38
0.018631414 0.057606898 0.054300964 1.2609902e-38
0.018336847 0.11991113 0.040215492 1.4184415e-38
0.015144512 0.058393382 0.054730058 9.7568769e-39
0.014368519 0.11513834 0.040934265 1.5098833e-38
0.015626401 0.11793511 0.040756285 1.4457413e-38
0.0096224397 0.056540065 0.05583632 7.636369e-39
0.011077002 0.059055142 0.054634213 8.0076654e-39
0.010130256 0.062592693 0.053375244 8.0069788e-39
0.010913208 0.11481168 0.041452169 1.593542e-38
0.0069034845 0.056548826 0.055912018 7.0831924e-39
0.0075744838 0.059194885 0.05527252 6.3488686e-39
0.0071226507 0.063245781 0.053950369 6.3506959e-39
0.0065779835 0.066500597 0.052731812 7.8211288e-39
0.0070227385 0.11421805 0.042182207 1.3262843e-38
0.0041583031 0.064502262 0.054125786 5.793562e-39
0.0030586123 0.067198209 0.053011477 5.8850234e-39
0.0023013204 0.069559701 0.051965714 4.5075077e-39
0.0039919019 0.11481865 0.042333543 1.0960092e-38
