# .PCD v0.7 - Point Cloud Data file format
VERSION 0.7
FIELDS x y z rgb
SIZE 4 4 4 4
TYPE F F F F
COUNT 1 1 1 1
WIDTH 978
HEIGHT 1
VIEWPOINT 0 0 0 0 1 0 0
POINTS 978
DATA ascii
0.061426312 0.082679726 0.024818659 1.5374348e-38
0.061115071 0.086147524 0.022546113 1.5006271e-38
0.061144844 0.090019055 0.022009969 1.445061e-38
0.062459588 0.092609964 0.021796167 1.3717353e-38
0.060008675 0.11065728 0.019007683 1.371697e-38
0.060927629 0.11328178 0.020167053 1.3071594e-38
0.057582825 0.075613916 0.026666164 1.4544245e-38
0.057861969 0.078714959 0.025362313 1.36241e-38
0.057441592 0.08235649 0.023340702 1.3071266e-38
0.057230368 0.086117804 0.022115827 1.2977623e-38
0.057260126 0.089989327 0.021579742 1.2151826e-38
0.055994987 0.093850948 0.02090019 1.1136967e-38
0.056604236 0.10572758 0.019313693 1.1509639e-38
0.05719313 0.10934529 0.018875599 1.2520958e-38
0.058160752 0.1134286 0.020446599 1.288829e-38
0.053686082 0.07623215 0.026144147 1.325565e-38
0.053803027 0.078772105 0.025464833 1.2518435e-38
0.053821698 0.082269885 0.023721933 1.2426953e-38
0.053797469 0.086204305 0.022397161 1.2241488e-38
0.053375438 0.089959614 0.021149397 1.1505713e-38
0.05340521 0.093831144 0.020613313 1.1323098e-38
0.053434968 0.09770266 0.020077348 1.1689731e-38
0.053625375 0.10141412 0.019581497 1.1599723e-38
0.053556681 0.10584385 0.020988345 1.1694065e-38
0.054119557 0.10981145 0.020905018 1.2612788e-38
0.054620355 0.1131779 0.021101415 1.3347483e-38
0.051104829 0.07880459 0.025497139 1.2609193e-38
0.050071836 0.082805641 0.024570227 1.2242929e-38
0.050094828 0.086440943 0.023530185 1.2886136e-38
0.049491957 0.090310343 0.022867262 1.3437132e-38
0.049868882 0.093985476 0.02121228 1.3620063e-38
0.049749777 0.097955979 0.021153629 1.2609911e-38
0.050064266 0.10193359 0.021142542 1.1782675e-38
0.051060289 0.10564903 0.021498263 1.3904949e-38
0.047267899 0.087199844 0.023898423 1.0860364e-38
0.047292799 0.090440251 0.023449659 1.0771019e-38
0.047322705 0.094328761 0.02291131 1.0952159e-38
0.04734762 0.097569175 0.022462606 1.0487563e-38
0.047377497 0.10145768 0.021924257 9.5598809e-39
0.1275108 0.099580787 0.013313413 1.5191031e-38
0.1250885 0.081698827 0.01584512 1.5558388e-38
0.13494173 0.086797945 0.016952395 1.7864716e-38
0.12074424 0.078781165 0.022063971 1.7585605e-38
0.11758417 0.093082361 0.020953953 9.8483761e-39
0.12093093 0.10839168 0.021493137 9.4788831e-39
0.17457819 0.12992239 0.036248088 2.2475977e-38
0.17136079 0.035940595 0.047965825 1.8881747e-38
0.17233363 0.038919874 0.046982348 2.0729613e-38
0.17248395 0.1278778 0.034520864 2.2651715e-38
0.17159258 0.13065308 0.035304368 2.2654561e-38
0.16748324 0.035879396 0.04720211 1.9894809e-38
0.16889131 0.03842745 0.046327293 2.0630587e-38
0.16958088 0.1281234 0.03390801 2.1643283e-38
0.16814235 0.13116619 0.034593105 2.1548942e-38
0.16339067 0.03204374 0.048407376 1.676054e-38
0.16359574 0.035828628 0.046548605 1.8696636e-38
0.16446102 0.1312561 0.033769786 2.035184e-38
0.15946749 0.032013722 0.047972798 1.7496649e-38
0.16014972 0.035343014 0.045948684 1.8602281e-38
0.16040736 0.13142002 0.032930791 2.0258919e-38
0.15549234 0.029396236 0.048118711 1.5195385e-38
0.15562375 0.031934284 0.046989679 1.7220068e-38
0.15614629 0.034755327 0.045413494 1.8970336e-38
0.15651503 0.1313512 0.032335699 2.0259657e-38
0.15564007 0.13368842 0.033605397 2.1366335e-38
0.15222196 0.029371209 0.047756374 1.537618e-38
0.15170288 0.031904291 0.04655534 1.7312268e-38
0.1519046 0.034397908 0.044988871 1.8970695e-38
0.15259972 0.13132125 0.031902015 2.0076693e-38
0.15236969 0.13366342 0.03324312 2.1000063e-38
0.14778325 0.031874098 0.04612118 1.7955818e-38
0.14799151 0.034367979 0.044555426 1.8785939e-38
0.14865956 0.13133013 0.031629503 2.0259633e-38
0.14909932 0.13363838 0.032880723 2.0631994e-38
0.14390872 0.033127703 0.04528743 1.8689797e-38
0.14402518 0.034368537 0.044450343 1.9058944e-38
0.14498965 0.13145548 0.031303048 2.0260353e-38
0.14386672 0.13359836 0.032301068 2.0351835e-38
0.13993421 0.033127565 0.045181453 2.0438255e-38
0.14016531 0.034308113 0.043688476 2.0438255e-38
0.14075057 0.13203666 0.031154335 2.0260015e-38
0.13590014 0.03315727 0.04540354 2.0990714e-38
0.13589272 0.034851007 0.043744564 2.0714487e-38
0.1365457 0.131621 0.030488074 2.016962e-38
0.1360178 0.13353831 0.031431675 2.0358301e-38
0.1319851 0.035488389 0.043751955 2.0162049e-38
0.13106474 0.038138084 0.042137027 1.9978012e-38
0.13262834 0.13159102 0.030054092 1.8146704e-38
0.13209336 0.13350829 0.030996919 1.7224766e-38
0.12816748 0.036308952 0.043591559 1.9516701e-38
0.12812582 0.038674913 0.042140067 1.9424132e-38
0.12943242 0.13119593 0.028989851 1.2710747e-38
0.12878177 0.13447559 0.02985692 1.1509694e-38
0.12441447 0.036458857 0.043658972 1.9150788e-38
0.1244539 0.038786627 0.041815341 1.9151134e-38
0.12493387 0.13135651 0.028464258 9.6653847e-39
0.12502787 0.13394833 0.029468119 1.0771041e-38
0.12055694 0.036624894 0.043204427 1.9427351e-38
0.12030557 0.039279707 0.041663587 1.8413925e-38
0.12001503 0.12774423 0.028417468 9.6751251e-39
0.12115371 0.13054445 0.028281748 1.1971712e-38
0.12172902 0.13396275 0.029266536 1.316848e-38
0.11656752 0.039652206 0.041955471 1.8687288e-38
0.11589424 0.042025656 0.040914714 1.7490535e-38
0.11592045 0.087912612 0.034524679 7.1801006e-39
0.11581212 0.090016 0.033203602 7.731108e-39
0.11328232 0.04037153 0.041868865 1.8781268e-38
0.11216567 0.042881675 0.040547669 1.7400485e-38
0.11309782 0.083914556 0.034040451 4.6908256e-39
0.11304747 0.087508298 0.033921063 6.0726656e-39
0.11450775 0.090006016 0.03305918 7.3630415e-39
0.10875963 0.043905735 0.039685488 1.74916e-38
0.10848695 0.046649419 0.038595557 1.7397241e-38
0.10768113 0.050307915 0.037826359 1.6576101e-38
0.10987252 0.0808715 0.033813357 5.6123867e-39
0.10924317 0.08383783 0.033329785 5.7053082e-39
0.1092703 0.087366231 0.032841265 6.4421474e-39
0.10480605 0.043893464 0.039414287 1.8689057e-38
0.10497528 0.047074117 0.038312912 1.859974e-38
0.10507452 0.050566524 0.037498891 1.8508266e-38
0.10664159 0.084746376 0.032912195 6.4453928e-39
0.10665159 0.086046331 0.032732248 6.6279806e-39
0.10181147 0.05026301 0.037176132 1.896925e-38
0.096968517 0.043833502 0.038546145 1.868909e-38
0.096509621 0.04667525 0.037337005 1.8597965e-38
0.094124511 0.04391861 0.039232075 1.8318499e-38
0.092700094 0.046868198 0.037646055 1.8042968e-38
0.092028737 0.050188176 0.03609252 1.7490524e-38
0.089076295 0.047064066 0.037551939 1.8226995e-38
0.088426173 0.051029205 0.035862684 1.7489446e-38
0.087776512 0.054519489 0.035013556 1.6753679e-38
0.085037962 0.047741108 0.037514031 1.8778026e-38
0.084479719 0.050757594 0.036000073 1.8040101e-38
0.084237531 0.054678105 0.034595668 1.7489446e-38
0.080424011 0.04837653 0.037078738 1.8686912e-38
0.080527812 0.050944887 0.036393821 1.8409605e-38
0.080212131 0.054701306 0.034593701 1.7948995e-38
0.079692245 0.057243064 0.033729911 1.72118e-38
0.076913029 0.051087312 0.036308408 1.822487e-38
0.076210529 0.054711454 0.034483314 1.7674219e-38
0.076431319 0.057218112 0.033368707 1.7582725e-38
0.073259249 0.052232645 0.035740197 1.7952253e-38
0.072146833 0.054748833 0.03458792 1.7122829e-38
0.072498947 0.058501966 0.032862902 1.7030981e-38
0.072393924 0.062224217 0.032219768 1.6755124e-38
0.068351269 0.055121623 0.034353435 1.6661149e-38
0.068405345 0.05855637 0.033074796 1.6570394e-38
0.06864512 0.062358014 0.031781852 1.6020795e-38
0.068012938 0.064952902 0.03134954 1.5465447e-38
0.06478633 0.056078739 0.034256756 1.6296647e-38
0.064335138 0.058596425 0.03317827 1.5741306e-38
0.064487517 0.062445305 0.032207608 1.5463672e-38
0.064428434 0.065250449 0.030907214 1.5371113e-38
0.064489603 0.1156207 0.023896515 1.2152203e-38
0.063576266 0.11777791 0.024509668 1.455104e-38
0.060886934 0.059308 0.033370733 1.4998718e-38
0.060475647 0.062459342 0.032095611 1.5370385e-38
0.060528815 0.066355281 0.030429959 1.564912e-38
0.059584528 0.071387753 0.029510438 1.5927184e-38
0.059614509 0.075287573 0.02897048 1.592611e-38
0.061880857 0.11560074 0.023607552 1.2796817e-38
0.060966447 0.11803771 0.024181664 1.3445411e-38
0.056749254 0.062702231 0.032289922 1.5740228e-38
0.056773245 0.066898167 0.030414164 1.5740229e-38
0.056975797 0.071367808 0.029221535 1.5742059e-38
0.056995794 0.07396768 0.028861463 1.6201238e-38
0.056663394 0.11556082 0.023029566 1.2887931e-38
0.057192683 0.11803959 0.023904443 1.2429468e-38
0.05275929 0.067811064 0.03076911 1.5094525e-38
0.05299744 0.071369909 0.029002011 1.4637147e-38
0.053091437 0.075075202 0.028270602 1.3717343e-38
0.052063137 0.11097609 0.023153782 1.3530421e-38
0.052816123 0.11479378 0.022909403 1.3441476e-38
0.053211689 0.11769726 0.02397126 1.3071592e-38
0.048859209 0.068667367 0.030721605 1.4817923e-38
0.048752367 0.071501449 0.029637575 1.4174711e-38
0.049080014 0.075257592 0.028135121 1.3898462e-38
0.048557386 0.079102583 0.027202368 1.3163075e-38
0.047925189 0.081697479 0.026770115 1.2426596e-38
0.048095062 0.10379647 0.02371031 1.0759566e-38
0.048519239 0.10673916 0.023754179 1.2608476e-38
0.049184561 0.11048613 0.023803174 1.1686861e-38
0.049232632 0.1143297 0.023766816 1.0486192e-38
0.049559593 0.11723325 0.024033785 1.06677e-38
0.045938388 0.071578212 0.029989481 1.3898117e-38
0.045163423 0.075417049 0.028932571 1.3807365e-38
0.045116872 0.079091899 0.02796185 1.3070873e-38
0.045022205 0.083139539 0.027260303 1.1594701e-38
0.044634461 0.086880438 0.026841044 9.7508191e-39
0.044531018 0.090887405 0.025787413 8.6387332e-39
0.04451026 0.094821468 0.025406301 8.5468753e-39
0.044877753 0.099224545 0.025172591 8.5489996e-39
0.044757441 0.10287703 0.024626076 9.1018217e-39
0.045203179 0.10657287 0.024015903 9.4684588e-39
0.045773983 0.11038495 0.024361372 9.1925754e-39
0.04625912 0.11329708 0.024213076 8.9228128e-39
0.042264521 0.10414106 0.025041878 1.1042961e-38
0.042279541 0.10609663 0.024771094 1.1778002e-38
0.15372767 0.071522199 0.018688262 1.555911e-38
0.12796459 0.085737012 0.013222694 1.5741341e-38
0.12950514 0.094257414 0.013231754 1.5467275e-38
0.12913677 0.082027264 0.015344799 1.5742422e-38
0.1323244 0.09832523 0.01250428 1.4270168e-38
0.12926288 0.10032179 0.013218105 1.7869047e-38
0.13656452 0.10730847 0.015432298 1.6208413e-38
0.10541484 0.093223669 0.027049065 1.5189969e-38
0.11245842 0.087117814 0.030449152 1.6112273e-38
0.10351634 0.084734224 0.027828515 1.3530802e-38
0.06478633 0.056078739 0.034256756 1.6296647e-38
0.17257659 0.13262501 0.038017929 2.2659969e-38
0.17145064 0.1357235 0.038391531 2.2576067e-38
0.1707536 0.13895723 0.037947655 2.2863083e-38
0.16785178 0.13566667 0.03786999 2.2384106e-38
0.16760483 0.13931346 0.038223088 2.2577512e-38
0.16295776 0.024703231 0.053543806 1.0223267e-38
0.16301017 0.028353043 0.051587939 1.3721662e-38
0.16405146 0.13484785 0.03768599 2.1367454e-38
0.15971231 0.025398552 0.053210974 1.1513287e-38
0.15902573 0.028349888 0.051481307 1.4182281e-38
0.15951909 0.13469514 0.036692441 2.0814976e-38
0.15504918 0.027683433 0.051355124 1.3256403e-38
0.15620559 0.13538346 0.036479831 2.1733325e-38
0.15092215 0.027932301 0.050858974 1.4455994e-38
0.15167943 0.13620016 0.035859883 2.1642922e-38
0.14709924 0.028974514 0.050794184 1.6573593e-38
0.14781186 0.13602126 0.035452247 2.0814602e-38
0.14308009 0.029641934 0.050759614 1.804548e-38
0.14333475 0.031478196 0.049008489 1.8413556e-38
0.14422309 0.13602754 0.035195172 2.0536577e-38
0.14044863 0.02962181 0.050468147 1.93319e-38
0.13923073 0.03153478 0.049557328 2.0254581e-38
0.14008734 0.13524801 0.034841299 2.0535153e-38
0.13553306 0.03164652 0.04922992 2.0807766e-38
0.1364127 0.13535103 0.034778714 2.063346e-38
0.13144051 0.032740019 0.04801029 2.089889e-38
0.13217354 0.13582498 0.0340693 1.7684651e-38
0.12765294 0.032896675 0.0481745 2.062267e-38
0.1276965 0.034583561 0.046318948 1.997624e-38
0.12961312 0.13681617 0.033306181 1.2974798e-38
0.12681237 0.13834581 0.033795774 1.0406936e-38
0.12343779 0.033394959 0.047701359 2.025425e-38
0.12334071 0.034923457 0.046292365 1.9701442e-38
0.12441945 0.13669649 0.03240335 1.1511141e-38
0.11949125 0.033364769 0.047264159 2.0254598e-38
0.11941113 0.035117321 0.046130598 1.9978365e-38
0.11565518 0.035913229 0.046028614 1.9795761e-38
0.11460729 0.038405664 0.04432255 1.914718e-38
0.11183129 0.036292084 0.045902908 2.0346798e-38
0.11148414 0.039286166 0.044189155 1.8965668e-38
0.10761604 0.037237741 0.045735061 2.016133e-38
0.10779946 0.039782912 0.044610858 1.9242226e-38
0.10800689 0.042312086 0.043378711 1.8228083e-38
0.10366885 0.037207544 0.045297801 2.0252827e-38
0.10376117 0.039796583 0.044608891 1.9516283e-38
0.10407044 0.042281978 0.042942703 1.8872374e-38
0.0997217 0.037177347 0.044860542 2.0343227e-38
0.099840552 0.039755441 0.044063151 1.9516315e-38
0.10020614 0.042217731 0.042180777 1.896602e-38
0.097090244 0.037157215 0.044569075 2.0067718e-38
0.096312225 0.04017666 0.043722868 1.9056433e-38
0.096117228 0.042255804 0.042395413 1.8689439e-38
0.092515454 0.041055784 0.043514311 1.8319939e-38
0.091768205 0.043362997 0.041948378 1.8042617e-38
0.088195994 0.043526165 0.041558325 1.7766751e-38
0.084273368 0.044145539 0.040976822 1.8781256e-38
0.084493041 0.046019763 0.039893746 1.8687628e-38
0.080166489 0.044185355 0.041189194 1.8781624e-38
0.076179162 0.044172838 0.040914357 1.7672778e-38
0.076517448 0.047315121 0.039272785 1.8408885e-38
0.072146937 0.044177927 0.040801346 1.6663661e-38
0.072346643 0.047382407 0.039699972 1.7951865e-38
0.07249786 0.050800569 0.03803122 1.8228096e-38
0.069515496 0.044157796 0.04050976 1.693845e-38
0.068403274 0.047352232 0.03926307 1.7399774e-38
0.068611518 0.051205665 0.038072348 1.7491979e-38
0.067498162 0.053734221 0.036918283 1.5651673e-38
0.064282835 0.04805132 0.03938216 1.5743513e-38
0.064489678 0.051252283 0.038282096 1.6110843e-38
0.064560935 0.05425892 0.036719918 1.5928242e-38
0.064253315 0.11886174 0.027989864 1.4274477e-38
0.060848951 0.051720224 0.03831774 1.5003771e-38
0.060731128 0.055084817 0.03676343 1.5371099e-38
0.060312659 0.057601482 0.035575867 1.518593e-38
0.061969027 0.12047852 0.027509093 1.4829412e-38
0.060757682 0.1225431 0.028203428 1.4183349e-38
0.057739496 0.052590407 0.038017929 1.4916238e-38
0.056943178 0.055340521 0.037110448 1.4360921e-38
0.056979492 0.058911532 0.035246193 1.4358033e-38
0.057515308 0.12033582 0.026522934 1.2336561e-38
0.057336256 0.12178794 0.026977837 1.1510403e-38
0.053164721 0.056488968 0.036963224 1.3900295e-38
0.052909791 0.059176393 0.035798371 1.4083616e-38
0.052899241 0.062644057 0.034298122 1.5556572e-38
0.052501351 0.065386198 0.033617735 1.564697e-38
0.053579494 0.12030572 0.026086986 1.2336149e-38
0.052828699 0.12226387 0.027253985 1.1968115e-38
0.049900621 0.059741952 0.036144912 1.4175099e-38
0.048923165 0.063108772 0.035058618 1.5648754e-38
0.048516631 0.066603906 0.033764303 1.5461852e-38
0.04698965 0.11633307 0.025903404 1.0120278e-38
0.04945901 0.11935825 0.026367664 1.1044383e-38
0.045983687 0.063645542 0.035162985 1.546544e-38
0.044853136 0.067355432 0.03350395 1.5003041e-38
0.043368056 0.071853377 0.031695247 1.3713338e-38
0.042742223 0.075770833 0.031079471 1.3622977e-38
0.042782441 0.081000783 0.030355334 1.2795734e-38
0.042913109 0.097998135 0.028001904 9.469905e-39
0.043518245 0.11117984 0.026741087 1.0481173e-38
0.044627562 0.11542697 0.027797163 1.0208552e-38
0.041299671 0.068588354 0.033611953 1.4453442e-38
0.040281922 0.072050914 0.032846332 1.3714449e-38
0.04061994 0.075831138 0.031341612 1.3712671e-38
0.040496066 0.079835266 0.031277955 1.3253842e-38
0.040474832 0.083789766 0.030893862 1.2796803e-38
0.040607899 0.087662287 0.030030549 1.2517711e-38
0.040792078 0.091503106 0.02900815 1.1965973e-38
0.040925115 0.095368095 0.028146029 1.177801e-38
0.040955275 0.099290572 0.027602911 1.1220896e-38
0.040852219 0.10295054 0.02708149 1.1316323e-38
0.040613011 0.10750934 0.026673555 1.2056038e-38
0.041138455 0.11121451 0.027824581 1.25127e-38
0.038159907 0.072763987 0.033017635 1.3897434e-38
0.03785871 0.076367438 0.032481909 1.4172588e-38
0.037888944 0.080301218 0.031937182 1.3619046e-38
0.037587732 0.083904684 0.031401575 1.3163075e-38
0.037164658 0.087977402 0.030659795 1.2609553e-38
0.037197962 0.091651648 0.029601336 1.2334776e-38
0.037332922 0.095522001 0.028738618 1.2609915e-38
0.037363112 0.099450134 0.028194726 1.1967407e-38
0.037393302 0.10337824 0.027650833 1.1136573e-38
0.037388638 0.10732836 0.027212918 1.0124215e-38
0.038757503 0.10993517 0.026889861 1.1596458e-38
0.033282131 0.088592008 0.030267 1.3802343e-38
0.033078328 0.091717549 0.029695868 1.2702839e-38
0.033108547 0.095651127 0.029151201 1.2519153e-38
0.033138797 0.099583857 0.028606594 1.0674521e-38
0.033169031 0.10351724 0.028062046 8.7437717e-39
0.033159092 0.10681655 0.027714252 8.4679191e-39
0.030411735 0.091716886 0.029510558 1.3716244e-38
0.03044197 0.09565068 0.02896589 1.33471e-38
0.030472219 0.099584453 0.028421223 1.0673095e-38
0.030512542 0.10482951 0.027695 8.7444976e-39
0.12581983 0.085321732 0.01316762 1.7308677e-38
0.1249887 0.080658682 0.01664263 2.0627706e-38
0.11656503 0.081852712 0.016122997 2.0626275e-38
0.13772279 0.092183538 0.0222404 1.1414253e-38
0.11381717 0.057460226 0.026906371 9.8469117e-39
0.10878631 0.057219945 0.033727825 1.6294862e-38
0.15236969 0.13366342 0.03324312 2.1000063e-38
0.064428434 0.065250449 0.030907214 1.5371113e-38
0.1073906 0.045260683 0.042974293 1.3624416e-38
0.10612795 0.051928878 0.042111039 1.3624784e-38
0.11949125 0.033364769 0.047264159 2.0254598e-38
0.11941113 0.035117321 0.046130598 1.9978365e-38
0.16632542 0.022174194 0.057447255 8.0116129e-39
0.16646126 0.023416337 0.05627352 8.5647937e-39
0.16602129 0.13781431 0.040286541 2.2477368e-38
0.16735597 0.13979694 0.040159583 2.2670424e-38
0.1623612 0.022143867 0.057008147 9.0282998e-39
0.16118322 0.023375958 0.055688858 9.9470359e-39
0.16306189 0.13736165 0.040424943 2.2198996e-38
0.16330501 0.13926962 0.040457129 2.2844356e-38
0.15971841 0.022123642 0.05671525 9.3020322e-39
0.15806942 0.024692338 0.055495799 1.0868292e-38
0.15957533 0.13743052 0.040431738 2.1276329e-38
0.15863736 0.1393145 0.040267408 2.1920959e-38
0.15482619 0.025687654 0.055417657 1.1417868e-38
0.15532371 0.13797233 0.040083885 2.1824454e-38
0.15054907 0.025977522 0.054814279 1.3347849e-38
0.15282619 0.13771337 0.038824856 2.1641855e-38
0.15070894 0.13925385 0.039389193 2.1181581e-38
0.14658675 0.025947209 0.054375291 1.436524e-38
0.14669895 0.027210031 0.053534865 1.5191056e-38
0.14715451 0.13943502 0.038458526 2.1458537e-38
0.14257054 0.025943004 0.05426544 1.5837129e-38
0.14271852 0.02785062 0.053169668 1.7217889e-38
0.14324477 0.1396268 0.03809613 2.0720974e-38
0.13992774 0.025922779 0.053972661 1.8413185e-38
0.13856377 0.028328903 0.052849948 1.9614597e-38
0.13963109 0.13761243 0.037363172 2.0257475e-38
0.1395206 0.13943705 0.037858427 1.9987362e-38
0.13504261 0.029485434 0.052675962 2.0810287e-38
0.13353418 0.031054195 0.051526904 2.0900325e-38
0.13567257 0.13758215 0.03692466 2.0447983e-38
0.1355128 0.13913763 0.037705958 2.0172131e-38
0.1293869 0.029792674 0.052254558 2.1272708e-38
0.13089515 0.031034004 0.051234543 2.1174767e-38
0.13303354 0.13756195 0.036632359 2.0262159e-38
0.13154858 0.13910729 0.037266791 1.7775402e-38
0.12740479 0.029777508 0.052034974 2.1268747e-38
0.12660928 0.03132996 0.050713956 2.1081131e-38
0.12852912 0.13944256 0.036543727 1.1875291e-38
0.12410128 0.02975224 0.051669061 2.1356285e-38
0.12292016 0.031659491 0.050594032 2.089674e-38
0.12374416 0.13888642 0.035747468 1.1878488e-38
0.11977744 0.031884253 0.050549865 2.0441144e-38
0.11554253 0.033637293 0.0501706 2.0255301e-38
0.1104731 0.03482265 0.048422694 2.0987153e-38
0.10639906 0.033521932 0.048656106 2.0250649e-38
0.10714425 0.035470121 0.048129499 2.0623366e-38
0.10452518 0.033462193 0.04794699 2.0990697e-38
0.103223 0.035706453 0.047488749 2.0622301e-38
0.09922497 0.035409532 0.047252297 2.0625178e-38
0.095484018 0.036323398 0.046943605 2.0068067e-38
0.094452754 0.039083295 0.046037436 1.9332656e-38
0.091787666 0.037406109 0.046988785 1.9979443e-38
0.09112227 0.039586864 0.045885026 1.878127e-38
0.087342411 0.039938323 0.045461655 1.8780174e-38
0.083468646 0.040533379 0.044606924 1.9146808e-38
0.083483815 0.042505927 0.044333816 1.8965291e-38
0.079301074 0.040585682 0.044980049 1.9149329e-38
0.079525292 0.042475648 0.043895245 1.9058221e-38
0.075300485 0.041230522 0.044612169 1.804048e-38
0.075480729 0.042479388 0.043780982 1.785573e-38
0.072657704 0.041210301 0.044319272 1.740119e-38
0.071346402 0.042517118 0.043990612 1.6845872e-38
0.067137539 0.044607781 0.042551398 1.6569312e-38
0.064098939 0.045095354 0.042820871 1.6015426e-38
0.063629821 0.046335481 0.041918337 1.5833553e-38
0.06402038 0.1208133 0.0322631 1.556699e-38
0.063511953 0.12267513 0.031438947 1.7866132e-38
0.059875399 0.048441827 0.041475892 1.3528626e-38
0.058916956 0.050646059 0.040452182 1.4637137e-38
0.061402902 0.12408539 0.031514466 1.6389951e-38
0.05596967 0.05153922 0.040336609 1.491336e-38
0.054550648 0.054776691 0.039388359 1.3623005e-38
0.056073546 0.12415237 0.029893398 1.2062135e-38
0.052600235 0.05506222 0.039807618 1.3162388e-38
0.050617367 0.058033995 0.038494647 1.3805964e-38
0.047769219 0.059752323 0.038698614 1.4082181e-38
0.046689183 0.061948813 0.037509918 1.4634613e-38
0.043639153 0.0633296 0.037653625 1.5554769e-38
0.042760983 0.065863647 0.03652519 1.5741336e-38
0.041121185 0.064013816 0.037615299 1.5648399e-38
0.039648712 0.067224257 0.036495388 1.4913718e-38
0.039518744 0.11338323 0.03055799 1.2976914e-38
0.041510984 0.1147153 0.030595243 1.1771231e-38
0.036942273 0.068884097 0.036215425 1.3345997e-38
0.036026046 0.072475359 0.035460293 1.3438967e-38
0.035324782 0.076124288 0.034670353 1.3805961e-38
0.035355166 0.08007165 0.034123778 1.3624434e-38
0.034985438 0.084213562 0.033099055 1.3346381e-38
0.035005659 0.08684364 0.032734871 1.2977257e-38
0.036293998 0.11198369 0.030102134 9.9412849e-39
0.03296116 0.076790623 0.0349226 1.3346764e-38
0.032658607 0.080409646 0.034384608 1.3805187e-38
0.032407269 0.08454638 0.033780217 1.408249e-38
0.03195931 0.087191112 0.032599688 1.4264009e-38
0.032538503 0.10917906 0.029347241 8.5601287e-39
0.032563671 0.11102553 0.030108631 8.8360122e-39
0.028512895 0.089223638 0.032438993 1.4177594e-38
0.027680248 0.092105694 0.031521142 1.3993551e-38
0.027764887 0.096023493 0.030815482 1.344108e-38
0.027632743 0.1000615 0.030746043 1.0399388e-38
0.028170392 0.10384163 0.030237198 8.7438011e-39
0.028790638 0.10752902 0.029835165 7.9151027e-39
0.025507331 0.095498644 0.031482637 1.298439e-38
0.086891174 0.10234465 0.0055857301 2.053226e-38
0.15900737 0.090544067 0.017771363 1.2614599e-38
0.15877271 0.066516049 0.020965636 1.6755473e-38
0.12853166 0.08945515 0.015957117 1.6201952e-38
0.10962678 0.080918774 0.028361559 1.3900652e-38
0.15224054 0.036143124 0.042582393 2.0077035e-38
0.10623407 0.050382011 0.038670003 1.5468722e-38
0.11618873 0.093151525 0.035193324 1.9058939e-38
0.10612795 0.051928878 0.042111039 1.3624784e-38
0.16275083 0.020973913 0.059246302 8.1949588e-39
0.16367476 0.14115718 0.042605877 2.294409e-38
0.1633807 0.14308009 0.042982459 2.3040264e-38
0.15928087 0.018623933 0.061471343 8.1016869e-39
0.15910909 0.02127621 0.058796883 8.9325224e-39
0.15813804 0.024240173 0.058275402 1.0316903e-38
0.16029277 0.14092296 0.042768121 2.2293329e-38
0.16015452 0.14352259 0.043575644 2.2573548e-38
0.15591325 0.01936911 0.061752677 8.6559299e-39
0.15514606 0.022153661 0.059374392 1.0038846e-38
0.15460591 0.024433251 0.05785346 1.0957948e-38
0.15539515 0.14059749 0.042048097 2.1735126e-38
0.15614252 0.14420941 0.043256998 2.2663908e-38
0.15733916 0.14714476 0.044110596 1.9802574e-38
0.1511219 0.022393458 0.06034404 1.0681703e-38
0.15085459 0.024844762 0.057376564 1.2152887e-38
0.15196553 0.14062741 0.041370094 2.1365973e-38
0.15212396 0.14423364 0.043029964 2.2291181e-38
0.15268111 0.14710912 0.043594599 2.1461755e-38
0.14712106 0.023034398 0.059920132 1.3167391e-38
0.14838478 0.14112142 0.041239381 2.1366691e-38
0.14844289 0.14398205 0.043556273 2.1646538e-38
0.14349037 0.023325566 0.059304118 1.4548538e-38
0.14356604 0.024789009 0.056569219 1.5010607e-38
0.14445952 0.1410102 0.040477335 2.1181942e-38
0.14445806 0.14330325 0.041986167 2.1645818e-38
0.13913904 0.0251435 0.056786478 1.7036014e-38
0.14048395 0.14097977 0.040036917 2.0538743e-38
0.14005315 0.14388633 0.04136157 2.2203644e-38
0.14003786 0.14701238 0.042194068 2.2010331e-38
0.13508287 0.026474733 0.056655347 1.8692324e-38
0.1349777 0.028024849 0.0551579 2.0166741e-38
0.13645178 0.14103013 0.039917469 2.0905385e-38
0.136136 0.1441659 0.041477025 2.2383005e-38
0.13155164 0.027210236 0.057427704 1.9246934e-38
0.13133849 0.029218879 0.054990828 2.1084377e-38
0.13173999 0.14109561 0.039804637 1.8603729e-38
0.13203226 0.14429858 0.041676819 2.1185193e-38
0.12714234 0.027548768 0.057395339 1.9893026e-38
0.12689877 0.029015958 0.054878056 2.1267322e-38
0.12656946 0.14087334 0.038495541 1.1141643e-38
0.12800708 0.14381525 0.039973319 1.4736172e-38
0.12672919 0.14691058 0.040719807 1.3171731e-38
0.12333439 0.02710668 0.056015253 1.9891243e-38
0.1232968 0.028967585 0.054228008 2.1082942e-38
0.12391908 0.14085305 0.038201928 1.2154361e-38
0.12416016 0.14403448 0.039309442 1.4003279e-38
0.12539831 0.14690042 0.040572405 1.0222256e-38
0.11972407 0.026995674 0.055965543 1.9429541e-38
0.11961992 0.029283807 0.053942084 2.0623031e-38
0.11843821 0.031199865 0.052865744 2.0531542e-38
0.1209809 0.14047158 0.038265049 1.3995708e-38
0.12080917 0.14342684 0.040035129 1.6765915e-38
0.11540404 0.030015647 0.054610133 2.1084346e-38
0.11579798 0.032500289 0.052389324 2.0440424e-38
0.11146462 0.030877162 0.055178285 2.0990012e-38
0.11172588 0.033173908 0.052347839 2.0897819e-38
0.10720992 0.031375114 0.054633021 2.0807431e-38
0.10799059 0.033022176 0.052052975 2.0802399e-38
0.10327335 0.032845795 0.052210152 2.1081105e-38
0.099643171 0.033140779 0.051678479 2.0990724e-38
0.095694572 0.033336416 0.052259266 2.0714508e-38
0.094615281 0.03497947 0.049674809 2.006807e-38
0.091576755 0.034668654 0.051071346 2.0528674e-38
0.09224543 0.035975456 0.049524963 2.052939e-38
0.087752044 0.035019688 0.049917579 2.0529388e-38
0.087885931 0.036956213 0.049154699 2.0253885e-38
0.083770797 0.03498923 0.049476504 1.9885441e-38
0.08390753 0.036925785 0.048713982 1.9792195e-38
0.082719028 0.038850322 0.047805011 1.9515603e-38
0.079292268 0.035140388 0.050986171 1.9331904e-38
0.079545826 0.037251085 0.048979044 1.9330492e-38
0.080068648 0.038830049 0.047511458 1.9330492e-38
0.076630533 0.035120018 0.050691307 1.8686204e-38
0.075470746 0.037476376 0.048963547 1.8594367e-38
0.075438112 0.03978508 0.046860516 1.8411055e-38
0.07161586 0.03762576 0.048652709 1.7582731e-38
0.071160331 0.040556133 0.046613216 1.7307933e-38
0.068228886 0.038592488 0.049267828 1.6567866e-38
0.06758894 0.04114335 0.047244787 1.6570019e-38
0.06817241 0.042700902 0.04564172 1.6755841e-38
0.063645095 0.042447835 0.048218131 1.6291628e-38
0.064115956 0.044025779 0.045342028 1.6107609e-38
0.064525455 0.12080476 0.035368323 1.4369929e-38
0.065003917 0.12357978 0.034744978 1.8604078e-38
0.064211369 0.12705269 0.035817206 2.0904296e-38
0.059390426 0.042945795 0.047672927 1.6014692e-38
0.060098037 0.044673003 0.044971764 1.5646607e-38
0.059589148 0.046597086 0.044138968 1.491009e-38
0.062175944 0.12453332 0.03357023 1.7957999e-38
0.060503066 0.12746334 0.034329414 1.7590989e-38
0.056728691 0.04292544 0.047378004 1.472648e-38
0.055709615 0.045006998 0.045232713 1.4541346e-38
0.056286335 0.047892444 0.043589175 1.4359464e-38
0.056644678 0.12733307 0.033464551 1.3165967e-38
0.057401672 0.13046488 0.035257399 1.509847e-38
0.051927745 0.046249278 0.045565367 1.4173622e-38
0.051865518 0.049127392 0.043938518 1.4085032e-38
0.052294537 0.052063383 0.042730808 1.4265845e-38
0.051036328 0.054455362 0.042087555 1.2422323e-38
0.053326964 0.12748274 0.03386271 1.2521301e-38
0.048464283 0.049825169 0.04549247 1.3254232e-38
0.047819436 0.053334735 0.043802738 1.2331547e-38
0.048302621 0.056456648 0.041841626 1.3344274e-38
0.046211183 0.058820508 0.040939748 1.3987454e-38
0.049385875 0.12642473 0.034923792 1.2152136e-38
0.044837549 0.054107822 0.044490159 1.2883284e-38
0.043681934 0.056892611 0.042812169 1.3896343e-38
0.043922946 0.059947543 0.040526807 1.4080372e-38
0.040635765 0.058191128 0.04277426 1.4080019e-38
0.039855778 0.060780875 0.041407108 1.3988903e-38
0.04017204 0.063286416 0.039642155 1.5095231e-38
0.039201006 0.066250376 0.039120674 1.5556944e-38
0.040578172 0.11611424 0.032327652 1.2515235e-38
0.040111944 0.11867277 0.033747613 1.3901349e-38
0.036471605 0.062222533 0.042424023 1.4170412e-38
0.036365986 0.064569607 0.040459871 1.4542063e-38
0.035964116 0.067045584 0.038851023 1.3714088e-38
0.036775947 0.1158595 0.032445848 1.2061075e-38
0.032946393 0.06529022 0.041602373 1.4357668e-38
0.032234967 0.068134554 0.039820552 1.2519853e-38
0.032509789 0.071529739 0.037975252 1.2520589e-38
0.031649709 0.075106777 0.03704226 1.2796838e-38
0.032606721 0.11341202 0.031812668 9.2058835e-39
0.032533973 0.11600117 0.03279829 1.0036732e-38
0.031887636 0.11877912 0.033625662 1.224618e-38
0.028318942 0.069233648 0.04053545 1.150752e-38
0.028162152 0.071904786 0.039129972 1.1413545e-38
0.028618544 0.075976439 0.037136197 1.2243309e-38
0.028283805 0.079862677 0.036728859 1.3442537e-38
0.028587773 0.08340966 0.035994589 1.4083949e-38
0.027900055 0.08706294 0.035160303 1.4453446e-38
0.028398514 0.11157664 0.031936288 8.5612302e-39
0.028656349 0.11461309 0.033032 9.7586972e-39
0.025022358 0.073187269 0.039615989 1.1227688e-38
0.024903417 0.075922735 0.038002551 1.1412444e-38
0.023959652 0.079705946 0.037911713 1.2242588e-38
0.024136215 0.083609298 0.036936104 1.3254193e-38
0.024426922 0.08771579 0.035595179 1.371697e-38
0.023826092 0.09159293 0.034479856 1.3258517e-38
0.023768529 0.094900154 0.033657193 1.2426223e-38
0.024215147 0.099151172 0.032860875 1.0675952e-38
0.024245605 0.10311326 0.032312334 8.4675688e-39
0.024561495 0.1072662 0.031769097 7.3626449e-39
0.024532095 0.11130971 0.032556891 7.7318268e-39
0.024673045 0.11429919 0.03384918 9.3013217e-39
0.020415336 0.07978341 0.038181782 1.159937e-38
0.01994811 0.08392445 0.037552595 1.2428766e-38
0.021141917 0.087746635 0.037153602 1.3534028e-38
0.020727932 0.091606401 0.035892308 1.3348935e-38
0.020538658 0.095595285 0.034468889 1.2334403e-38
0.020569071 0.099308454 0.033447146 1.0491564e-38
0.020673364 0.10323393 0.032686114 8.4679121e-39
0.020630062 0.10724393 0.032348394 7.1775334e-39
0.020438582 0.111346 0.032432675 6.4414439e-39
0.019349575 0.11425848 0.033259511 8.7445354e-39
0.016220003 0.096661352 0.035361171 1.2243268e-38
0.015985101 0.099602111 0.03469944 1.0770292e-38
0.016618311 0.10324574 0.032456756 8.7427193e-39
0.016648814 0.10721349 0.03190738 7.9140265e-39
0.016453564 0.1113155 0.031991184 7.6396102e-39
0.016292647 0.11476559 0.032846987 8.9317923e-39
0.010566369 0.096949674 0.034688652 1.0128863e-38
0.011699229 0.10005298 0.034382999 1.0033078e-38
0.012637079 0.10321528 0.032015681 9.3873433e-39
0.0092354715 0.096939482 0.034541249 9.4784753e-39
0.0087071508 0.099525668 0.033783257 8.92817e-39
0.009319365 0.10318991 0.031648219 8.9295867e-39
0.0088837445 0.10741667 0.032364964 8.2817174e-39
0.090943888 0.11058637 0.0049986839 2.2102859e-38
0.1198412 0.084178187 0.015166759 1.5282508e-38
0.14441621 0.10981644 0.022100568 1.7679258e-38
0.17271465 0.046488933 0.035924852 2.2658539e-38
0.10595734 0.073860176 0.029978633 1.6202675e-38
0.060966447 0.11803771 0.024181664 1.3445411e-38
0.1575336 0.017237347 0.063246727 7.824384e-39
0.15976822 0.14625257 0.046199739 2.3402165e-38
0.15977845 0.14758208 0.04601568 1.8971029e-38
0.15485081 0.015202153 0.066447079 7.6414221e-39
0.15438333 0.018120792 0.063109994 8.4708198e-39
0.15506704 0.14829475 0.045727968 1.8503249e-38
0.15094322 0.016116414 0.066729128 8.1956398e-39
0.150635 0.018624298 0.063975096 9.115078e-39
0.15138528 0.1483202 0.044635475 2.1749874e-38
0.14647561 0.018660851 0.064520538 1.0497319e-38
0.14690211 0.02114052 0.06151402 1.1510037e-38
0.14691915 0.14562842 0.044510961 2.2206913e-38
0.14787242 0.14830992 0.04573375 2.3050348e-38
0.14226186 0.020057142 0.06520927 1.2336943e-38
0.14251389 0.021695774 0.061758518 1.3812413e-38
0.14348833 0.14569208 0.044033766 2.2579639e-38
0.14362429 0.14904264 0.045021236 2.3234019e-38
0.13958119 0.020036627 0.06491226 1.2801491e-38
0.13881782 0.022691417 0.062044322 1.4826203e-38
0.14119817 0.1459443 0.043488503 2.2943042e-38
0.13981612 0.14815962 0.04343158 2.0736488e-38
0.13459894 0.022752162 0.062833905 1.4733286e-38
0.13488086 0.025058918 0.059962213 1.6945974e-38
0.13576987 0.14806309 0.043263495 1.4363535e-38
0.130312 0.02326712 0.06291759 1.325926e-38
0.1305722 0.02557791 0.059678912 1.6760166e-38
0.13185863 0.14454469 0.042638958 2.2116496e-38
0.1315221 0.14839965 0.043080151 1.3803475e-38
0.12658584 0.023591481 0.06270963 1.3535857e-38
0.12679595 0.025699954 0.059476674 1.7406991e-38
0.12794754 0.14882368 0.042240262 1.232619e-38
0.12224494 0.023218028 0.062191486 1.3537263e-38
0.12287264 0.025503486 0.058625042 1.759137e-38
0.12284526 0.14763442 0.043232083 7.6227862e-39
0.11819318 0.02319967 0.061910331 1.2338042e-38
0.11853653 0.025871374 0.058698297 1.6944572e-38
0.11850549 0.1411221 0.041622341 1.3721991e-38
0.11933476 0.14498013 0.04117763 1.8701603e-38
0.11503577 0.023410752 0.061697066 1.177731e-38
0.11453864 0.026371747 0.059310079 1.7493781e-38
0.11583996 0.14110175 0.041327119 1.3438276e-38
0.11585528 0.14309412 0.041051269 1.8147419e-38
0.11023533 0.026454717 0.060284555 1.8969285e-38
0.11059691 0.029184621 0.056586802 2.1357724e-38
0.10640815 0.02680815 0.059823394 2.0990738e-38
0.10684603 0.029522985 0.056543529 2.1450285e-38
0.10210831 0.027096376 0.059737802 2.0437904e-38
0.10270631 0.030211225 0.056661785 2.0713774e-38
0.098092437 0.027733512 0.05919987 2.0251347e-38
0.098724723 0.030171305 0.05610913 2.0529399e-38
0.094071448 0.027702749 0.058754444 1.9790048e-38
0.094669268 0.030159418 0.05588305 2.0345389e-38
0.093683571 0.032686867 0.05395335 2.0251379e-38
0.090050429 0.027671993 0.058309078 1.924155e-38
0.09048219 0.030193832 0.056200027 1.9793639e-38
0.090755582 0.033195727 0.053555012 2.0436837e-38
0.087369785 0.027651474 0.058012009 1.8597983e-38
0.086455673 0.030396517 0.056511581 1.9608163e-38
0.086906195 0.033343568 0.053611815 2.0343209e-38
0.082276165 0.030865043 0.055978835 1.9241882e-38
0.082905084 0.033312961 0.053168595 1.9701783e-38
0.078903973 0.033282354 0.052725375 1.9058923e-38
0.073997259 0.031556316 0.055972457 1.6661882e-38
0.074485719 0.03383626 0.053169906 1.8043723e-38
0.07064642 0.031530671 0.055601239 1.6293818e-38
0.070429713 0.03404697 0.053533435 1.7491613e-38
0.066359431 0.034484714 0.053984702 1.5465807e-38
0.066532329 0.037380941 0.050601482 1.6198727e-38
0.06761694 0.12824056 0.038289905 2.1825861e-38
0.066725433 0.13167897 0.041210234 2.0812748e-38
0.062635228 0.035476513 0.054155529 1.454675e-38
0.062557533 0.03794197 0.051658809 1.5003415e-38
0.062760666 0.040751331 0.049371421 1.6106529e-38
0.06377545 0.12941405 0.037132561 2.1181225e-38
0.062354922 0.13245982 0.040273964 2.044114e-38
0.058829337 0.038417123 0.051796436 1.3897087e-38
0.059051663 0.041071713 0.049081326 1.5555158e-38
0.059452385 0.13174623 0.03855896 1.7496278e-38
0.055294186 0.039427489 0.052784085 1.3071997e-38
0.054740995 0.041816086 0.049632192 1.4816875e-38
0.055231079 0.13157916 0.037906945 1.3993906e-38
0.051142648 0.042292677 0.051514208 1.4729337e-38
0.05072391 0.044670217 0.047733247 1.3899569e-38
0.050964981 0.12876529 0.036298096 1.2612727e-38
0.051454335 0.13144785 0.039026499 1.2887945e-38
0.047953188 0.043378457 0.051412582 1.28865e-38
0.046933606 0.046015128 0.048899591 1.3434652e-38
0.046308786 0.049347259 0.046537042 1.2609926e-38
0.046614856 0.12492598 0.038208783 1.0861812e-38
0.047634467 0.12858051 0.038236976 1.27028e-38
0.043957829 0.046687171 0.050504804 1.2884327e-38
0.043239787 0.049792133 0.047960281 1.2885388e-38
0.042733878 0.053391494 0.045660913 1.2976901e-38
0.044563711 0.12549871 0.039592564 1.1691559e-38
0.045249283 0.12750754 0.039389431 1.3347833e-38
0.040118366 0.050607733 0.049021304 1.2885776e-38
0.039274767 0.054073177 0.047326744 1.3346748e-38
0.038720876 0.057335712 0.04518491 1.4907972e-38
0.039979488 0.12098482 0.03589952 1.5375022e-38
0.038674161 0.12400933 0.038633466 1.6664e-38
0.035982564 0.055308275 0.048411787 1.3989984e-38
0.035301909 0.05764053 0.046849728 1.4081459e-38
0.034714788 0.061055817 0.043744564 1.4172919e-38
0.033954382 0.064105876 0.042895973 1.426548e-38
0.035234898 0.12100235 0.035620391 1.5102065e-38
0.036025196 0.12383378 0.038260162 1.6393872e-38
0.032316566 0.0587999 0.047176719 1.3346035e-38
0.031303376 0.061688893 0.04496789 1.3808081e-38
0.030899391 0.064667456 0.042882442 1.3804851e-38
0.030642912 0.06673687 0.042159081 1.2978335e-38
0.031821683 0.12103007 0.035488725 1.4090793e-38
0.031919777 0.12332601 0.038142622 1.5011312e-38
0.027823746 0.062860496 0.045939207 1.2887949e-38
0.02731964 0.064988576 0.044062614 1.1965278e-38
0.026989281 0.067717008 0.042049289 1.1138026e-38
0.026008844 0.070685916 0.041090667 1.1228422e-38
0.027282402 0.11690178 0.035048306 1.0959386e-38
0.027483329 0.11994123 0.035663068 1.3075561e-38
0.027794108 0.12336687 0.038014174 1.4737225e-38
0.023826078 0.065499462 0.045124531 1.0309339e-38
0.023280621 0.068310209 0.043317497 1.0215358e-38
0.022980094 0.071915604 0.041215479 1.0952909e-38
0.022382021 0.075638779 0.039994955 1.1045435e-38
0.023175493 0.11641044 0.035419405 1.1142674e-38
0.023929611 0.12049187 0.036241055 1.4639277e-38
0.019667089 0.068861715 0.044263422 9.2951827e-39
0.019079134 0.072372474 0.042958856 9.2984449e-39
0.019163206 0.076046579 0.040255427 1.0214649e-38
0.018083751 0.079922445 0.038917542 1.1138393e-38
0.018104196 0.08257892 0.038549662 1.1875597e-38
0.018811405 0.08789698 0.037887931 1.3440401e-38
0.018175647 0.091876619 0.037262321 1.3256366e-38
0.018196076 0.094533093 0.036894441 1.2607408e-38
0.01969552 0.11629549 0.035384715 1.160441e-38
0.020556062 0.11919857 0.0372774 1.62963e-38
0.0161843 0.073115192 0.043208778 8.465813e-39
0.015377417 0.076218367 0.041162431 9.1093747e-39
0.015154362 0.080021597 0.039366007 1.0310059e-38
0.015335262 0.083940066 0.038388908 1.123095e-38
0.01517804 0.088018455 0.03836745 1.3071278e-38
0.015396774 0.091912881 0.03728503 1.2978695e-38
0.015268102 0.095041968 0.036496103 1.2333314e-38
0.015564591 0.11707775 0.03467828 1.077608e-38
0.015367791 0.1190531 0.036209583 1.2339791e-38
0.011330158 0.07381963 0.043075621 5.8897079e-39
0.011881471 0.07662075 0.042311788 7.912272e-39
0.011169359 0.080287181 0.040802181 9.4806501e-39
0.011314347 0.084233716 0.039929986 1.0035266e-38
0.011322498 0.088293433 0.038591325 1.2610275e-38
0.011167288 0.091996819 0.037477493 1.1781933e-38
0.011707827 0.095645599 0.036013842 1.1138718e-38
0.012010559 0.098912992 0.035592496 1.0677732e-38
0.010783315 0.11262796 0.033544481 8.2871712e-39
0.011580884 0.115803 0.033529937 9.1161794e-39
0.012427017 0.11991666 0.036166608 1.1694054e-38
0.013050467 0.12325407 0.036380947 1.142246e-38
0.0087008178 0.08047808 0.041854024 7.4573895e-39
0.0082672685 0.084716149 0.04101181 9.2083554e-39
0.0083038211 0.088054359 0.039738238 1.1138707e-38
0.0081668794 0.09230639 0.037098885 9.1071817e-39
0.0080052316 0.095553182 0.035815716 8.3739312e-39
0.0083247125 0.11153931 0.033827543 7.6374788e-39
0.0081743598 0.11601967 0.034303844 8.4701177e-39
0.0084544718 0.12047697 0.035915196 9.8559333e-39
0.12022741 0.076427594 0.016459107 1.5833881e-38
0.11056267 0.10136367 0.019184232 1.1776927e-38
0.10536104 0.061977647 0.029719114 1.2613471e-38
0.10761604 0.037237741 0.045735061 2.016133e-38
0.15305129 0.014049102 0.069623232 7.7321898e-39
0.14177769 0.018922284 0.068360746 1.1417861e-38
0.1375404 0.019398391 0.067414165 1.2155411e-38
0.13657978 0.02149329 0.066405296 1.3904597e-38
0.13379145 0.019496817 0.066879451 1.1050846e-38
0.13254741 0.021462444 0.065958679 1.3629072e-38
0.12967388 0.020171065 0.066833138 1.0595611e-38
0.12980086 0.021465413 0.065989673 1.2431629e-38
0.12563585 0.020140175 0.066385806 9.5804043e-39
0.12548947 0.021973029 0.065504432 1.1878827e-38
0.12159781 0.020109281 0.065938413 1.0131061e-38
0.12179446 0.021380182 0.06476754 1.1692273e-38
0.11890578 0.020088684 0.065640211 1.0408698e-38
0.11776209 0.021349333 0.064320743 1.1966715e-38
0.11338969 0.02241664 0.064089477 1.2145694e-38
0.10990171 0.023461927 0.063553691 1.3987805e-38
0.10625318 0.023978122 0.063175321 1.9518829e-38
0.10502385 0.025270347 0.062349916 2.08085e-38
0.10144886 0.025320619 0.062958956 2.0346796e-38
0.097568661 0.026579298 0.06167233 2.0253513e-38
0.093609124 0.026522502 0.06089884 1.9699649e-38
0.089576766 0.026491657 0.060452104 1.9056064e-38
0.085431337 0.02716944 0.060401976 1.8046598e-38
0.084220871 0.029129654 0.059485614 1.9517038e-38
0.081952304 0.027854212 0.060425401 1.7865076e-38
0.0822047 0.029114228 0.059262276 1.9424478e-38
0.079933271 0.027838763 0.060201824 1.666549e-38
0.078679204 0.029142775 0.059541166 1.7307243e-38
0.074691415 0.029768128 0.058838785 1.5833916e-38
0.071462035 0.030371536 0.057885647 1.555804e-38
0.067308053 0.031722758 0.057740688 1.5834221e-38
0.06723538 0.13432959 0.043132782 1.9152547e-38
0.062683612 0.03367532 0.056697607 1.3438964e-38
0.06363216 0.13439494 0.04312706 2.0812425e-38
0.059804931 0.035732999 0.056850851 1.2789612e-38
0.058687046 0.13486966 0.042406261 1.7033513e-38
0.057886377 0.1363211 0.042622387 1.6205561e-38
0.054632127 0.038758337 0.055173516 1.3713415e-38
0.055291817 0.13433114 0.042203128 1.5375414e-38
0.054521337 0.13629535 0.04224962 1.6113e-38
0.052044362 0.039599374 0.054428339 1.4816137e-38
0.049751088 0.041021571 0.054989576 1.390134e-38
0.051283568 0.13414329 0.041679442 1.3717012e-38
0.051500529 0.13727826 0.041774869 1.6577942e-38
0.046878487 0.042289883 0.053983629 1.2425881e-38
0.046024054 0.13063821 0.041071653 1.3257075e-38
0.047983363 0.13272002 0.041254699 1.2797203e-38
0.04248853 0.046295546 0.053103864 1.260883e-38
0.042601943 0.12257511 0.041812301 1.0671998e-38
0.042368621 0.12534031 0.041807234 1.2703531e-38
0.038043082 0.049986258 0.052431226 1.2797184e-38
0.037362039 0.052881889 0.050935745 1.2979045e-38
0.039475128 0.12554753 0.041628897 1.5744873e-38
0.037634313 0.12811792 0.04150027 1.6947372e-38
0.034560457 0.054247215 0.05083859 1.3438955e-38
0.03523761 0.12620237 0.040483236 1.6760509e-38
0.034942254 0.12809736 0.041202188 1.7035288e-38
0.031693354 0.0556385 0.050933599 1.2699618e-38
0.030285507 0.057967328 0.049842179 1.2701039e-38
0.031045079 0.1259456 0.04055804 1.5286101e-38
0.032255381 0.12874746 0.040811062 1.537614e-38
0.027686268 0.059631951 0.049929082 1.2240419e-38
0.026149154 0.061472401 0.049297571 1.2701767e-38
0.023335055 0.063131534 0.04861623 1.1230219e-38
0.02183342 0.064885549 0.048034608 1.0036325e-38
0.018295079 0.063584231 0.048328221 7.8268769e-39
0.018476367 0.065529607 0.047569394 8.3771654e-39
0.017985553 0.06746798 0.046736598 8.4679317e-39
0.018937141 0.12114035 0.039771795 1.6206624e-38
0.01560308 0.06356363 0.048029959 7.0846511e-39
0.014611617 0.06590344 0.047593057 7.0835763e-39
0.014485046 0.068842635 0.046605051 6.9006298e-39
0.014056861 0.072288789 0.04582876 7.6378319e-39
0.014870882 0.12135378 0.039388835 1.3079147e-38
0.013718829 0.12436339 0.03833282 1.0315094e-38
0.010912657 0.066210493 0.047136605 9.2911805e-39
0.011606261 0.068898544 0.046839774 5.3350894e-39
0.010968074 0.073127449 0.045772791 6.2566813e-39
0.0093157142 0.076108292 0.044563234 6.7112079e-39
0.010337919 0.12165857 0.038331568 1.1145548e-38
0.011028856 0.12411956 0.03806597 1.0497638e-38
0.0071631074 0.077150419 0.044989884 7.258272e-39
0.0066635311 0.080776192 0.043616235 5.6152734e-39
0.0066841096 0.083455317 0.043245316 8.006606e-39
0.0083371699 0.12365247 0.037829936 9.6675749e-39
0.12733239 0.078367829 0.013766646 8.1920805e-39
0.15902326 0.097155847 0.017740846 1.2890465e-38
0.15653351 0.078787766 0.020910263 1.5836053e-38
0.12255444 0.087789893 0.016772985 1.4635343e-38
0.12088579 0.071421377 0.018142581 1.5925369e-38
0.10940877 0.094630837 0.025241733 9.8425985e-39
0.10601006 0.058831938 0.030356944 1.3439303e-38
0.034537911 0.11735413 0.036177635 1.2429117e-38
0.13335262 0.017649055 0.069627523 9.8523515e-39
0.12919204 0.018334318 0.069743991 8.6559649e-39
0.12516865 0.018292181 0.069130599 7.7314947e-39
0.12136878 0.018404618 0.068791449 8.0984471e-39
0.1171089 0.01978942 0.067851186 1.0037774e-38
0.11370239 0.02022405 0.067578971 1.0223257e-38
0.11158729 0.021589935 0.067660034 1.2240741e-38
0.10895576 0.021994215 0.066970944 1.362294e-38
0.10498197 0.023285586 0.066007853 1.8874899e-38
0.10190994 0.023498584 0.065803885 1.9886901e-38
0.098480552 0.023828033 0.065628409 1.9889759e-38
0.097644985 0.025446758 0.064547598 2.0071643e-38
0.093751997 0.023791872 0.065104663 1.7772907e-38
0.094270498 0.025420945 0.064173818 1.9151518e-38
0.089976758 0.023579866 0.064965963 1.546834e-38
0.090221092 0.025389966 0.063725233 1.7954375e-38
0.086261153 0.02375349 0.064526141 1.3167431e-38
0.086092547 0.025384251 0.063602924 1.5835712e-38
0.082205519 0.026198566 0.063528657 1.5559477e-38
0.077964991 0.027354136 0.062588751 1.4640047e-38
0.073875219 0.028009452 0.062209368 1.2889404e-38
0.072704718 0.029291395 0.061222613 1.5465474e-38
0.070412427 0.0280101 0.062160611 1.2155039e-38
0.069605246 0.029624783 0.061083496 1.4638579e-38
0.065832421 0.030401722 0.060807288 1.4179745e-38
0.064636931 0.033265106 0.059766769 1.4816468e-38
0.065976813 0.13696849 0.045976639 2.0161318e-38
0.062127128 0.031607524 0.060224891 1.2794664e-38
0.060587555 0.033234123 0.059318185 1.2702489e-38
0.062331229 0.1372188 0.045280099 1.9802222e-38
0.057765409 0.03527613 0.059225976 1.3248414e-38
0.058601841 0.13799465 0.04483968 1.7955475e-38
0.057765409 0.14106387 0.044995606 1.7221514e-38
0.053735286 0.037937008 0.058404565 1.4175101e-38
0.054840997 0.13849568 0.04401058 1.7403744e-38
0.049645811 0.03949333 0.057899594 1.3531866e-38
0.050327897 0.13834587 0.043526769 1.6576869e-38
0.046851039 0.03995312 0.057861567 1.215324e-38
0.045132086 0.041859321 0.056387961 1.1684378e-38
0.045967773 0.13408485 0.0439713 1.353584e-38
0.046580315 0.13660046 0.044366539 1.5102079e-38
0.047617406 0.1396392 0.044059157 1.6027654e-38
0.04282698 0.043963432 0.056852877 1.1963841e-38
0.04111369 0.045864016 0.055380642 1.2333328e-38
0.042363346 0.13033798 0.044005573 1.3903169e-38
0.043510497 0.13287264 0.044542551 1.3627312e-38
0.038645357 0.046851031 0.055576503 1.1689049e-38
0.036415264 0.049190931 0.054391682 1.1967474e-38
0.038906679 0.12958258 0.043978095 1.5561236e-38
0.036099598 0.047953062 0.055544615 1.076606e-38
0.034587353 0.050914638 0.054454923 1.2702112e-38
0.033071771 0.053200789 0.053459108 1.2335842e-38
0.034279034 0.13046658 0.043032646 1.5099916e-38
0.032075614 0.051963367 0.054535866 1.1598634e-38
0.030056104 0.055010945 0.053208232 1.2054601e-38
0.030528069 0.13000497 0.043151498 1.4360561e-38
0.028046429 0.055300117 0.053620338 1.1043663e-38
0.026639268 0.058312647 0.052433789 1.1228066e-38
0.026726604 0.12657258 0.043035269 1.5007353e-38
0.028610855 0.12871757 0.043455064 1.3995725e-38
0.023680955 0.059490107 0.052209854 1.0124941e-38
0.021896601 0.061720856 0.0516994 1.0214639e-38
0.024540201 0.12666589 0.043285608 1.5467255e-38
0.018468454 0.062569812 0.05102843 7.5467251e-39
0.018086851 0.12303361 0.042054176 1.5841416e-38
0.018097192 0.12437884 0.041867912 1.4825083e-38
0.015175939 0.062512018 0.050414324 6.5332836e-39
0.013592765 0.065158062 0.049614668 6.5296949e-39
0.015728325 0.1232309 0.042778671 1.4641429e-38
0.012232617 0.06380251 0.049651444 9.1039657e-39
0.01156804 0.065142572 0.049390435 9.0131868e-39
0.0095743686 0.069162749 0.048607349 7.3597555e-39
0.0095950663 0.071853191 0.04823482 5.888961e-39
0.0078901201 0.070636764 0.049229443 7.4466332e-39
0.0074940324 0.073218636 0.048063517 6.7090261e-39
0.13155064 0.080964006 0.013876677 1.2430564e-38
