# .PCD v0.7 - Point Cloud Data file format
VERSION 0.7
FIELDS x y z rgb
SIZE 4 4 4 4
TYPE F F F F
COUNT 1 1 1 1
WIDTH 977
HEIGHT 1
VIEWPOINT 0 0 0 0 1 0 0
POINTS 977
DATA ascii
0.10175502 0.086055696 0.023890316 9.2054869e-39
0.10168985 0.08996883 0.023797393 9.3859476e-39
0.10168985 0.093859643 0.023491085 1.0123496e-38
0.10223943 0.096857384 0.022329807 1.0489054e-38
0.097839594 0.054252859 0.025968373 1.7215392e-38
0.097839579 0.05749521 0.025713086 1.6755491e-38
0.098138511 0.061319869 0.024444997 1.5648063e-38
0.098352104 0.064991936 0.024191499 1.4176871e-38
0.098458886 0.070065573 0.02380985 1.2889006e-38
0.097177356 0.073934004 0.023292005 1.233585e-38
0.097978309 0.078315198 0.023080468 1.1508227e-38
0.098038852 0.082073346 0.023133576 1.0769244e-38
0.097872585 0.086016744 0.023360312 1.0768534e-38
0.097839594 0.089918703 0.023160696 1.11366e-38
0.097939432 0.093771234 0.022535086 1.1411712e-38
0.098779276 0.096294314 0.021798313 1.1502829e-38
0.093989342 0.058093559 0.025025368 1.592143e-38
0.094259858 0.06127695 0.023916006 1.5183855e-38
0.094293892 0.06515494 0.023503423 1.4174723e-38
0.09406516 0.069746964 0.023866475 1.3254567e-38
0.094090253 0.074276939 0.023429215 1.2609577e-38
0.094022959 0.078186035 0.023336232 1.2149667e-38
0.094056606 0.082065716 0.02292347 1.1874519e-38
0.093989342 0.085977763 0.022830248 1.1966722e-38
0.093989342 0.08986859 0.022523999 1.1965283e-38
0.094263971 0.093556315 0.021898091 1.2056018e-38
0.095575452 0.096252605 0.021268547 1.18702e-38
0.090780795 0.05870026 0.024443746 1.6289485e-38
0.090207815 0.061270691 0.023920059 1.5644826e-38
0.090207815 0.065160662 0.023613811 1.4356243e-38
0.09016493 0.069709614 0.023389876 1.3528277e-38
0.090139106 0.074255183 0.023112416 1.3620828e-38
0.090139091 0.078146003 0.022806168 1.3438595e-38
0.090139091 0.082036823 0.022499859 1.2886873e-38
0.090139091 0.08592765 0.022193551 1.2518815e-38
0.090299517 0.089820549 0.021913826 1.2425913e-38
0.089813381 0.093483686 0.021036148 1.2977271e-38
0.086716652 0.061673544 0.023533404 1.6475652e-38
0.086288854 0.065126479 0.023190439 1.5923556e-38
0.085647166 0.069657415 0.022726834 1.5186718e-38
0.085647121 0.074196711 0.022369623 1.4634263e-38
0.085647136 0.078087524 0.022063315 1.3992132e-38
0.085647136 0.081978351 0.021757007 1.3348549e-38
0.087572277 0.085245758 0.021820128 1.2519528e-38
0.086609706 0.090420991 0.021252573 1.2979065e-38
0.085774034 0.093604878 0.020456195 1.38985e-38
0.084041625 0.096102461 0.019361198 1.5649089e-38
0.082117736 0.070584178 0.022066712 1.5463661e-38
0.081155181 0.074138239 0.02162677 1.4909776e-38
0.081155181 0.078029051 0.021320522 1.380704e-38
0.081338525 0.081551701 0.021073699 1.3715176e-38
0.082438603 0.084530458 0.02102226 1.3255968e-38
0.081155181 0.094370499 0.020034075 1.6937712e-38
0.081478536 0.096069098 0.018937349 1.8228061e-38
0.077304929 0.071169995 0.02121979 1.5186732e-38
0.077304944 0.074088112 0.020990074 1.4727196e-38
0.077304944 0.077978931 0.020683825 1.4175097e-38
0.077946648 0.081229627 0.020534694 1.3899571e-38
0.077304929 0.094839156 0.019356549 1.9891552e-38
0.077633947 0.096019045 0.018301606 1.9703564e-38
0.073454708 0.066256344 0.020965993 1.5742422e-38
0.074096411 0.094797388 0.018825948 1.7588808e-38
0.073789328 0.095969006 0.017665803 1.6757625e-38
0.07009545 0.09727709 0.017456591 1.4175043e-38
0.06866318 0.099787384 0.016512275 1.2419411e-38
0.066716775 0.10151024 0.017069578 1.223752e-38
0.065830648 0.10503517 0.016418695 1.1413849e-38
0.065245748 0.10794483 0.015301466 1.2059247e-38
0.062160641 0.10579568 0.015974164 1.1506036e-38
0.061981887 0.10887441 0.015476048 1.2335452e-38
0.061165527 0.11187354 0.014991164 1.3533647e-38
0.059337139 0.10887158 0.015262187 1.242872e-38
0.17264663 0.076981992 0.011121571 1.6662574e-38
0.17269887 0.084349021 0.010635078 1.491266e-38
0.18774086 0.075392023 0.016272068 1.4913717e-38
0.17770922 0.12401859 0.021564245 1.924588e-38
0.16152576 0.083483025 0.015458047 1.5744219e-38
0.1801625 0.10109605 0.013721943 1.270537e-38
0.14061959 0.079519585 0.010083675 1.1966695e-38
0.12823161 0.12229732 0.016686976 1.5466538e-38
0.10046604 0.1062962 0.011513472 1.5280714e-38
0.082494825 0.086730152 0.01780802 1.233045e-38
0.10171294 0.061230078 0.025428116 1.6110102e-38
0.17565648 0.13938531 0.034813106 2.2660346e-38
0.17409974 0.14223567 0.03579843 2.3028782e-38
0.1717705 0.024125855 0.043352902 6.6272561e-39
0.17175393 0.026577096 0.041869223 6.9038374e-39
0.17189224 0.1397893 0.034606874 2.2468771e-38
0.17216334 0.14221045 0.035478234 2.266142e-38
0.16777514 0.024083201 0.043369412 7.0892782e-39
0.16824582 0.027154289 0.041595995 8.1938517e-39
0.16817634 0.14007691 0.033559263 2.1640419e-38
0.16387288 0.024034582 0.04289335 7.7364693e-39
0.16424181 0.027263116 0.040836453 9.1176269e-39
0.16424304 0.14037353 0.031932473 2.0719191e-38
0.16360141 0.14228526 0.033285081 2.1365637e-38
0.16064791 0.023992598 0.042360008 8.47044e-39
0.16026621 0.027222008 0.040742993 9.8519452e-39
0.1596632 0.030655816 0.039129615 1.1782349e-38
0.16052008 0.14020239 0.03064847 2.0535157e-38
0.15989293 0.14282212 0.032516778 2.1180884e-38
0.15688732 0.028082162 0.041920781 1.0310788e-38
0.15635705 0.031079613 0.040014803 1.1875248e-38
0.15666419 0.14015219 0.030010879 1.9154012e-38
0.15656145 0.14214714 0.031870365 2.0259266e-38
0.15233505 0.031697109 0.040031493 1.3259958e-38
0.15243772 0.13932714 0.030244172 1.9432385e-38
0.15247664 0.14228031 0.032196999 2.0446534e-38
0.14835507 0.03231075 0.039829254 1.4825138e-38
0.14766712 0.033530284 0.036907256 1.5653814e-38
0.14894526 0.13905321 0.029575646 1.9613556e-38
0.14456418 0.034043364 0.037570834 1.7125707e-38
0.14478087 0.13911304 0.029513419 1.9339118e-38
0.14097202 0.034775373 0.036857426 1.9703211e-38
0.14126378 0.13935639 0.028527856 1.9430225e-38
0.14182645 0.14181553 0.03046149 1.906325e-38
0.13690259 0.035120718 0.037024617 2.0529391e-38
0.13706346 0.03761347 0.034821451 1.9978755e-38
0.13738477 0.13860236 0.026924908 1.9250867e-38
0.13373202 0.035597254 0.037137389 2.0621228e-38
0.13291399 0.038197011 0.03510195 1.9978021e-38
0.1330844 0.13831273 0.02674067 1.9251586e-38
0.12916908 0.038772743 0.035450339 1.9699999e-38
0.1283877 0.13588756 0.02564162 1.4551411e-38
0.12881011 0.13814619 0.027974486 1.5103144e-38
0.12540516 0.039311077 0.035391808 1.9056064e-38
0.12435821 0.041695759 0.033064067 1.8502884e-38
0.12453182 0.13583738 0.02500397 9.5742723e-39
0.12500155 0.13799763 0.027284682 1.0035267e-38
0.12160185 0.039363641 0.035161495 1.8597596e-38
0.12005702 0.041707784 0.03404212 1.8320641e-38
0.12079024 0.13744789 0.026288271 1.0682395e-38
0.11628044 0.042729661 0.03299427 1.8042619e-38
0.11729875 0.13497356 0.026918888 5.1532373e-39
0.11729875 0.13627811 0.026816249 3.6810149e-39
0.11296418 0.043469232 0.030350566 1.8227711e-38
0.1116789 0.044751339 0.030035794 1.7677051e-38
0.11112234 0.094986349 0.028022289 6.9013515e-39
0.11232153 0.09801209 0.025949955 8.0963046e-39
0.11360683 0.1006265 0.025958002 9.2069331e-39
0.10955316 0.043555245 0.032826722 1.8227358e-38
0.10843959 0.046088237 0.031134725 1.7584512e-38
0.10782301 0.049247079 0.029040277 1.7400839e-38
0.10880071 0.090644091 0.026283085 6.2599169e-39
0.10904604 0.094098628 0.025938988 6.9016906e-39
0.1091083 0.096671432 0.025520861 7.7282213e-39
0.10465223 0.04652717 0.031607807 1.804335e-38
0.10494745 0.049722243 0.029032886 1.7677425e-38
0.10589506 0.09143424 0.025398493 7.1793509e-39
0.10543601 0.093654856 0.025147319 7.7267611e-39
0.1005652 0.046691388 0.030914843 1.8319217e-38
0.101201 0.049844343 0.028569341 1.7861113e-38
0.10139653 0.052410517 0.027721941 1.795475e-38
0.09696658 0.046978869 0.030462921 1.7491973e-38
0.097174242 0.049821559 0.028466046 1.7401209e-38
0.097540647 0.052360322 0.027084351 1.7401207e-38
0.093346238 0.050169673 0.028302014 1.7304338e-38
0.093548566 0.053632837 0.026771784 1.6846236e-38
0.093684763 0.056206644 0.026139975 1.6474598e-38
0.088898242 0.051113572 0.028794885 1.776781e-38
0.089035898 0.053697739 0.028162539 1.7304692e-38
0.089645267 0.0570818 0.02539897 1.6750819e-38
0.088543594 0.089909524 0.022631347 1.2609598e-38
0.085283637 0.054458313 0.02793014 1.7766035e-38
0.085762441 0.057443988 0.025402188 1.7672759e-38
0.085116133 0.060424559 0.024382174 1.7028827e-38
0.08560577 0.086160317 0.022437751 1.2519514e-38
0.08571595 0.089353174 0.022204638 1.2702818e-38
0.081402496 0.057488188 0.026254892 1.7765337e-38
0.081830502 0.061309114 0.024669766 1.6844098e-38
0.082045272 0.065163821 0.023724079 1.629307e-38
0.081153154 0.068707183 0.023070753 1.5833884e-38
0.080831826 0.08331494 0.021867335 1.3531497e-38
0.08211711 0.086091697 0.021862626 1.3071573e-38
0.08211711 0.089825869 0.021568656 1.3069465e-38
0.081795797 0.092744067 0.021285474 1.4263702e-38
0.077710181 0.057925452 0.026397049 1.7489486e-38
0.077388495 0.061376251 0.025732934 1.7029203e-38
0.077481151 0.065338284 0.024351835 1.6477464e-38
0.077832788 0.069096908 0.022487581 1.5740976e-38
0.076975942 0.082615331 0.021280825 1.3715538e-38
0.077807128 0.0858078 0.021777928 1.3348538e-38
0.078188121 0.089799151 0.02114296 1.2883629e-38
0.077618599 0.093014404 0.020569086 1.4171184e-38
0.074052542 0.058747526 0.025723755 1.6754754e-38
0.073517978 0.061325654 0.0250929 1.6386346e-38
0.073464811 0.064973883 0.023215115 1.6019005e-38
0.073120058 0.069316968 0.021686077 1.5280717e-38
0.073120058 0.074122675 0.021307766 1.4542803e-38
0.073120058 0.078019194 0.021001041 1.3991049e-38
0.073261365 0.082069159 0.022231042 1.344003e-38
0.073370248 0.086257398 0.023063302 1.2703918e-38
0.073702648 0.089952216 0.022305191 1.2054585e-38
0.073202044 0.093334347 0.020680666 1.2513437e-38
0.069951177 0.061479297 0.024681091 1.6016483e-38
0.069552451 0.064938143 0.023325622 1.5464031e-38
0.069566548 0.069612883 0.022088349 1.4911923e-38
0.069509819 0.074179888 0.021888912 1.4359475e-38
0.06928423 0.078142643 0.022217274 1.353115e-38
0.069647074 0.08213897 0.0228104 1.2796093e-38
0.069695652 0.086249128 0.022833824 1.2150744e-38
0.069695652 0.089836597 0.022551417 1.1595406e-38
0.069455475 0.093622237 0.02134198 1.2609206e-38
0.068407297 0.09657453 0.018756151 1.4360168e-38
0.066952407 0.062568709 0.024241567 1.5373655e-38
0.066263169 0.065565139 0.023382604 1.5094521e-38
0.066205829 0.069779262 0.023210824 1.4633545e-38
0.065951392 0.074100271 0.022785902 1.3899585e-38
0.06566146 0.078206331 0.022795796 1.2886122e-38
0.065919653 0.081340566 0.022591949 1.2151092e-38
0.066306934 0.086694211 0.022234976 1.2242221e-38
0.065876633 0.089949951 0.021907032 1.2611005e-38
0.065699488 0.093847975 0.021457791 1.435877e-38
0.065475672 0.097607017 0.019881845 1.4633561e-38
0.064637125 0.10102808 0.017778277 1.2516991e-38
0.063079625 0.07425911 0.022676885 1.3068389e-38
0.062649295 0.079036802 0.022229135 1.224256e-38
0.061788678 0.080764979 0.021949887 1.2058906e-38
0.060497746 0.086618587 0.021274328 1.3071255e-38
0.061788678 0.089896739 0.021231115 1.3347843e-38
0.061415464 0.09389168 0.020577133 1.3992491e-38
0.061493844 0.097596884 0.019558966 1.307053e-38
0.061552405 0.10124771 0.017247677 1.1689738e-38
0.061231107 0.10416591 0.016964495 1.1414565e-38
0.059560239 0.11450599 0.017906189 1.3532929e-38
0.058776513 0.086813599 0.02097255 1.2428049e-38
0.057915866 0.089846313 0.020590663 1.2704969e-38
0.057293385 0.093672827 0.019507945 1.1968138e-38
0.057140484 0.097486287 0.01839143 1.15068e-38
0.05761674 0.10122469 0.01682061 1.1229506e-38
0.057696521 0.10509403 0.016303301 1.1598609e-38
0.056934208 0.10902803 0.016205728 1.2244354e-38
0.057897329 0.11286391 0.017352045 1.353331e-38
0.055334017 0.082637757 0.020728469 1.123058e-38
0.055334017 0.0858991 0.020471752 1.2150373e-38
0.055334017 0.089812711 0.020163655 1.1873055e-38
0.053929269 0.093921542 0.019199789 1.1319185e-38
0.053699046 0.097515628 0.018437922 1.131883e-38
0.053818733 0.10138276 0.017814457 1.0491583e-38
0.05417642 0.10494885 0.016949236 1.0956124e-38
0.054524362 0.10918501 0.017148197 1.2151438e-38
0.055334017 0.11198981 0.018417835 1.2796816e-38
0.05146125 0.094980434 0.019112468 1.2332238e-38
0.050944835 0.097843692 0.018801153 1.288431e-38
0.05113849 0.10117278 0.018571258 1.1966646e-38
0.05146125 0.10411218 0.018393576 1.1967738e-38
0.17656273 0.097987279 0.010204375 1.2796494e-38
0.18762147 0.082971066 0.015316665 1.1967057e-38
0.16068578 0.088740498 0.013439 1.5559821e-38
0.16496855 0.098107442 0.012417972 1.2428409e-38
0.12178746 0.10382234 0.010545194 1.6384542e-38
0.095260352 0.1126859 0.0082857013 1.8042994e-38
0.13079917 0.12654133 0.01711905 1.5655616e-38
0.12708303 0.050266311 0.022166252 1.7585241e-38
0.10184608 0.064465053 0.024610937 1.6658268e-38
0.17354116 0.14540653 0.038506269 2.3048193e-38
0.17085305 0.020248067 0.048420072 7.736503e-39
0.17113797 0.022202227 0.046788394 7.180067e-39
0.17067184 0.14368492 0.037910163 2.2755778e-38
0.17070906 0.14636002 0.038250506 2.313209e-38
0.16696054 0.020197384 0.047776341 7.5484949e-39
0.16725391 0.022151668 0.046146095 7.1807592e-39
0.1671561 0.14326513 0.03710407 2.2381248e-38
0.16686273 0.14663398 0.038315237 2.2848319e-38
0.16329199 0.020482309 0.047651947 7.4591608e-39
0.16330212 0.022103954 0.045831263 7.4602342e-39
0.16401719 0.14378452 0.036032379 2.1921323e-38
0.16436552 0.146038 0.037438214 2.2385534e-38
0.15972127 0.020763859 0.047035635 7.6413884e-39
0.15888441 0.022832185 0.04510659 8.4697086e-39
0.15552101 0.024114721 0.045666218 9.2058723e-39
0.15506326 0.02679896 0.044260323 1.0403339e-38
0.15495436 0.14366654 0.034533679 2.0905701e-38
0.15149774 0.027589396 0.044984758 1.2061053e-38
0.15171763 0.02979942 0.042958915 1.2889379e-38
0.1508512 0.14380091 0.034857273 2.0720967e-38
0.147386 0.028476074 0.044376075 1.4084335e-38
0.14772166 0.030412864 0.042754292 1.44542e-38
0.14764675 0.14307375 0.034211814 2.062697e-38
0.1439711 0.031397663 0.042270541 1.6112634e-38
0.1436283 0.14299588 0.034125507 1.9707181e-38
0.13971286 0.031643312 0.04234153 1.7864693e-38
0.13877073 0.033555876 0.040508986 2.0346415e-38
0.13983226 0.14234914 0.033138096 1.9064684e-38
0.13605557 0.031729553 0.041827917 1.8787379e-38
0.13606006 0.033534728 0.040568054 2.0713414e-38
0.13629264 0.14148965 0.032955706 1.9341622e-38
0.13310309 0.032226525 0.041704237 1.9797583e-38
0.13161877 0.034363594 0.040272236 2.0623736e-38
0.1310026 0.14073807 0.030778885 1.8333933e-38
0.12820262 0.035406269 0.039452255 2.0345018e-38
0.12776588 0.03733762 0.038380146 1.997695e-38
0.1297079 0.13941289 0.030667782 1.7778956e-38
0.12738653 0.14162305 0.031632781 1.1877418e-38
0.12414275 0.035374168 0.039457142 2.0436823e-38
0.12414061 0.037625998 0.038008451 1.9609248e-38
0.12323445 0.13932861 0.029597282 1.0215719e-38
0.12414275 0.14158082 0.031096339 1.1044397e-38
0.12050855 0.035662912 0.039083838 2.043541e-38
0.1202538 0.038134698 0.037745416 1.9057506e-38
0.1205567 0.13935447 0.029488683 1.0681333e-38
0.12020573 0.14090417 0.030663967 1.1324933e-38
0.11687249 0.035951633 0.038710356 1.9974788e-38
0.11643176 0.038541619 0.0376423 1.9150058e-38
0.11611366 0.041110929 0.036144316 1.8691575e-38
0.1179222 0.13869634 0.029271603 6.8141389e-39
0.11259317 0.038670033 0.037402987 1.9149705e-38
0.11287692 0.041722961 0.035557628 1.8596862e-38
0.10882676 0.03944581 0.036842287 1.9148252e-38
0.10833202 0.042179693 0.035400927 1.8504666e-38
0.10769817 0.044926375 0.034443676 1.776818e-38
0.10518645 0.039735898 0.036467969 1.9702126e-38
0.10448232 0.042170674 0.035777807 1.887346e-38
0.10338256 0.045306303 0.033695698 1.8136621e-38
0.10077161 0.042283364 0.03508091 1.8687992e-38
0.10057738 0.044833679 0.033266127 1.8503245e-38
0.097184449 0.043017186 0.034268141 1.8229158e-38
0.096162409 0.045227442 0.032839596 1.7584159e-38
0.09350042 0.04352016 0.034225643 1.7764238e-38
0.092095524 0.04622988 0.032507539 1.6662563e-38
0.091514558 0.048640698 0.031458437 1.7673119e-38
0.088040978 0.045922659 0.0327214 1.7857147e-38
0.088174105 0.049268402 0.031192183 1.8134807e-38
0.083919972 0.046651196 0.031876802 1.8780184e-38
0.084183186 0.049888272 0.030818284 1.8502884e-38
0.084070086 0.052795872 0.029892683 1.8135549e-38
0.079866707 0.047279079 0.031661272 1.758452e-38
0.080188215 0.049853291 0.030495226 1.7951858e-38
0.080509692 0.053730775 0.02922672 1.7766393e-38
0.076250076 0.050215468 0.030537724 1.767563e-38
0.076370984 0.053722102 0.029329598 1.8042983e-38
0.075762495 0.056721751 0.028201282 1.7398354e-38
0.072725251 0.051122498 0.030170381 1.7585617e-38
0.072334632 0.053695627 0.029111981 1.7492696e-38
0.072556585 0.05717843 0.027631998 1.6569652e-38
0.068725675 0.0541122 0.028930545 1.6660773e-38
0.068706661 0.057530094 0.027415633 1.6290557e-38
0.067562804 0.060758062 0.026519179 1.5740248e-38
0.067562804 0.084962234 0.024613798 1.2242209e-38
0.067562804 0.091503888 0.024098814 1.1967052e-38
0.06488955 0.057985712 0.027817905 1.5095601e-38
0.064682096 0.061236985 0.026383519 1.4907997e-38
0.064110279 0.064420059 0.025656462 1.4819383e-38
0.063678741 0.069647774 0.025173128 1.4357684e-38
0.063678741 0.075753331 0.024692476 1.3162733e-38
0.064649746 0.083288893 0.024260819 1.187522e-38
0.064455539 0.085706785 0.024038196 1.2241857e-38
0.064541847 0.090156227 0.023702264 1.2611374e-38
0.061688453 0.058851611 0.027725458 1.445097e-38
0.060726449 0.061592098 0.026841283 1.4263685e-38
0.060777694 0.065315604 0.025935352 1.3988183e-38
0.060972303 0.069857761 0.025045276 1.3897411e-38
0.06092751 0.074409187 0.02434057 1.3161294e-38
0.060657755 0.077894568 0.024021268 1.2426605e-38
0.061089337 0.082915455 0.023697853 1.1967414e-38
0.061459243 0.086004198 0.023516238 1.2519157e-38
0.060503423 0.11736536 0.02165103 1.2704636e-38
0.057793081 0.062737286 0.026771426 1.4080672e-38
0.057556838 0.065667093 0.026247263 1.408433e-38
0.056870744 0.07006032 0.025302052 1.3437874e-38
0.057046741 0.074398458 0.02414757 1.3528987e-38
0.0570862 0.078315765 0.023732781 1.2331544e-38
0.057205275 0.082210734 0.023107052 1.1689766e-38
0.056773707 0.085694 0.022761047 1.2057471e-38
0.055910587 0.1149022 0.020318031 1.3255992e-38
0.056732073 0.11749972 0.021140039 1.2612055e-38
0.052527711 0.070684478 0.025015533 1.3528986e-38
0.052920133 0.074403673 0.024138391 1.3437532e-38
0.052919716 0.078335002 0.023828864 1.2608842e-38
0.052692652 0.082036555 0.023096204 1.1781229e-38
0.052552909 0.086110234 0.022364914 1.2058894e-38
0.052673861 0.090001747 0.021739721 1.1875195e-38
0.052673876 0.092618406 0.021533728 1.1320964e-38
0.05202651 0.10700165 0.020293713 1.1325261e-38
0.05202651 0.10961831 0.020087719 1.2151089e-38
0.052978426 0.11379273 0.020426035 1.3070152e-38
0.052689075 0.11757864 0.021350741 1.2887553e-38
0.052599296 0.12152813 0.021279216 1.242836e-38
0.053248525 0.1243483 0.021165133 1.2520927e-38
0.049483001 0.070764326 0.024756849 1.3528615e-38
0.049474746 0.074408188 0.024129629 1.334533e-38
0.049413979 0.078358307 0.023977995 1.2609189e-38
0.049003273 0.08243072 0.023377299 1.1594285e-38
0.049140483 0.086327419 0.022712052 1.1224815e-38
0.049110651 0.090054765 0.022046506 1.1873726e-38
0.049229264 0.093732804 0.021000028 1.2332562e-38
0.048466116 0.097469881 0.020451665 1.1324559e-38
0.048660308 0.10198615 0.020128489 1.1416034e-38
0.049275309 0.10582104 0.019928932 1.2611703e-38
0.049029201 0.10973562 0.020709574 1.3255982e-38
0.050002396 0.11249685 0.021557987 1.3438615e-38
0.050245553 0.12158063 0.020205498 1.3161977e-38
0.046107084 0.088827789 0.022773087 9.4623632e-39
0.045735806 0.094286516 0.021874905 8.4514048e-39
0.045179605 0.097877398 0.02088958 8.1791549e-39
0.045179993 0.10180832 0.020580232 7.9947553e-39
0.045444399 0.1055938 0.02061677 8.1798514e-39
0.045068324 0.10902108 0.021010637 8.826297e-39
0.17687184 0.092993423 0.010648906 1.3626251e-38
0.18772222 0.089200154 0.015294909 1.0862522e-38
0.18755862 0.095585689 0.015725374 1.0956157e-38
0.16590358 0.062304601 0.019229352 1.8967476e-38
0.16298439 0.082395405 0.015188456 1.7217185e-38
0.1598645 0.08632566 0.01538676 1.629847e-38
0.16184515 0.093767911 0.014550567 1.4730063e-38
0.14008695 0.047599342 0.027149796 1.5742791e-38
0.099022716 0.08055675 0.022297025 1.7675285e-38
0.16981344 0.016443908 0.05271548 7.3669932e-39
0.17031549 0.018290333 0.051365614 7.8279769e-39
0.16608039 0.016924627 0.052463174 7.4584545e-39
0.16647156 0.018238459 0.050391197 7.9172789e-39
0.16627598 0.14804839 0.04115659 2.2943761e-38
0.1654274 0.15020853 0.04186219 2.3398208e-38
0.16214314 0.018712886 0.050447166 6.9978379e-39
0.16199166 0.14752237 0.040485084 2.2386975e-38
0.15867053 0.019197762 0.050237834 6.9060094e-39
0.15911017 0.14714663 0.040645361 2.191989e-38
0.15563267 0.020087942 0.050475717 8.1924378e-39
0.15410645 0.022371523 0.049533665 8.8345843e-39
0.15432669 0.14742456 0.040234327 2.0810291e-38
0.15078181 0.023688871 0.048513651 1.0402269e-38
0.15019399 0.025922135 0.047077894 1.1416053e-38
0.15074813 0.14708059 0.038084209 2.0719179e-38
0.14656489 0.024583947 0.0482741 1.1508983e-38
0.14682658 0.026544709 0.046976984 1.2614598e-38
0.1468388 0.1470297 0.037437737 2.0905005e-38
0.14663947 0.15049292 0.03803587 2.1099158e-38
0.14277673 0.02716133 0.046876013 1.3532959e-38
0.14238074 0.02976821 0.045475066 1.57449e-38
0.14303185 0.14426249 0.036570251 1.9706829e-38
0.14270005 0.14716719 0.037755132 2.0813534e-38
0.14257301 0.15057088 0.038030922 2.0821092e-38
0.13873316 0.027779412 0.046719432 1.3902831e-38
0.13912523 0.029725831 0.044936717 1.583569e-38
0.1382969 0.14368373 0.036590576 1.8605855e-38
0.13969338 0.1468567 0.037589848 2.0630947e-38
0.13996109 0.14987701 0.037650883 2.1741591e-38
0.13539022 0.028402649 0.046452999 1.2158686e-38
0.13471255 0.030014306 0.044942379 1.6022986e-38
0.13484144 0.14340378 0.035952866 1.9525662e-38
0.13343127 0.14583281 0.036882758 2.0260719e-38
0.13090301 0.031475786 0.044040918 1.9430581e-38
0.13129051 0.14309856 0.035470784 1.9158327e-38
0.13049285 0.1461245 0.036370873 1.8698426e-38
0.12736385 0.031708345 0.044043839 1.9799369e-38
0.12740538 0.033521045 0.042687893 2.0441869e-38
0.12792626 0.1432763 0.034134448 1.3998626e-38
0.1269279 0.14675921 0.034965098 1.2707556e-38
0.12559548 0.15034986 0.035223365 1.2711153e-38
0.12298356 0.032200322 0.044089675 1.9981231e-38
0.12332639 0.033486798 0.042689741 2.0254582e-38
0.12349877 0.14400822 0.033340096 1.1229148e-38
0.1231553 0.14689168 0.034411728 1.1970662e-38
0.12363651 0.15098424 0.034847558 1.0223641e-38
0.11971866 0.03215782 0.043549776 2.0256038e-38
0.11906809 0.033967171 0.042282283 2.0895664e-38
0.11950408 0.14336085 0.033065319 1.4175817e-38
0.11895403 0.14653282 0.034128308 1.8331719e-38
0.1177597 0.14958799 0.033979535 2.7555427e-39
0.11519167 0.034334872 0.04175365 2.0161322e-38
0.11498131 0.13969237 0.033279479 4.0454618e-39
0.11526644 0.14287448 0.033641219 1.2524954e-38
0.11536542 0.14647746 0.033826113 2.0362208e-38
0.11580077 0.14956249 0.033655584 1.9290036e-39
0.11182049 0.035447802 0.040756524 1.9607069e-38
0.1104767 0.037248462 0.039577663 1.9425234e-38
0.11253585 0.14622067 0.033375442 2.2572015e-38
0.10768488 0.035419628 0.040883958 1.9058585e-38
0.10755543 0.037743598 0.039255977 1.9150066e-38
0.10404706 0.035912987 0.040646553 1.9885811e-38
0.10353413 0.038127698 0.039224863 1.9885451e-38
0.10078216 0.035870485 0.040106654 2.0527942e-38
0.099767625 0.038459588 0.03871721 1.9608151e-38
0.095832944 0.038596321 0.038687348 1.9608494e-38
0.09575215 0.041343462 0.037059486 1.9148235e-38
0.092293397 0.039719161 0.038391232 1.9978381e-38
0.091627091 0.041948572 0.037523866 1.8961698e-38
0.08803086 0.042919509 0.036413193 1.80419e-38
0.084254205 0.043019705 0.036183596 1.877874e-38
0.083623558 0.04481715 0.03502214 1.8965291e-38
0.079992637 0.04350372 0.035707712 1.8411427e-38
0.080073744 0.045301843 0.034494996 1.7950793e-38
0.075968832 0.04346583 0.035380006 1.7577699e-38
0.076171964 0.045889311 0.034079134 1.6657906e-38
0.075317144 0.048634116 0.032831132 1.7396539e-38
0.073356912 0.043431826 0.034948111 1.6662565e-38
0.072271541 0.046025004 0.033885479 1.6570011e-38
0.072452277 0.049123187 0.03231591 1.7398695e-38
0.068463296 0.046363845 0.033467352 1.5924284e-38
0.068618745 0.049891841 0.032182395 1.6755839e-38
0.067503899 0.052480187 0.031228304 1.6571104e-38
0.065085799 0.046843424 0.033303261 1.5462939e-38
0.064405054 0.049883861 0.032385767 1.4634601e-38
0.064522415 0.053629 0.03127718 1.5093446e-38
0.063597277 0.056377117 0.030271471 1.5092733e-38
0.06062375 0.050854497 0.0322451 1.40825e-38
0.060451448 0.053795148 0.031533003 1.4176187e-38
0.060657233 0.057305839 0.030144989 1.4358783e-38
0.058388457 0.060257096 0.029099345 1.4265485e-38
0.059690654 0.11949085 0.024653077 1.1878839e-38
0.059690654 0.12146473 0.024497688 1.2799348e-38
0.057162941 0.054042775 0.031418324 1.3441094e-38
0.056575537 0.057693969 0.030468166 1.3622277e-38
0.056163162 0.061308138 0.029053152 1.4081788e-38
0.055349961 0.06548126 0.028182507 1.4175433e-38
0.054481819 0.068101808 0.027831793 1.3988891e-38
0.057086244 0.11945693 0.024222374 1.2426953e-38
0.056100279 0.12212907 0.024186969 1.2152886e-38
0.05611816 0.12555836 0.025614619 1.206071e-38
0.053767443 0.059013534 0.030461967 1.3437876e-38
0.053015858 0.061839487 0.02977556 1.371338e-38
0.052477539 0.0653923 0.029236853 1.4358748e-38
0.052202985 0.068401128 0.027429044 1.3987809e-38
0.051877439 0.11938913 0.023361027 1.2153221e-38
0.052626491 0.12296113 0.023543358 1.2336513e-38
0.054124653 0.12550221 0.024270415 1.1876659e-38
0.047414869 0.069571584 0.026879132 1.3895962e-38
0.046668589 0.074579746 0.026021779 1.307055e-38
0.046668589 0.078527533 0.025711 1.2516277e-38
0.046668589 0.081159383 0.025503814 1.2055975e-38
0.046668589 0.085107177 0.025193036 1.1306905e-38
0.048345059 0.1144014 0.023572683 1.3251676e-38
0.048438638 0.11810429 0.02339834 1.1962018e-38
0.047604233 0.12146385 0.023503423 1.3343848e-38
0.045278698 0.066821381 0.028434873 1.5368929e-38
0.044437706 0.069834024 0.02737987 1.3804485e-38
0.044344008 0.074638531 0.026647091 1.3067288e-38
0.044405729 0.07857734 0.026177883 1.2607031e-38
0.044467449 0.082513303 0.025708854 1.2146023e-38
0.044405401 0.086481452 0.025555611 1.1405245e-38
0.04436174 0.090671152 0.02498126 9.463082e-39
0.043196052 0.094273478 0.023893654 9.3755107e-39
0.042761981 0.10676914 0.022837758 8.6433533e-39
0.044715285 0.11140032 0.022798181 9.0989518e-39
0.044913322 0.11421302 0.023852527 9.6578723e-39
0.045368642 0.11795191 0.023407876 1.1404902e-38
0.042013794 0.07139793 0.027531326 1.3531129e-38
0.042013794 0.074697241 0.027271628 1.3345321e-38
0.042013794 0.07865642 0.026959896 1.2976539e-38
0.042013794 0.082615599 0.026648283 1.2609549e-38
0.041578442 0.091408119 0.025883675 1.1776526e-38
0.040549546 0.09421812 0.024910271 1.1867284e-38
0.040242851 0.098367646 0.024605095 1.1403093e-38
0.040494114 0.10224193 0.023664117 1.0849214e-38
0.040410995 0.10626943 0.02390939 1.0850673e-38
0.040638328 0.11044207 0.023974657 1.1127257e-38
0.042013794 0.11494891 0.024102926 1.0300012e-38
0.038095862 0.095101997 0.025013387 1.2514096e-38
0.038095862 0.098401323 0.02475369 1.2603801e-38
0.038095862 0.1023605 0.024442017 1.2142801e-38
0.038095862 0.10631968 0.024130344 1.1962741e-38
0.038095862 0.10961901 0.023870587 1.2146416e-38
0.17659365 0.086711228 0.011097133 1.4728974e-38
0.18746218 0.10130757 0.015823781 1.1695166e-38
0.1873855 0.10513906 0.015961289 1.2616397e-38
0.18212217 0.12122956 0.021628439 1.8878526e-38
0.1616718 0.088748127 0.015320063 1.6757653e-38
0.14804539 0.10847905 0.0097174644 1.3075571e-38
0.14399643 0.061529983 0.012739599 1.7123573e-38
0.11600693 0.099740788 0.015341222 1.7680684e-38
0.10190211 0.078488782 0.02300787 1.6479619e-38
0.16559143 0.014940064 0.055079997 6.7198427e-39
0.16194189 0.01581943 0.054301858 6.8123929e-39
0.16176005 0.15055154 0.043258548 2.3309277e-38
0.15838279 0.016170703 0.053783655 6.8105978e-39
0.15652116 0.01879267 0.052759111 8.0087598e-39
0.15688816 0.14878792 0.042925656 2.1733359e-38
0.15709938 0.15148151 0.043426633 2.2948059e-38
0.15343644 0.019227557 0.052647352 8.6515887e-39
0.153795 0.14789565 0.04265064 2.1179083e-38
0.15046428 0.020043358 0.052415431 9.2966204e-39
0.14931768 0.022007708 0.05130744 1.0219311e-38
0.14617106 0.02276795 0.051334023 1.077068e-38
0.1431964 0.024590056 0.0511024 1.1607981e-38
0.13810608 0.025837954 0.049479306 1.2613492e-38
0.13725705 0.14796516 0.039995074 2.081498e-38
0.13768086 0.15137869 0.039949477 1.8424389e-38
0.13417597 0.026889727 0.048742533 1.2429125e-38
0.1342694 0.14783251 0.039533794 2.0171414e-38
0.1353268 0.15040281 0.039888799 2.0540185e-38
0.13046941 0.028064117 0.048457026 1.3718062e-38
0.13032672 0.029701624 0.047541857 1.6574344e-38
0.13053976 0.14833087 0.038441896 1.9713669e-38
0.13010797 0.15163858 0.038810134 1.8796032e-38
0.12614557 0.028344367 0.047969759 1.5102068e-38
0.12600666 0.029981915 0.047055066 1.8050191e-38
0.12770727 0.14878473 0.037731588 1.4737286e-38
0.12713335 0.15119943 0.037649274 1.6027332e-38
0.12233958 0.030270707 0.046676397 1.841897e-38
0.12115866 0.15134653 0.036440253 8.1974531e-39
0.11816382 0.030505341 0.046181023 1.8692681e-38
0.11919406 0.14867389 0.036323786 1.2246872e-38
0.1189134 0.1513173 0.036069036 6.904276e-39
0.11464377 0.031212866 0.045394361 1.9884378e-38
0.11417347 0.14816736 0.035528243 1.6109296e-38
0.11049724 0.032108121 0.044730723 2.0068763e-38
0.11035344 0.033743072 0.043900311 1.9884725e-38
0.111595 0.14365774 0.035708368 1.8512963e-38
0.10712737 0.032073054 0.044511795 1.9517043e-38
0.10621323 0.03371086 0.043976545 1.9517393e-38
0.10293657 0.034661323 0.043356538 1.9976569e-38
0.098238513 0.035901528 0.041714549 1.9977288e-38
0.094964206 0.035858899 0.0411731 1.9608521e-38
0.093654484 0.037165377 0.040852308 1.9701061e-38
0.090732336 0.035835896 0.041487575 1.9699653e-38
0.090804398 0.038078502 0.040451467 1.9976956e-38
0.088109136 0.035801739 0.041053772 1.9790404e-38
0.087115437 0.038586684 0.040160716 1.9333e-38
0.08710587 0.041050702 0.039456844 1.8965288e-38
0.08291474 0.039041393 0.03976506 1.859687e-38
0.082849264 0.041326173 0.038726926 1.8594719e-38
0.078927919 0.039658502 0.039222479 1.8317782e-38
0.079247534 0.041610166 0.038105249 1.8412155e-38
0.075155735 0.041576736 0.037935376 1.7397619e-38
0.071519166 0.042452276 0.037159741 1.6293793e-38
0.067946643 0.043470073 0.036586821 1.5740252e-38
0.066805184 0.044757001 0.035787225 1.5552235e-38
0.063132435 0.045786157 0.035501778 1.5279265e-38
0.060911417 0.047327325 0.034604192 1.4449165e-38
0.059200257 0.04917841 0.034580469 1.4172552e-38
0.055792719 0.050723422 0.033891857 1.4544194e-38
0.054690227 0.053533081 0.033080518 1.2978669e-38
0.0526959 0.055222087 0.033632517 1.2516289e-38
0.051781803 0.057828851 0.032766759 1.3159499e-38
0.04810527 0.059138596 0.032560349 1.2694932e-38
0.047795326 0.06191558 0.031781733 1.3528978e-38
0.046504468 0.065007359 0.030815244 1.5185618e-38
0.044826299 0.062409468 0.031757295 1.3898885e-38
0.043822974 0.065426253 0.030505538 1.5186701e-38
0.040891498 0.06699723 0.030741394 1.462994e-38
0.039740741 0.070544109 0.029834926 1.3438584e-38
0.039112061 0.074882075 0.029316187 1.3713044e-38
0.039112061 0.078855515 0.029003501 1.3252421e-38
0.039579868 0.082885236 0.029272437 1.2793611e-38
0.040168643 0.086997584 0.028465629 1.2330813e-38
0.039330661 0.0903368 0.028135896 1.2424058e-38
0.038646132 0.10659607 0.026233733 1.1866961e-38
0.039654702 0.11413737 0.026621342 1.1589307e-38
0.035771668 0.092075706 0.027576327 1.2701729e-38
0.035379082 0.094536424 0.027365685 1.2331868e-38
0.03537184 0.098612309 0.026317418 1.1872299e-38
0.03537181 0.10258287 0.026004851 1.1684664e-38
0.035379082 0.10664997 0.026412129 1.1136181e-38
0.035797745 0.11061414 0.026053488 1.1413147e-38
0.032651395 0.098915532 0.026450872 9.0196664e-39
0.032366067 0.10267268 0.026514411 8.8349136e-39
0.033021867 0.10665748 0.026309848 8.6526705e-39
0.1804266 0.092258781 0.011298239 1.2981587e-38
0.17679457 0.075577967 0.012006998 1.7585243e-38
0.17687184 0.080498755 0.011632502 1.629378e-38
0.18728915 0.10773095 0.016306102 1.3075229e-38
0.16096067 0.08641021 0.014319241 1.5192835e-38
0.16072184 0.091572225 0.013784647 1.5561258e-38
0.12256032 0.12098996 0.016185164 9.2062114e-39
0.18269567 0.11819884 0.021021903 1.8048409e-38
0.16253421 0.012902483 0.060324073 5.9808525e-39
0.16115637 0.01422007 0.056940734 6.8113069e-39
0.16171439 0.15256496 0.046651185 1.9241215e-38
0.16171439 0.15389514 0.046546519 1.5194726e-38
0.15923171 0.014194407 0.059672892 6.8112914e-39
0.15852565 0.014628891 0.056470871 6.9942478e-39
0.15852565 0.15242481 0.045623302 2.1741617e-38
0.15852565 0.15375404 0.045518696 2.0553156e-38
0.15032998 0.016742606 0.056364298 9.2051506e-39
0.1506335 0.018070746 0.054886699 9.2054925e-39
0.14631635 0.018023703 0.055866718 8.8367535e-39
0.14657648 0.02001546 0.05456692 9.6675735e-39
0.14213459 0.020865183 0.055964053 9.3924061e-39
0.14190625 0.023542486 0.053207159 1.0774615e-38
0.13842601 0.021599337 0.055628061 8.7481494e-39
0.13802099 0.023894597 0.052837968 1.0314346e-38
0.13616455 0.1521337 0.04192555 1.7508528e-38
0.13479327 0.021885775 0.05500102 8.0113004e-39
0.13425067 0.02372513 0.053139091 9.1165311e-39
0.13397227 0.1516621 0.041597903 1.8509728e-38
0.13496971 0.15409933 0.042182088 1.5495345e-38
0.1300849 0.02481211 0.052970529 1.059165e-38
0.1309031 0.026232298 0.050961256 1.270604e-38
0.13221845 0.15141773 0.041325331 1.9245856e-38
0.13221845 0.15341157 0.041168332 1.5769409e-38
0.12600252 0.02476646 0.052803159 1.0496594e-38
0.12722009 0.026538808 0.050324321 1.2520927e-38
0.12295762 0.025377393 0.051231623 1.0863238e-38
0.12274787 0.027543966 0.049501061 1.3442201e-38
0.11880256 0.027644642 0.049853504 1.3252789e-38
0.11463819 0.027739197 0.049966514 1.5278573e-38
0.11380342 0.029554285 0.047854483 1.8963881e-38
0.11030948 0.028757535 0.049572825 1.9980175e-38
0.11117271 0.030406184 0.047349691 2.0253875e-38
0.10657671 0.028845452 0.049080372 1.9700362e-38
0.10713324 0.030804832 0.046985149 1.969928e-38
0.10242885 0.029473964 0.049018502 1.923974e-38
0.10309097 0.031425297 0.046602547 1.8963873e-38
0.10196519 0.033387836 0.04558295 1.988402e-38
0.099126339 0.029430974 0.048472404 1.9240835e-38
0.098690197 0.031676587 0.046770632 1.9333372e-38
0.099597543 0.034154549 0.045128644 2.0161311e-38
0.095823854 0.029387981 0.047926307 1.8962093e-38
0.094889373 0.032191306 0.04678756 1.942342e-38
0.094730705 0.034622882 0.04428196 1.9609254e-38
0.090840667 0.032632131 0.045825064 1.9148252e-38
0.090784624 0.03457151 0.043629408 1.9424851e-38
0.087059408 0.032930769 0.045680702 1.8689087e-38
0.086523145 0.03506583 0.043491483 1.9147543e-38
0.08486551 0.037152898 0.042441308 1.9147529e-38
0.083274394 0.033229362 0.045535743 1.8319576e-38
0.082724184 0.035053357 0.044080555 1.8687278e-38
0.082892478 0.037127212 0.042115033 1.887345e-38
0.079074532 0.036022976 0.043261349 1.7952227e-38
0.079604059 0.037970554 0.041501462 1.8227013e-38
0.075178906 0.03677801 0.043401003 1.7400129e-38
0.075265199 0.038903181 0.04111284 1.7489814e-38
0.071385413 0.037079353 0.043254495 1.6385962e-38
0.071217462 0.039023511 0.041548312 1.6291988e-38
0.070396543 0.040952206 0.039734721 1.5923572e-38
0.067237467 0.040042587 0.041459501 1.5372197e-38
0.067653656 0.042259578 0.039514303 1.564807e-38
0.064119935 0.040989518 0.041737735 1.5374359e-38
0.063422143 0.042903744 0.03960681 1.5555872e-38
0.058986828 0.044072818 0.039420784 1.5370734e-38
0.059014887 0.046396218 0.037615716 1.4542785e-38
0.055533439 0.044882495 0.040002584 1.4079314e-38
0.055030599 0.046686593 0.038556755 1.3252789e-38
0.055269912 0.048730616 0.036605418 1.3804865e-38
0.051417857 0.048474412 0.038526654 1.3069084e-38
0.051124752 0.050955083 0.036926925 1.2976148e-38
0.051323831 0.053996131 0.035534322 1.1963467e-38
0.047883958 0.051701788 0.037786245 1.2513039e-38
0.047172338 0.05500238 0.036652684 1.2882909e-38
0.048298508 0.057412721 0.034761965 1.3708722e-38
0.043542176 0.056156721 0.036306441 1.4169335e-38
0.043760508 0.061540693 0.033681929 1.3621913e-38
0.039901644 0.059808068 0.036226571 1.3341033e-38
0.039526761 0.062848479 0.034036577 1.3620838e-38
0.039805025 0.065558478 0.032910883 1.417256e-38
0.038827926 0.068454891 0.032316923 1.3437505e-38
0.03619054 0.066827551 0.034378707 1.261098e-38
0.035461754 0.069694892 0.033184409 1.2428019e-38
0.035285413 0.073784068 0.03198576 1.3162373e-38
0.035361379 0.078160137 0.031702399 1.3527573e-38
0.035737246 0.082157299 0.031450212 1.3527209e-38
0.036197186 0.085700527 0.030521572 1.3252405e-38
0.035539508 0.089679614 0.030098915 1.2792501e-38
0.035857797 0.11443648 0.028406322 1.2333325e-38
0.032416016 0.070612445 0.034130514 1.1686186e-38
0.032416016 0.073949739 0.033867776 1.2610297e-38
0.032040983 0.078178704 0.033065796 1.36212e-38
0.031521946 0.081837699 0.031968355 1.3991748e-38
0.03195098 0.085726097 0.030603826 1.4267254e-38
0.031955838 0.090166122 0.029926538 1.3160554e-38
0.031593442 0.094280526 0.029080093 1.2240747e-38
0.031374216 0.096714571 0.028852046 1.104329e-38
0.030935764 0.10623495 0.028029621 8.74452e-39
0.031683564 0.11005726 0.028192103 9.1147304e-39
0.031479329 0.11384203 0.029554844 1.0584848e-38
0.031094998 0.11664991 0.030286551 1.2153963e-38
0.027478725 0.085806236 0.031209171 1.3254928e-38
0.027652115 0.089760169 0.030474842 1.2888277e-38
0.027652115 0.093757316 0.030160189 1.2152856e-38
0.027782649 0.09771511 0.029531419 9.9391143e-39
0.028130651 0.10160282 0.028379381 8.5601203e-39
0.027999878 0.10563599 0.028379083 8.1005757e-39
0.027843505 0.10962474 0.029427171 8.7452347e-39
0.028453022 0.11327823 0.030112386 1.0863926e-38
0.02404967 0.098759294 0.030522645 9.0182356e-39
0.024159759 0.1015418 0.030321956 7.8232868e-39
0.024490029 0.10521713 0.03008759 6.72123e-39
0.1925849 0.078777045 0.014382541 1.0677041e-38
0.18506324 0.085134715 0.012630522 1.2612427e-38
0.16265495 0.079505011 0.013370395 1.4914814e-38
0.16217348 0.1032228 0.012425423 1.307414e-38
0.11269176 0.04777693 0.032868326 1.482297e-38
0.1176323 0.025506306 0.053574741 8.9275128e-39
0.16097666 0.0095136203 0.064907312 4.7862526e-39
0.16114289 0.011875656 0.062207043 5.7971717e-39
0.15755101 0.010138277 0.064796507 5.34012e-39
0.15764347 0.012296341 0.062201738 6.5354262e-39
0.15328014 0.013444398 0.061961532 7.6403024e-39
0.14929929 0.013526455 0.06254673 8.5619616e-39
0.14877984 0.0153975 0.060381055 9.6643589e-39
0.14505959 0.01400904 0.061735451 8.1002744e-39
0.14546701 0.016022783 0.059780598 8.4676192e-39
0.14148533 0.016810346 0.059818745 7.9176502e-39
0.14116977 0.019306343 0.057281971 8.563028e-39
0.13724226 0.017401513 0.060642242 6.9978617e-39
0.13727082 0.019800667 0.05801779 7.7336527e-39
0.13426913 0.01790167 0.060311496 6.4446964e-39
0.13322631 0.020173673 0.057925522 7.1815299e-39
0.12761718 0.0016821325 0.060481489 5.5278086e-39
0.12814933 0.0046467632 0.060336649 9.5818813e-39
0.12814933 0.0081422403 0.060061455 6.2631581e-39
0.12917681 0.020889677 0.057485938 7.177916e-39
0.12992531 0.023170423 0.055106878 7.8215015e-39
0.12499839 0.00097871572 0.059931636 2.9470414e-39
0.12495637 0.0043363199 0.059829831 1.041344e-38
0.1249564 0.0075629056 0.059575796 1.0870779e-38
0.12525362 0.020852458 0.058143318 6.9031185e-39
0.1258727 0.023122028 0.054775298 9.2019024e-39
0.12122092 0.00094491243 0.058458507 1.2893361e-39
0.12099341 0.004286442 0.059061408 1.0968772e-38
0.12149736 0.0077867508 0.058982611 1.2438469e-38
0.12103799 0.020799175 0.057591438 6.8112914e-39
0.12146628 0.023608495 0.054681599 1.1046884e-38
0.11708999 0.0042405427 0.05807662 1.1068534e-38
0.11697403 0.0082656443 0.058192313 1.3644195e-38
0.11730663 0.021377981 0.057215393 7.7328834e-39
0.11743826 0.024376083 0.055193663 1.0583779e-38
0.11301231 0.0041825436 0.057741582 1.2177766e-38
0.1131729 0.0078320429 0.057594001 1.5213675e-38
0.11313118 0.024339601 0.055722654 1.22397e-38
0.11405081 0.026974209 0.052165985 1.4169328e-38
0.10917312 0.00078229979 0.056805491 1.9314811e-39
0.10899167 0.0041284859 0.057189822 1.3276891e-38
0.10932428 0.007157743 0.057006657 1.6403952e-38
0.1092602 0.024459887 0.055252671 1.611294e-38
0.11008218 0.02692255 0.051509738 1.8875993e-38
0.10526657 0.0005845204 0.056848943 4.5039344e-39
0.10599831 0.0040895119 0.056694746 1.6036977e-38
0.10530981 0.024623621 0.054527998 1.7774295e-38
0.10602017 0.026875932 0.051176488 1.9428444e-38
0.10167453 0 0.056297243 7.6363844e-39
0.10100931 0.024862971 0.054229379 1.6853093e-38
0.10200298 0.027495176 0.050628781 1.9430215e-38
0.097350746 0.025151439 0.053597867 1.5840017e-38
0.097573146 0.027742229 0.050816357 1.8597969e-38
0.094357371 0.025448576 0.053076386 1.3724208e-38
0.093340337 0.02792155 0.0510602 1.7310126e-38
0.092884794 0.030709121 0.048350096 1.8687318e-38
0.089236334 0.028056309 0.051341236 1.565528e-38
0.089836061 0.030702081 0.049199164 1.8319948e-38
0.08508268 0.028181896 0.051190972 1.4641471e-38
0.085392565 0.031195659 0.04909879 1.8413575e-38
0.082383841 0.025292706 0.05109638 8.7391586e-39
0.081088111 0.027962163 0.050557733 1.1232752e-38
0.081577793 0.031560127 0.048144817 1.7033519e-38
0.078392655 0.028601781 0.050171793 1.0769241e-38
0.077590764 0.031906504 0.048083603 1.5466205e-38
0.07751286 0.034534555 0.045999646 1.7126071e-38
0.073466122 0.032694016 0.048623264 1.5647686e-38
0.073905557 0.035025712 0.04546243 1.7032067e-38
0.069745108 0.03319465 0.048371315 1.3811704e-38
0.069642901 0.035424437 0.045854807 1.5467991e-38
0.06641911 0.033151358 0.047821403 1.1230628e-38
0.065881044 0.035939179 0.045605958 1.3625547e-38
0.065765828 0.038376987 0.04323411 1.4823344e-38
0.062045693 0.036203068 0.046006083 1.2886173e-38
0.062122926 0.039517455 0.043046594 1.4267308e-38
0.058436781 0.037080672 0.046183825 1.4275183e-38
0.057831302 0.039914817 0.044843316 1.444773e-38
0.058258772 0.042317435 0.042352736 1.5093801e-38
0.05444558 0.040613823 0.045241654 1.546437e-38
0.054111883 0.043398559 0.042085946 1.4819006e-38
0.050597548 0.043802816 0.042316794 1.334675e-38
0.046798855 0.047833066 0.04096067 1.2791422e-38
0.045500815 0.051160384 0.039110065 1.2791013e-38
0.043602765 0.04850509 0.042138338 1.3251306e-38
0.042572647 0.05169636 0.039488435 1.3160185e-38
0.042192221 0.054460783 0.038299739 1.389525e-38
0.038888097 0.051587291 0.041280687 1.2151809e-38
0.038747787 0.055493783 0.03891629 1.2793223e-38
0.038143247 0.059194393 0.037168741 1.2697818e-38
0.034867555 0.056877572 0.039686918 1.0399767e-38
0.034638435 0.05977435 0.03860724 1.2055682e-38
0.034424454 0.063416474 0.036725879 1.2607404e-38
0.033669114 0.066503167 0.036018372 1.2149294e-38
0.033539057 0.11861588 0.034605742 1.3989991e-38
0.031639874 0.060438309 0.039208412 1.1321343e-38
0.030473411 0.063484333 0.037757754 1.1046549e-38
0.030388147 0.066721767 0.035963595 1.104438e-38
0.030110657 0.069851726 0.035404742 1.1226951e-38
0.02998364 0.07401944 0.034643948 1.2056032e-38
0.029717475 0.07767801 0.034142137 1.3162366e-38
0.030478358 0.11870579 0.033653557 1.3534748e-38
0.03182891 0.12210447 0.035063267 1.4086479e-38
0.027108997 0.06371177 0.038293779 9.6643281e-39
0.026232213 0.066834003 0.037466288 9.9398248e-39
0.026491612 0.070138738 0.036571383 1.0674852e-38
0.026728481 0.074241251 0.034932137 1.1502858e-38
0.026479691 0.078031957 0.034253359 1.2517365e-38
0.026234537 0.081547827 0.033427536 1.2979782e-38
0.025418103 0.11070825 0.030826569 8.284974e-39
0.02619493 0.11431341 0.031107783 1.1601126e-38
0.027629882 0.11809221 0.032443583 1.3074492e-38
0.023181379 0.064854376 0.038131237 8.4672241e-39
0.023181379 0.066870987 0.03797251 9.0196748e-39
0.023064911 0.070387125 0.037240565 9.6646686e-39
0.022744894 0.07400462 0.036321521 1.0399389e-38
0.022378296 0.078163624 0.035594225 1.1505737e-38
0.022773653 0.082095876 0.034333646 1.2336948e-38
0.022773683 0.086117074 0.034017026 1.2704278e-38
0.022839457 0.090117976 0.033543527 1.2150739e-38
0.02323547 0.094027445 0.032284975 1.1231273e-38
0.022198528 0.097561106 0.031664848 9.5710353e-39
0.021898925 0.10226628 0.031108916 7.2715577e-39
0.022166938 0.10625416 0.031217277 5.7996492e-39
0.023103863 0.11012538 0.031334758 7.178639e-39
0.022853255 0.1140078 0.031970263 1.1049419e-38
0.019190192 0.075557716 0.036624551 9.7522358e-39
0.018658042 0.078208238 0.03598851 1.0581634e-38
0.018836021 0.082198307 0.035252035 1.1596497e-38
0.018925428 0.086205333 0.034725547 1.2516632e-38
0.018702358 0.090291247 0.034931719 1.1778363e-38
0.018657833 0.094334021 0.03471899 1.1045432e-38
0.01852873 0.098200634 0.033037305 9.2018926e-39
0.01906383 0.10206325 0.031466603 7.3608835e-39
0.018528074 0.10625 0.032403588 6.4396349e-39
0.019057691 0.11000849 0.033019006 6.9913905e-39
0.015864223 0.079547659 0.035757065 1.0123168e-38
0.015332073 0.082229555 0.035457373 1.0859647e-38
0.014533788 0.086252406 0.035007954 1.187486e-38
0.014977276 0.089843273 0.034799039 1.1873408e-38
0.015864223 0.094336197 0.034592927 1.0677367e-38
0.014759213 0.098287001 0.033533096 9.2015479e-39
0.014939874 0.1022636 0.03279829 7.7282297e-39
0.014849424 0.10631987 0.03268981 7.3619275e-39
0.015420765 0.10956709 0.033320129 6.9949568e-39
0.011873037 0.087562174 0.034462035 1.1323457e-38
0.011207849 0.091586739 0.03403455 1.0124519e-38
0.01098609 0.095168963 0.033715725 9.2025778e-39
0.011481673 0.098230854 0.032879174 8.9274553e-39
0.011618555 0.10222037 0.032249033 8.3746641e-39
0.011344463 0.10633314 0.032557487 8.6501383e-39
0.1589449 0.084858298 0.012986898 1.491482e-38
0.096345335 0.078734979 0.020233631 1.5189239e-38
0.16544916 0.038765147 0.034031034 1.5288637e-38
0.10761277 0.093609601 0.028864801 1.7676361e-38
0.15233505 0.031697109 0.040031493 1.3259958e-38
0.039579868 0.082885236 0.029272437 1.2793611e-38
0.16027893 0.0074558854 0.068512082 4.1423153e-39
0.15637335 0.008533705 0.067268908 4.7865833e-39
0.15514168 0.011443328 0.066326559 6.5357836e-39
0.15226276 0.01005175 0.066973925 6.9085093e-39
0.15247339 0.011408586 0.065885305 7.274038e-39
0.14825466 0.0099995732 0.066311121 7.2726339e-39
0.14813739 0.011689197 0.065141737 7.9172985e-39
0.14424658 0.0099473968 0.065648317 7.2697683e-39
0.14443119 0.011977334 0.064671874 7.732187e-39
0.14049035 0.012767781 0.064419925 6.4468403e-39
0.13913187 0.015279546 0.063360691 7.088607e-39
0.13756645 0.013910752 0.06422472 5.52524e-39
0.13630751 0.01569394 0.063535929 6.1684542e-39
0.13088629 0.00099775195 0.06412977 6.9128814e-39
0.13088629 0.0030229166 0.063970327 8.3829654e-39
0.13205102 0.017077018 0.062651038 5.2483098e-39
0.128677 0.00084858388 0.062960446 5.803657e-39
0.12927738 0.0040184036 0.063369989 8.1993168e-39
0.1268782 0.011746451 0.062616706 8.2688941e-40
0.12805855 0.016872153 0.062264323 3.9564849e-39
0.12912574 0.019193914 0.061387599 6.2588393e-39
0.12445623 0.0093586035 0.061384857 6.6305015e-39
0.12446845 0.012005538 0.061904907 1.561565e-39
0.12440418 0.016607706 0.061695218 2.8487137e-39
0.12378915 0.019124441 0.060505092 5.1553644e-39
0.11978671 0.0089607649 0.060639203 1.1149508e-38
0.12032592 0.011663154 0.061024547 2.2962475e-39
0.1202836 0.017059196 0.060762167 2.1129465e-39
0.12045377 0.019081023 0.059953511 4.2355759e-39
0.11649282 0.01190228 0.06044066 2.571754e-39
0.11658886 0.01734909 0.060209334 9.2087029e-40
0.11613184 0.019565515 0.059399605 4.3195165e-39
0.11178179 0.0095306672 0.059262395 1.1797006e-38
0.1125555 0.011426587 0.059852004 3.5819445e-39
0.11235988 0.020326331 0.058847666 6.7151343e-39
0.10812469 0.0089425854 0.058903575 1.1789502e-38
0.10950983 0.0108453 0.059797704 5.6941609e-39
0.10826436 0.020951167 0.058455884 9.7554461e-39
0.10711226 0.022951972 0.057428896 1.4736872e-38
0.10310981 0.0013285056 0.058465183 8.926445e-39
0.10358745 0.004028067 0.058535457 1.5572404e-38
0.10447137 0.0079150982 0.058681548 1.1880954e-38
0.10456881 0.021241516 0.057902873 1.1042628e-38
0.10363683 0.022913273 0.05736202 1.5103153e-38
0.10010797 0.00095237792 0.05799526 1.0132135e-38
0.1011086 0.0039988831 0.057921946 1.3178539e-38
0.10149363 0.0066906139 0.058790922 1.2985455e-38
0.10082562 0.021533117 0.05751133 1.0578406e-38
0.10044152 0.022865128 0.056325793 1.2060015e-38
