# .PCD v0.7 - Point Cloud Data file format
VERSION 0.7
FIELDS x y z rgb
SIZE 4 4 4 4
TYPE F F F F
COUNT 1 1 1 1
WIDTH 983
HEIGHT 1
VIEWPOINT 0 0 0 0 1 0 0
POINTS 983
DATA ascii
0.071131185 0.071810484 0.016669691 1.5741689e-38
0.073202305 0.14159951 0.038648665 2.3325133e-38
0.072055936 0.14323257 0.041491449 2.341769e-38
0.068075895 0.068572909 0.017982304 1.6291979e-38
0.067555219 0.072627872 0.017517924 1.5832791e-38
0.067531258 0.075641185 0.018231094 1.5738799e-38
0.070824832 0.14453676 0.041759908 2.3417689e-38
0.070909902 0.148287 0.042604983 2.341769e-38
0.06947495 0.15197164 0.043038726 2.341769e-38
0.068532959 0.15474646 0.043664992 2.341769e-38
0.065167829 0.069308251 0.018694878 1.5832051e-38
0.064718604 0.071570188 0.019287527 1.5556567e-38
0.064218163 0.075838685 0.020165324 1.5829938e-38
0.063283011 0.079073966 0.020035446 1.509561e-38
0.064610973 0.12330803 0.034132123 7.8175611e-39
0.064015865 0.12449905 0.034614682 7.3576885e-39
0.066700503 0.1555514 0.045288265 2.341769e-38
0.064893082 0.15756786 0.047299445 2.341769e-38
0.061586414 0.076475948 0.021598935 1.5097379e-38
0.06064415 0.079583853 0.021694779 1.5278906e-38
0.059850533 0.083255142 0.022303224 1.5277467e-38
0.062734708 0.12184611 0.036092699 6.8012638e-39
0.062783867 0.12486979 0.035467684 6.9885445e-39
0.063588865 0.1570372 0.045213282 2.341769e-38
0.062590137 0.15961771 0.046667278 2.3233659e-38
0.062462851 0.16171585 0.047265708 2.2858779e-38
0.05766781 0.082960457 0.023805082 1.5093789e-38
0.0566925 0.086915344 0.024286747 1.5001599e-38
0.055981081 0.091095477 0.025250316 1.4359821e-38
0.057943381 0.13119116 0.038835108 1.2236072e-38
0.053197339 0.087003499 0.026162267 1.4633901e-38
0.052339692 0.091263264 0.026711464 1.3624419e-38
0.051508836 0.094780564 0.027039886 1.1686548e-38
0.052837525 0.1108861 0.032743633 1.2242548e-38
0.052031495 0.11199266 0.033942401 1.1784109e-38
0.055067718 0.13287315 0.040557981 1.2789276e-38
0.052107122 0.13567266 0.040972054 1.3340995e-38
0.049009427 0.091635972 0.02820313 1.3163438e-38
0.048611872 0.094789118 0.028883159 1.0211413e-38
0.048371971 0.099332035 0.029201984 9.6625471e-39
0.047504783 0.10209703 0.030061007 1.2886135e-38
0.048048079 0.10633859 0.031770229 1.4083586e-38
0.049120113 0.10910368 0.032277405 1.3255251e-38
0.04998102 0.11349145 0.034407556 8.9271316e-39
0.049960818 0.13744518 0.042693794 1.3707967e-38
0.049393103 0.13976273 0.042650104 1.3617601e-38
0.049492441 0.16841236 0.052258968 2.1464353e-38
0.048883639 0.16926971 0.053699493 2.0164969e-38
0.045760684 0.09543696 0.030317962 1.0123791e-38
0.045528866 0.098483503 0.030543804 1.1690086e-38
0.045936786 0.10206851 0.031016886 1.3898464e-38
0.04599034 0.10451102 0.033216715 1.3624744e-38
0.046359517 0.16833615 0.052745759 1.8959935e-38
0.046415791 0.17064103 0.053836942 1.4632876e-38
0.04615929 0.17313309 0.055394411 1.4271237e-38
0.041368436 0.14490436 0.047041953 1.4170775e-38
0.041399062 0.14611423 0.047428429 1.5651299e-38
0.042294174 0.16797148 0.052227736 1.5927479e-38
0.042675965 0.170884 0.053462446 1.4178307e-38
0.042735565 0.17402992 0.056007147 1.3532594e-38
0.042792108 0.17637628 0.056993484 1.4270892e-38
0.039485857 0.14485857 0.047334492 1.352829e-38
0.038888957 0.14605317 0.047818542 1.4910145e-38
0.037912097 0.1636456 0.051543355 1.1687952e-38
0.039025344 0.16763359 0.052652121 1.2797207e-38
0.03890454 0.17060648 0.054579139 1.2982669e-38
0.038968589 0.17390168 0.05669868 1.3443989e-38
0.040282007 0.17631523 0.057383478 1.3625512e-38
0.03549261 0.15962061 0.05169946 1.1315587e-38
0.034705687 0.16275725 0.052417457 1.0673093e-38
0.034918133 0.16721293 0.053585231 1.1322031e-38
0.035123367 0.17029285 0.055804074 1.1876313e-38
0.036016859 0.17298713 0.057002783 1.2519172e-38
0.03201694 0.16361985 0.054624677 1.0857473e-38
0.031897884 0.16660765 0.055079103 1.0768857e-38
0.032159846 0.16926594 0.056428313 1.104617e-38
0.15000722 0.077336043 0.011697769 7.2715465e-39
0.15069251 0.080471843 0.012423337 8.2846531e-39
0.14629783 0.069420069 0.0086781383 6.7220301e-39
0.14739785 0.072361171 0.009272933 7.1786643e-39
0.14770964 0.076712757 0.010571063 7.2715661e-39
0.14725281 0.080677658 0.011846006 9.1158445e-39
0.14754671 0.084327489 0.013534307 1.1879911e-38
0.14708181 0.086387724 0.015104234 1.4919828e-38
0.14196824 0.06157583 0.0073783398 1.0682402e-38
0.14280269 0.064071923 0.0075181127 8.2857167e-39
0.14456502 0.067353696 0.0082923174 7.6417934e-39
0.14483421 0.083615243 0.012446761 1.1143078e-38
0.14377087 0.088514388 0.014737427 1.7409438e-38
0.1433325 0.091464311 0.016649902 2.1555035e-38
0.1434245 0.095111459 0.017815113 2.2673648e-38
0.14359128 0.099192828 0.018905938 2.2770524e-38
0.14355342 0.10323265 0.02052331 2.2863437e-38
0.14333463 0.10720721 0.02112335 2.3233299e-38
0.14323626 0.11076367 0.023265243 2.341769e-38
0.14337131 0.11427414 0.024733663 2.341769e-38
0.13807413 0.05454278 0.006270051 1.0869002e-38
0.13867682 0.057368457 0.00628829 9.5782702e-39
0.13992223 0.060809791 0.0064008236 8.4686576e-39
0.14127275 0.092017859 0.01574713 2.2204381e-38
0.14090541 0.095225275 0.017270386 2.2581813e-38
0.14161061 0.10536638 0.020011365 2.2677612e-38
0.14131722 0.11149636 0.022468269 2.3417689e-38
0.14086795 0.11483595 0.024127483 2.341769e-38
0.1403967 0.11744735 0.026033282 2.341769e-38
0.13534531 0.054917723 0.0050641298 1.1143434e-38
0.13748117 0.11618069 0.024184823 2.3325854e-38
0.13736321 0.11848202 0.025708616 2.341769e-38
0.13677311 0.12114266 0.027678788 2.3047111e-38
0.13122591 0.046903372 0.004650116 1.1332113e-38
0.13155948 0.049659103 0.0050442219 1.2067538e-38
0.13081813 0.051742733 0.0044212341 1.2163674e-38
0.13379687 0.11972931 0.025934637 2.2860932e-38
0.13331766 0.12182668 0.027518809 2.2765135e-38
0.13333024 0.12502661 0.029320359 2.2388794e-38
0.13236237 0.12799472 0.030970633 2.2291559e-38
0.12515572 0.042672932 0.0045380592 8.1045834e-39
0.12681828 0.046308905 0.0048049688 8.288239e-39
0.12727843 0.049677104 0.0044826865 7.3695435e-39
0.13020471 0.12691846 0.028847337 2.2198283e-38
0.13001648 0.12945619 0.029851198 2.2200788e-38
0.12895584 0.13296685 0.032148004 2.2392033e-38
0.12813286 0.13650295 0.034148335 2.2951676e-38
0.12263057 0.04261151 0.004930377 8.5648245e-39
0.12264317 0.045602143 0.0052883029 9.1162074e-39
0.12254369 0.04790318 0.0045295954 9.4892863e-39
0.12491091 0.13412088 0.032308042 2.2200804e-38
0.12490664 0.13736334 0.034037471 2.2485675e-38
0.12383237 0.13995099 0.036231995 2.2674741e-38
0.11916618 0.042831331 0.0055670142 1.0131068e-38
0.11881281 0.045472354 0.0054157376 1.0867919e-38
0.11939666 0.047826618 0.0050185323 1.1144873e-38
0.121608 0.13519862 0.032930017 2.1923139e-38
0.12124249 0.13790712 0.034018099 2.2201164e-38
0.12122825 0.14087489 0.035892427 2.257499e-38
0.12070623 0.14310339 0.037230611 2.2482449e-38
0.11470305 0.041941822 0.0057418942 1.1697695e-38
0.11520976 0.044847637 0.0051634908 1.1512229e-38
0.11735572 0.14115891 0.035552979 2.1000121e-38
0.11715995 0.14430028 0.037513137 2.2022172e-38
0.11685747 0.14687687 0.039611757 2.2298044e-38
0.11094783 0.04152751 0.0051192045 1.1976405e-38
0.11238104 0.044017732 0.0049313307 1.21619e-38
0.11422403 0.14168912 0.036235631 2.0536625e-38
0.11386462 0.14472437 0.037675381 1.8697366e-38
0.11382055 0.14810444 0.03908664 1.6205561e-38
0.11276183 0.15123728 0.041691303 1.6302447e-38
0.10715006 0.037178725 0.0051676631 1.0133956e-38
0.10759512 0.040433973 0.0048187971 1.013394e-38
0.11115378 0.14464632 0.037693799 1.5007387e-38
0.11127664 0.14950033 0.039244473 1.2978714e-38
0.11019371 0.15120463 0.0415681 1.5932958e-38
0.10282828 0.033749253 0.0050293207 9.210924e-39
0.10360412 0.037322074 0.0047292709 9.5753905e-39
0.10498255 0.14934722 0.040222347 1.3541568e-38
0.10638934 0.15155181 0.041902721 1.7039283e-38
0.099180177 0.03364259 0.0053244829 8.0123738e-39
0.098994583 0.037021935 0.004852891 7.1847529e-39
0.10163699 0.14873961 0.040926397 1.2708229e-38
0.10262272 0.15050355 0.042754471 1.4271957e-38
0.096727118 0.03285858 0.0060030222 6.4446921e-39
0.094834268 0.037012845 0.0068584681 5.8908149e-39
0.094386533 0.040453464 0.0077790618 7.4541637e-39
0.094185933 0.044526935 0.0085981488 9.0175504e-39
0.094119072 0.048181951 0.0092600584 1.0495889e-38
0.096078724 0.14549239 0.04042846 1.0959366e-38
0.097262084 0.14808351 0.041681588 1.0499128e-38
0.097771481 0.15024351 0.043285012 9.7608552e-39
0.092328712 0.041874409 0.0096384287 8.837094e-39
0.092058674 0.045602918 0.010091245 1.0402976e-38
0.091198772 0.048904568 0.011338055 1.2060684e-38
0.09104342 0.052361935 0.011418581 1.2795381e-38
0.092314146 0.14100888 0.041719437 9.395262e-39
0.093776807 0.14444217 0.040996253 9.7590265e-39
0.094047382 0.14722234 0.042687416 8.284988e-39
0.094322041 0.15054545 0.044477642 6.9942814e-39
0.087940462 0.052850872 0.013197541 1.3715181e-38
0.086807415 0.056190431 0.013683081 1.4173631e-38
0.091143981 0.14462954 0.043082118 6.4414495e-39
0.085045882 0.053252846 0.014509201 1.4266561e-38
0.083805107 0.056158334 0.014588356 1.4542422e-38
0.083520554 0.059384674 0.014615119 1.4909429e-38
0.080061331 0.05633986 0.015967309 1.5001994e-38
0.080077454 0.059437364 0.015548825 1.5645203e-38
0.076916538 0.056955189 0.0165025 1.5739197e-38
0.076152548 0.059126526 0.017102003 1.5922503e-38
0.077502787 0.13900176 0.042424262 2.1739729e-38
0.072821394 0.060264021 0.01770997 1.610832e-38
0.071359813 0.063209832 0.018103898 1.6293057e-38
0.070164904 0.066033095 0.018946767 1.6476005e-38
0.074847847 0.14055076 0.043146074 2.3411876e-38
0.073626816 0.14303373 0.044716179 2.3415853e-38
0.072883815 0.14728996 0.045860291 2.3417683e-38
0.068437696 0.063181669 0.01913321 1.6200142e-38
0.067465618 0.066896528 0.019843996 1.6199781e-38
0.072183296 0.14453971 0.045084596 2.341769e-38
0.072244816 0.14697036 0.045861125 2.341769e-38
0.071094282 0.15070899 0.047790527 2.341769e-38
0.065103628 0.06322971 0.020727158 1.5648065e-38
0.063746676 0.066572577 0.020966768 1.5646972e-38
0.063057274 0.071014374 0.021718919 1.5647336e-38
0.062796295 0.073130399 0.022446156 1.583172e-38
0.068056092 0.15519288 0.049737394 2.341769e-38
0.06579522 0.15818068 0.049832404 2.3140025e-38
0.061159257 0.069879442 0.022725105 1.5647697e-38
0.06031229 0.073874474 0.024004281 1.5462577e-38
0.059541833 0.07709375 0.024259925 1.5278188e-38
0.06151941 0.12079775 0.040206492 6.250957e-39
0.061565619 0.12262344 0.040789664 6.619392e-39
0.056654532 0.078641981 0.026143968 1.5001611e-38
0.055888239 0.081855863 0.026397288 1.4817924e-38
0.057300631 0.12860158 0.043420374 1.1225883e-38
0.056733005 0.1318014 0.042421222 1.2696011e-38
0.052966297 0.082194656 0.027895629 1.4540645e-38
0.053722586 0.11221948 0.036841989 1.0589489e-38
0.05336497 0.13112602 0.04381609 1.2972934e-38
0.053851962 0.16683359 0.056354702 1.3509369e-38
0.053898163 0.1686593 0.056937933 1.6298814e-38
0.050474212 0.083283395 0.028806746 1.4357707e-38
0.049635615 0.085734338 0.030040681 1.4081095e-38
0.049038101 0.088750988 0.030012608 1.3438947e-38
0.04861192 0.1091679 0.036423028 1.2520201e-38
0.049697153 0.11233893 0.037910044 7.9151517e-39
0.05069837 0.13195816 0.044946074 1.3250589e-38
0.049686734 0.13506612 0.044627845 1.3616119e-38
0.051397469 0.16950352 0.056674004 2.0262107e-38
0.050719276 0.17266196 0.058539331 1.5555884e-38
0.046869159 0.090101391 0.031069577 1.2334048e-38
0.043898936 0.096925765 0.033230901 1.2425147e-38
0.04437105 0.10073143 0.034598112 1.3990665e-38
0.045234818 0.10526103 0.036773682 1.242907e-38
0.04623488 0.10864052 0.037438095 1.0768463e-38
0.046584737 0.11213592 0.038777888 6.158072e-39
0.046915013 0.13557425 0.046308398 1.3893087e-38
0.046229769 0.13936538 0.046760619 1.3895934e-38
0.044451982 0.14363018 0.048253596 1.4723223e-38
0.044498064 0.14545044 0.048835158 1.6204824e-38
0.048904113 0.17041904 0.056195378 1.648073e-38
0.047571309 0.17375076 0.057889938 1.4913381e-38
0.047541298 0.1765161 0.059773505 1.5100283e-38
0.047215834 0.17883594 0.061321855 1.4822257e-38
0.043165624 0.093590975 0.034398854 1.1594674e-38
0.042295173 0.096141011 0.034302473 1.2701736e-38
0.042844519 0.10050091 0.035836399 1.3440022e-38
0.042943992 0.10477626 0.038054407 9.4810032e-39
0.043530229 0.10780016 0.038405418 7.3579786e-39
0.043814339 0.13900709 0.0485636 1.3895252e-38
0.042617362 0.14241835 0.048768818 1.3986005e-38
0.043239247 0.14541981 0.049030721 1.5930393e-38
0.043414459 0.17740145 0.05988276 1.4641105e-38
0.043183457 0.17944109 0.061568201 1.4365211e-38
0.039401371 0.14290094 0.048842192 1.362009e-38
0.038849022 0.17699616 0.059965134 1.3349644e-38
0.039047003 0.17951052 0.061987221 1.408649e-38
0.034673233 0.15491346 0.05350101 1.2415416e-38
0.033966076 0.15700854 0.054507196 1.1681487e-38
0.034724586 0.17351022 0.059510469 1.1782685e-38
0.035203144 0.17654133 0.061122179 1.2611e-38
0.035552487 0.17893603 0.062992275 1.399537e-38
0.031784736 0.15792847 0.056011915 1.1499246e-38
0.030623734 0.16145712 0.056988716 1.1134037e-38
0.029914383 0.16571248 0.057772338 1.0583716e-38
0.030842323 0.16966674 0.059254944 1.0770307e-38
0.031476244 0.17258848 0.060672998 1.1689759e-38
0.03213818 0.17592248 0.062415004 1.2791806e-38
0.027898256 0.16272432 0.058730006 1.1228399e-38
0.027480967 0.16510275 0.059700727 1.0583747e-38
0.027558777 0.16851662 0.061058521 1.0766716e-38
0.028739039 0.17169642 0.062027752 1.2146818e-38
0.10772111 0.13556686 0.026806951 2.0814609e-38
0.10775533 0.13815722 0.029462934 1.9984137e-38
0.13020471 0.12691846 0.028847337 2.2198283e-38
0.12854436 0.1347349 0.03314817 2.2671854e-38
0.12413111 0.1328086 0.029351592 2.210573e-38
0.045059938 0.14281532 0.047949731 1.4910476e-38
0.1467616 0.061047047 0.010856688 9.3967249e-39
0.14752021 0.064092845 0.011674106 8.2885921e-39
0.14842427 0.068357229 0.010646164 6.8134817e-39
0.14751855 0.086851627 0.019225001 1.6761968e-38
0.14713621 0.090666264 0.020734489 2.0629484e-38
0.14722918 0.094339401 0.021907926 2.2860541e-38
0.14793497 0.098100573 0.022832453 2.3047466e-38
0.14828424 0.10183132 0.023856103 2.3234018e-38
0.14811213 0.10414994 0.024938285 2.341769e-38
0.14239624 0.053842098 0.0095924735 1.2064275e-38
0.14303027 0.056555718 0.0098351836 1.1327068e-38
0.14428037 0.060015321 0.0099528432 9.5768156e-39
0.14476345 0.063943624 0.0092839003 8.3775522e-39
0.14549592 0.087259561 0.017772615 1.6479641e-38
0.14578512 0.090248555 0.02028805 2.072456e-38
0.1458279 0.09475106 0.0212062 2.3044938e-38
0.14592072 0.098418742 0.022377849 2.2770887e-38
0.14601356 0.10208645 0.023549557 2.3048189e-38
0.14550151 0.10632661 0.024154365 2.341769e-38
0.14563096 0.10919607 0.026444376 2.341769e-38
0.1451228 0.11141899 0.027778447 2.341769e-38
0.14397666 0.11628559 0.029540479 2.341769e-38
0.14406963 0.11995876 0.030713856 2.341769e-38
0.13912897 0.051442623 0.0090834498 1.0960837e-38
0.14046113 0.0562253 0.0074885488 1.0685655e-38
0.1417107 0.11807886 0.027299643 2.341769e-38
0.14134869 0.12114957 0.029859126 2.3325854e-38
0.1411787 0.12450889 0.032303393 2.3325854e-38
0.13455869 0.045086056 0.0080384612 1.1513647e-38
0.13525786 0.048656195 0.0078033209 1.1696263e-38
0.13596278 0.051626116 0.0075855851 1.1511139e-38
0.13822576 0.12185168 0.029089451 2.3139664e-38
0.13758998 0.124888 0.031239212 2.2862362e-38
0.1378659 0.1272819 0.033741534 2.341697e-38
0.13065542 0.041320175 0.0074571371 9.8587933e-39
0.13183442 0.043835312 0.0067489743 1.1148434e-38
0.13298225 0.047820598 0.0059898496 1.2157214e-38
0.1349567 0.12583283 0.030911267 2.2483891e-38
0.13403888 0.12848502 0.033101022 2.2488546e-38
0.13340567 0.13184711 0.035876095 2.2863796e-38
0.13302603 0.13498548 0.037379026 2.3325854e-38
0.12768313 0.041597396 0.0063301921 8.7503102e-39
0.1284641 0.044056088 0.0055092573 9.3038343e-39
0.13136385 0.13366365 0.034031808 2.2489981e-38
0.13069904 0.13631907 0.036518991 2.3233653e-38
0.12958026 0.13906872 0.038730979 2.3325854e-38
0.12353504 0.039095223 0.0071017742 8.3807794e-39
0.12767845 0.13783768 0.035984039 2.2955274e-38
0.12636998 0.13983539 0.038333178 2.3140387e-38
0.12524129 0.14192575 0.040629685 2.3417328e-38
0.11913152 0.037369013 0.0080597997 9.0254579e-39
0.11879352 0.039809912 0.0074156523 9.5789876e-39
0.1218781 0.14344457 0.040720463 2.2769093e-38
0.12090577 0.14610162 0.042688668 2.3233302e-38
0.12068136 0.14875695 0.043850482 2.3234019e-38
0.11503801 0.036885828 0.0083588362 1.1049105e-38
0.11612151 0.039452761 0.0081617832 1.003999e-38
0.11908858 0.14395741 0.040430129 2.303813e-38
0.11836369 0.14727262 0.041975796 2.2488888e-38
0.11776681 0.14989071 0.044237256 2.0079953e-38
0.11696403 0.15233743 0.045615911 2.0451615e-38
0.11056088 0.03308174 0.0080716014 1.2343766e-38
0.11152488 0.036536306 0.0075694919 1.225409e-38
0.11479849 0.15068357 0.042952359 1.7221521e-38
0.11431308 0.15275122 0.04476428 2.0545566e-38
0.10615158 0.026040584 0.0065128803 1.0591681e-38
0.10731974 0.028736711 0.0070617199 9.4864557e-39
0.1074754 0.032205492 0.0070507526 1.0040341e-38
0.10864903 0.035046756 0.005828619 1.1700555e-38
0.11034624 0.15203437 0.043407202 1.9070823e-38
0.11023003 0.15330873 0.045114934 2.1095888e-38
0.10361138 0.025978774 0.0069076419 1.0500915e-38
0.10356714 0.028536469 0.0063242316 9.7619314e-39
0.10402292 0.032010585 0.0056012869 9.3938887e-39
0.1067439 0.15375003 0.046441376 1.9896985e-38
0.10043612 0.025901556 0.0074009895 9.4875165e-39
0.099721812 0.028804153 0.0063295364 8.8424988e-39
0.10033749 0.031190008 0.0059373975 9.0265285e-39
0.10280321 0.15161052 0.04521054 1.5384057e-38
0.10298556 0.15272874 0.047669947 1.6857754e-38
0.097260855 0.025824338 0.0078943372 6.3442415e-39
0.096304581 0.029231489 0.0078232884 5.8882744e-39
0.095146999 0.032329202 0.0078623891 5.7953711e-39
0.099280849 0.15084529 0.046105206 1.1507911e-38
0.099188074 0.15257658 0.048417866 1.1326738e-38
0.092662722 0.032881975 0.010662735 5.7092921e-39
0.091767356 0.035745203 0.011469543 6.9949961e-39
0.091459349 0.03988865 0.011265159 8.5590722e-39
0.09117797 0.043758184 0.011499584 1.0310418e-38
0.092412427 0.14246169 0.043237269 8.9328643e-39
0.092535838 0.14733745 0.044794798 6.7183994e-39
0.094769388 0.150603 0.046195984 6.4404014e-39
0.095062464 0.15211058 0.049117804 7.2698075e-39
0.089826152 0.03298524 0.011425138 6.8152459e-39
0.089857146 0.034209639 0.011816263 6.9038598e-39
0.089950114 0.037882745 0.0129897 7.8193505e-39
0.089288577 0.046775192 0.015266061 1.252023e-38
0.08693748 0.050964206 0.014523625 1.3714828e-38
0.089884818 0.13872367 0.044212937 8.193898e-39
0.089825526 0.14215583 0.045554876 6.2584876e-39
0.090456918 0.14589047 0.046945274 6.0733817e-39
0.091446146 0.1489298 0.047881186 5.5202107e-39
0.08362858 0.050962478 0.017190456 1.4265489e-38
0.087410763 0.13815859 0.045852244 6.8124139e-39
0.080105126 0.051050991 0.018326104 1.4634644e-38
0.080082543 0.053505868 0.017174125 1.4910872e-38
0.077589944 0.05104205 0.019265592 1.5187466e-38
0.076333582 0.054010719 0.018835783 1.5740273e-38
0.078932874 0.13861239 0.046673954 1.6189982e-38
0.078596175 0.14182261 0.047885954 1.666248e-38
0.078338854 0.14533222 0.049502552 2.0724518e-38
0.07299991 0.054528028 0.020433784 1.6200173e-38
0.07257615 0.057720929 0.019054413 1.6292369e-38
0.075695321 0.14278302 0.046601951 2.3390265e-38
0.075213447 0.14560756 0.048582315 2.3132446e-38
0.074819952 0.14880283 0.051086128 2.3141462e-38
0.069185965 0.058121741 0.022396505 1.6200859e-38
0.072441623 0.14978038 0.050992846 2.341769e-38
0.07085596 0.15349352 0.052807868 2.295491e-38
0.070760176 0.15733165 0.054774523 2.2662469e-38
0.065081954 0.061193228 0.021401346 1.5556603e-38
0.068680793 0.15345724 0.050669312 2.341769e-38
0.067831121 0.15786442 0.053179443 2.3137851e-38
0.067674726 0.16100436 0.056230307 2.1646855e-38
0.069025457 0.16401941 0.05722177 1.4991567e-38
0.0615579 0.061870307 0.024500251 1.491231e-38
0.059841935 0.070083916 0.025842726 1.5371473e-38
0.060785316 0.11611035 0.039873183 7.1775769e-39
0.061512861 0.11795059 0.043540835 6.1605621e-39
0.064825051 0.16125058 0.056745529 2.2949162e-38
0.063684434 0.16390339 0.057630539 2.3230409e-38
0.062767893 0.16753808 0.059381843 2.2756793e-38
0.058924619 0.066125274 0.026661515 1.5004853e-38
0.057992317 0.069452584 0.02778405 1.5093812e-38
0.056719642 0.073542297 0.028091908 1.4724672e-38
0.055357054 0.076387107 0.027905405 1.4542796e-38
0.057794802 0.11208102 0.040759325 9.1140018e-39
0.057858855 0.1148122 0.041207135 7.3630373e-39
0.059405591 0.1184437 0.043689787 5.4258851e-39
0.060335726 0.12159282 0.044911623 6.7126625e-39
0.057270292 0.1265918 0.044902325 9.200113e-39
0.059780378 0.16873442 0.058516085 2.2010296e-38
0.058551598 0.17160501 0.06096071 2.2469475e-38
0.053804915 0.072567582 0.029936492 1.4357299e-38
0.053215511 0.077056259 0.02999109 1.4082178e-38
0.051656235 0.079951674 0.029662967 1.4265147e-38
0.054058459 0.1121791 0.040762782 8.7477458e-39
0.053811025 0.11496523 0.041586518 4.785189e-39
0.053861242 0.11654082 0.044333696 4.7844505e-39
0.054682232 0.12390256 0.046581864 8.27674e-39
0.054539684 0.12695894 0.045939505 1.0671992e-38
0.055393822 0.16937657 0.057989538 1.7304384e-38
0.055518061 0.17225936 0.060497582 1.9981646e-38
0.05548919 0.17542966 0.062296331 1.9981268e-38
0.05499927 0.17826408 0.063766301 1.8229534e-38
0.051506545 0.073656529 0.030841231 1.4173635e-38
0.05092572 0.075783759 0.031624436 1.3989982e-38
0.049130742 0.080114424 0.032407165 1.4080754e-38
0.05122475 0.11283231 0.040373147 6.4399894e-39
0.051277369 0.11485869 0.042083919 4.0440367e-39
0.051506981 0.12382528 0.047075272 9.6585996e-39
0.050555509 0.12636313 0.047413588 1.1592889e-38
0.04955129 0.12999144 0.046907961 1.3342819e-38
0.052428044 0.17285748 0.059600174 1.6385652e-38
0.051561493 0.17604354 0.061245203 1.5926819e-38
0.052104972 0.17933175 0.063875198 1.5374692e-38
0.051693339 0.1813404 0.065656066 1.4177228e-38
0.046596572 0.080267042 0.033781886 1.3622275e-38
0.04585088 0.084097236 0.034256697 1.3254927e-38
0.045157332 0.087499231 0.034685671 1.214715e-38
0.044979367 0.090752959 0.034248114 1.0767434e-38
0.047154579 0.12739035 0.048939288 1.3893807e-38
0.046598472 0.13025564 0.048775494 1.3342085e-38
0.04542692 0.13340053 0.047975242 1.3893458e-38
0.048045579 0.17992342 0.063209772 1.3903889e-38
0.047649868 0.18191954 0.065865278 1.326139e-38
0.04249201 0.085265636 0.036069453 1.2611336e-38
0.041940264 0.088332921 0.036620259 1.1594676e-38
0.041838136 0.091799408 0.035808563 1.1871981e-38
0.040636625 0.09513855 0.038769305 1.29794e-38
0.04069538 0.097866118 0.040440083 1.2793945e-38
0.044056788 0.13037404 0.050410509 1.3343535e-38
0.043242995 0.13380733 0.051046669 1.4078221e-38
0.042053655 0.13769647 0.050447762 1.3803029e-38
0.044409577 0.18058068 0.063408196 1.3994629e-38
0.044124082 0.18269232 0.066265464 1.5469388e-38
0.04289557 0.18479732 0.068210781 1.6850508e-38
0.038031217 0.092906803 0.039270163 1.2979035e-38
0.040113419 0.13740823 0.053064466 1.34357e-38
0.038767874 0.14083076 0.052743018 1.3436779e-38
0.040307809 0.18078542 0.064144135 1.5012007e-38
0.040338732 0.18284318 0.066104889 1.5283242e-38
0.040355362 0.18473551 0.068605483 1.5279304e-38
0.034540389 0.15262675 0.055973768 1.2784578e-38
0.036174119 0.18022275 0.065168619 1.3346426e-38
0.036681477 0.18211764 0.067446351 1.1311987e-38
0.030565966 0.14901215 0.058643818 1.3434264e-38
0.031772699 0.15229592 0.058141887 1.2789973e-38
0.030093234 0.15666044 0.058004975 1.1961625e-38
0.030007016 0.17322573 0.063379347 1.2795357e-38
0.031364039 0.17691332 0.064351082 1.3528263e-38
0.032653406 0.17906533 0.065900683 1.3067649e-38
0.033911876 0.18090788 0.068418682 6.717361e-39
0.028441429 0.15267548 0.060043156 1.2606664e-38
0.027635232 0.15674824 0.060207307 1.2331159e-38
0.027398285 0.16059834 0.060144603 1.1503915e-38
0.025997691 0.16460088 0.061242998 1.076635e-38
0.026121095 0.16947663 0.062800586 1.3525396e-38
0.027236495 0.17194015 0.063415647 1.3254578e-38
0.02886289 0.17475626 0.066454649 1.113513e-38
0.030049197 0.17746188 0.066870511 1.095462e-38
0.024575766 0.15644833 0.061762035 1.2421911e-38
0.024114519 0.160173 0.062363088 1.1594306e-38
0.023433823 0.16431268 0.062277317 1.1500696e-38
0.023538068 0.16804749 0.063232422 1.2519154e-38
0.024205413 0.1713343 0.065442801 1.0942496e-38
0.025692284 0.17377403 0.067452133 8.0862124e-39
0.020704705 0.16060066 0.064003587 1.2149604e-38
0.019897468 0.16375618 0.064700484 1.2331879e-38
0.019630358 0.16728595 0.065751374 1.1404214e-38
0.09854278 0.099033386 0.011551917 1.5096327e-38
0.098955072 0.12303928 0.018865883 1.4177609e-38
0.11076072 0.10195675 0.010777712 1.7861837e-38
0.10966513 0.11209729 0.014709473 1.5191045e-38
0.10838353 0.1044786 0.012502611 1.2246167e-38
0.11515522 0.064389914 0.0039402843 1.3167412e-38
0.10504276 0.091279566 0.011472166 1.5193202e-38
0.10509387 0.10850209 0.01759243 1.6207356e-38
0.10208859 0.090148091 0.01205951 1.2428412e-38
0.10458104 0.072340161 0.0061805844 1.0127115e-38
0.1010537 0.086338997 0.0099354982 1.3165254e-38
0.10189834 0.11427346 0.019372821 1.6850569e-38
0.099108636 0.051243812 0.0030542612 8.6501482e-39
0.098353803 0.054562002 0.004144907 9.294482e-39
0.069097288 0.14798865 0.038336992 2.3325494e-38
0.063657865 0.12347957 0.042483449 1.2798255e-38
0.061005104 0.11644334 0.040026367 1.3073407e-38
0.051211093 0.1149005 0.042538881 1.0581959e-38
0.1480999 0.051621586 0.012906492 1.1421814e-38
0.14789633 0.055084467 0.011933029 1.0590983e-38
0.1482686 0.058865875 0.01203227 9.6668266e-39
0.14909931 0.062077671 0.01222682 8.9278603e-39
0.1499308 0.083235413 0.021064699 1.2707846e-38
0.14961457 0.086220473 0.021550596 1.5104207e-38
0.14942707 0.08944425 0.022978842 1.9066798e-38
0.14945199 0.09335342 0.023707867 2.2110023e-38
0.15009058 0.097344846 0.024186134 2.2861265e-38
0.15022953 0.10088629 0.025663912 2.3142182e-38
0.1493843 0.10516044 0.027184904 2.341769e-38
0.14913325 0.10811675 0.029990792 2.341769e-38
0.14889327 0.11475059 0.033559382 2.341769e-38
0.14427082 0.050607353 0.012228429 1.132961e-38
0.14512818 0.055853844 0.010861099 1.0315111e-38
0.14678834 0.11019844 0.030302644 2.341769e-38
0.14627868 0.11243582 0.031641603 2.341769e-38
0.14643753 0.11592427 0.033276379 2.341769e-38
0.14589338 0.11960229 0.034555376 2.341769e-38
0.14432213 0.124459 0.033192515 2.341769e-38
0.13899985 0.04383558 0.012227118 1.0680335e-38
0.14029987 0.047010422 0.011313796 1.0224005e-38
0.1412036 0.051469356 0.010083079 1.1050505e-38
0.14273132 0.12497154 0.034327209 2.341769e-38
0.14200218 0.12671286 0.037035584 2.341769e-38
0.1411539 0.12894377 0.039415479 2.341769e-38
0.13506766 0.040041834 0.011641443 1.0868639e-38
0.13654572 0.042888373 0.011612117 1.1882795e-38
0.13682023 0.046301752 0.010721862 1.1792065e-38
0.13827062 0.12794501 0.037081063 2.3417689e-38
0.1383734 0.13024762 0.039493501 2.341769e-38
0.13780671 0.13309997 0.040952206 2.341769e-38
0.13232432 0.038781106 0.010351837 1.0039967e-38
0.13333893 0.042087287 0.0083309412 1.0961544e-38
0.13554236 0.1291472 0.036142766 2.2866676e-38
0.13540988 0.13151261 0.037993491 2.3234019e-38
0.13495831 0.13488737 0.039615035 2.341769e-38
0.1339509 0.13708228 0.041806757 2.341769e-38
0.12848279 0.032485455 0.010271251 7.1847445e-39
0.1286366 0.035131216 0.010437429 7.9209026e-39
0.12827995 0.038375109 0.009019196 8.4737261e-39
0.12431657 0.032075971 0.010818839 8.0141773e-39
0.1274823 0.14244068 0.043488443 2.341769e-38
0.12662986 0.14466427 0.046022475 2.341769e-38
0.12072828 0.032036006 0.010682523 7.7365184e-39
0.12029107 0.035462976 0.0091683269 8.5651832e-39
0.12446691 0.14358309 0.04262203 2.3417689e-38
0.12369443 0.14600633 0.045340359 2.3325854e-38
0.12231298 0.14922456 0.047280967 2.3325493e-38
0.11642446 0.031461149 0.01041919 9.7608467e-39
0.11535527 0.034705579 0.0088780522 1.040551e-38
0.11965804 0.15045825 0.046695411 2.2294824e-38
0.1179878 0.15215832 0.049645483 2.2477026e-38
0.11027324 0.02395913 0.0094211698 1.151113e-38
0.11158275 0.027935654 0.0096963644 1.1144867e-38
0.11182581 0.031492174 0.0089462996 1.1792379e-38
0.11505491 0.15342623 0.050215364 2.2752145e-38
0.10753606 0.02475673 0.0076442957 1.0775004e-38
0.10879879 0.026784986 0.0073853135 1.0309742e-38
0.11055356 0.15430675 0.049001515 2.1743749e-38
0.10364877 0.024208814 0.0073924065 1.0869696e-38
0.098774582 0.023679435 0.011207759 6.7202267e-39
0.10301322 0.15333313 0.052470148 1.5657424e-38
0.09505938 0.02550897 0.013469875 5.8886261e-39
0.099487647 0.15367329 0.052801192 1.0954759e-38
0.098977037 0.15503709 0.054744065 1.2804382e-38
0.091189623 0.024182171 0.013672292 9.2090757e-39
0.092446193 0.026782006 0.012890339 7.4584475e-39
0.092114076 0.030545622 0.011325896 6.813811e-39
0.095717534 0.15366805 0.051775098 9.2952303e-39
0.095501736 0.15565616 0.054873466 1.372167e-38
0.088362209 0.023620337 0.013952017 9.2987784e-39
0.088671744 0.026826113 0.014466047 7.0900616e-39
0.08865767 0.030564547 0.013757706 6.8145242e-39
0.089150026 0.034968704 0.014304698 7.1786446e-39
0.088926122 0.038210064 0.017517269 1.012674e-38
0.088833064 0.042005837 0.018229067 1.1691906e-38
0.091500357 0.1498152 0.051995575 7.6396144e-39
0.091808707 0.15287197 0.053795457 1.022003e-38
0.091946542 0.15554097 0.055877447 1.5103874e-38
0.084762745 0.023750573 0.014156401 7.1833362e-39
0.084818408 0.026971996 0.014669538 6.8145439e-39
0.084478453 0.03021729 0.015834332 5.8925707e-39
0.086430587 0.03824237 0.018998921 1.0678477e-38
0.08610294 0.042137951 0.020312905 1.2518803e-38
0.085275687 0.045562863 0.020374298 1.3623707e-38
0.086757123 0.13531315 0.046101868 7.9165824e-39
0.086183205 0.13775009 0.046984076 6.6233535e-39
0.08694075 0.14119601 0.048684657 5.1506995e-39
0.087486595 0.14489089 0.051209211 6.2588393e-39
0.087998569 0.14890262 0.052955687 8.2846321e-39
0.088013522 0.15250291 0.055122733 1.2153962e-38
0.087968551 0.15584791 0.056803465 1.3904266e-38
0.087976389 0.1599468 0.058128536 1.4824433e-38
0.087008983 0.16214213 0.058996856 1.5744585e-38
0.080943123 0.023522049 0.015131354 5.1575603e-39
0.081631951 0.026774436 0.015362203 5.893668e-39
0.082367994 0.031281084 0.016345799 5.2468342e-39
0.081468709 0.045128793 0.021564424 1.3715551e-38
0.080132775 0.049371094 0.019373477 1.4542447e-38
0.083480246 0.13689777 0.049702227 6.4353427e-39
0.083157972 0.14076173 0.050136626 6.8948775e-39
0.083573587 0.14453354 0.05234015 7.4501841e-39
0.0840673 0.14887148 0.05411911 9.3820379e-39
0.08416979 0.15248808 0.05550909 1.2243314e-38
0.084285505 0.1559903 0.05721432 1.5743115e-38
0.084374279 0.15972677 0.058290839 1.666546e-38
0.084472544 0.16338879 0.059577882 1.7402305e-38
0.084131584 0.16664785 0.060747266 1.9059318e-38
0.078316674 0.046057492 0.022852302 1.4358067e-38
0.076417506 0.048802286 0.022720993 1.546334e-38
0.081184745 0.1358771 0.050384879 7.6237867e-39
0.080590993 0.14575446 0.051763475 1.5467883e-38
0.07935255 0.14899953 0.05318296 2.1098e-38
0.079665229 0.15272334 0.055286467 2.0536927e-38
0.079945639 0.15614027 0.05685395 1.8964212e-38
0.080259711 0.16001391 0.058239937 1.7031723e-38
0.080346808 0.16346252 0.05934155 1.7308317e-38
0.080710039 0.16717915 0.060827613 1.8691973e-38
0.079945281 0.16988724 0.062301636 2.1181265e-38
0.073889859 0.048958272 0.023804545 1.5188196e-38
0.072039783 0.05238843 0.024596035 1.5925383e-38
0.075386941 0.15066096 0.052924335 2.3138581e-38
0.075180396 0.15286082 0.055324435 2.3034092e-38
0.075531185 0.15669665 0.056449354 2.0347474e-38
0.075847611 0.15988737 0.058252037 1.721359e-38
0.075946189 0.16380295 0.0595029 1.6477115e-38
0.076217383 0.16731036 0.060835421 1.6571473e-38
0.07632371 0.17052776 0.062603593 1.8599073e-38
0.070093498 0.04955557 0.02532655 1.5003441e-38
0.068854973 0.052603036 0.02521497 1.5375078e-38
0.068250172 0.055936426 0.024501264 1.647781e-38
0.072532743 0.15089789 0.053466976 2.3325854e-38
0.072579294 0.15273719 0.054054499 2.3046382e-38
0.072687909 0.15702888 0.055425525 2.1916599e-38
0.071523756 0.160447 0.057430744 1.7854982e-38
0.071639851 0.16375419 0.059663713 1.5279292e-38
0.071737468 0.16736807 0.061053574 1.4821191e-38
0.072098553 0.17105655 0.062613547 1.7125355e-38
0.071684226 0.17348634 0.064743936 1.8968218e-38
0.065472618 0.052402794 0.026825011 1.4086146e-38
0.064912319 0.056446522 0.025819123 1.5371866e-38
0.067434892 0.16423571 0.059222996 1.8405279e-38
0.067882322 0.16786726 0.05995357 1.3894921e-38
0.068000153 0.17103761 0.062614739 1.4270171e-38
0.067955032 0.17405368 0.065296948 1.6847364e-38
0.067348309 0.17686708 0.066971123 1.8874201e-38
0.062510088 0.053069174 0.027701497 1.3809201e-38
0.061656501 0.05618456 0.027785361 1.4268745e-38
0.060097203 0.060398847 0.027808011 1.4543548e-38
0.061487887 0.11631683 0.0440799 6.5307809e-39
0.061655559 0.12164733 0.04790467 7.5427748e-39
0.064311489 0.16509685 0.059403598 2.248342e-38
0.064433992 0.1679374 0.060606718 1.9516943e-38
0.064174578 0.17094456 0.063209116 1.7952225e-38
0.064279824 0.17423864 0.065557778 1.8968562e-38
0.06421639 0.17757796 0.067313492 2.0167098e-38
0.06318213 0.18066926 0.068881571 2.0254634e-38
0.057839751 0.061087877 0.029994965 1.4269089e-38
0.057390325 0.064023584 0.029954672 1.4543871e-38
0.056863915 0.067273825 0.029674232 1.4725374e-38
0.058826167 0.11800799 0.046885133 5.4244418e-39
0.058948539 0.12168482 0.048491716 7.4505806e-39
0.059804186 0.12406045 0.048987746 8.555845e-39
0.06145728 0.16533378 0.05994612 2.3417669e-38
0.060980596 0.17123142 0.062641442 2.1452786e-38
0.060443334 0.17446834 0.065194786 2.1085446e-38
0.060539849 0.17791075 0.067120254 1.9979458e-38
0.060637042 0.1813626 0.069048643 1.9336967e-38
0.055051543 0.061516613 0.03165257 1.3623718e-38
0.054341745 0.063911319 0.032117963 1.3991759e-38
0.053923093 0.068174213 0.031464815 1.4357666e-38
0.055762451 0.1157681 0.045900643 5.335102e-39
0.055181876 0.1175327 0.048339188 5.7935606e-39
0.05545222 0.12137303 0.048220813 7.5413203e-39
0.057476453 0.17523518 0.064509213 2.0992523e-38
0.057078697 0.17842984 0.066418171 1.8967806e-38
0.056802467 0.18154708 0.068788826 1.8231676e-38
0.050865304 0.067920089 0.034195304 1.4081096e-38
0.049769405 0.071864635 0.033558667 1.3989973e-38
0.049441937 0.075679839 0.033605874 1.3897422e-38
0.049924809 0.11152944 0.046545684 3.7681588e-39
0.050760582 0.11433539 0.047742665 5.2436252e-39
0.051351596 0.1175293 0.048726976 7.1747028e-39
0.051442795 0.12118477 0.0483585 8.9238918e-39
0.053166304 0.18206212 0.068687975 1.4916938e-38
0.046375908 0.072399825 0.036590457 1.3713047e-38
0.046621162 0.075608015 0.036258996 1.3621191e-38
0.045300171 0.079768002 0.036313891 1.3437885e-38
0.044114146 0.082807273 0.036072791 1.3438595e-38
0.046937689 0.11104706 0.046877265 6.0683706e-39
0.047423705 0.11360705 0.04845351 7.2697557e-39
0.047514342 0.11721033 0.049840987 9.2019178e-39
0.047628492 0.12148246 0.049668491 1.076671e-38
0.046467151 0.12555078 0.049519956 1.2422636e-38
0.048968438 0.18269338 0.068665862 1.4548171e-38
0.043910559 0.076037914 0.038170159 1.3345329e-38
0.043140564 0.079125881 0.038763285 1.3161302e-38
0.041593455 0.083665073 0.03676182 1.2701383e-38
0.040406805 0.087006181 0.038036644 1.1870862e-38
0.041920666 0.097995609 0.044536531 1.2702814e-38
0.042014174 0.1016905 0.045716882 8.0040795e-39
0.043230247 0.10643989 0.046903312 7.0800016e-39
0.043340482 0.10992989 0.048033595 9.4745545e-39
0.043567576 0.11301038 0.050189912 1.0029528e-38
0.043667778 0.11684659 0.051060319 1.1780158e-38
0.043774538 0.12081158 0.051616728 1.1778718e-38
0.043518953 0.12471697 0.051858723 1.2699599e-38
0.043048866 0.12884614 0.051676214 1.3436087e-38
0.041555084 0.13237545 0.052530229 1.3619068e-38
0.038971253 0.082590789 0.04038769 1.2608477e-38
0.038453229 0.086592644 0.040526271 1.2421572e-38
0.038717695 0.090830714 0.039975584 1.2703167e-38
0.03988051 0.098228961 0.045157909 1.1686147e-38
0.039753404 0.10202551 0.046076298 9.0146385e-39
0.039713494 0.10563043 0.047766268 9.1082971e-39
0.040275138 0.10923219 0.049504876 1.1133692e-38
0.040502999 0.11318234 0.050745904 1.2149991e-38
0.03982269 0.11661735 0.051968455 1.2977962e-38
0.039930422 0.1205399 0.052629232 1.2699597e-38
0.040035583 0.12441367 0.053392768 1.3067657e-38
0.040145457 0.12836865 0.053945601 1.3252053e-38
0.039141897 0.1324105 0.054796875 1.3159514e-38
0.038327161 0.1360372 0.05509299 1.3069443e-38
0.036483221 0.085718811 0.042515218 1.2887233e-38
0.036354184 0.11670908 0.052564323 1.3344607e-38
0.036077805 0.12022433 0.053746879 1.2884358e-38
0.036195338 0.12423271 0.054197431 1.3436415e-38
0.036285222 0.12788522 0.055482924 1.3345679e-38
0.036020242 0.13152543 0.056349576 1.3253854e-38
0.035855029 0.13551548 0.057313204 1.3438214e-38
0.035953328 0.13927153 0.058335304 1.3346376e-38
0.033206712 0.12046269 0.054292798 1.3619406e-38
0.03297269 0.12384689 0.055426061 1.3711584e-38
0.032590423 0.12768975 0.056731939 1.3620457e-38
0.032536082 0.13140273 0.057469487 1.4170771e-38
0.032646094 0.13526955 0.058229983 1.4080017e-38
0.032743882 0.13900688 0.059305191 1.3712301e-38
0.031746745 0.14285108 0.060712039 1.3713366e-38
0.030495148 0.14742443 0.059205294 1.3525039e-38
0.031302046 0.17930555 0.069389999 1.038574e-38
0.0287004 0.13187873 0.058722496 1.4540632e-38
0.028775338 0.13483903 0.059668124 1.4356226e-38
0.028884601 0.1391561 0.061047256 1.4080367e-38
0.028169945 0.14369655 0.061923981 1.3804139e-38
0.02775871 0.14793286 0.061278999 1.325167e-38
0.027408283 0.15102567 0.060874581 1.2701012e-38
0.027392991 0.17553413 0.068807721 7.9965545e-39
0.02583563 0.13994482 0.061800241 1.4632817e-38
0.024359554 0.14351457 0.063196301 1.3804522e-38
0.024007093 0.14732978 0.063661098 1.3067297e-38
0.024187427 0.15165886 0.063141584 1.2422261e-38
0.02304944 0.15459597 0.062741399 1.2052767e-38
0.020911109 0.14409837 0.063948154 1.3713025e-38
0.020301387 0.14715877 0.064904928 1.2421223e-38
0.020284694 0.15105164 0.065118551 1.1502093e-38
0.020468343 0.15533108 0.064700603 1.1686864e-38
0.10486063 0.094855696 0.0091580153 1.693986e-38
0.10455516 0.10071066 0.011030793 1.2521314e-38
0.10279466 0.11073121 0.014734626 1.5559829e-38
0.098164052 0.10885918 0.01469928 1.5560185e-38
0.071148366 0.094102025 0.016168773 1.5185298e-38
0.10199653 0.12914196 0.025386631 1.7033142e-38
0.10182291 0.13260075 0.026573658 1.7309742e-38
0.11019371 0.15120463 0.0415681 1.5932958e-38
0.10282828 0.033749253 0.0050293207 9.210924e-39
0.055393822 0.16937657 0.057989538 1.7304384e-38
0.094272047 0.15362242 0.048938334 2.1653749e-38
0.043183457 0.17944109 0.061568201 1.4365211e-38
0.039099123 0.16646922 0.056931496 1.3624064e-38
0.034454662 0.16181073 0.055839598 1.1959862e-38
0.052223165 0.12988523 0.045255542 1.132169e-38
0.032643102 0.17896217 0.066223502 1.1042961e-38
0.028441429 0.15267548 0.060043156 1.2606664e-38
0.084688887 0.13752934 0.048766851 1.7500245e-38
0.11965804 0.15045825 0.046695411 2.2294824e-38
0.14758173 0.11904505 0.037290394 2.341769e-38
0.14687118 0.12102681 0.038756728 2.341769e-38
0.14530039 0.12477526 0.04058063 2.341769e-38
0.14329377 0.12697682 0.040556967 2.341769e-38
0.14256373 0.12923697 0.041939318 2.341769e-38
0.14161737 0.13149542 0.043356478 2.341769e-38
0.13523777 0.03167066 0.012095869 9.6726308e-39
0.14017951 0.13061002 0.042241037 2.341769e-38
0.13926999 0.13315454 0.043638349 2.341769e-38
0.13281991 0.031068861 0.01214391 8.6609956e-39
0.13249342 0.034041554 0.012855232 8.8443163e-39
0.13395014 0.036498278 0.012804568 9.948859e-39
0.13524038 0.13654587 0.045322597 2.341769e-38
0.12873076 0.029833347 0.012208939 6.8203018e-39
0.1328094 0.13870996 0.047128797 2.341769e-38
0.13154033 0.14086702 0.047679424 2.341769e-38
0.12356161 0.027053177 0.012507737 8.2000203e-39
0.12484393 0.029208809 0.012464106 8.1067456e-39
0.12782556 0.14477938 0.049906373 2.341769e-38
0.12034871 0.026975036 0.013006926 8.190633e-39
0.12092952 0.028763622 0.01242727 7.8254826e-39
0.12446003 0.14853206 0.051315606 2.341769e-38
0.11707816 0.027254254 0.012922049 9.4864137e-39
0.12078971 0.14991945 0.051654518 2.2670071e-38
0.1190176 0.1519939 0.053678811 2.257029e-38
0.1131597 0.023266971 0.012626052 1.1883165e-38
0.11361181 0.025520295 0.012926877 1.1053395e-38
0.11767545 0.15355268 0.053338587 2.284508e-38
0.11586742 0.15439355 0.054969549 2.2568498e-38
0.1125671 0.15263364 0.054406941 2.2388749e-38
0.11393969 0.15434664 0.055269003 2.1461085e-38
0.10423581 0.15304911 0.055901408 1.7222579e-38
0.10238895 0.15468475 0.05726403 1.3628409e-38
0.095194086 0.022648722 0.015713334 6.2577912e-39
0.09999112 0.15579928 0.057408333 1.4549267e-38
0.096266687 0.15643176 0.057765126 1.5564467e-38
0.096135616 0.16134235 0.06043911 1.7311528e-38
0.087639913 0.028655618 0.018890321 6.4453858e-39
0.092103861 0.15663958 0.058511913 1.6394948e-38
0.092183903 0.15899962 0.059617102 1.6483562e-38
0.092306048 0.16252518 0.061328888 1.6297398e-38
0.091527894 0.16535738 0.062490523 1.7861139e-38
0.086312398 0.029157907 0.018205822 6.260633e-39
0.085133702 0.032706767 0.019812524 6.904929e-39
0.084628493 0.037070632 0.021838903 1.086251e-38
0.085048005 0.040006727 0.021922827 1.1967428e-38
0.089537323 0.15657714 0.058910728 1.546905e-38
0.088629648 0.15871865 0.059751809 1.4915911e-38
0.08859244 0.16276348 0.061465681 1.6296695e-38
0.088344797 0.16584738 0.06286478 1.8878527e-38
0.082750142 0.038441747 0.022855163 1.1508245e-38
0.081494361 0.040526599 0.023202956 1.2521309e-38
0.085545041 0.16708428 0.063316941 2.017068e-38
0.084262088 0.16922519 0.064928234 2.1920258e-38
0.0780017 0.041988403 0.024246097 1.3349639e-38
0.077406585 0.043829769 0.02493912 1.3991793e-38
0.081355147 0.17022578 0.065194726 2.247126e-38
0.080353357 0.17210163 0.066497087 2.3206996e-38
0.07390365 0.044878721 0.025850415 1.3902118e-38
0.078363553 0.17114118 0.06544745 2.14593e-38
0.077151649 0.17269686 0.067035019 2.1825525e-38
0.070099466 0.047308266 0.026725769 1.4266966e-38
0.073743552 0.1737529 0.067578614 1.9889799e-38
0.072736487 0.17563075 0.068882465 2.0257143e-38
0.065970734 0.04862687 0.028092325 1.3811715e-38
0.070116192 0.17464952 0.067929029 1.8599769e-38
0.063112408 0.049107224 0.029512167 1.325852e-38
0.063139096 0.050596982 0.029457986 1.353404e-38
0.06636031 0.17826709 0.069712818 2.0626273e-38
0.059199505 0.055202693 0.032123268 1.3714861e-38
0.056922615 0.058487266 0.03302598 1.3716278e-38
0.05500973 0.058815211 0.033976197 1.3348214e-38
0.052552704 0.063329875 0.035306275 1.3898854e-38
0.050937135 0.062860548 0.035684109 1.3348572e-38
0.049426384 0.066586524 0.036338687 1.3805599e-38
0.04673142 0.069993466 0.038412929 1.3713054e-38
0.042618845 0.076311469 0.040596902 1.325278e-38
0.037832793 0.090588778 0.047061741 1.3071599e-38
0.03834388 0.09363696 0.047610104 1.2516282e-38
0.038008511 0.097071797 0.0484218 1.1592892e-38
0.038111951 0.10092822 0.049298286 9.8433384e-39
0.038237184 0.10587654 0.050879002 1.0859276e-38
0.038299806 0.10835069 0.051669419 1.1780513e-38
0.03870672 0.11176047 0.052706361 1.2609558e-38
0.036516286 0.089318603 0.046865702 1.3163089e-38
0.036492579 0.1008772 0.050343812 1.1040417e-38
0.036384743 0.1044206 0.051773906 1.1414225e-38
0.035708126 0.10796371 0.052794576 1.2609539e-38
0.035812873 0.11181575 0.053669393 1.3253482e-38
0.034622177 0.11506101 0.054441094 1.398817e-38
0.033099767 0.10656932 0.053005517 1.3436795e-38
0.032817718 0.11234042 0.054919004 1.4173271e-38
0.03268256 0.11529344 0.055719376 1.435623e-38
0.031365637 0.11882138 0.056827724 1.4080386e-38
0.030975875 0.12300834 0.057608008 1.3804474e-38
0.031038493 0.12548253 0.058398426 1.3619752e-38
0.028799314 0.11934128 0.057840347 1.4081081e-38
0.028375804 0.12263772 0.058739781 1.3988166e-38
0.028498553 0.12661356 0.059297264 1.389562e-38
0.028573696 0.12944061 0.060081601 1.4264045e-38
0.025185246 0.12371066 0.059844196 1.4447716e-38
0.025263332 0.12631837 0.060320795 1.4448067e-38
0.024880514 0.1304251 0.061357558 1.4909045e-38
0.024979778 0.13486534 0.062742829 1.4357645e-38
0.023983836 0.13850802 0.064030766 1.4724649e-38
0.023745861 0.14137724 0.064732254 1.4263709e-38
0.021502234 0.13043082 0.062619984 1.500304e-38
0.021746762 0.13501784 0.064064384 1.4818297e-38
0.021234445 0.13867334 0.065197945 1.4816484e-38
0.020839263 0.14143178 0.065756083 1.4356946e-38
0.018217612 0.14318195 0.066573203 1.3895964e-38
0.017057672 0.14582871 0.067720294 1.2235394e-38
0.01624975 0.14923099 0.0684973 1.1592104e-38
0.014621969 0.14985232 0.069761813 1.1868715e-38
0.10596628 0.096445292 0.004979372 1.518851e-38
0.089336947 0.12066871 0.015729368 1.6110133e-38
0.10176782 0.099983841 0.0068674088 1.4267997e-38
0.10207957 0.10954016 0.010841072 1.3257079e-38
0.10619448 0.1007618 0.0099055171 1.3903896e-38
0.083267607 0.086064368 0.0083984733 1.555442e-38
0.082721993 0.094889134 0.011130393 1.3989966e-38
0.0830919 0.1044693 0.01438272 1.3807738e-38
0.11382055 0.14810444 0.03908664 1.6205561e-38
0.091786802 0.054886192 0.010905921 1.0407291e-38
0.10638934 0.15155181 0.041902721 1.7039283e-38
0.052838407 0.12687424 0.043501318 1.1873788e-38
0.031302046 0.17930555 0.069389999 1.038574e-38
0.14086206 0.03728193 0.015711665 9.5786317e-39
0.14241837 0.13214391 0.04627192 2.341769e-38
0.13537487 0.021995246 0.012133658 9.7676851e-39
0.1352575 0.027419478 0.011780679 1.0317639e-38
0.13649607 0.02930671 0.014050543 1.0039258e-38
0.13704996 0.033336133 0.014998078 9.8570263e-39
0.1382007 0.03688693 0.015427411 1.1236704e-38
0.13978641 0.13380808 0.04732877 2.341769e-38
0.13935785 0.13552794 0.048859358 2.341769e-38
0.13363689 0.02296266 0.012375772 9.2120086e-39
0.13278869 0.026141465 0.01295191 9.213798e-39
0.13273051 0.029217899 0.012775123 8.9364993e-39
0.13581821 0.13711539 0.048036337 2.341769e-38
0.13516535 0.13869911 0.050463557 2.341769e-38
0.12870134 0.026525021 0.013093293 7.9223488e-39
0.13235414 0.14047605 0.050965548 2.341769e-38
0.13100502 0.14353988 0.051911354 2.341769e-38
0.12517858 0.022449046 0.015008569 8.5673552e-39
0.1253963 0.025966316 0.013274729 8.3822353e-39
0.1289476 0.14478055 0.052205563 2.341769e-38
0.12725382 0.14708829 0.053937852 2.341769e-38
0.12092394 0.022305518 0.015124917 8.6541419e-39
0.1215696 0.024457484 0.015183985 8.1913406e-39
0.12556398 0.14833948 0.053554952 2.341769e-38
0.12350599 0.1504467 0.054927409 2.3232217e-38
0.11720422 0.022898674 0.013974011 9.4882241e-39
0.11725138 0.024761528 0.014569104 9.3963746e-39
0.12086049 0.15150699 0.055347741 2.2668975e-38
0.11985274 0.15361691 0.057967663 2.2483142e-38
0.11458638 0.023816764 0.01398927 1.1144513e-38
0.11698605 0.15482444 0.056521833 2.2292274e-38
0.11257663 0.15435635 0.057622015 1.8416473e-38
0.10834783 0.15191266 0.058585167 2.0815672e-38
0.10909096 0.15356271 0.059706867 1.518784e-38
0.1062688 0.15256864 0.057009578 1.9623971e-38
0.1048957 0.15461519 0.059491456 1.5468326e-38
0.10533299 0.15778925 0.061806321 1.5929344e-38
0.10468499 0.16105691 0.061787605 1.9894512e-38
0.096552134 0.022758126 0.016590655 4.8759455e-39
0.10110727 0.15803765 0.061110973 1.5284688e-38
0.10079339 0.16201749 0.062024593 1.8788499e-38
0.10085198 0.16496122 0.06466943 2.174306e-38
0.097252756 0.1587335 0.06118542 1.6299901e-38
0.096626669 0.16286591 0.06221956 1.8140588e-38
0.097030006 0.16559531 0.063973963 2.0078512e-38
0.097052574 0.16785556 0.066226304 2.1827013e-38
0.087775573 0.029451579 0.021253049 6.7187469e-39
0.087794065 0.032464653 0.021161318 7.7318352e-39
0.092896283 0.16629606 0.063634574 1.8784884e-38
0.092902191 0.16901344 0.066427469 2.0994709e-38
0.092768162 0.17110655 0.068403065 2.2287617e-38
0.086009979 0.029734671 0.020569146 6.3503119e-39
0.085090615 0.032491535 0.022675037 7.4573895e-39
0.084042862 0.036713183 0.023148477 1.1045833e-38
0.089270592 0.16703451 0.064465344 2.1000084e-38
0.088721223 0.16928281 0.0659917 2.2470897e-38
0.088626251 0.17163363 0.068824291 2.227967e-38
0.082760021 0.031555414 0.024525285 6.3539357e-39
0.081502385 0.036423147 0.02435571 1.1046192e-38
0.085487992 0.17004237 0.066056132 2.2468033e-38
0.084979385 0.1724925 0.06852752 2.238158e-38
0.078343593 0.036774397 0.026225865 1.1598654e-38
0.077714868 0.039141744 0.026031017 1.2799687e-38
0.081294768 0.17302749 0.068922281 2.2562361e-38
0.074761644 0.040174395 0.0275563 1.2983389e-38
0.073282264 0.042138338 0.027724266 1.3627321e-38
0.077232137 0.17418134 0.068743169 2.2648812e-38
