# .PCD v0.7 - Point Cloud Data file format
VERSION 0.7
FIELDS x y z rgb
SIZE 4 4 4 4
TYPE F F F F
COUNT 1 1 1 1
WIDTH 991
HEIGHT 1
VIEWPOINT 0 0 0 0 1 0 0
POINTS 991
DATA ascii
0.18546355 0.059976548 0.027655005 1.3437851e-38
0.18429825 0.062895805 0.028209299 1.3438227e-38
0.18357614 0.065721929 0.029174358 1.3255248e-38
0.18416247 0.069218516 0.029564172 1.3622273e-38
0.18314201 0.072414696 0.029652059 1.4449149e-38
0.18265742 0.078648508 0.032949686 1.3807741e-38
0.18226731 0.080993891 0.034321606 1.3533312e-38
0.18130556 0.084709942 0.036146909 1.3625133e-38
0.18078882 0.088705152 0.037648588 1.3349289e-38
0.17945904 0.091589838 0.039585114 1.3073413e-38
0.17901525 0.09342432 0.041288853 1.3165608e-38
0.18220344 0.063870788 0.026595175 1.3987809e-38
0.18099731 0.066334099 0.026652664 1.3897421e-38
0.18104404 0.070799768 0.027372062 1.3897787e-38
0.18059045 0.074778974 0.028404921 1.3990334e-38
0.17980653 0.078660965 0.029949844 1.38985e-38
0.17943466 0.081709266 0.03173548 1.3440044e-38
0.17797983 0.084852874 0.034171164 1.29805e-38
0.17740262 0.088814646 0.03572011 1.2796841e-38
0.17631269 0.091852605 0.037477553 1.2612804e-38
0.17564064 0.094400764 0.038325608 1.2705353e-38
0.17840114 0.06755507 0.024309635 1.4449894e-38
0.17760962 0.071065813 0.024831414 1.4358018e-38
0.17697972 0.075130582 0.026072055 1.4266212e-38
0.17651388 0.078864574 0.02730155 1.3991423e-38
0.17577839 0.081727475 0.029294044 1.3715195e-38
0.17492557 0.085532695 0.031265914 1.3255661e-38
0.17424101 0.08942911 0.032891572 1.2980515e-38
0.17334884 0.09237802 0.034672111 1.2335856e-38
0.1735459 0.095375776 0.036711454 1.2519527e-38
0.17469943 0.071438104 0.023302615 1.4634269e-38
0.17419612 0.075181037 0.025058627 1.435877e-38
0.17338884 0.078683943 0.026031822 1.4083618e-38
0.17218012 0.082825541 0.027602553 1.4175799e-38
0.171408 0.085929573 0.028684676 1.3624427e-38
0.17098927 0.089608938 0.030490965 1.2795382e-38
0.17075038 0.091951519 0.031670183 1.2978724e-38
0.16953486 0.086858034 0.02727589 1.3807732e-38
0.16644645 0.099274337 0.031604111 1.3441841e-38
0.13740593 0.14923626 0.031494945 1.5000894e-38
0.13568145 0.14981252 0.030027866 1.5739547e-38
0.2175622 0.060178369 0.067771763 9.7630132e-39
0.21606606 0.039970696 0.057175457 7.2719263e-39
0.2170344 0.04282853 0.058141053 6.7201818e-39
0.21734989 0.046261042 0.059793085 5.7986081e-39
0.21668309 0.049339056 0.061448008 5.1536002e-39
0.2163564 0.052905858 0.062625736 5.9862251e-39
0.21604162 0.057533294 0.063150108 7.5495992e-39
0.21585947 0.061822593 0.064352334 9.3942404e-39
0.21372312 0.064016879 0.066833764 1.2529242e-38
0.2119548 0.067588568 0.069712698 1.6208088e-38
0.21454898 0.039359301 0.05441314 7.4591846e-39
0.21615157 0.043702692 0.054421365 6.2595442e-39
0.21582115 0.04751122 0.055504084 5.1550211e-39
0.21512458 0.051170886 0.057244122 5.4283542e-39
0.21437258 0.05440712 0.058778524 5.1557288e-39
0.213875 0.05846414 0.06025061 6.6283687e-39
0.21355775 0.06216234 0.062044144 9.0229258e-39
0.21108517 0.064662099 0.064554602 1.2065383e-38
0.20960855 0.068038583 0.066855609 1.5565954e-38
0.2092976 0.072237492 0.068173349 1.9342365e-38
0.20822757 0.074651659 0.069833547 2.0541264e-38
0.21211141 0.033243239 0.048893154 8.2864341e-39
0.21305412 0.035922319 0.050144881 6.8127824e-39
0.21334329 0.039704829 0.050987273 7.7339764e-39
0.21433735 0.04357177 0.051507771 6.9049038e-39
0.21457374 0.046135664 0.053060889 6.4428649e-39
0.21336898 0.052827358 0.055878609 5.615258e-39
0.21252275 0.055151373 0.056405842 5.523784e-39
0.21212116 0.057381928 0.057345033 6.5365122e-39
0.20968729 0.064018697 0.059620887 1.0129271e-38
0.20878631 0.065490723 0.061759651 1.233945e-38
0.20781493 0.068760902 0.063696772 1.5009549e-38
0.20772666 0.07317692 0.064509809 1.7865441e-38
0.20677209 0.076676935 0.066469491 1.9063997e-38
0.20517933 0.079371244 0.068713129 2.0996868e-38
0.21038669 0.032660842 0.046717852 8.3743362e-39
0.21096969 0.036678731 0.047334939 7.3659002e-39
0.21089774 0.040880203 0.047548711 7.2733598e-39
0.21140087 0.043797612 0.048285276 6.2606414e-39
0.20780385 0.064727604 0.057278752 1.1232398e-38
0.20732638 0.066904873 0.058280587 1.2798633e-38
0.20614591 0.070258349 0.059625775 1.5562707e-38
0.20535177 0.074096471 0.061106324 1.6392113e-38
0.20426148 0.077742636 0.063070714 1.7770743e-38
0.20394588 0.081283927 0.064244628 1.933769e-38
0.20317015 0.084519953 0.065797418 2.0348597e-38
0.20204905 0.088160068 0.067791551 2.0166008e-38
0.20690119 0.031098634 0.042086422 9.9484848e-39
0.20767593 0.033374608 0.043637335 9.8559417e-39
0.20792177 0.037393242 0.044381142 8.8396037e-39
0.20800272 0.04143694 0.04463768 7.8265434e-39
0.208951 0.044097722 0.045884192 7.1811698e-39
0.20324141 0.071508408 0.058185518 1.5748526e-38
0.20288354 0.075535119 0.059085757 1.6669408e-38
0.20193601 0.078534454 0.060312867 1.7588497e-38
0.2017684 0.082092136 0.061521411 1.9058587e-38
0.2010684 0.085029244 0.062577575 1.8874207e-38
0.1998947 0.089747399 0.064572573 1.8877056e-38
0.19845259 0.092870802 0.066361219 1.6756946e-38
0.19697732 0.095310748 0.069273829 1.9153679e-38
0.2049574 0.031237274 0.039069504 1.1418909e-38
0.20585924 0.035042703 0.039717972 9.7633649e-39
0.2061916 0.038844466 0.040551931 8.5644489e-39
0.20688546 0.041312426 0.042003453 7.9173069e-39
0.19795024 0.090942562 0.062901139 1.7309028e-38
0.19620684 0.093760967 0.063769341 1.5929662e-38
0.19439632 0.09630397 0.065931678 1.5836786e-38
0.19264525 0.098213881 0.067660332 1.8323913e-38
0.20310518 0.021098554 0.031971991 1.077824e-38
0.2041378 0.024443716 0.033303231 1.2895853e-38
0.20371416 0.027729005 0.034773409 1.1697304e-38
0.20374554 0.03158012 0.035701126 9.8523389e-39
0.20468146 0.035403609 0.036330879 8.4700967e-39
0.1941492 0.090668112 0.058723629 1.5652029e-38
0.19349894 0.094236284 0.061093688 1.5284313e-38
0.19203305 0.09705779 0.063198388 1.4914818e-38
0.19011 0.10023984 0.065829337 1.6757303e-38
0.18877202 0.10358056 0.06724748 1.8324609e-38
0.18775022 0.10638666 0.067884147 1.8876702e-38
0.20164642 0.021095634 0.029905766 9.0254635e-39
0.20226318 0.02522108 0.029732317 8.8388947e-39
0.20199126 0.028837323 0.03066352 7.8240112e-39
0.20203525 0.031407326 0.031780899 6.9013669e-39
0.19166663 0.091478586 0.056599945 1.5192843e-38
0.1903643 0.094878644 0.058223188 1.4455638e-38
0.18928728 0.097940505 0.060009003 1.3995383e-38
0.18800303 0.10099348 0.062187195 1.4639697e-38
0.18677723 0.10431945 0.064411998 1.6573631e-38
0.18568635 0.10709023 0.066136777 1.8417875e-38
0.19878981 0.018766016 0.025994331 8.3772102e-39
0.19861719 0.021192253 0.026769102 7.9165964e-39
0.19843557 0.025025368 0.027395338 7.2716026e-39
0.19858393 0.029268205 0.027989268 7.1797349e-39
0.19833219 0.032754123 0.028539658 6.8116838e-39
0.19761944 0.035747558 0.028828382 7.0864336e-39
0.18811059 0.095692664 0.055423379 1.4640024e-38
0.18661314 0.098925889 0.05700177 1.3902114e-38
0.1854257 0.10186577 0.058640242 1.4270535e-38
0.18413314 0.10527682 0.061393231 1.5192132e-38
0.18253204 0.10880274 0.063855529 1.6482875e-38
0.18088031 0.11106935 0.06349799 1.6852003e-38
0.1956659 0.022149116 0.023780584 6.9067535e-39
0.19581476 0.025936067 0.024608791 6.4414509e-39
0.19575459 0.029711276 0.025625587 6.8073552e-39
0.19532248 0.033734858 0.026895583 7.3590856e-39
0.19548926 0.037334949 0.027813792 8.0029949e-39
0.19254202 0.049691528 0.03199175 9.5717752e-39
0.1924656 0.053284585 0.034106463 1.0675984e-38
0.18409735 0.10039902 0.054065228 1.436307e-38
0.18339249 0.10280383 0.055666834 1.4086853e-38
0.18134487 0.10593569 0.058354855 1.3994303e-38
0.17899686 0.10957551 0.060598314 1.4639337e-38
0.17889279 0.1125015 0.062079132 1.7035328e-38
0.17758977 0.11500001 0.062428266 1.8051671e-38
0.1935854 0.023019314 0.020825267 4.5067833e-39
0.19384071 0.027038842 0.021623403 5.5205708e-39
0.19274038 0.030557811 0.02337724 7.0842896e-39
0.19173706 0.034003735 0.025499225 7.8204281e-39
0.1916706 0.038098752 0.026441991 8.8320759e-39
0.19163954 0.041930586 0.026973575 9.6632463e-39
0.19067729 0.045790941 0.027641416 1.1041137e-38
0.19051957 0.049043387 0.029462218 1.1044725e-38
0.19016105 0.053411096 0.031752646 1.196704e-38
0.18162739 0.10081065 0.051711142 1.3444723e-38
0.18019739 0.10337827 0.053505808 1.3719152e-38
0.1779668 0.10620138 0.056590199 1.3537277e-38
0.17689121 0.10981035 0.058345199 1.3810651e-38
0.1769326 0.1135368 0.059264302 1.5655639e-38
0.17536712 0.11618683 0.060808718 1.7037484e-38
0.19199455 0.024687916 0.018765122 5.337955e-39
0.19114047 0.027148008 0.019892693 6.1655759e-39
0.1900363 0.0304299 0.021859497 7.7274982e-39
0.18875933 0.033830613 0.024617344 8.9256981e-39
0.18805656 0.037654877 0.025818408 1.0310059e-38
0.18736398 0.041267991 0.026112854 1.1412812e-38
0.18763018 0.045255035 0.026902586 1.1964897e-38
0.18690044 0.049407333 0.027556062 1.2701376e-38
0.18675768 0.053401768 0.028730094 1.2977976e-38
0.18550807 0.057393372 0.029277205 1.3621175e-38
0.17796981 0.10211569 0.048650026 1.3074492e-38
0.17690188 0.10403737 0.051115274 1.3074476e-38
0.17420727 0.11037421 0.055858582 1.362661e-38
0.17449665 0.11423463 0.056595266 1.4548932e-38
0.17301464 0.11650115 0.058519036 1.6302776e-38
0.18466061 0.042250097 0.025437742 1.3252405e-38
0.18406668 0.045403838 0.025949776 1.3527915e-38
0.18237776 0.049862415 0.026104003 1.3714445e-38
0.18273413 0.053888738 0.026837468 1.3711955e-38
0.18297654 0.057763547 0.027424186 1.3804124e-38
0.18263364 0.061001986 0.028449804 1.3621152e-38
0.17665866 0.094664872 0.042714477 1.2981224e-38
0.17610508 0.098215103 0.044299603 1.3164891e-38
0.17550266 0.10156095 0.045708477 1.3072698e-38
0.17441034 0.10462719 0.047480583 1.261496e-38
0.17325956 0.10812926 0.050088406 1.2522756e-38
0.17203772 0.11156577 0.052239269 1.3167405e-38
0.17100197 0.11468995 0.053975284 1.3906066e-38
0.16933435 0.1178143 0.055438876 1.3263569e-38
0.17922714 0.050843328 0.024562091 1.380665e-38
0.17941529 0.054007947 0.024810731 1.4265119e-38
0.18018186 0.05829671 0.025261521 1.4356593e-38
0.17997724 0.061855197 0.026168764 1.4172553e-38
0.17412561 0.095545828 0.040580511 1.2704985e-38
0.17343718 0.098775625 0.041827619 1.2796831e-38
0.17283478 0.10212147 0.043236494 1.2521709e-38
0.17182186 0.10523486 0.044946194 1.2705725e-38
0.17078954 0.10895747 0.046832383 1.2890462e-38
0.16909733 0.11232448 0.049206734 1.3351447e-38
0.16775095 0.11528009 0.051168978 1.3260329e-38
0.16651997 0.11862156 0.052963167 1.2709655e-38
0.16484585 0.12361625 0.054248929 7.6392585e-39
0.16454279 0.12529957 0.054957658 6.8077223e-39
0.17633158 0.054294676 0.022608906 1.4909761e-38
0.17718679 0.058639079 0.023012012 1.490943e-38
0.17731422 0.062477589 0.023914993 1.5000907e-38
0.17699385 0.064762384 0.024797738 1.4633932e-38
0.17117441 0.095897615 0.037682176 1.2428402e-38
0.17076927 0.099336177 0.039355725 1.2521678e-38
0.17016691 0.10268202 0.04076454 1.2706072e-38
0.16799319 0.10945046 0.044446439 1.2984125e-38
0.16617101 0.11275196 0.04690662 1.2983392e-38
0.16506869 0.11584365 0.048683703 1.2154336e-38
0.16392654 0.11953664 0.050654888 1.1140529e-38
0.1636709 0.12368506 0.052525878 8.2806594e-39
0.17316204 0.054527879 0.020458847 1.5185986e-38
0.17410582 0.058928579 0.020814717 1.5277476e-38
0.17344913 0.062644452 0.021771073 1.5369318e-38
0.17322642 0.066759676 0.022779673 1.5002706e-38
0.17101514 0.074291795 0.025101483 1.4267263e-38
0.17037553 0.077802032 0.026177317 1.4175108e-38
0.17056811 0.08049193 0.027629852 1.4175083e-38
0.1682303 0.089675218 0.030774504 1.3252747e-38
0.16865349 0.092671454 0.03305161 1.2977984e-38
0.16835946 0.096086621 0.034828126 1.2612439e-38
0.16765672 0.099990129 0.036471784 1.2429849e-38
0.16674283 0.10316032 0.038101584 1.2520979e-38
0.16527182 0.10637623 0.040222794 1.2799698e-38
0.16405132 0.10961682 0.043122709 1.2800794e-38
0.16278553 0.1124838 0.045048356 1.2337294e-38
0.1621218 0.11617035 0.04660058 1.1416055e-38
0.16237777 0.11819613 0.048333615 9.9441422e-39
0.16136754 0.12380719 0.050696194 1.6196503e-38
0.17120951 0.054794103 0.018912196 1.5370371e-38
0.16981018 0.058781862 0.019346833 1.5279257e-38
0.16872513 0.062490493 0.019942641 1.5004832e-38
0.16923505 0.067246735 0.02081126 1.4912288e-38
0.16902193 0.071174741 0.021882713 1.4819722e-38
0.16841859 0.074525774 0.023293734 1.4543847e-38
0.16806334 0.078030407 0.024534523 1.4358401e-38
0.16785723 0.082241923 0.02583921 1.4450225e-38
0.16670984 0.086238831 0.02707094 1.3991759e-38
0.16655213 0.089491248 0.028891712 1.3713742e-38
0.1659497 0.092837095 0.030300587 1.3622646e-38
0.16527432 0.096588522 0.03188014 1.3532233e-38
0.16454417 0.10064411 0.033587843 1.3166686e-38
0.16352385 0.10375628 0.03528887 1.2982311e-38
0.16132548 0.10687631 0.03824544 1.3259246e-38
0.16069925 0.10975641 0.041406393 1.2524205e-38
0.16053993 0.11246359 0.042892247 1.1783409e-38
0.15796131 0.11642465 0.042592198 1.1875602e-38
0.16554791 0.063696176 0.018378824 1.5278871e-38
0.16546071 0.067432046 0.018992603 1.5095579e-38
0.16560292 0.071265101 0.019907713 1.5003048e-38
0.16549683 0.074932009 0.020985186 1.5001594e-38
0.16489318 0.0782848 0.022396922 1.4726091e-38
0.16481394 0.082574964 0.023620665 1.4633907e-38
0.16448659 0.086705953 0.025010973 1.4450593e-38
0.16329932 0.089707166 0.026818454 1.4359827e-38
0.16278028 0.093105078 0.028171867 1.4360198e-38
0.16257903 0.097301126 0.029472232 1.4728612e-38
0.16187629 0.10120463 0.03111586 1.4177604e-38
0.16076982 0.10427052 0.032872945 1.3443997e-38
0.15840814 0.10704118 0.035753489 1.233908e-38
0.16265118 0.067659795 0.017744601 1.5278559e-38
0.16175789 0.071095765 0.018200874 1.4910851e-38
0.16157013 0.074718237 0.019340217 1.5187067e-38
0.16083524 0.078323126 0.020767361 1.481902e-38
0.16092911 0.082508743 0.022133797 1.4818305e-38
0.16072762 0.086619496 0.02327019 1.4912652e-38
0.16029188 0.09007138 0.024569213 1.5004133e-38
0.15985686 0.09352085 0.025867581 1.500412e-38
0.15902641 0.097358763 0.027599186 1.4269043e-38
0.15853328 0.10138744 0.029102564 1.3716984e-38
0.1576767 0.1045981 0.03068614 1.2428018e-38
0.15600029 0.10798049 0.032998949 9.3873867e-39
0.15408087 0.1109927 0.035179883 8.835645e-39
0.15963483 0.071262896 0.016764045 1.5095249e-38
0.15902865 0.074629545 0.018181682 1.5188512e-38
0.15835524 0.078370243 0.019756675 1.5003774e-38
0.15729308 0.082654685 0.020991325 1.5004492e-38
0.15655684 0.086273491 0.022238106 1.5005569e-38
0.15592939 0.089651167 0.023214221 1.509704e-38
0.15564579 0.093713224 0.024409473 1.4452013e-38
0.15536582 0.097663641 0.026026189 1.3530801e-38
0.15433419 0.10110027 0.027650863 1.0956519e-38
0.15432447 0.1047866 0.028666437 8.9285736e-39
0.15394196 0.1080263 0.030067146 7.7296632e-39
0.15374771 0.11089271 0.031613708 7.1779174e-39
0.15232098 0.094340771 0.022973716 1.1875583e-38
0.15154573 0.097662032 0.024360359 1.0584118e-38
0.15169734 0.10100442 0.026562512 9.1129452e-39
0.15047479 0.10478026 0.027185649 7.6374648e-39
0.14989042 0.10721478 0.028450847 6.9945967e-39
0.14445263 0.13168015 0.037662566 1.4171495e-38
0.14404851 0.13392457 0.038607597 1.4355894e-38
0.14362144 0.13725361 0.040190965 1.8689443e-38
0.14268154 0.14108303 0.041539192 2.2666815e-38
0.14180875 0.14540872 0.043261588 2.3324061e-38
0.14136404 0.1344886 0.036120296 1.4263327e-38
0.14145416 0.13818112 0.037069917 1.84125e-38
0.14070445 0.14208391 0.038751125 2.071559e-38
0.1398676 0.14594713 0.040491551 2.182733e-38
0.13907319 0.14922045 0.041578531 2.3036328e-38
0.13842279 0.15267688 0.042553723 2.332513e-38
0.13891047 0.13536403 0.034066856 1.4077876e-38
0.13877326 0.13874401 0.034585744 1.8045525e-38
0.13894224 0.14340696 0.03529802 1.8319214e-38
0.13871485 0.14748853 0.036275268 1.7211095e-38
0.13817757 0.15086789 0.037641972 1.6939559e-38
0.13752264 0.15451103 0.039965451 2.099762e-38
0.13668787 0.13655081 0.032447338 1.4444509e-38
0.13606107 0.13953322 0.031873941 1.6384904e-38
0.13673556 0.14408921 0.031810224 1.7119944e-38
0.13714868 0.14825082 0.033775032 1.5186335e-38
0.13485205 0.15535873 0.036779225 1.7218647e-38
0.13321787 0.14068644 0.029211223 1.4726826e-38
0.13382852 0.14488539 0.029135942 1.6015768e-38
0.13297468 0.1488595 0.029743761 1.6383476e-38
0.13281101 0.15226728 0.032003582 1.5743496e-38
0.13228631 0.15624753 0.033531636 1.6942386e-38
0.13061661 0.13998595 0.028141439 1.3709455e-38
0.12942022 0.14467227 0.027771711 1.5001982e-38
0.12940592 0.14889611 0.02897948 1.4173998e-38
0.12911129 0.15204933 0.030545324 1.4638569e-38
0.12920225 0.15426308 0.032219142 1.5376498e-38
0.12632376 0.15112217 0.028840244 1.113298e-38
0.20067126 0.080005765 0.051205456 1.5561627e-38
0.20174634 0.057685971 0.038702428 9.3874063e-39
0.20050585 0.063004255 0.040643185 1.1785537e-38
0.18811059 0.095692664 0.055423379 1.4640024e-38
0.18370736 0.08290571 0.041315407 1.2058916e-38
0.17111427 0.10032818 0.039808393 1.2889749e-38
0.20266953 0.062421918 0.050385892 1.1692643e-38
0.20008171 0.070184857 0.055620313 1.07714e-38
0.16703969 0.085990667 0.027267277 1.3990684e-38
0.16561204 0.094712824 0.031090349 1.3531521e-38
0.21505147 0.034141898 0.057274103 8.3793598e-39
0.21498182 0.037054598 0.058664948 7.8283258e-39
0.21630335 0.04016149 0.061641991 7.2722612e-39
0.21355316 0.031654358 0.054173648 9.6708259e-39
0.21366721 0.034317255 0.054694712 8.6577446e-39
0.21387339 0.037310123 0.056390285 7.5503138e-39
0.21070153 0.028276056 0.049101293 9.5818505e-39
0.21157843 0.030644923 0.050572813 9.5789722e-39
0.21235806 0.032935113 0.052118599 9.2084171e-39
0.20868075 0.029375315 0.046064436 9.3887908e-39
0.21027327 0.03012383 0.04820168 9.026167e-39
0.2062999 0.028453887 0.043778121 1.0040669e-38
0.20313269 0.022273004 0.037448883 1.0960468e-38
0.20372301 0.02614221 0.039084226 1.1237043e-38
0.20423138 0.028505027 0.040838897 1.0774985e-38
0.20242646 0.020941526 0.03431356 1.3074855e-38
0.20243669 0.02133444 0.036141217 1.2525625e-38
0.18797955 0.10358438 0.069567382 1.860193e-38
0.19971839 0.017075449 0.030145824 8.8414422e-39
0.19944412 0.018318892 0.029564977 8.1935659e-39
0.18438923 0.10769629 0.06829232 1.9154031e-38
0.18374321 0.10933968 0.069403291 1.9893401e-38
0.18147445 0.10693681 0.064753413 1.5835362e-38
0.18055296 0.11039838 0.06657204 1.8878158e-38
0.19426128 0.018324733 0.024101019 7.2744612e-39
0.1940586 0.019450396 0.024575025 7.8269245e-39
0.17844778 0.10807815 0.062257826 1.4825162e-38
0.17822307 0.11239615 0.065447479 1.8786323e-38
0.17638284 0.11467797 0.065163106 1.915657e-38
0.17380381 0.11693805 0.063560545 1.8143107e-38
0.18684912 0.030713022 0.023851007 8.926033e-39
0.18644381 0.032964319 0.024798959 9.6668308e-39
0.18538702 0.036435664 0.025805056 1.1140543e-38
0.17089808 0.11782098 0.060771793 1.6393164e-38
0.16984344 0.11973628 0.061880648 1.4367391e-38
0.18282399 0.03738752 0.025259674 1.242769e-38
0.18208271 0.040867895 0.025703251 1.3346038e-38
0.18058729 0.044805318 0.026381075 1.3992121e-38
0.1686601 0.11820227 0.05838123 1.372058e-38
0.16718784 0.12094674 0.059368342 9.9448498e-39
0.17857707 0.045088738 0.025090635 1.4267278e-38
0.17744645 0.048229307 0.025028467 1.4174367e-38
0.16520712 0.11974147 0.055416077 1.050234e-38
0.16501716 0.12178481 0.05662185 8.8370688e-39
0.1639902 0.1249482 0.058214843 6.9031438e-39
0.17434108 0.047421217 0.020864546 1.5093103e-38
0.17433509 0.049617499 0.022875965 1.4909765e-38
0.16141409 0.12162149 0.052563429 1.0962249e-38
0.16034266 0.11318186 0.046276569 1.1967069e-38
0.15993738 0.11543322 0.047224522 1.1324219e-38
0.15945345 0.11902007 0.049606502 1.2610943e-38
0.15867811 0.12259889 0.051456898 1.7955052e-38
0.1702441 0.050989777 0.018722862 1.5555122e-38
0.16841036 0.054046988 0.019181997 1.5462573e-38
0.16753694 0.056432486 0.019192457 1.5554772e-38
0.15791044 0.10990202 0.04170686 1.1880971e-38
0.15793461 0.1129657 0.043604314 1.1507173e-38
0.15770543 0.11589789 0.045604438 1.1416423e-38
0.15616554 0.11819872 0.046512127 1.2982302e-38
0.16589856 0.05613032 0.018856287 1.5738448e-38
0.16518679 0.059092402 0.018338621 1.5554769e-38
0.16303459 0.062252373 0.017998785 1.5371089e-38
0.15482676 0.10784221 0.037195265 1.0404435e-38
0.15590858 0.10968259 0.039461076 1.0955087e-38
0.15535313 0.11309093 0.041115165 1.169119e-38
0.15433657 0.11660624 0.042427123 1.2705712e-38
0.15356255 0.11915886 0.0443528 1.2612813e-38
0.15202361 0.1235888 0.045435935 1.3990043e-38
0.15151614 0.12640733 0.046622783 1.8424431e-38
0.16269422 0.059515476 0.01754427 1.5463654e-38
0.16087016 0.063184589 0.017336279 1.5279628e-38
0.15988183 0.066362023 0.017499179 1.5370411e-38
0.15306789 0.11127222 0.037961066 1.0864299e-38
0.15266585 0.11326158 0.039488256 1.2704622e-38
0.15190461 0.11656284 0.041017652 1.3624787e-38
0.15054876 0.12079936 0.04217577 1.3620826e-38
0.14970994 0.12461787 0.043337345 1.3250255e-38
0.14884672 0.12787203 0.044526458 1.4542133e-38
0.14731139 0.13054504 0.044715166 1.6844165e-38
0.15789482 0.066919059 0.016610622 1.5554058e-38
0.15652704 0.070625454 0.016880512 1.5187791e-38
0.15597659 0.074488133 0.018226206 1.5188147e-38
0.15555429 0.078445792 0.020001709 1.5186725e-38
0.15430516 0.081957519 0.020829648 1.5187794e-38
0.15379849 0.084771693 0.022014618 1.46375e-38
0.14693433 0.12303096 0.039726257 1.3896329e-38
0.14687085 0.12545624 0.04044044 1.3527195e-38
0.14626235 0.12883618 0.04186368 1.3158798e-38
0.14560997 0.13212007 0.043094337 1.5373298e-38
0.14491618 0.13553602 0.044336915 2.1563011e-38
0.14345211 0.13912526 0.045360744 2.3325496e-38
0.15508211 0.068165779 0.014799327 1.5278552e-38
0.15427598 0.070721596 0.015510559 1.5187445e-38
0.15351629 0.074460953 0.016993821 1.5279265e-38
0.1529105 0.078803509 0.018332303 1.5278214e-38
0.15251002 0.082334697 0.019166291 1.5003407e-38
0.15190199 0.085711718 0.020588249 1.399142e-38
0.15129399 0.089088738 0.022010237 1.2795752e-38
0.15022278 0.091841042 0.022561699 1.1138756e-38
0.1487751 0.098282725 0.024970472 7.1739545e-39
0.14881855 0.10043976 0.026334345 7.5466691e-39
0.14796448 0.10278544 0.026866406 7.6399745e-39
0.14419913 0.12664387 0.038417697 1.4078216e-38
0.14413565 0.12944877 0.039118469 1.3803436e-38
0.14428777 0.1328015 0.041327327 1.3987845e-38
0.1436798 0.13617851 0.042749316 1.9342402e-38
0.14273018 0.14049381 0.044384092 2.323294e-38
0.14136356 0.14424685 0.045235574 2.341769e-38
0.14004618 0.14760187 0.046421409 2.341769e-38
0.13911951 0.14962238 0.047729433 2.341769e-38
0.14970243 0.082652092 0.017659903 1.4451295e-38
0.14911586 0.085690737 0.019213021 1.3348539e-38
0.14778715 0.090153962 0.02053839 1.0679202e-38
0.14747649 0.094056547 0.021018445 8.4661633e-39
0.1467343 0.097423017 0.022579014 6.8077111e-39
0.14631945 0.10032076 0.024526298 7.3619499e-39
0.14635009 0.10382125 0.026847363 7.8254364e-39
0.14568704 0.10593683 0.027966142 6.8123592e-39
0.1418305 0.12735757 0.036985725 1.3893472e-38
0.14100242 0.13010672 0.037003547 1.370944e-38
0.13956833 0.14462401 0.043572247 2.3325854e-38
0.13831568 0.14800778 0.044712543 2.341769e-38
0.13765746 0.15044096 0.045110524 2.341769e-38
0.14455998 0.091606826 0.018021673 8.7434676e-39
0.14411402 0.094863415 0.018139362 9.7511301e-39
0.14366341 0.097917318 0.019946039 1.0674891e-38
0.14410651 0.1003027 0.022856414 1.0034893e-38
0.13829273 0.13099356 0.035475194 1.3524322e-38
0.13675958 0.13384166 0.034021258 1.3249913e-38
0.14162701 0.094857484 0.016913712 1.3256718e-38
0.1341154 0.1353462 0.032545269 1.3524711e-38
0.13117355 0.13610521 0.031088173 1.2699248e-38
0.13131624 0.13769308 0.030632138 1.3158069e-38
0.12734717 0.13934393 0.028242201 1.4262973e-38
0.12607551 0.14041881 0.026768923 1.5645528e-38
0.20489559 0.056332201 0.041197509 8.0094843e-39
0.20257503 0.067233384 0.044840515 1.2429852e-38
0.20091164 0.074897587 0.048338056 1.5008452e-38
0.1991531 0.069620848 0.042733073 1.3532241e-38
0.19787315 0.075269818 0.045359969 1.4086131e-38
0.19843557 0.025025368 0.027395338 7.2716026e-39
0.19005147 0.072673827 0.040590942 1.2336573e-38
0.20248491 0.045742303 0.033760697 5.9819049e-39
0.19302529 0.08991158 0.053212762 1.4732226e-38
0.20237434 0.060031325 0.050142288 8.5612302e-39
0.170349 0.08237955 0.03673768 1.2886863e-38
0.1617952 0.10582715 0.040060818 1.2886152e-38
0.21505147 0.034141898 0.057274103 8.3793598e-39
0.1418305 0.12735757 0.036985725 1.3893472e-38
0.21430928 0.02922976 0.058220208 9.947389e-39
0.21581972 0.032576233 0.059493005 9.1201353e-39
0.21574253 0.03621012 0.061106265 8.1016603e-39
0.21113551 0.023303211 0.052827686 1.0409096e-38
0.21118808 0.025911629 0.054476827 1.1051587e-38
0.21305656 0.02944544 0.054507613 1.04066e-38
0.20958906 0.019808143 0.049060822 9.026883e-39
0.20943153 0.022133231 0.050315291 9.7644495e-39
0.21086425 0.026150495 0.050602198 1.0224712e-38
0.20737159 0.020040154 0.046863377 9.3949607e-39
0.20714444 0.022731185 0.047742426 9.9466841e-39
0.20831731 0.026625812 0.047745824 9.4860591e-39
0.20433718 0.021184444 0.044361413 8.9289645e-39
0.20511019 0.023838818 0.04469645 9.5757492e-39
0.2060461 0.026067585 0.045205951 9.7637292e-39
0.20262173 0.020635426 0.040166616 1.0777517e-38
0.20381242 0.024076313 0.041790515 1.0777866e-38
0.19994628 0.014889657 0.034306586 1.077789e-38
0.20094198 0.017733276 0.035517633 1.0868639e-38
0.1999658 0.016276687 0.032021046 9.9495736e-39
0.17938995 0.11131641 0.068383813 2.0995777e-38
0.17589587 0.11530817 0.06748715 2.1002624e-38
0.1741128 0.11826146 0.06903106 2.0446927e-38
0.1717056 0.11932847 0.065522999 1.7500951e-38
0.17017168 0.12209758 0.068256676 1.1413171e-38
0.18483624 0.023656309 0.022146225 6.9016934e-39
0.18219185 0.029384404 0.026009917 9.7593558e-39
0.18320775 0.032701552 0.025954902 1.0588428e-38
0.1692394 0.12078249 0.063459396 1.2522359e-38
0.16798508 0.1230703 0.064760506 8.2853593e-39
0.16651243 0.1254347 0.065001875 8.8410386e-39
0.18162268 0.018044055 0.018480569 5.6156588e-39
0.18268418 0.021538556 0.020474136 6.6258366e-39
0.18277133 0.023402154 0.021389365 7.453791e-39
0.18128741 0.029574454 0.025171846 1.0311107e-38
0.18125415 0.033143789 0.025110215 1.1599352e-38
0.18086606 0.036777675 0.024713606 1.2979073e-38
0.18020207 0.039441586 0.025325388 1.3805584e-38
0.16726446 0.12092584 0.061463535 1.0494073e-38
0.16544479 0.12372398 0.062129587 8.0109178e-39
0.16387993 0.12680385 0.063061416 7.1825837e-39
0.17981374 0.018424124 0.016804487 5.1546554e-39
0.17940527 0.020692766 0.01775974 5.9836916e-39
0.17799425 0.036665171 0.024453551 1.3346056e-38
0.17774388 0.040681779 0.024672538 1.3898861e-38
0.17689115 0.043396533 0.024249047 1.4450949e-38
0.16395354 0.12488073 0.060387254 7.2769261e-39
0.16317526 0.12694892 0.061618268 6.9063681e-39
0.17755249 0.018899232 0.014709353 3.5905695e-39
0.17769843 0.020505697 0.015844822 5.061022e-39
0.17427161 0.040949583 0.02366966 1.4359478e-38
0.17405307 0.044484854 0.023339212 1.4909781e-38
0.17448056 0.047162235 0.024007052 1.4541716e-38
0.17051929 0.044844985 0.021115363 1.5278558e-38
0.16997883 0.048108101 0.019835889 1.610579e-38
0.15707016 0.11980841 0.050026596 1.9434493e-38
0.15656191 0.12263125 0.051215291 2.2569851e-38
0.16607174 0.046414167 0.019409478 1.5371836e-38
0.16695869 0.049827218 0.019014418 1.5738804e-38
0.15549374 0.11947572 0.048160374 1.7504205e-38
0.15450895 0.12288067 0.04972744 2.2583588e-38
0.15359855 0.12612519 0.050899744 2.313275e-38
0.16416064 0.047361434 0.017972171 1.5648053e-38
0.16367525 0.050435334 0.017761439 1.6014332e-38
0.1640023 0.054335684 0.01812458 1.5738102e-38
0.16315377 0.057147115 0.018158674 1.5739162e-38
0.1527282 0.12082934 0.04606995 1.3808497e-38
0.15228835 0.12368435 0.047350496 1.8600558e-38
0.151357 0.12671313 0.048481166 2.2305248e-38
0.14810872 0.12975328 0.051379502 2.3417689e-38
0.16052133 0.054179221 0.017510295 1.5737736e-38
0.16028047 0.058130085 0.017079771 1.5371465e-38
0.15917486 0.06160444 0.016684741 1.5646596e-38
0.15023714 0.11290872 0.039128214 1.1692252e-38
0.14960593 0.11675936 0.040289491 1.3255657e-38
0.14847326 0.11944181 0.040733546 1.3621895e-38
0.15005624 0.12508458 0.045851141 1.4999876e-38
0.14895904 0.12803233 0.047020376 1.9151951e-38
0.14661628 0.13048849 0.047731519 2.156445e-38
0.14551157 0.13365582 0.047870636 2.3415892e-38
0.14391309 0.13565533 0.05055961 2.341769e-38
0.15699214 0.059545547 0.015752077 1.5280682e-38
0.15630594 0.062357068 0.015920132 1.5279959e-38
0.15567803 0.065978557 0.015983701 1.5553693e-38
0.15502176 0.068633527 0.016598195 1.5371102e-38
0.14729726 0.11202434 0.039691299 1.0399752e-38
0.14687544 0.11618397 0.039535463 1.2148236e-38
0.1464656 0.12040418 0.039597809 1.3252761e-38
0.14523512 0.1326161 0.045366973 1.9530415e-38
0.14447868 0.13531895 0.047271729 2.314039e-38
0.14307564 0.13851129 0.047591925 2.341769e-38
0.14225835 0.14193293 0.047919214 2.341769e-38
0.15300936 0.061928332 0.015108734 1.5003386e-38
0.15301931 0.066247463 0.014604747 1.5185991e-38
0.15210474 0.070424139 0.014930367 1.5371103e-38
0.15130424 0.074846655 0.016472787 1.5461503e-38
0.15079606 0.077669561 0.017661333 1.52782e-38
0.14376694 0.11713183 0.039087623 1.1965245e-38
0.1433028 0.12154514 0.037965745 1.3159126e-38
0.14298409 0.12466922 0.03813687 1.4078931e-38
0.14080614 0.14278126 0.046905637 2.341769e-38
0.14890128 0.067666471 0.014281034 1.5002315e-38
0.14848679 0.070813596 0.014865696 1.4635685e-38
0.14805806 0.074354649 0.015725911 1.4910123e-38
0.14829785 0.078258067 0.016611904 1.481865e-38
0.14765942 0.081859469 0.016912431 1.4358388e-38
0.14713383 0.085500807 0.018582821 1.2794301e-38
0.14671558 0.088304728 0.019854844 1.1047959e-38
0.14399111 0.10107949 0.025574476 9.2108637e-39
0.14242393 0.1027137 0.027284831 7.4580888e-39
0.13961655 0.12237221 0.036859959 1.3434649e-38
0.139489 0.12553513 0.036555648 1.38027e-38
0.13904876 0.12848371 0.036316007 1.3432837e-38
0.13576669 0.15002941 0.047594726 2.341769e-38
0.14529806 0.07479018 0.014832377 1.4450219e-38
0.1443727 0.078281879 0.015464097 1.4449526e-38
0.14481151 0.082117498 0.015642524 1.4082877e-38
0.14462954 0.085757256 0.016798437 1.1412449e-38
0.14433581 0.088704228 0.017851114 9.2948365e-39
0.14183646 0.098564476 0.020976305 1.2894024e-38
0.14160031 0.10060874 0.022877216 9.5803651e-39
0.14093596 0.1027213 0.024773717 4.6926024e-39
0.13767159 0.12659788 0.035287678 1.3619733e-38
0.13627815 0.12950087 0.035276055 1.3525759e-38
0.14186984 0.079330504 0.013989896 1.3898143e-38
0.14106977 0.082342118 0.014085233 1.2512666e-38
0.14097822 0.085783094 0.014889538 9.8454628e-39
0.14081687 0.090229869 0.015859425 1.0765303e-38
0.13879949 0.093842685 0.016858488 1.4545659e-38
0.13852978 0.096993327 0.019681662 1.3346753e-38
0.13878018 0.10040435 0.021504343 7.4541175e-39
0.1322276 0.13047054 0.035064369 1.3710877e-38
0.13323867 0.13310084 0.033401966 1.3342113e-38
0.13854367 0.083303601 0.012908638 1.1130822e-38
0.13793099 0.086706579 0.014341593 1.0402611e-38
0.13742048 0.089542449 0.015535593 1.2339435e-38
0.13660353 0.094079792 0.01744616 1.5003023e-38
0.13629723 0.095781267 0.018162638 1.2061382e-38
0.12959218 0.13414454 0.031769693 1.2514122e-38
0.12740034 0.1354647 0.029869974 1.2603784e-38
0.12702489 0.13752857 0.029158056 1.3155558e-38
0.20647913 0.060950667 0.045689791 9.2069443e-39
0.20433047 0.070225835 0.048864901 1.3534036e-38
0.20324332 0.070592284 0.048167288 1.2796464e-38
0.19653535 0.080342323 0.047048092 1.3350369e-38
0.19562459 0.08461529 0.048698008 1.3441139e-38
0.19004411 0.074910074 0.042032748 1.1230949e-38
0.18907547 0.075024068 0.042528152 1.169192e-38
0.18977648 0.063598633 0.034969777 1.2887951e-38
0.17218012 0.082825541 0.027602553 1.4175799e-38
0.18957609 0.075685292 0.045040578 1.0954379e-38
0.19836801 0.070371866 0.051890194 1.012748e-38
0.1705507 0.078158379 0.030125797 1.2794668e-38
0.179023 0.088524103 0.041653097 1.2153267e-38
0.16403624 0.1094923 0.042797923 1.2615317e-38
0.16607174 0.046414167 0.019409478 1.5371836e-38
0.21078241 0.02072379 0.054821134 9.856987e-39
0.21130881 0.023552597 0.056316376 1.0315816e-38
0.20889276 0.018313527 0.049935937 8.6577334e-39
0.20997149 0.020683587 0.051575989 1.0041384e-38
0.20582157 0.015807003 0.047372222 1.0041004e-38
0.20696157 0.018036693 0.046783507 9.1194402e-39
0.20264137 0.016475201 0.044425577 8.6559397e-39
0.20434332 0.019024044 0.044624746 8.8392758e-39
0.20050138 0.015851557 0.040660799 1.0317608e-38
0.20263678 0.017852247 0.042108506 9.6704686e-39
0.19960231 0.013422728 0.037777692 1.1327099e-38
0.19985044 0.014465392 0.038676411 1.0592764e-38
0.18419552 0.017122895 0.022734314 5.983316e-39
0.18377417 0.018536091 0.022627652 5.891133e-39
0.18087816 0.023240566 0.025600702 7.729659e-39
0.18036532 0.02608943 0.026800215 9.0200209e-39
0.1655111 0.1249457 0.068902761 9.9452212e-39
0.18216693 0.017780721 0.020470649 5.983714e-39
0.18079987 0.020116508 0.020770967 6.1666633e-39
0.17920017 0.023456126 0.02396214 8.2828426e-39
0.17871594 0.027097195 0.025413215 1.0126385e-38
0.17819333 0.030510187 0.025633186 1.1507867e-38
0.16339374 0.12447575 0.065856338 8.4744029e-39
0.17815742 0.021299243 0.019021481 6.3499728e-39
0.17744887 0.022864699 0.021753311 8.190291e-39
0.17567265 0.031620681 0.024598598 1.2426608e-38
0.17499322 0.035063267 0.02440837 1.3346415e-38
0.17461348 0.037950307 0.024825782 1.389958e-38
0.17418927 0.018963039 0.015142322 4.4174519e-39
0.17532426 0.020875514 0.017350554 5.4305374e-39
0.1730817 0.032553673 0.023066163 1.3254208e-38
0.17187864 0.035721272 0.023507059 1.380703e-38
0.1720221 0.038969755 0.023660928 1.417545e-38
0.16872913 0.037305653 0.021377921 1.380776e-38
0.16941273 0.040350258 0.021594226 1.4635352e-38
0.16789252 0.043006033 0.02082473 1.5094532e-38
0.16680926 0.038257241 0.019934058 1.4451675e-38
0.1655404 0.041063011 0.019859225 1.4726098e-38
0.16462901 0.044034034 0.019586802 1.509561e-38
0.16212025 0.045601547 0.017898053 1.5279637e-38
0.16140541 0.048377007 0.017262936 1.5464018e-38
0.15838143 0.049382269 0.01731497 1.555406e-38
0.15782464 0.052893668 0.017191082 1.573666e-38
0.14577311 0.13036411 0.05086562 2.341769e-38
0.14338851 0.13251936 0.051243603 2.341769e-38
0.15527636 0.053687483 0.01666975 1.5370386e-38
0.15504533 0.056388885 0.016499877 1.5186705e-38
0.14119416 0.13652845 0.050589859 2.341769e-38
0.1517196 0.057205379 0.014541566 1.4910114e-38
0.1516456 0.060629815 0.014453411 1.4451654e-38
0.14122921 0.11586532 0.039184391 1.1408136e-38
0.14091241 0.11863261 0.038570106 1.2423006e-38
0.14884207 0.05793041 0.01300019 1.435767e-38
0.14834672 0.061836064 0.01427263 1.4359107e-38
0.14750576 0.065657735 0.014419585 1.4817214e-38
0.1462543 0.06959638 0.014244527 1.4450592e-38
0.13709146 0.1205965 0.037000656 1.324882e-38
0.144934 0.065878212 0.013733685 1.444952e-38
0.14354986 0.070241153 0.013887912 1.4633183e-38
0.14272702 0.073385507 0.014415383 1.4358386e-38
0.14264554 0.076730996 0.014796734 1.4633187e-38
0.13434762 0.12138972 0.035852134 1.3709794e-38
0.13373309 0.12469521 0.035826921 1.3435353e-38
0.1332078 0.12753868 0.035883814 1.3711211e-38
0.1407575 0.073644161 0.013284206 1.408253e-38
0.13984233 0.07760793 0.013501644 1.3622259e-38
0.13953352 0.080299735 0.013694286 1.2517338e-38
0.13601255 0.097435892 0.020450026 9.9387276e-39
0.13560349 0.099708021 0.02140677 6.6236534e-39
0.13104934 0.12515074 0.034670621 1.3801963e-38
0.13055736 0.12848866 0.034794569 1.3802337e-38
0.13682497 0.078546256 0.012919247 1.260775e-38
0.1366359 0.081937999 0.013215363 1.1409924e-38
0.13537592 0.085807592 0.014025211 1.2241837e-38
0.13491863 0.089814454 0.015164971 1.3348538e-38
0.1342563 0.09271276 0.016894162 1.3072314e-38
0.1344136 0.09666115 0.018920571 8.3696376e-39
0.13453203 0.099204421 0.019968718 6.3496126e-39
0.12765151 0.12944195 0.033287674 1.370979e-38
0.12761188 0.13199371 0.032702535 1.2787473e-38
0.13315731 0.086745173 0.013271123 1.3530789e-38
0.13286072 0.089573443 0.013897985 1.3164091e-38
0.12545747 0.13190828 0.031954348 1.2878905e-38
0.20955822 0.058600903 0.047108084 7.548153e-39
0.20852262 0.054253131 0.043461502 7.3662603e-39
0.20812589 0.055661619 0.042618573 7.36591e-39
0.2004973 0.046546549 0.030578613 7.4538022e-39
0.18850577 0.074069619 0.042751551 1.2982667e-38
0.19294083 0.059131414 0.035613626 1.1321708e-38
0.20057517 0.056488365 0.044754654 9.298798e-39
0.20075637 0.047089368 0.039365053 8.4664968e-39
0.19896519 0.072105587 0.053007126 9.9434387e-39
0.14376593 0.12623522 0.036134154 1.2516635e-38
0.1653716 0.10000765 0.036865354 1.3345695e-38
0.17177954 0.082475305 0.032721877 1.4268008e-38
0.16967225 0.095001698 0.035291523 1.3071248e-38
0.16352201 0.089839369 0.026667178 1.4359474e-38
0.16174167 0.10092542 0.031153738 1.4086125e-38
0.16093904 0.081932247 0.023899704 1.4176163e-38
0.17231733 0.083445489 0.037805736 1.4638227e-38
0.1547842 0.11270228 0.040570229 1.4636441e-38
0.19746423 0.076350033 0.049782336 1.2797559e-38
0.14577311 0.13036411 0.05086562 2.341769e-38
0.15516078 0.055038184 0.016584843 1.5278545e-38
0.20933682 0.011270136 0.054484189 9.5804254e-39
0.20927155 0.015162915 0.055479705 9.2109226e-39
0.21057272 0.018198341 0.056998849 8.8439211e-39
0.20627141 0.0094201267 0.050776899 6.7212678e-39
0.20637852 0.012140572 0.051325798 6.9053032e-39
0.20647961 0.014571279 0.053618342 7.5550012e-39
0.20330375 0.0098125935 0.048411787 7.0003658e-39
0.20395291 0.012809187 0.048496574 9.0283054e-39
0.2005595 0.010389209 0.045868993 5.8000444e-39
0.20165536 0.013398707 0.045785397 7.8251197e-39
0.19916332 0.0114021 0.042124212 8.8399849e-39
0.20033169 0.013384908 0.043254346 8.2904208e-39
0.17580336 0.023354203 0.025046617 9.6679252e-39
0.17620927 0.025601566 0.025271297 1.0496252e-38
0.17361054 0.0229913 0.023142517 9.2998658e-39
0.17364162 0.026731431 0.02443552 1.1323852e-38
0.17343107 0.029667914 0.024824917 1.2334403e-38
0.17104334 0.019121617 0.018490404 5.1528743e-39
0.17099518 0.022617549 0.022283703 9.2076786e-39
0.1699239 0.027179122 0.023208618 1.2059254e-38
0.16997808 0.031221092 0.023257703 1.325421e-38
0.16940331 0.034179986 0.023332894 1.3990701e-38
0.17003125 0.016713798 0.016477168 3.9554087e-39
0.16713846 0.028227717 0.022037089 1.2705701e-38
0.16680717 0.031484902 0.021706939 1.3714113e-38
0.16758057 0.034562975 0.021643937 1.4082545e-38
0.16331941 0.03223604 0.020063102 1.4266209e-38
0.16409391 0.035839856 0.019731462 1.4359489e-38
0.16321474 0.03932935 0.019950688 1.4727531e-38
0.16018873 0.035908252 0.018497586 1.4178698e-38
0.16073912 0.039847046 0.018640995 1.4728621e-38
0.15996611 0.042761326 0.018620491 1.5002339e-38
0.14361531 0.13065812 0.055076003 2.341769e-38
0.15765834 0.036848038 0.017303288 1.4084681e-38
0.15698552 0.039552152 0.017930359 1.4636414e-38
0.15654927 0.043288261 0.018097281 1.4818654e-38
0.15568969 0.047107428 0.017290235 1.5095238e-38
0.14182723 0.13139625 0.054034889 2.341769e-38
0.13943821 0.13289902 0.055192322 2.341769e-38
0.15367144 0.044314265 0.017659187 1.4821171e-38
0.15217608 0.047489882 0.016445249 1.4727896e-38
0.15269685 0.051512063 0.016561449 1.5094155e-38
0.14070064 0.10956162 0.042002261 9.474221e-39
0.14047146 0.11228299 0.042109042 1.0855342e-38
0.13671422 0.13814443 0.054735154 2.341769e-38
0.14901078 0.04885757 0.014467359 1.4359473e-38
0.15003419 0.052359402 0.01479584 1.4817574e-38
0.13822645 0.11053044 0.041823626 9.6600093e-39
0.13806432 0.11278215 0.04092598 1.0670212e-38
0.14624095 0.053058654 0.013271332 1.4358022e-38
0.14637429 0.05684337 0.013674557 1.4357306e-38
0.14523703 0.061252594 0.014380485 1.4358399e-38
0.13500148 0.11508101 0.038574129 1.2052422e-38
0.14255232 0.057145655 0.013769209 1.4174001e-38
0.1427092 0.060945779 0.014285743 1.4265853e-38
0.14198452 0.064761996 0.013724357 1.4448794e-38
0.14147395 0.067542017 0.014253527 1.4633547e-38
0.13161343 0.11615658 0.0372338 1.297689e-38
0.13218844 0.11916426 0.036524475 1.3527555e-38
0.13908213 0.061741382 0.012916476 1.4540625e-38
0.13897401 0.064942241 0.012730896 1.4448427e-38
0.13805121 0.067972153 0.013608605 1.4540264e-38
0.13795137 0.072525412 0.013976395 1.3806663e-38
0.12915981 0.11685443 0.036122859 1.3253841e-38
0.12883985 0.11983913 0.035581708 1.3803796e-38
0.1280489 0.1242508 0.034739852 1.4171107e-38
0.13416994 0.072716266 0.01444 1.3805936e-38
0.13269335 0.076371938 0.014327556 1.2791071e-38
0.13261443 0.081093729 0.014238596 1.1869826e-38
0.13048381 0.092099607 0.018452585 9.0153602e-39
0.12581939 0.12068549 0.034414232 1.4079647e-38
0.12524748 0.12374467 0.034178257 1.4355868e-38
0.13090163 0.07782197 0.014111757 1.1961678e-38
0.13035494 0.080755353 0.013750732 1.2332243e-38
0.12903756 0.084529847 0.013765991 1.3346737e-38
0.12789756 0.087890923 0.01551801 1.2422249e-38
0.12899256 0.090717614 0.017611921 1.0951397e-38
0.12242627 0.12489772 0.033933878 1.4173642e-38
0.12223786 0.12823428 0.033408612 1.3709058e-38
0.12620586 0.084332347 0.01313594 1.32531e-38
0.11356658 0.14719719 0.038212419 1.205638e-38
0.11350757 0.14997149 0.039845228 1.2794664e-38
0.21236593 0.05464828 0.047852039 5.9829727e-39
0.21103698 0.053631693 0.044199169 6.6286924e-39
0.19676286 0.068271548 0.039912939 1.3439318e-38
0.19465455 0.079163194 0.044285119 1.3348919e-38
0.19662517 0.060980201 0.035312712 9.664691e-39
0.19360816 0.071015298 0.038189709 1.3439322e-38
0.19144946 0.081589282 0.041984737 1.3164535e-38
0.18907505 0.087932169 0.050044179 1.5375434e-38
0.20030564 0.085710853 0.057710856 1.7033881e-38
0.19542924 0.065567374 0.038430482 1.3532226e-38
0.19770163 0.078080952 0.051209986 1.19685e-38
0.19134319 0.078224242 0.044875503 1.2336569e-38
0.19901419 0.055078506 0.040154815 1.1784477e-38
0.20022047 0.043703854 0.037124455 9.2051534e-39
0.19995016 0.04609412 0.039166808 9.0203922e-39
0.18763018 0.045255035 0.026902586 1.1964897e-38
0.16114873 0.063020706 0.017459989 1.5371111e-38
0.15118709 0.1046567 0.027555078 1.408324e-38
0.17344913 0.062644452 0.021771073 1.5369318e-38
0.15740341 0.10465533 0.030929208 1.1782667e-38
0.16951174 0.077121675 0.032159746 1.2980864e-38
0.19273996 0.057328045 0.038247913 9.5739556e-39
0.19302529 0.08991158 0.053212762 1.4732226e-38
0.14937842 0.12042856 0.042291462 1.3897799e-38
0.1688717 0.019308209 0.021569341 6.6294435e-39
0.16835335 0.022187322 0.02278167 9.7597804e-39
0.16720003 0.019016623 0.020678818 5.7089096e-39
0.16551903 0.021897256 0.021979392 9.665068e-39
0.16521329 0.025693148 0.022399575 1.2152171e-38
0.16364348 0.028717399 0.021802843 1.3255999e-38
0.16177613 0.026241511 0.020572662 1.1784456e-38
0.16139376 0.029498369 0.020222068 1.3439669e-38
0.15824947 0.027389854 0.018454999 1.1046552e-38
0.15856853 0.030218124 0.018942952 1.2979775e-38
0.15797085 0.033233464 0.018577963 1.3625875e-38
0.15472651 0.034354657 0.017417312 1.3254926e-38
0.15420884 0.038179219 0.017631173 1.4451657e-38
0.13693428 0.13220102 0.058431298 2.341769e-38
0.15103483 0.036240667 0.015989184 1.2703914e-38
0.15138578 0.039716244 0.016643167 1.3808465e-38
0.15120223 0.042855471 0.01731652 1.4452749e-38
0.13559258 0.13544711 0.057422489 2.341769e-38
0.13355547 0.1372022 0.057922602 2.3417689e-38
0.14858863 0.04004088 0.015047193 1.3164528e-38
0.14807701 0.043801576 0.015498906 1.3993933e-38
0.13546282 0.10798156 0.042396456 8.4654192e-39
0.13087189 0.13761564 0.056921005 2.341769e-38
0.14543498 0.044302374 0.014481723 1.3531513e-38
0.14421928 0.047660381 0.01446262 1.3899931e-38
0.1427747 0.051385462 0.01363793 1.4265115e-38
0.13309592 0.10982198 0.040708661 9.1993955e-39
0.14156663 0.048677683 0.013862699 1.4265124e-38
0.13888735 0.055005729 0.014001548 1.4173632e-38
0.1389277 0.059047073 0.014576256 1.4265478e-38
0.13131469 0.099748641 0.033200383 5.7971647e-39
0.13174778 0.10075468 0.035323203 6.4432292e-39
0.13007694 0.11044365 0.038849801 1.012137e-38
0.12958515 0.11325336 0.038050532 1.2516977e-38
0.13684261 0.055227369 0.012880951 1.4081794e-38
0.13617587 0.059428751 0.012942672 1.4080725e-38
0.13539881 0.062907994 0.012897134 1.4171848e-38
0.12944037 0.10099265 0.030669302 6.8991949e-39
0.12852407 0.101432 0.032336324 7.1797068e-39
0.1258139 0.11450502 0.036282212 1.3161278e-38
0.12555021 0.11761144 0.035931081 1.3620118e-38
0.13324755 0.060428381 0.012266278 1.3805584e-38
0.13346326 0.063950419 0.012674809 1.3896687e-38
0.13192219 0.067630351 0.013691813 1.3988531e-38
0.13182425 0.071564287 0.014640421 1.3530424e-38
0.12299484 0.11537486 0.034707129 1.3437513e-38
0.12261158 0.118507 0.034692168 1.371267e-38
0.11589742 0.15187606 0.049837112 1.9243312e-38
0.12910956 0.072197378 0.013514936 1.3070883e-38
0.12775946 0.075394154 0.014043868 1.2424452e-38
0.12719363 0.0790371 0.014096051 1.2701385e-38
0.1247018 0.090517223 0.019795656 9.1046719e-39
0.12383401 0.092981696 0.021699905 8.370016e-39
0.12035024 0.11889252 0.033856153 1.3714112e-38
0.12021202 0.12280223 0.034522384 1.4080367e-38
0.11770743 0.12537259 0.035027564 1.4077496e-38
0.11271882 0.15224059 0.045918167 1.6388167e-38
0.1250177 0.076606005 0.013468772 1.2977261e-38
0.12497711 0.07966876 0.013720512 1.325455e-38
0.12408036 0.083569527 0.013581097 1.3346734e-38
0.1238395 0.087099195 0.016534746 1.196131e-38
0.12262613 0.089889854 0.019062191 1.048586e-38
0.11676937 0.12722564 0.03411895 1.3618317e-38
0.11138481 0.15221864 0.043709159 1.4088272e-38
0.11016309 0.15419231 0.04520303 1.4182634e-38
0.11080843 0.13901095 0.034505695 1.2420827e-38
0.11057341 0.14274667 0.036014795 1.1405961e-38
0.10981613 0.14614592 0.037555665 1.0767804e-38
0.10932875 0.14966032 0.038925916 1.1047271e-38
0.10853565 0.15276101 0.041210055 1.1785549e-38
0.10786045 0.15467611 0.043069512 1.2522737e-38
0.10817212 0.13571642 0.031814098 1.3344581e-38
0.1084643 0.13896888 0.033058226 1.2699227e-38
0.10737479 0.14284113 0.034449935 1.186912e-38
0.10684162 0.14634199 0.035851359 1.1135151e-38
0.10622382 0.14957906 0.03744024 1.0954704e-38
0.10599858 0.15269321 0.03949964 1.1140544e-38
0.19055796 0.086034745 0.044220328 1.3073064e-38
0.18870002 0.080684423 0.038348913 1.3440037e-38
0.18687639 0.079603344 0.036407083 1.3624071e-38
0.1894128 0.086561084 0.049407482 1.4914095e-38
0.20379671 0.073407173 0.052047729 1.4821185e-38
0.19057721 0.08023712 0.042275161 1.3531168e-38
0.19646421 0.069940001 0.047119498 1.1047628e-38
0.19316083 0.076788366 0.049848169 1.3442917e-38
0.17420727 0.11037421 0.055858582 1.362661e-38
0.13796604 0.14128861 0.034487844 1.3715541e-38
0.1636709 0.12368506 0.052525878 8.2806594e-39
0.15740174 0.082432806 0.020995349 1.5004492e-38
0.16365469 0.088296562 0.031452 1.3440756e-38
0.20237434 0.060031325 0.050142288 8.5612302e-39
0.19560719 0.067747563 0.044049948 1.1692279e-38
0.1630072 0.017519206 0.0216479 4.8802461e-39
0.16290441 0.019485325 0.021689534 6.99538e-39
0.16029572 0.020881414 0.021142125 7.4523827e-39
0.15996912 0.023446321 0.021013081 1.0769934e-38
0.14217073 0.11910513 0.062852263 1.674606e-38
0.14169461 0.12132251 0.063639104 1.7584097e-38
0.15668148 0.023230761 0.019515604 7.1800866e-39
0.15688476 0.025766432 0.01917696 9.760495e-39
0.15487325 0.029533356 0.019356549 1.2886502e-38
0.13799191 0.12397799 0.06240648 2.3231502e-38
0.13693082 0.12615755 0.062618941 2.3417689e-38
0.15310103 0.026736915 0.018406391 1.0311857e-38
0.15211213 0.029506952 0.018635124 1.233477e-38
0.13451695 0.13211596 0.061610758 2.3234018e-38
0.15031797 0.030598998 0.017567247 1.2059256e-38
0.14948386 0.033229887 0.016455323 1.1968864e-38
0.13040459 0.13628933 0.061294109 2.3324774e-38
0.12866646 0.13913073 0.061827183 2.3226432e-38
0.14581132 0.034561813 0.015037328 1.1138029e-38
0.14492279 0.038093895 0.015272707 1.2336204e-38
0.14478588 0.041128188 0.015799463 1.3351786e-38
0.13240206 0.10055453 0.042198151 6.159804e-39
0.13370562 0.10356519 0.043385506 7.0807093e-39
0.12830722 0.13768551 0.057937264 2.3325854e-38
0.12710983 0.14019611 0.059259266 2.3140386e-38
0.12547874 0.1430909 0.060621202 2.3325492e-38
0.12413824 0.14645523 0.061525494 2.3417626e-38
0.14327508 0.038333714 0.014600635 1.1875224e-38
0.14169317 0.04212749 0.014987141 1.2796456e-38
0.14138865 0.045186222 0.014695108 1.2979776e-38
0.13133997 0.10116795 0.039350092 5.7949703e-39
0.13123435 0.10437042 0.040717781 6.8991669e-39
0.12363011 0.14432581 0.059688359 2.341769e-38
0.12321168 0.1466499 0.060666919 2.341769e-38
0.13895732 0.046427757 0.013480157 1.2888302e-38
0.13778287 0.05040282 0.014078557 1.3898843e-38
0.12922639 0.10148656 0.036489487 6.8091348e-39
