# .PCD v0.7 - Point Cloud Data file format
VERSION 0.7
FIELDS x y z rgb
SIZE 4 4 4 4
TYPE F F F F
COUNT 1 1 1 1
WIDTH 977
HEIGHT 1
VIEWPOINT 0 0 0 0 1 0 0
POINTS 977
DATA ascii
0.059568629 0.080425307 0.020033717 1.1781949e-38
0.060514204 0.08309029 0.019061625 1.1413895e-38
0.056542777 0.051994324 0.030390143 1.307193e-38
0.056013249 0.054731295 0.029394686 1.2703163e-38
0.055880867 0.058214381 0.028126836 1.3532601e-38
0.05538445 0.062101975 0.026712358 1.3253496e-38
0.056013249 0.065677896 0.025409341 1.2611339e-38
0.056542777 0.069409385 0.024049759 1.3349624e-38
0.15868375 0.05431217 0.017889977 1.6482864e-38
0.15609211 0.062270567 0.014406085 1.5468335e-38
0.1589032 0.07038559 0.013604581 1.5098849e-38
0.13542232 0.0766332 0.0095695257 1.2155416e-38
0.12971465 0.080940649 0.012745023 1.3073408e-38
0.1655726 0.026629522 0.035169065 8.2878789e-39
0.12886555 0.045432016 0.031159282 1.2797915e-38
0.12780951 0.050051093 0.028200805 1.2889394e-38
0.11275573 0.083009526 0.018951416 1.5930387e-38
0.11202765 0.071275905 0.023879945 1.5099907e-38
0.16673511 0.019253686 0.044237494 8.6581005e-39
0.16257809 0.016789421 0.045807421 8.4722561e-39
0.16175655 0.018944725 0.044359088 7.9197984e-39
0.16240683 0.10669462 0.013474643 1.7865782e-38
0.15823658 0.016976848 0.045690119 7.4563133e-39
0.15843749 0.018946677 0.044364452 7.7325247e-39
0.15816043 0.10353117 0.014208436 1.9705739e-38
0.15523201 0.016939476 0.04595238 7.5481446e-39
0.15428534 0.020078063 0.044093132 8.7441655e-39
0.15312703 0.023316085 0.04278332 8.6530264e-39
0.15476784 0.10378341 0.014282405 2.0627328e-38
0.15071279 0.021188706 0.044413626 8.2842663e-39
0.15046115 0.024043098 0.04287827 8.9274623e-39
0.14980799 0.026436806 0.041653216 9.8483915e-39
0.14979218 0.10711445 0.012812674 2.1457807e-38
0.14778209 0.021750674 0.044427216 8.8363849e-39
0.14646852 0.024113297 0.043096423 9.757621e-39
0.1460464 0.02727069 0.041356504 1.1046565e-38
0.14666356 0.10806654 0.01239568 2.1178362e-38
0.14778209 0.11045112 0.012133658 2.0074871e-38
0.142464 0.024877056 0.043298781 1.0496243e-38
0.14250162 0.027723029 0.041316509 1.1508967e-38
0.14184228 0.030184016 0.040303469 1.2337999e-38
0.14247739 0.10906224 0.012294173 2.0901792e-38
0.13980496 0.024878606 0.043302953 1.0682432e-38
0.1385124 0.027759805 0.041428626 1.1785192e-38
0.13852324 0.030185968 0.040308833 1.2798975e-38
0.13847542 0.10920729 0.012603581 1.9616439e-38
0.13451363 0.028472871 0.041471899 1.141856e-38
0.13427487 0.030687466 0.040134013 1.1970295e-38
0.13451363 0.10837181 0.012382746 1.6208089e-38
0.13116306 0.02925624 0.04172498 1.0680627e-38
0.13053188 0.031395316 0.040339172 1.2522038e-38
0.130522 0.10854174 0.012434661 1.234019e-38
0.12708052 0.032065645 0.04007107 1.3902457e-38
0.12657468 0.033935502 0.038965523 1.6390318e-38
0.12650973 0.10754855 0.013229311 9.207659e-39
0.12259183 0.032690331 0.039426088 1.5467988e-38
0.12259183 0.033937842 0.038971901 1.6576855e-38
0.12385069 0.10546793 0.013991594 1.0496613e-38
0.11831253 0.032320648 0.03999418 1.3531522e-38
0.11860898 0.033940181 0.038978338 1.5929342e-38
0.11438929 0.03198497 0.040306032 1.362265e-38
0.11462612 0.033942506 0.038984776 1.6295247e-38
0.11056502 0.031731486 0.040743113 1.5558402e-38
0.11064328 0.033944845 0.038991153 1.74927e-38
0.10931566 0.086341128 0.019917428 7.6399731e-39
0.10995704 0.088935629 0.019237757 7.5470712e-39
0.10605419 0.032205492 0.04048413 1.7403709e-38
0.10662989 0.034054071 0.039313495 1.7861095e-38
0.10620198 0.085577235 0.020378649 8.9292798e-39
0.10723168 0.087987468 0.0203861 8.6534048e-39
0.1032431 0.032395855 0.040632844 1.7125711e-38
0.10229558 0.034421921 0.039364815 1.7214659e-38
0.1026445 0.085229442 0.02068907 1.0958642e-38
0.098323874 0.032523677 0.040595293 1.5834963e-38
0.098897278 0.034643114 0.039396942 1.6571073e-38
0.098030917 0.082605228 0.02129817 1.1601882e-38
0.09864787 0.085275576 0.020797789 1.1049416e-38
0.097260259 0.13359283 0.0038005114 1.7967384e-38
0.09433531 0.032526016 0.04060173 1.3808849e-38
0.094379954 0.08234261 0.022038996 1.1968501e-38
0.094806671 0.085083172 0.021314144 1.1507879e-38
0.093936451 0.1204771 0.0085816979 1.3071283e-38
0.094269581 0.12296213 0.0072202682 1.60219e-38
0.094477229 0.12639721 0.006026268 2.0451633e-38
0.09444344 0.13069697 0.0045560002 2.3035964e-38
0.094601206 0.13346945 0.0038502812 2.1188091e-38
0.09061265 0.03240329 0.040653229 1.2887954e-38
0.090690866 0.034063414 0.039339125 1.4085788e-38
0.090971656 0.082188442 0.021675646 1.1968852e-38
0.090489484 0.084917352 0.020926237 1.1601861e-38
0.089726299 0.088414177 0.020262718 1.160188e-38
0.090104498 0.11964093 0.0086802244 1.389851e-38
0.090894975 0.12237386 0.0068324804 1.5559835e-38
0.091108344 0.12627222 0.005412817 1.7679235e-38
0.090729028 0.13001494 0.0040508509 2.035223e-38
0.090422712 0.13386457 0.0037141442 2.2109314e-38
0.086865783 0.035746977 0.038986623 1.4359471e-38
0.085719459 0.038719133 0.037564516 1.5188168e-38
0.087253183 0.085684702 0.020409524 1.1511122e-38
0.08653491 0.088843361 0.019447088 1.1877751e-38
0.08529456 0.092372879 0.018829465 1.2153955e-38
0.08529456 0.11298637 0.011324644 1.5186714e-38
0.086358175 0.11623393 0.010140359 1.4545296e-38
0.087148324 0.11852045 0.0085969567 1.491193e-38
0.08807379 0.13126402 0.0036008954 1.9984828e-38
0.087349877 0.13399141 0.0031414628 2.0265037e-38
0.087349884 0.13648818 0.0022323132 1.7878053e-38
0.083300278 0.036155462 0.039300442 1.316381e-38
0.082663491 0.039206043 0.037954509 1.4266925e-38
0.082699411 0.089676097 0.019283891 1.2889024e-38
0.082369603 0.092249677 0.018879712 1.2613865e-38
0.082303129 0.11267577 0.011443198 1.4088255e-38
0.082664125 0.11538897 0.010218143 1.3805225e-38
0.08238399 0.11861406 0.0082169175 1.3252063e-38
0.084090941 0.13500892 0.0022447705 1.7696179e-38
0.083427131 0.1362568 0.001791656 1.6411924e-38
0.078646943 0.040530771 0.037716091 1.3714842e-38
0.080108091 0.041447833 0.036315262 1.463825e-38
0.078736275 0.089611575 0.019137263 1.2890458e-38
0.078314565 0.092064634 0.018954456 1.2429837e-38
0.079976469 0.11236481 0.011560619 8.4492748e-39
0.079709902 0.11495744 0.010085046 6.9853215e-39
0.079976462 0.11923601 0.0090590715 7.3483713e-39
0.079742804 0.12296058 0.0069052577 1.058524e-38
0.078195244 0.12671088 0.0057023168 1.5933655e-38
0.077750899 0.12982486 0.0044097304 1.6127445e-38
0.074658386 0.04053311 0.037722468 1.2056413e-38
0.074133813 0.042386964 0.035984218 1.353225e-38
0.074751198 0.088990137 0.019370794 1.2889737e-38
0.074658386 0.091754481 0.019074082 1.2521668e-38
0.071999341 0.040534645 0.0377267 1.1777673e-38
0.070942029 0.043199927 0.036150157 1.2701776e-38
0.070150964 0.045196205 0.034968734 1.3897072e-38
0.07054925 0.085864857 0.020161569 1.3351074e-38
0.070742294 0.088434711 0.019757688 1.2798967e-38
0.066681243 0.043661043 0.036598265 1.1689036e-38
0.066620462 0.046137467 0.034784555 1.3254912e-38
0.066831917 0.085274473 0.020383298 1.2523467e-38
0.066348866 0.088323757 0.020338237 1.1693345e-38
0.063116945 0.046867624 0.035133243 1.2424813e-38
0.062683105 0.085276917 0.020389974 1.1414626e-38
0.062471099 0.088846579 0.020155013 1.0678493e-38
0.061363161 0.092386916 0.018868029 9.8494284e-39
0.059368886 0.048037872 0.035018027 1.2143205e-38
0.058833614 0.050510809 0.033267319 1.2978707e-38
0.057538591 0.082005218 0.021590531 1.1688642e-38
0.058659256 0.085377976 0.020626545 1.1229859e-38
0.058704123 0.089265212 0.020009398 1.1045453e-38
0.058704123 0.092388496 0.01887238 1.0583751e-38
0.054811433 0.051590398 0.033124804 1.3071227e-38
0.05388765 0.054873958 0.031474948 1.3161599e-38
0.053555742 0.058928579 0.029999375 1.3347484e-38
0.053555742 0.061423585 0.029091001 1.2888689e-38
0.05388765 0.066413447 0.027273715 1.2796097e-38
0.054219551 0.070155784 0.025910616 1.3256735e-38
0.054883361 0.073897943 0.024546981 1.3439684e-38
0.054883361 0.077640459 0.023184419 1.2701051e-38
0.054883361 0.081383005 0.021821856 1.2057103e-38
0.05477149 0.085388854 0.021073043 1.2150377e-38
0.054881752 0.089111313 0.020072401 1.2334034e-38
0.054905482 0.092658415 0.018781006 1.2517321e-38
0.051613331 0.052623197 0.033362865 1.3436447e-38
0.050784193 0.05542168 0.031990647 1.3345693e-38
0.050784193 0.059167787 0.030626774 1.288543e-38
0.050784193 0.06291391 0.0292629 1.2148592e-38
0.050784193 0.066660032 0.027899027 1.2793593e-38
0.0507842 0.070406124 0.026535153 1.2609923e-38
0.051391743 0.074277893 0.025479317 1.2979414e-38
0.051391743 0.078025803 0.024114788 1.2793947e-38
0.050893173 0.081930146 0.02269417 1.2518797e-38
0.052056506 0.084271893 0.021839499 1.2610286e-38
0.14824608 0.071832135 0.012745321 1.4086484e-38
0.14820547 0.05509299 0.01871866 1.4364512e-38
0.15326996 0.054382652 0.017480135 1.5559476e-38
0.15090112 0.063049927 0.01342231 1.482407e-38
0.15878761 0.079451904 0.010596871 1.4548183e-38
0.15307777 0.064393118 0.01722008 1.5193189e-38
0.15470301 0.051261827 0.022161126 1.6114069e-38
0.13294847 0.042583615 0.028148949 1.3165971e-38
0.12978634 0.051133513 0.023081005 1.3441489e-38
0.12338597 0.048519209 0.026370049 9.7608467e-39
0.11692256 0.076735869 0.016562104 1.5743138e-38
0.11492351 0.084704027 0.014214098 1.4456005e-38
0.12956139 0.056563541 0.021888852 1.5283598e-38
0.1346903 0.023836449 0.045034707 9.5753905e-39
0.16300873 0.0094146281 0.054211736 5.6188747e-39
0.16368385 0.011802539 0.052868128 6.3550175e-39
0.16370343 0.014445499 0.050073087 7.7329226e-39
0.16304645 0.016082779 0.048591375 8.5626679e-39
0.16348508 0.10838242 0.015518725 1.8047319e-38
0.1634205 0.11149363 0.016195297 1.9244421e-38
0.15966111 0.0094165951 0.0542171 5.6181531e-39
0.15967268 0.011740819 0.052661419 5.6181559e-39
0.15969899 0.014447883 0.050079644 7.1797334e-39
0.15904646 0.016085133 0.048597813 7.7325401e-39
0.15932995 0.10778518 0.015363693 1.8876347e-38
0.15941411 0.11132477 0.015838385 1.9430243e-38
0.15698303 0.0094181597 0.054221451 5.3412313e-39
0.15604632 0.011867777 0.052419186 5.8933162e-39
0.15570159 0.014352873 0.04976666 6.6287163e-39
0.15437979 0.01608786 0.048605323 7.1811628e-39
0.15571313 0.10754745 0.015304804 2.0074863e-38
0.15547244 0.11186932 0.016012311 1.9799022e-38
0.15162684 0.012692764 0.053039014 6.6279862e-39
0.15168436 0.015128583 0.050023794 7.272278e-39
0.15170322 0.018067285 0.048244298 7.8243812e-39
0.15004647 0.020162269 0.047129869 8.1002282e-39
0.1523798 0.10754941 0.015310168 2.1271974e-38
0.15100332 0.11170371 0.015396535 2.034896e-38
0.15028779 0.11511518 0.015752077 2.0260728e-38
0.14760971 0.012569293 0.053091288 7.2730137e-39
0.14763184 0.01551947 0.051307738 8.0073333e-39
0.14751175 0.01873821 0.048717201 8.1927966e-39
0.14682424 0.021521449 0.046640873 8.7452571e-39
0.14729314 0.11332922 0.015875697 2.0259261e-38
0.14359257 0.015717268 0.051952541 7.5477929e-39
0.14361 0.019359082 0.050153673 8.1935126e-39
0.14368603 0.021933019 0.047206163 9.1158291e-39
0.14304647 0.023611799 0.045886695 9.7601181e-39
0.14366019 0.11251418 0.01493746 2.0440808e-38
0.14359257 0.11511908 0.015762866 2.0809216e-38
0.14091447 0.016977087 0.051498771 7.6403431e-39
0.14011106 0.019997373 0.050400615 8.0094913e-39
0.13966724 0.022036314 0.04753077 8.7459956e-39
0.13917981 0.024365798 0.045619249 9.945238e-39
0.13969019 0.11215772 0.014187634 2.0445125e-38
0.13890591 0.11512186 0.015770435 2.0534779e-38
0.13600464 0.019915894 0.050437748 6.8116446e-39
0.13566153 0.022666007 0.047308803 7.7329142e-39
0.13571315 0.025495425 0.045214355 1.0035636e-38
0.13504648 0.027375132 0.044531167 1.1052983e-38
0.13568734 0.11216007 0.014194071 1.7962641e-38
0.13555829 0.11512379 0.0157758 1.9066109e-38
0.13154116 0.020757347 0.050139546 5.798929e-39
0.13162991 0.022802129 0.047739625 6.9038752e-39
0.13147299 0.026029989 0.045939684 9.0232887e-39
0.13171315 0.028003529 0.044308484 1.0497675e-38
0.13168448 0.11216243 0.014200509 1.5011358e-38
0.13087162 0.11512657 0.01578337 1.5748913e-38
0.12841672 0.020339757 0.05029726 5.522712e-39
0.12760809 0.02287133 0.047958195 6.4418097e-39
0.12765011 0.02643472 0.045951366 8.2871586e-39
0.12731391 0.029437557 0.044098556 1.0956847e-38
0.12637983 0.031890586 0.042903006 1.2798971e-38
0.12761858 0.11175905 0.015419066 1.1049467e-38
0.12484593 0.0069205016 0.055189431 6.6287079e-39
0.1235366 0.023143619 0.048812449 6.5329193e-39
0.12361342 0.026573211 0.046381235 8.5622909e-39
0.12298888 0.029521838 0.044658422 1.0219286e-38
0.12237984 0.031767651 0.042955101 1.2794672e-38
0.12404364 0.10911106 0.016566992 1.068208e-38
0.12439958 0.11177503 0.017015398 1.1235629e-38
0.11948974 0.023280919 0.049242795 7.0875252e-39
0.11958905 0.026643634 0.046599388 9.2062352e-39
0.11940182 0.029325351 0.044488251 1.0217159e-38
0.11926873 0.031560659 0.043036103 1.1506817e-38
0.11567308 0.029421657 0.044353545 1.0307863e-38
0.11571318 0.031145126 0.043193877 1.0489414e-38
0.11145547 0.023914754 0.049026668 6.0690937e-39
0.11157002 0.026648328 0.046612322 1.0029156e-38
0.11167023 0.029423997 0.044359982 1.1136196e-38
0.10717053 0.024043083 0.048987746 7.3547921e-39
0.10751935 0.026787654 0.047042012 1.1226283e-38
0.10763652 0.029530898 0.044683278 1.5009508e-38
0.10704653 0.031776637 0.042979777 1.6854496e-38
0.10704653 0.090035632 0.021769166 8.4722393e-39
0.10778532 0.092701122 0.022165716 7.8250818e-39
0.10609929 0.11514108 0.015823245 1.1415656e-38
0.10609929 0.12143235 0.013532758 1.6114513e-38
0.10609929 0.12331973 0.012845635 2.0639977e-38
0.10676882 0.1277232 0.011241198 2.1005135e-38
0.10308643 0.02423422 0.048925638 8.6516237e-39
0.10348608 0.026858479 0.047260046 1.1599731e-38
0.10343874 0.029809684 0.044614792 1.492091e-38
0.10371319 0.031152159 0.043213248 1.6208051e-38
0.10371319 0.089411154 0.022002637 9.7608033e-39
0.10334168 0.092933968 0.022697151 9.2991231e-39
0.10275167 0.11136828 0.017202914 1.1323146e-38
0.10346487 0.11997907 0.013593733 1.3161327e-38
0.10355224 0.12335579 0.011418223 2.026652e-38
0.10353061 0.1272233 0.010246694 2.2488527e-38
0.099404059 0.023652196 0.049144268 8.6505517e-39
0.099564351 0.026587322 0.046419978 1.0586303e-38
0.099627636 0.029535592 0.044696212 1.2705004e-38
0.10015764 0.0319895 0.042914867 1.5653448e-38
0.099696018 0.089480057 0.022162259 1.0311808e-38
0.099541456 0.09321861 0.022397816 1.0312908e-38
0.098065011 0.096901163 0.02247858 1.0680638e-38
0.099404044 0.1126285 0.016750216 1.141389e-38
0.0994507 0.11620985 0.014973342 1.1414278e-38
0.099587679 0.11939435 0.012394786 1.33475e-38
0.09961015 0.12306087 0.010823369 1.9063304e-38
0.09962181 0.1267745 0.009352982 2.304819e-38
0.09954273 0.13089336 0.0086813569 2.1656964e-38
0.098719992 0.13351698 0.0070182085 1.7506049e-38
0.095654733 0.024049833 0.049006283 9.0167951e-39
0.095507771 0.026726633 0.046849668 1.0123504e-38
0.095622256 0.029537901 0.04470253 1.1229171e-38
0.095713206 0.031470075 0.043112099 1.3441862e-38
0.095507465 0.089204594 0.02224493 1.1049414e-38
0.095580697 0.093041047 0.021996677 1.0774992e-38
0.095386922 0.096902743 0.022482932 1.0957228e-38
0.096725971 0.11011358 0.017670751 1.1598651e-38
0.095414594 0.11268024 0.016472638 1.1323482e-38
0.095604442 0.11553518 0.013570607 1.1505734e-38
0.095677376 0.11900504 0.011597693 1.2426276e-38
0.096379876 0.12261681 0.0099266768 1.5838972e-38
0.097046539 0.12637506 0.0085571408 2.1572001e-38
0.096122026 0.13007797 0.0075654387 2.3322979e-38
0.096939683 0.13309978 0.0071732998 2.0819335e-38
0.091593452 0.027074829 0.047380328 9.6629128e-39
0.09142407 0.029816732 0.044634104 1.0400132e-38
0.092379868 0.031158805 0.043231487 1.1783785e-38
0.091879882 0.088791654 0.022249758 1.1418204e-38
0.091636896 0.092819676 0.021493196 1.1326007e-38
0.091211736 0.097058669 0.022129714 1.1233815e-38
0.090030737 0.10130976 0.020888209 1.1234533e-38
0.090030737 0.10382627 0.019972026 1.114053e-38
0.091178492 0.10921808 0.018006861 1.0399753e-38
0.091497391 0.11215441 0.015754819 1.0490849e-38
0.091636889 0.11539184 0.013275206 1.1134802e-38
0.088691689 0.027702853 0.047689021 9.6628946e-39
0.087405212 0.030709535 0.046123803 1.0032375e-38
0.087016024 0.033120528 0.042793095 1.1966359e-38
0.086379886 0.034920976 0.04187274 1.3438953e-38
0.087700062 0.093015328 0.020837843 1.1785894e-38
0.087700315 0.097081617 0.020835578 1.1418199e-38
0.087379791 0.10121979 0.020689309 1.1141974e-38
0.086549222 0.1048349 0.01961112 1.0670949e-38
0.087379776 0.10876612 0.017941892 1.1316679e-38
0.087633505 0.11163215 0.014651358 1.2424447e-38
0.087879881 0.1149479 0.012734234 1.316058e-38
0.089046545 0.11760961 0.011763036 1.3250265e-38
0.083603315 0.031606421 0.046277165 1.0123499e-38
0.083432265 0.033539072 0.043141305 1.1505718e-38
0.084379889 0.034922138 0.041875958 1.2888668e-38
0.083713226 0.094747618 0.020096242 1.2154675e-38
0.083587311 0.09734951 0.020213485 1.1878817e-38
0.083447009 0.10094707 0.020086288 1.1324208e-38
0.083335519 0.10508843 0.019524693 1.1411356e-38
0.083587319 0.10801421 0.016330719 1.4907613e-38
0.083713226 0.11134832 0.014052331 1.5462946e-38
0.085046552 0.11510618 0.012681782 1.5004852e-38
0.079987898 0.032111838 0.046099722 1.0305062e-38
0.079551943 0.034061402 0.043498874 1.0860727e-38
0.079046562 0.036804587 0.04120034 1.1871652e-38
0.078379892 0.039310738 0.040289104 1.2424099e-38
0.079713233 0.09443675 0.020216703 1.2614578e-38
0.079352707 0.097200289 0.020579576 1.2245804e-38
0.07969071 0.10023136 0.020448387 1.1233454e-38
0.079485759 0.10524796 0.019473612 1.2150718e-38
0.079551727 0.1081097 0.016539812 1.5928569e-38
0.079522751 0.11099283 0.014189482 1.3988152e-38
0.078379892 0.11511008 0.012692511 8.7305322e-39
0.078246363 0.11930938 0.012228191 9.6550151e-39
0.078379884 0.12262736 0.0099556446 1.0940328e-38
0.077046566 0.12576036 0.0088174343 1.5466563e-38
0.076440945 0.034625247 0.044126987 1.0213926e-38
0.074976951 0.036968634 0.041680098 1.1135162e-38
0.075046569 0.039312705 0.040294468 1.1592925e-38
0.075046569 0.093813047 0.020452321 1.2337638e-38
0.075484343 0.097000316 0.021064818 1.1785552e-38
0.075301237 0.10006015 0.021370053 1.1233094e-38
0.076640286 0.10509236 0.019535482 1.1045456e-38
0.076213002 0.10877876 0.017342806 1.2244372e-38
0.075839132 0.11197193 0.015816092 1.0584138e-38
0.076267175 0.11564298 0.014417946 1.0771743e-38
0.076284222 0.12450673 0.011758447 1.4818622e-38
0.074957892 0.12736137 0.0099411011 1.7137945e-38
0.074930541 0.13052662 0.0079728365 1.5944858e-38
0.0713313 0.037764147 0.042461395 1.1040807e-38
0.070951328 0.040120557 0.040007889 1.1409246e-38
0.069713242 0.042448029 0.039162695 1.1690502e-38
0.07093545 0.093084589 0.020724952 1.1877365e-38
0.071297698 0.097322211 0.020853937 1.1324222e-38
0.071016297 0.10056596 0.021193683 1.0955818e-38
0.067585751 0.038490474 0.042887986 1.0673468e-38
0.067009389 0.04065223 0.040087521 1.0948978e-38
0.067046575 0.042449594 0.039167047 1.1134098e-38
0.067046575 0.090059087 0.021833599 1.1692972e-38
0.067046583 0.092564866 0.02092135 1.1048353e-38
0.067465313 0.097004995 0.021077752 1.0680279e-38
0.067075662 0.10096373 0.021056056 1.021967e-38
0.065927915 0.10509865 0.019552767 1.0126034e-38
0.065927915 0.11013164 0.017720342 9.6679589e-39
0.063901491 0.038397893 0.042421579 1.0123157e-38
0.063610263 0.040791109 0.040486515 1.0489061e-38
0.063332289 0.043525696 0.03878206 1.1225199e-38
0.062379919 0.090061828 0.021841109 1.0588454e-38
0.063713245 0.092566803 0.020926714 1.0218591e-38
0.063558765 0.096733913 0.020474136 9.8505186e-39
0.063422725 0.10086612 0.019915879 9.9430814e-39
0.063284576 0.1050071 0.019354403 1.0127115e-38
0.062714197 0.10937859 0.018000364 1.0035637e-38
0.062580302 0.11139186 0.017267644 9.758323e-39
0.059338212 0.039456144 0.042754114 1.0211374e-38
0.059345633 0.041455939 0.04087317 1.0947504e-38
0.059880584 0.04411225 0.038726866 1.1592896e-38
0.059713259 0.046838984 0.037582338 1.1962029e-38
0.059713259 0.095074937 0.020020843 9.9380241e-39
0.059522778 0.09722285 0.019239247 1.0123873e-38
0.059760489 0.10055329 0.018824339 1.0308984e-38
0.059553064 0.10426427 0.017739832 1.031146e-38
0.059268713 0.10878338 0.017986894 1.0218921e-38
0.055716567 0.042501047 0.04200685 1.1963829e-38
0.055380449 0.045140341 0.039272964 1.2516982e-38
0.055879757 0.047874004 0.037364602 1.242405e-38
0.055046596 0.04997392 0.036449492 1.288829e-38
0.055713266 0.095077261 0.02002728 1.1687575e-38
0.055713259 0.097583041 0.019115031 1.1873418e-38
0.055602334 0.10099198 0.018583536 1.2152879e-38
0.055510059 0.10436015 0.017948747 1.2243621e-38
0.055215552 0.10825054 0.018424749 1.197028e-38
0.051486678 0.046136931 0.04043752 1.1779442e-38
0.051541641 0.048436105 0.038080037 1.2241139e-38
0.051498003 0.050919831 0.036263764 1.2886886e-38
0.050824374 0.085892335 0.02338022 1.2980131e-38
0.051046595 0.088815615 0.022315502 1.3898836e-38
0.051565118 0.092991576 0.020794213 1.2060652e-38
0.05139938 0.096982583 0.020101666 1.0673448e-38
0.051578872 0.10065834 0.019865334 1.122841e-38
0.052001841 0.10485516 0.019666791 1.2338322e-38
0.052537456 0.107623 0.018658102 1.2335089e-38
0.048520327 0.047229305 0.040653229 1.2237905e-38
0.047181256 0.049117461 0.039968252 1.1226646e-38
0.047495678 0.051650554 0.037153542 1.2792172e-38
0.047255762 0.054960489 0.035104394 1.3620834e-38
0.047024205 0.059419364 0.033158422 1.2518091e-38
0.047046594 0.06313388 0.031672895 1.2698176e-38
0.047046594 0.066266075 0.030532539 1.2976542e-38
0.047046609 0.070651159 0.028936028 1.2518746e-38
0.047713272 0.07440941 0.027566552 1.3163421e-38
0.047713272 0.077541605 0.026426196 1.3622939e-38
0.047546618 0.081143752 0.025115013 1.325456e-38
0.047546603 0.085215613 0.023632586 1.2795371e-38
0.047633804 0.088994488 0.022729576 1.2795741e-38
0.047613218 0.093023404 0.022386193 1.1968138e-38
0.048185565 0.097244963 0.022444427 1.0578036e-38
0.044503197 0.053522915 0.038369238 1.3162736e-38
0.043731228 0.056016162 0.036753476 1.3438946e-38
0.043558881 0.059528276 0.034854352 1.3252007e-38
0.043468162 0.062989548 0.033150911 1.352826e-38
0.043530211 0.066633537 0.031469464 1.417292e-38
0.043530211 0.070397541 0.030099094 1.3620098e-38
0.043550342 0.074119553 0.028625667 1.3989605e-38
0.043570489 0.077840552 0.027152658 1.4176864e-38
0.04361093 0.081517592 0.025577366 1.3808811e-38
0.043550357 0.085410222 0.024515033 1.3531854e-38
0.043792233 0.089196786 0.024318397 1.3072688e-38
0.040486068 0.061074778 0.035627127 1.3621906e-38
0.040486068 0.063591287 0.034710944 1.4083956e-38
0.039314389 0.067524001 0.033281267 1.4450592e-38
0.039397836 0.070646748 0.03072536 1.3991765e-38
0.039482147 0.074247107 0.028941393 1.3623693e-38
0.039524511 0.077927932 0.02736479 1.2886144e-38
0.039548919 0.081825212 0.026743948 1.2795738e-38
0.040025175 0.085832253 0.026188791 1.3626924e-38
0.036468923 0.068626627 0.032885015 1.4083219e-38
0.036468923 0.071143135 0.031968832 1.3438229e-38
0.036468923 0.074917898 0.030594528 1.168794e-38
0.036468923 0.07869266 0.029220223 1.1321331e-38
0.036468923 0.081838265 0.02807498 1.2151822e-38
0.1504956 0.060593501 0.015026867 1.5836419e-38
0.1501869 0.06764634 0.012594342 1.4639657e-38
0.14954524 0.075219229 0.010492027 1.2981214e-38
0.1547519 0.061709926 0.017501175 1.5836768e-38
0.15232596 0.059195578 0.018946767 1.3628027e-38
0.13499874 0.049731329 0.025699139 1.2522772e-38
0.099129394 0.052779794 0.025454283 1.5742774e-38
0.092332117 0.054589003 0.02476871 1.5189598e-38
0.093238153 0.080763325 0.017444789 1.2704994e-38
0.11958588 0.052272856 0.025612533 1.0680285e-38
0.13199982 0.032047138 0.037514746 1.4544601e-38
0.11535078 0.070972309 0.019954205 1.3076661e-38
0.13486017 0.10813855 0.013575733 1.7495913e-38
0.15962645 0.006197229 0.057517767 5.3397739e-39
0.15963769 0.0079027861 0.056187332 5.525254e-39
0.15997902 0.11396785 0.017216384 2.0627715e-38
0.15556589 0.0065698177 0.058808446 4.3263451e-39
0.15544155 0.0084245205 0.056182384 5.2465161e-39
0.15427998 0.01159288 0.054498911 5.8004087e-39
0.15629141 0.11428504 0.017107666 2.0443319e-38
0.15591773 0.11662047 0.018120348 2.1179451e-38
0.15154375 0.008974418 0.057467341 5.8918575e-39
0.15159808 0.011279434 0.054617941 6.4439635e-39
0.15293904 0.114287 0.01711303 2.03511e-38
0.15178612 0.11752151 0.018917322 2.0906098e-38
0.1475133 0.0089453012 0.057366967 6.6308743e-39
0.14757523 0.010966793 0.054739118 7.182239e-39
0.14733411 0.11757894 0.018186212 2.0995043e-38
0.14346795 0.0090416372 0.057694077 6.5379331e-39
0.14310539 0.011809453 0.054440498 7.1825935e-39
0.14349209 0.11762486 0.017511308 2.0811011e-38
0.14340565 0.12094153 0.018609822 2.1365289e-38
0.13944282 0.008981511 0.057486832 5.0660471e-39
0.13952442 0.012263194 0.054399967 6.5372367e-39
0.1393619 0.015854254 0.052974641 6.9038612e-39
0.13885905 0.019162163 0.051771283 7.3652051e-39
0.13969512 0.11742429 0.016603112 1.9979454e-38
0.13936886 0.12150432 0.018234849 2.025895e-38
0.13535692 0.0092657357 0.058454931 2.7622577e-39
0.13546057 0.012488484 0.055153072 4.788398e-39
0.13547736 0.016176045 0.05345583 5.8000276e-39
0.13461271 0.018954664 0.05185461 5.9822468e-39
0.13546334 0.11781089 0.016748786 1.7587418e-38
0.13519567 0.12165226 0.01739049 1.7772157e-38
0.13127424 0.0069543272 0.060131788 2.8504905e-39
0.1312993 0.0093621016 0.058782101 1.6569906e-39
0.13131183 0.013096213 0.057186067 3.0381328e-39
0.13135004 0.016696557 0.055165648 4.4188966e-39
0.13145515 0.019314304 0.052261531 5.0628269e-39
0.13162625 0.11755334 0.01687485 1.694564e-38
0.13129272 0.12206899 0.017866671 1.5563764e-38
0.12728605 0.0092410594 0.058360517 3.7735174e-39
0.12725039 0.013193712 0.057512641 1.4729609e-39
0.12729943 0.016764194 0.055384934 3.3125463e-39
0.12699266 0.019477665 0.052032769 5.061015e-39
0.12679049 0.11430232 0.01715517 1.1421086e-38
0.12741172 0.1171609 0.016941011 1.3907122e-38
0.12725082 0.12207137 0.017873168 1.2516248e-38
0.12586021 0.12489964 0.017555475 8.5644083e-39
0.1234729 0.010177419 0.05868876 4.7898077e-39
0.1232467 0.016831905 0.055604279 1.8410189e-39
0.1234152 0.019899756 0.051885545 4.6922297e-39
0.12209716 0.10611482 0.020144582 1.1324196e-38
0.12205005 0.10954852 0.019604087 1.141786e-38
0.1229558 0.11367948 0.01792109 1.1695863e-38
0.12335366 0.11735667 0.017350078 1.427481e-38
0.12337438 0.12193365 0.017974734 1.6755785e-38
0.12451164 0.12490045 0.017557621 9.6639105e-39
0.11919184 0.016899556 0.055823505 9.2051717e-40
0.11938195 0.019935161 0.051998317 3.9557619e-39
0.11927417 0.10627721 0.022100747 9.4806613e-39
0.11932382 0.10978489 0.020114183 1.1048002e-38
0.11934079 0.11347644 0.018533587 1.178446e-38
0.11932467 0.11735906 0.017356575 1.611841e-38
0.11916744 0.12207587 0.017886221 2.1283824e-38
0.11911736 0.12490363 0.017566383 1.4807465e-38
0.11535698 0.019937515 0.052004814 3.0345413e-39
0.11372308 0.10082994 0.026340783 6.3500092e-39
0.11530931 0.10276602 0.025024951 7.0853896e-39
0.11515184 0.11054228 0.021737933 9.9384123e-39
0.1152944 0.11357392 0.018741965 1.1045112e-38
0.11531222 0.11726429 0.017161906 1.3996131e-38
0.11517009 0.12183349 0.017390609 2.1380777e-38
0.11510794 0.12597518 0.01671052 2.0819224e-38
0.11127433 0.02013813 0.052648604 2.9423288e-39
0.11136957 0.022328407 0.050668716 5.0581606e-39
0.11089031 0.099569723 0.026405752 6.4414566e-39
0.11065318 0.10312633 0.025358379 7.3615898e-39
0.11106434 0.1069807 0.023633301 8.6512566e-39
0.11111185 0.11054467 0.02174443 1.0029876e-38
0.11126499 0.11357628 0.018748462 1.1136958e-38
0.11130317 0.11717014 0.016966999 1.21493e-38
0.11126499 0.12115048 0.015990973 1.7314095e-38
0.11121833 0.12518434 0.015113652 2.3040622e-38
0.11124229 0.12821759 0.013713598 1.7968465e-38
0.10678458 0.017724827 0.055758476 1.7452346e-39
0.10708268 0.020669684 0.054354787 4.5064007e-39
0.10761324 0.022871315 0.051276028 6.4356874e-39
0.10667624 0.095413521 0.024068773 7.7346841e-39
0.10717408 0.098705754 0.024879396 7.7303597e-39
0.10713421 0.1026787 0.023905933 8.8370576e-39
0.10719528 0.10619195 0.021917343 9.7554335e-39
0.10726549 0.10965066 0.019830227 1.0492658e-38
0.10730662 0.11324473 0.018048704 1.1230942e-38
0.10749191 0.11710025 0.016437769 1.1598262e-38
0.10749191 0.12056626 0.015175879 1.472941e-38
0.10772984 0.12457387 0.013450384 2.2579655e-38
0.10868765 0.12754337 0.012367487 1.9441057e-38
0.10230891 0.018321738 0.055868566 8.2759706e-40
0.10303186 0.020705268 0.05446744 5.3365159e-39
0.10345501 0.023258343 0.051834404 7.9119161e-39
0.10399433 0.0954151 0.024073124 9.0203964e-39
0.10327041 0.098162636 0.023665369 9.4828053e-39
0.10322652 0.10212941 0.02269417 1.0219635e-38
0.10324858 0.10582198 0.021113276 1.0495497e-38
0.10330264 0.10937004 0.019230187 1.0862521e-38
0.10351542 0.11341597 0.017520368 1.1231645e-38
0.10466481 0.1168354 0.01627332 1.123202e-38
0.09895815 0.018274754 0.055714428 2.5757043e-39
0.099082612 0.020442829 0.053624153 6.257389e-39
0.099250436 0.022485986 0.051165521 7.7303765e-39
0.099684142 0.098117724 0.023097098 1.0588082e-38
0.099244192 0.1019481 0.022294521 1.0680637e-38
0.099289566 0.10554494 0.020511866 1.0772831e-38
0.09930101 0.10927831 0.019034445 1.104727e-38
0.094505973 0.018156424 0.056475163 6.4371335e-39
0.094939582 0.020742819 0.054586649 7.3576437e-39
0.09494292 0.022653028 0.050580442 8.2803063e-39
0.095278159 0.099200353 0.022710979 1.0957954e-38
0.095254406 0.10181253 0.021996379 1.1140903e-38
0.095218368 0.10573356 0.020923674 1.1416758e-38
0.095110528 0.10912324 0.01909852 1.1507885e-38
0.095278151 0.11180075 0.018123448 1.1783743e-38
0.092145987 0.018474609 0.056363642 7.9075791e-39
0.090822421 0.020943537 0.055230677 8.7387593e-39
0.09110225 0.024002343 0.051515102 9.0164406e-39
0.089914352 0.026121095 0.049326956 9.295575e-39
0.091869496 0.09940739 0.023173869 1.0958328e-38
0.091925777 0.10172237 0.021798849 1.1050142e-38
0.091422923 0.1056603 0.020366013 1.1415325e-38
0.091925785 0.10802256 0.019505084 1.1137681e-38
0.087425984 0.022278979 0.054987133 9.7536413e-39
0.086858116 0.024543598 0.053217649 9.6614344e-39
0.086814716 0.027290463 0.049211025 9.4781124e-39
0.088238157 0.10581966 0.020313799 1.0765623e-38
0.082768932 0.025297433 0.053364575 1.0119554e-38
0.082999758 0.027897462 0.050466478 9.6603666e-39
0.082874358 0.03022036 0.04784739 1.0029876e-38
0.078955933 0.025517762 0.053610623 1.0857863e-38
0.078864813 0.028139338 0.051213682 1.0581266e-38
0.078938767 0.030941248 0.048048198 1.0121013e-38
0.078851506 0.10267507 0.021475792 1.0680628e-38
0.077845797 0.10425071 0.020904005 1.1045776e-38
0.075963147 0.026087299 0.05362159 1.2055679e-38
0.074817233 0.028703287 0.052405119 1.0581255e-38
0.074887753 0.031796381 0.049416482 9.5685171e-39
0.074359328 0.034698486 0.046232522 1.0027735e-38
0.075163893 0.10236223 0.021596491 1.0956847e-38
0.074996285 0.10551243 0.020449817 1.076779e-38
0.074158192 0.10897802 0.019189656 9.2955848e-39
0.073822945 0.11370338 0.017469883 9.2076842e-39
0.074123375 0.11727755 0.016434073 1.049661e-38
0.075086974 0.1208774 0.015446901 1.2062115e-38
0.074693717 0.12406753 0.013872325 1.3995324e-38
0.073822945 0.1269338 0.012652993 1.7141163e-38
0.070568874 0.029892087 0.052246273 9.6603961e-39
0.070616119 0.032321543 0.051006794 9.2926841e-39
0.070981055 0.035305947 0.047199965 9.9373305e-39
0.071476288 0.10267939 0.021487713 1.0863237e-38
0.071093373 0.105655 0.020759761 1.0308617e-38
0.071061373 0.10953005 0.01958549 9.2955652e-39
0.071029365 0.11340947 0.018409669 8.7463375e-39
0.071077466 0.11704849 0.016729951 9.0229356e-39
0.070998006 0.12107579 0.015855074 1.1048712e-38
0.070869587 0.1252581 0.015278578 1.4640743e-38
0.070900939 0.12894706 0.013698995 1.7873719e-38
0.066523157 0.032428861 0.05133003 1.0031338e-38
0.066837214 0.035555944 0.047944188 9.7565406e-39
0.066447712 0.037475228 0.045236051 1.0401543e-38
0.067788668 0.10299657 0.021378934 1.0219291e-38
0.067267463 0.10556956 0.020576119 1.0125657e-38
0.067193545 0.10940464 0.01971209 9.6668659e-39
0.06701944 0.11336426 0.018315136 9.1154871e-39
0.067069039 0.11700229 0.016635835 9.3917125e-39
0.06677109 0.12166683 0.017066479 1.0864657e-38
0.066822052 0.12552167 0.016676605 1.4733279e-38
0.062862746 0.032612041 0.051270068 9.8458523e-39
0.062716685 0.035735697 0.048477471 9.7522147e-39
0.062201366 0.037897736 0.04509002 9.754014e-39
0.063765816 0.10866912 0.019321084 1.0127857e-38
0.063286901 0.11343957 0.017585218 9.4824634e-39
0.063060597 0.1169567 0.016541541 9.7597537e-39
0.062734902 0.12166922 0.017072976 1.132564e-38
0.062528618 0.12542237 0.017126024 1.3903889e-38
0.059780315 0.033699989 0.050879478 1.0580182e-38
0.058484711 0.036128476 0.04964298 9.935499e-39
0.059018776 0.038217098 0.04533428 9.7514833e-39
0.05907248 0.11308201 0.017723024 9.8487026e-39
0.058912292 0.1172974 0.017252743 1.0403676e-38
0.058644682 0.12181826 0.017380953 1.2982637e-38
0.058765143 0.12526827 0.017117977 1.3903561e-38
0.055285074 0.037081853 0.04965651 9.8451152e-39
0.054753654 0.039317504 0.04647857 1.0856763e-38
0.054099739 0.041791886 0.044041753 1.1596126e-38
0.055049643 0.11056431 0.018647015 1.2707499e-38
0.05499392 0.11322807 0.018031955 1.2245817e-38
0.054772295 0.11759071 0.017862976 1.2889037e-38
0.05529394 0.12188961 0.018141568 1.5284314e-38
0.055734605 0.12494077 0.017668426 1.4364537e-38
0.050872169 0.039943844 0.047710299 1.0674181e-38
0.050854534 0.042853296 0.044370651 1.1227352e-38
0.050356314 0.045044914 0.042509496 1.1409232e-38
0.049685836 0.10300718 0.021408141 6.9831677e-39
0.050021075 0.10584207 0.020375371 7.3551382e-39
0.050751433 0.10972996 0.019623637 9.3784156e-39
0.050739482 0.11380322 0.01924926 8.7312539e-39
0.051251657 0.11809359 0.019530952 7.8071971e-39
0.053037465 0.12114076 0.019056857 1.2059279e-38
0.048991755 0.039408714 0.048820794 1.030574e-38
0.046725303 0.043881655 0.045954883 1.1133358e-38
0.046791732 0.04623282 0.042349517 1.168651e-38
0.045662984 0.095449284 0.024167061 1.2156107e-38
0.046127677 0.098384783 0.023523152 1.1784089e-38
0.046864957 0.10207115 0.022581756 1.1224116e-38
0.046707109 0.10622744 0.022014797 1.1315949e-38
0.046684146 0.11031856 0.02167815 1.1591108e-38
0.047027372 0.11466534 0.021070659 1.1776581e-38
0.048991755 0.11734153 0.020447433 8.6498497e-39
0.044271767 0.044480279 0.046982944 1.1132642e-38
0.042972222 0.047206238 0.04401648 1.1132237e-38
0.042858407 0.049685732 0.041543007 1.1411045e-38
0.042744353 0.052580625 0.040178835 1.2514133e-38
0.042087123 0.055970132 0.038547039 1.307053e-38
0.041640148 0.058910474 0.037477255 1.3437533e-38
0.042087123 0.091251269 0.025702059 1.3165248e-38
0.042878747 0.094414935 0.025139928 1.2704983e-38
0.042634055 0.098742828 0.024983644 1.2888643e-38
0.042600289 0.10283421 0.024676621 1.2797175e-38
0.043013752 0.10699789 0.023692071 1.3530794e-38
0.043934628 0.11132528 0.022647023 1.2793596e-38
0.044271767 0.11417629 0.021608412 1.2334757e-38
0.040226057 0.048284262 0.045605421 1.0948582e-38
0.0392268 0.050804153 0.043980241 1.0582334e-38
0.039252773 0.05329825 0.041653275 1.1223756e-38
0.038984045 0.056811377 0.03904444 1.2793945e-38
0.038695514 0.06019181 0.037548244 1.3438605e-38
0.038287774 0.06395261 0.03564775 1.408288e-38
0.037617296 0.066473082 0.034731269 1.4173655e-38
0.037617296 0.084113643 0.028308809 1.2798268e-38
0.037952542 0.086948529 0.027276039 1.3535119e-38
0.038831949 0.090678558 0.026625872 1.3624427e-38
0.039252773 0.095000133 0.026470721 1.3808813e-38
0.039033815 0.099266604 0.026159346 1.4082523e-38
0.039326981 0.10340802 0.025537968 1.3437505e-38
0.040563196 0.10689206 0.024267197 1.2980795e-38
0.036051229 0.054238945 0.04291296 1.094968e-38
0.035396099 0.057110608 0.040880501 1.1779804e-38
0.035217866 0.060883537 0.038899004 1.2795011e-38
0.035476521 0.064193949 0.036274433 1.3438211e-38
0.034645498 0.067805484 0.034916639 1.3438573e-38
0.034232169 0.071577325 0.033056498 1.1963469e-38
0.034232169 0.075358048 0.031680048 1.0951086e-38
0.034199446 0.079202965 0.030457616 1.0768516e-38
0.034440294 0.083256796 0.029234648 1.1691198e-38
0.0351796 0.086735323 0.028118908 1.2706429e-38
0.035347521 0.090945885 0.027244389 1.3718044e-38
0.035818562 0.095346704 0.027681112 1.4547084e-38
0.036276147 0.098771289 0.026699424 1.4637857e-38
0.033005297 0.061872169 0.039607346 1.1775488e-38
0.031929806 0.065423086 0.038924634 1.1779794e-38
0.030951932 0.068893716 0.037232041 1.1963811e-38
0.03131704 0.072010651 0.034145594 1.0674168e-38
0.031383768 0.075673118 0.032457352 9.9394857e-39
0.031096026 0.079639062 0.031013966 1.0217164e-38
0.031250298 0.083502665 0.030316472 1.0586664e-38
0.031539872 0.087874517 0.029877186 1.1875601e-38
0.031592116 0.091743037 0.029089391 1.3168454e-38
0.031460345 0.09454225 0.028780103 1.3718409e-38
0.028763205 0.069199815 0.038011551 1.1042954e-38
0.027709991 0.072928444 0.035990655 9.5689011e-39
0.027618647 0.076427534 0.034317911 9.1093747e-39
0.027450308 0.080065712 0.032993674 9.3888679e-39
0.027618632 0.084020004 0.031553686 1.0311152e-38
0.027550206 0.087947413 0.030478656 1.1046198e-38
0.027636155 0.091591194 0.029709399 1.1969585e-38
0.02471751 0.073637351 0.036403298 8.4639772e-39
0.024112478 0.076680049 0.034941852 8.7416305e-39
0.023438215 0.080480561 0.033559442 8.9267785e-39
0.023438424 0.084280774 0.032175899 9.1133207e-39
0.024043232 0.086943343 0.031560123 1.021643e-38
0.16648585 0.077215835 0.011902094 1.4916968e-38
0.15233822 0.045694217 0.024901867 1.1418221e-38
0.11346911 0.040884137 0.031533897 1.2793606e-38
0.10015764 0.0319895 0.042914867 1.5653448e-38
0.11126499 0.11357628 0.018748462 1.1136958e-38
0.10376029 0.10039379 0.019738317 1.2246893e-38
0.11327108 0.10812722 0.024985552 1.777288e-38
0.15521216 0.12017928 0.021348953 2.1365648e-38
0.1554596 0.12239699 0.021605313 2.2194684e-38
0.15142551 0.12068979 0.02116996 2.200849e-38
0.15139675 0.12271748 0.021495998 2.2284355e-38
0.14872076 0.1206914 0.021174312 2.200848e-38
0.14734571 0.12289177 0.021085143 2.1918451e-38
0.14363976 0.12366422 0.020367324 2.1917737e-38
0.1392082 0.12495168 0.020704865 2.0536245e-38
0.13654934 0.12451087 0.019805968 1.8877801e-38
0.13469392 0.12665106 0.020094395 1.8142041e-38
0.13084602 0.12647168 0.01952821 1.242843e-38
0.12731534 0.12681709 0.01962167 8.8370758e-39
0.12167317 0.1245196 0.019829929 1.2598326e-38
0.12254006 0.12707208 0.019431114 6.9056241e-39
0.11894423 0.12784709 0.018978119 1.1592836e-38
0.11423508 0.10546227 0.026781797 7.3630429e-39
0.11355889 0.10673343 0.026320219 7.8240126e-39
0.11220652 0.10482807 0.027016401 7.3619177e-39
0.090297975 0.018300802 0.058558702 8.4621794e-39
0.086757749 0.021411851 0.057645321 9.9340711e-39
0.083436504 0.022355393 0.057946384 1.0855992e-38
0.082454167 0.024150982 0.056443155 1.0579425e-38
0.080296844 0.023180619 0.057864547 1.1131883e-38
0.078942567 0.024453983 0.057403445 1.0489065e-38
0.075602636 0.026051179 0.056473255 1.1137309e-38
0.071540415 0.026901945 0.056170881 1.1130822e-38
0.071364671 0.028478146 0.05488795 1.048763e-38
0.067535765 0.029330641 0.054888666 1.0674893e-38
0.066076875 0.12881224 0.019432724 1.5570591e-38
0.067431152 0.13008402 0.018967271 1.7965529e-38
0.063782677 0.030352622 0.054751396 1.0030239e-38
0.064045444 0.12881343 0.019436002 1.50113e-38
0.063368298 0.13008641 0.018973768 1.5194239e-38
0.059384592 0.033004299 0.053794026 1.0305763e-38
0.055919737 0.034648046 0.053734064 1.0948953e-38
0.054394409 0.036239997 0.052802444 9.7547245e-39
0.054054216 0.12455927 0.019938886 1.537113e-38
0.055365123 0.12721108 0.019237041 1.5471578e-38
0.055242598 0.13009118 0.018986881 1.4741188e-38
0.051602691 0.03798981 0.051993132 1.0121364e-38
0.049997091 0.12074928 0.021333396 1.0011591e-38
0.051252194 0.12354212 0.020922363 1.1042266e-38
0.051179744 0.12882097 0.019456744 1.5667858e-38
0.050502606 0.13009395 0.01899451 1.6040274e-38
0.048471183 0.038470119 0.052356124 1.0028052e-38
0.046680823 0.041075587 0.05077225 1.1133337e-38
0.047292322 0.043233305 0.049559891 1.09497e-38
0.047217116 0.11966716 0.022188485 1.223648e-38
0.048471183 0.12245972 0.02177763 1.3150527e-38
0.044408321 0.042290211 0.05097276 1.1590742e-38
0.04289186 0.044383988 0.049574673 1.1133016e-38
0.041882798 0.11185859 0.024585068 1.1786616e-38
0.042657629 0.1162651 0.023192108 1.0677042e-38
0.043360725 0.11906736 0.022809148 1.0216433e-38
0.040345475 0.045474023 0.049821019 1.1041174e-38
0.038832456 0.048200846 0.048192441 1.113262e-38
0.037825674 0.050863534 0.046799183 1.0490485e-38
0.037825674 0.10550706 0.026904881 1.3255601e-38
0.038366616 0.10830246 0.025886178 1.2796391e-38
0.039157078 0.11190753 0.02469039 1.0489431e-38
0.039504588 0.11553524 0.023960233 8.5558464e-39
0.035605475 0.049930796 0.048207045 1.0490454e-38
0.035237312 0.051899046 0.047278225 9.6596338e-39
0.03415449 0.053944871 0.046038747 1.0399714e-38
0.03376852 0.097884789 0.029687345 1.4730063e-38
0.03454107 0.10101621 0.028758645 1.4546022e-38
0.034992114 0.10451414 0.027980983 1.3993546e-38
0.03531526 0.10846917 0.026895225 1.2888266e-38
0.035944045 0.11196838 0.025620162 1.0397943e-38
0.036282614 0.11483146 0.024577141 8.3743152e-39
0.032219782 0.055659339 0.046127617 1.0858544e-38
0.031083882 0.058912948 0.044679046 1.1132278e-38
0.030648768 0.06217365 0.04284662 1.1684376e-38
0.029711396 0.065482274 0.041491687 1.1317034e-38
0.030997366 0.097385928 0.030228734 1.3718067e-38
0.031059325 0.10062636 0.029625356 1.3721648e-38
0.032219782 0.104017 0.028521836 1.399391e-38
0.028156921 0.063297138 0.043354273 1.0397576e-38
0.027287751 0.066842988 0.041887581 1.0304319e-38
0.0261935 0.070175335 0.040498912 1.0030587e-38
0.025654256 0.072473928 0.038953602 9.2011878e-39
0.026330441 0.094076797 0.031087339 1.2063561e-38
0.026825085 0.096976444 0.030976653 1.2614585e-38
0.026802644 0.099566177 0.030152142 1.2798977e-38
0.024094075 0.067753509 0.041739225 9.0157329e-39
0.024094075 0.070934936 0.040580988 8.8331255e-39
0.022781715 0.074042633 0.039239109 8.00479e-39
0.021597132 0.077559426 0.037109494 8.004797e-39
0.022695825 0.089471206 0.033074856 1.0402255e-38
0.022925973 0.092852369 0.031657517 1.1140889e-38
0.023191199 0.096598968 0.031239033 1.1785189e-38
0.022739783 0.099568591 0.030158699 1.2429122e-38
0.020031229 0.075391337 0.03896594 7.0849931e-39
0.018899605 0.078001931 0.037751436 7.2672417e-39
0.018772051 0.081585333 0.036240101 7.8218631e-39
0.020031229 0.09957014 0.03016305 1.2336218e-38
0.15480013 0.080659017 0.010078609 1.3995031e-38
0.16340347 0.04100889 0.027809381 1.2706443e-38
0.090561979 0.065098509 0.020590782 1.3256736e-38
0.084232897 0.094502613 0.020381689 1.1785549e-38
0.023191199 0.096598968 0.031239033 1.1785189e-38
0.15541351 0.12455069 0.022949755 2.3023714e-38
0.15539046 0.12626921 0.023388326 2.2932594e-38
0.15133922 0.12455307 0.022956312 2.2469103e-38
0.15132484 0.12668936 0.022710621 2.2472338e-38
0.14725016 0.12693377 0.022553146 2.2288671e-38
0.14317344 0.12730102 0.022426844 2.1826263e-38
0.1391049 0.12754305 0.02215606 2.0720979e-38
0.13839048 0.13011296 0.022019863 2.127739e-38
0.13547823 0.12811406 0.022043407 1.869485e-38
0.13431048 0.13011535 0.02202642 1.8884993e-38
0.13232592 0.12839268 0.021593094 1.5838963e-38
0.13091049 0.13011737 0.022031963 1.2517422e-38
0.12687188 0.12982123 0.021437585 1.0037776e-38
0.12277997 0.13120793 0.021193624 1.2716868e-38
0.086150743 0.016118601 0.062553465 1.0302154e-38
0.086829782 0.018670499 0.061623096 1.0210295e-38
0.084670551 0.016407862 0.063515007 1.0490832e-38
0.083522275 0.019287601 0.062316716 1.1134394e-38
0.083434552 0.021224782 0.060699344 1.1041132e-38
0.079230562 0.020244911 0.062128007 1.1502484e-38
0.079128928 0.022223294 0.060647726 1.1318099e-38
0.076019973 0.022938952 0.060727358 1.0951838e-38
0.074912131 0.025452495 0.059441745 1.0399029e-38
0.071370415 0.02606748 0.059809625 1.0579079e-38
0.067403533 0.027447715 0.058995068 1.1228767e-38
0.065779343 0.02889204 0.057940125 1.0860001e-38
0.066458382 0.13162167 0.020537674 1.8237807e-38
0.067137428 0.13353549 0.019839644 1.7688256e-38
0.064270586 0.027921289 0.059360445 1.0951844e-38
0.063024998 0.029608294 0.057950437 1.0306829e-38
0.06256023 0.13071032 0.021231234 1.5196399e-38
0.059588775 0.031602904 0.057496548 1.0122442e-38
0.057630777 0.03272526 0.056559384 1.0028477e-38
0.054805264 0.033998787 0.056810439 9.938771e-39
0.053390592 0.12888487 0.022622049 1.5197138e-38
0.056110591 0.13016121 0.022152424 1.6941673e-38
0.051010601 0.035277218 0.056706548 1.012099e-38
0.0505687 0.037068322 0.054991126 1.0028803e-38
0.050597273 0.12765621 0.02231437 1.5104242e-38
0.051235795 0.13029097 0.021404564 1.5574604e-38
0.046973996 0.038394734 0.055312932 1.0213145e-38
0.045407936 0.040389329 0.053791404 1.1318422e-38
0.045407936 0.12206291 0.024056137 1.4351569e-38
0.046423465 0.12428002 0.023672819 1.4077524e-38
0.047555096 0.12661098 0.023105979 1.6107975e-38
0.042639717 0.041759476 0.053601682 1.1224832e-38
0.041333675 0.044220164 0.052404165 1.1041213e-38
0.04223907 0.12163939 0.024216115 9.7572566e-39
0.043190598 0.1237791 0.024499536 1.058342e-38
0.039790615 0.043270916 0.053816736 1.0764951e-38
0.038910285 0.045260638 0.052295804 1.0856428e-38
0.037259385 0.048051 0.051016867 1.1959853e-38
0.037712082 0.11781357 0.025617242 8.4647003e-39
0.039249808 0.12026106 0.024989426 9.0179077e-39
0.036050618 0.046787441 0.052543283 1.0857478e-38
0.035174087 0.048773587 0.051023662 1.0952514e-38
0.033185095 0.05188185 0.049629569 1.0119503e-38
0.033185095 0.10930856 0.028721988 1.2153244e-38
0.033728331 0.11339192 0.027234316 9.480978e-39
0.034543186 0.11632659 0.026164412 8.3757319e-39
0.036163941 0.11952345 0.026061773 8.0980632e-39
0.032990605 0.050303578 0.051268697 9.9426736e-39
0.031242758 0.052960023 0.049950004 1.0117043e-38
0.030242562 0.055712014 0.048240483 1.0304291e-38
0.029110819 0.058264986 0.047313094 1.0670561e-38
0.029110819 0.1029302 0.031051636 1.3351426e-38
0.030242562 0.10548185 0.030120552 1.2984437e-38
0.031114906 0.10937993 0.028877139 1.1049796e-38
0.031016111 0.11342157 0.027938068 9.0189629e-39
0.031630635 0.1167572 0.027077138 8.1005995e-39
0.027890638 0.055737808 0.049299538 9.6603414e-39
0.027127892 0.059937596 0.047133446 1.0213172e-38
0.026734158 0.063051924 0.045574605 9.4767167e-39
0.026394635 0.065923467 0.044529796 9.5667613e-39
0.026937872 0.10191058 0.031426787 1.2798618e-38
0.02716206 0.10607992 0.03097266 1.1692287e-38
0.028094634 0.10921945 0.029827893 1.0681008e-38
0.028910637 0.113564 0.028244734 8.5587092e-39
0.024542108 0.063957289 0.046047211 8.9203283e-39
0.023608834 0.067108259 0.04445821 8.4618557e-39
0.022659868 0.07071121 0.042793512 8.4643486e-39
0.022320345 0.099105731 0.032456398 1.2427329e-38
0.023678437 0.10229532 0.031292677 1.2337643e-38
0.023352832 0.10563688 0.030874848 1.1781965e-38
0.023470625 0.10845543 0.030114532 1.1232716e-38
0.020750657 0.068840876 0.044542074 6.9924681e-39
0.020206645 0.071652666 0.043519378 7.5448992e-39
0.019379362 0.074548766 0.041554451 6.5332542e-39
0.019434407 0.097990796 0.032867551 1.1783044e-38
0.019410133 0.10202436 0.031399131 1.2153619e-38
0.019461825 0.10576458 0.030746758 1.1507885e-38
0.019050643 0.10877748 0.030005276 1.0583756e-38
0.014740273 0.076325759 0.041295886 7.9983033e-39
0.015110254 0.078562781 0.040100813 7.264341e-39
0.014777109 0.08264707 0.038816988 6.8069768e-39
0.014850825 0.086348638 0.037114561 7.1754076e-39
0.014850825 0.090177074 0.035720706 8.7434424e-39
0.015360117 0.094164744 0.034267962 9.9402017e-39
0.015480742 0.097923383 0.033135951 1.1415316e-38
0.015456155 0.10179819 0.031843424 1.1598989e-38
0.015589789 0.105538 0.03065902 1.0030591e-38
0.01599063 0.10973774 0.029661357 9.4781152e-39
0.011400655 0.078910157 0.040893257 7.6320348e-39
0.012250647 0.083222672 0.039321542 6.4374643e-39
0.011280417 0.086651251 0.037838638 6.1612375e-39
0.011330009 0.090397254 0.036238194 6.4403369e-39
0.011984989 0.094272271 0.034944415 8.6569781e-39
0.012590647 0.098238274 0.033854187 1.0213889e-38
0.012590647 0.1020721 0.032458425 9.5677913e-39
0.012590647 0.10526691 0.03129518 8.2749085e-39
0.14903042 0.06147413 0.017850876 1.2615324e-38
0.11397052 0.067757085 0.018161237 8.2782099e-39
0.11396118 0.074582204 0.015794635 6.068358e-39
0.11329439 0.071880922 0.020951748 1.169082e-38
0.12833753 0.047741562 0.029680133 1.2797557e-38
0.087148324 0.11852045 0.0085969567 1.491193e-38
0.097402349 0.097472444 0.021967173 1.4182299e-38
