# .PCD v0.7 - Point Cloud Data file format
VERSION 0.7
FIELDS x y z rgb
SIZE 4 4 4 4
TYPE F F F F
COUNT 1 1 1 1
WIDTH 977
HEIGHT 1
VIEWPOINT 0 0 0 0 1 0 0
POINTS 977
DATA ascii
0.10411503 0.05055891 0.030318499 9.4749076e-39
0.1027534 0.054136768 0.028273523 7.7289205e-39
0.1012008 0.057527646 0.026947618 8.7416361e-39
0.10123068 0.061786577 0.025376916 8.0048096e-39
0.10117026 0.067189708 0.025289416 6.9017116e-39
0.10193856 0.070371464 0.024292767 6.3503357e-39
0.10424362 0.073876575 0.024744272 4.8770091e-39
0.10424966 0.087142378 0.022106946 8.9249274e-39
0.10238084 0.088866308 0.019264877 1.0580148e-38
0.10016674 0.05529432 0.029465735 1.0859224e-38
0.09897998 0.0585884 0.028686523 1.0402213e-38
0.098930672 0.062663779 0.027427793 8.9274623e-39
0.099338666 0.067207947 0.026762605 7.547423e-39
0.097812042 0.087247178 0.021955132 1.0671287e-38
0.098724805 0.088743404 0.019239604 1.0947168e-38
0.094344817 0.086678877 0.021027684 1.1320624e-38
0.094609253 0.088116124 0.018833578 1.2058196e-38
0.090292707 0.086132184 0.0208022 1.334601e-38
0.086663738 0.085864753 0.02099818 1.4910488e-38
0.082165465 0.083183154 0.022399664 1.527999e-38
0.082719527 0.085150495 0.020130396 1.5922144e-38
0.078799494 0.083413079 0.022441268 1.6844398e-38
0.07880795 0.085135803 0.020003796 1.9053518e-38
0.074550085 0.083717003 0.022231936 2.0717036e-38
0.074724078 0.084739968 0.020982504 2.25602e-38
0.070342541 0.08331956 0.021925151 2.0627343e-38
0.07086578 0.084641322 0.020534813 2.2277147e-38
0.067118496 0.08324483 0.02157855 1.7950069e-38
0.06641601 0.084455699 0.019745171 1.7024498e-38
0.063433126 0.083677083 0.021871865 1.6936289e-38
0.063014984 0.08591485 0.020102024 1.5460405e-38
0.063058525 0.089629292 0.018215299 1.1775837e-38
0.062724903 0.093086407 0.016658723 1.1596129e-38
0.059523597 0.087493375 0.020884931 1.5652351e-38
0.059043109 0.09020479 0.020260096 1.3071608e-38
0.059170216 0.093488842 0.018045545 1.1230579e-38
0.059481189 0.096252769 0.015839934 1.1323865e-38
0.058851153 0.10197093 0.014534831 1.3722358e-38
0.058973953 0.10493974 0.014751256 1.3350327e-38
0.053649902 0.090664223 0.019977808 1.2242579e-38
0.055013254 0.09380123 0.019090772 1.1323489e-38
0.05515857 0.09744902 0.017592669 1.132348e-38
0.055150688 0.10130636 0.0168401 1.3074478e-38
0.055007085 0.10407525 0.017010927 1.3718767e-38
0.051688075 0.09065716 0.019914269 1.1507173e-38
0.051209345 0.093847409 0.019181907 1.1047627e-38
0.05152829 0.097208098 0.018266797 1.1323499e-38
0.052377239 0.10023546 0.017786026 1.1882041e-38
0.079548262 0.10156281 0.00075405836 1.8229193e-38
0.075628288 0.09478642 0.0025240183 1.8687271e-38
0.15119655 0.063889697 0.014436483 1.5466182e-38
0.14498676 0.070831954 0.015937209 1.4546025e-38
0.14412938 0.083286241 0.014118195 1.3443283e-38
0.15027125 0.094458967 0.014146268 1.4732933e-38
0.12959135 0.077554494 0.01414448 1.1877012e-38
0.12978368 0.086363211 0.012913167 1.0956507e-38
0.1149601 0.10316132 0.015104949 9.6689874e-39
0.11287063 0.078308523 0.019682527 1.6940959e-38
0.10567663 0.07449387 0.019802809 1.675548e-38
0.082331285 0.088974491 0.01370424 1.859616e-38
0.14412938 0.083286241 0.014118195 1.3443283e-38
0.16644254 0.03687647 0.039776027 2.256778e-38
0.16691001 0.038712204 0.037456632 2.2662143e-38
0.16691436 0.11118819 0.021179914 2.0720256e-38
0.16676176 0.11427595 0.021421432 2.0906108e-38
0.16607535 0.11716135 0.021861494 2.0816793e-38
0.16050623 0.033667609 0.040427864 2.1551827e-38
0.1618592 0.036118984 0.039238632 2.2471263e-38
0.16219324 0.11142732 0.020969391 1.8599055e-38
0.16217975 0.11415298 0.020926595 1.8784528e-38
0.16186768 0.11765994 0.021609783 2.0258942e-38
0.15787524 0.033658162 0.040342629 2.1369589e-38
0.15793245 0.036043599 0.038783371 2.1920241e-38
0.15826997 0.11461449 0.020123422 1.7862562e-38
0.15820843 0.11762565 0.020983219 1.9338052e-38
0.15392877 0.033643991 0.040214837 2.1552532e-38
0.15416865 0.035824835 0.038451195 2.2377628e-38
0.15416256 0.11415668 0.020218074 1.7125318e-38
0.15427192 0.11691958 0.020840228 1.8047665e-38
0.14979972 0.032686405 0.040146291 2.0629491e-38
0.149896 0.035545342 0.038042486 2.1180162e-38
0.1508363 0.11437438 0.019930542 1.7403379e-38
0.15032119 0.11759733 0.020727754 1.8785589e-38
0.14470616 0.02975823 0.04078126 2.0442226e-38
0.14605273 0.032272063 0.039919555 2.0444734e-38
0.1463062 0.035751343 0.037950277 2.0718823e-38
0.14624736 0.1179143 0.020008683 1.8786302e-38
0.14339066 0.029753506 0.040738583 2.0074525e-38
0.14209226 0.032297462 0.040010214 2.0164925e-38
0.14220232 0.035256185 0.037925243 2.025748e-38
0.14253211 0.11519818 0.019469798 1.7953315e-38
0.14247897 0.11802751 0.019744158 1.9154709e-38
0.14306843 0.12093134 0.020250916 2.0532601e-38
0.13832249 0.032419682 0.039715171 2.0164203e-38
0.13853429 0.035096943 0.037736654 1.9979471e-38
0.13859588 0.11486393 0.019414127 1.8047666e-38
0.13853884 0.11801335 0.019616485 1.9245135e-38
0.13423504 0.032842025 0.039228261 1.9795077e-38
0.13467422 0.034863971 0.037506878 1.9704671e-38
0.13597368 0.11517464 0.019257307 1.805086e-38
0.1347544 0.11819337 0.019564331 1.9337685e-38
0.13026187 0.032887176 0.039428174 2.0344642e-38
0.130117 0.03510274 0.037661016 2.0069851e-38
0.13068053 0.11855842 0.019005358 1.8694131e-38
0.12630343 0.033544764 0.039319932 2.0070216e-38
0.12642688 0.035890207 0.037543893 1.9884739e-38
0.12675717 0.11849418 0.0187186 1.8054147e-38
0.12239946 0.036037877 0.038288414 1.8872378e-38
0.12254173 0.038358629 0.036404729 1.9150407e-38
0.12265377 0.11799923 0.018693447 1.3353967e-38
0.11870646 0.036819667 0.038127124 1.9061088e-38
0.11863908 0.038282722 0.035950363 1.9337681e-38
0.11889751 0.11798866 0.018400192 8.1942147e-39
0.12014981 0.12054439 0.018551469 8.6565983e-39
0.11513594 0.037357286 0.038092852 1.8321729e-38
0.11466654 0.038330346 0.036149681 1.8135899e-38
0.11490013 0.11755228 0.018902719 9.7611676e-39
0.11478535 0.12082975 0.019334674 1.1788371e-38
0.11065714 0.03972131 0.036387861 1.6202683e-38
0.10690903 0.040590927 0.036683321 1.5002346e-38
0.10662652 0.043297827 0.034938037 1.3622631e-38
0.10598931 0.046347097 0.033719301 1.2333685e-38
0.10566359 0.076650932 0.026902735 3.7695868e-39
0.105547 0.078816429 0.027438045 5.1489353e-39
0.10644865 0.083230168 0.026916146 7.2683347e-39
0.10569657 0.085614517 0.02489078 8.0966451e-39
0.10347778 0.043954313 0.036019027 1.3804491e-38
0.1026387 0.047226653 0.034436047 1.242336e-38
0.10210621 0.050853521 0.032988489 1.0211024e-38
0.1017144 0.072795287 0.027637482 6.1677409e-39
0.10159206 0.074954227 0.028174102 6.1645081e-39
0.10314129 0.08450897 0.027105093 7.453791e-39
0.10259631 0.086541876 0.024921477 8.5572253e-39
0.1000503 0.048861012 0.03500843 1.4907199e-38
0.098992139 0.051457554 0.033749282 1.3346342e-38
0.098563723 0.054464892 0.031820655 1.2057052e-38
0.09772516 0.058055267 0.030815423 1.2057768e-38
0.097744003 0.063177317 0.029665768 9.4777634e-39
0.097760499 0.067659095 0.028659761 8.00589e-39
0.098559946 0.071660087 0.02847147 7.0886098e-39
0.09885747 0.075007066 0.028891742 7.1783013e-39
0.098506503 0.083676562 0.026991785 8.5576176e-39
0.099291123 0.086578891 0.024754643 9.5678039e-39
0.094620943 0.052056804 0.033495247 1.574311e-38
0.094981678 0.055006996 0.032206595 1.4269418e-38
0.095057167 0.058757737 0.030910969 1.26106e-38
0.095038936 0.063296989 0.030147314 1.067702e-38
0.095013402 0.067852288 0.029436707 9.7565083e-39
0.094997101 0.071750864 0.028788507 9.2047975e-39
0.094722547 0.075649783 0.02881521 8.8363639e-39
0.094526567 0.079845712 0.027866483 9.571415e-39
0.095101506 0.083182231 0.025768936 1.0214266e-38
0.095203094 0.085576832 0.024550796 1.0764567e-38
0.090184115 0.048825577 0.03468883 1.7951508e-38
0.090931937 0.05128257 0.033592165 1.6662574e-38
0.09101022 0.055039763 0.032295287 1.5007353e-38
0.091024384 0.058886871 0.031431735 1.3626561e-38
0.091040902 0.06337516 0.030424237 1.2335832e-38
0.091057412 0.067863449 0.0294168 1.1047242e-38
0.091071561 0.071710572 0.028553307 1.0217872e-38
0.091037728 0.075637564 0.028012037 1.0494784e-38
0.091004118 0.079567865 0.027470112 1.0859987e-38
0.091210425 0.083084479 0.025319815 1.1500705e-38
0.091923885 0.085565045 0.02444458 1.1960245e-38
0.086881205 0.04496108 0.035447061 1.7860028e-38
0.086764678 0.047639459 0.034585297 1.7122823e-38
0.087055288 0.0511785 0.033031106 1.5923214e-38
0.086852901 0.055089548 0.031838417 1.4452034e-38
0.087100528 0.058849052 0.031195998 1.3440742e-38
0.087100126 0.063361004 0.030296624 1.2519867e-38
0.087116636 0.067849308 0.029289186 1.2518774e-38
0.086883962 0.071800187 0.028291643 1.2242572e-38
0.086526684 0.0754814 0.027299225 1.2242209e-38
0.086540848 0.079327121 0.026435971 1.2332978e-38
0.086667717 0.082985207 0.024849534 1.3342473e-38
0.083604284 0.048159838 0.034619868 1.6753685e-38
0.083200999 0.051426843 0.033360064 1.564519e-38
0.082943909 0.054876253 0.032192349 1.4542797e-38
0.083125286 0.058882639 0.031284332 1.3623732e-38
0.08315935 0.063346848 0.03016901 1.4267659e-38
0.083175875 0.067835137 0.029161513 1.4452031e-38
0.082804829 0.071602255 0.027961373 1.3621917e-38
0.082678385 0.075328141 0.026607692 1.3070177e-38
0.082062699 0.079127178 0.025563121 1.3712321e-38
0.082401216 0.082009494 0.02492696 1.4634992e-38
0.079892024 0.052213177 0.033586383 1.6196918e-38
0.079080015 0.055136159 0.032561064 1.6199425e-38
0.079202078 0.058844402 0.031048715 1.6109749e-38
0.079218596 0.063332692 0.030041337 1.5741334e-38
0.079235122 0.067820996 0.02903384 1.5372572e-38
0.079084471 0.071507215 0.028200984 1.4635694e-38
0.079263426 0.075515226 0.027306795 1.3438944e-38
0.078073293 0.079194143 0.025757372 1.3990328e-38
0.07787662 0.082185343 0.024737298 1.583819e-38
0.074680746 0.055572167 0.032431006 1.6754045e-38
0.074604534 0.058827892 0.030899823 1.6751891e-38
0.074642338 0.063288182 0.029771209 1.6108317e-38
0.074651845 0.067785665 0.028804243 1.5280369e-38
0.074651711 0.071651593 0.028021395 1.4266205e-38
0.074679978 0.075478658 0.027077436 1.3438943e-38
0.074173547 0.079125866 0.025415421 1.3713387e-38
0.074204355 0.082300201 0.024589539 1.7952249e-38
0.070533119 0.055105776 0.032284141 1.7306144e-38
0.070332885 0.059057027 0.030999541 1.6845883e-38
0.070023485 0.063299671 0.029743433 1.5649855e-38
0.07005924 0.067762867 0.02862829 1.4360563e-38
0.070054151 0.071635082 0.027872443 1.3714487e-38
0.070068315 0.07548219 0.027008951 1.3255663e-38
0.070140809 0.079247192 0.02582401 1.3440037e-38
0.070531175 0.082158968 0.024499357 1.8138795e-38
0.066363238 0.058896944 0.031636059 1.6662558e-38
0.065991804 0.063395664 0.030100703 1.509596e-38
0.066099234 0.067773804 0.028608382 1.3622289e-38
0.066113397 0.071620926 0.02774477 1.3713768e-38
0.066026479 0.075600758 0.027417779 1.3529713e-38
0.066141278 0.079314724 0.026017845 1.4543848e-38
0.066034913 0.08219257 0.024547577 1.6843364e-38
0.061957747 0.064134732 0.030313432 1.4914074e-38
0.061971933 0.067987412 0.029448748 1.4453114e-38
0.062048271 0.071762949 0.028261542 1.4726827e-38
0.062021211 0.075666025 0.027611971 1.5374343e-38
0.062179998 0.07932815 0.025997221 1.6756918e-38
0.062132895 0.082637891 0.024552524 1.7674921e-38
0.059331477 0.065409496 0.029940009 1.4544955e-38
0.058243901 0.067759976 0.029376149 1.4545317e-38
0.058039635 0.071825907 0.028456092 1.6019369e-38
0.058160797 0.075545266 0.027055144 1.6664019e-38
0.058260158 0.079286829 0.025762439 1.7032427e-38
0.058359519 0.083022222 0.024471045 1.7398697e-38
0.058291912 0.08635892 0.023149729 1.6477073e-38
0.057178378 0.089281753 0.022456288 1.3996814e-38
0.054298997 0.0681739 0.029152155 1.6571463e-38
0.054093152 0.071811751 0.02832824 1.6386353e-38
0.054261237 0.075478241 0.026712835 1.6295226e-38
0.054319397 0.079272673 0.025634766 1.6109746e-38
0.054333553 0.083119795 0.024771273 1.5280718e-38
0.05445765 0.086824283 0.023373723 1.4270863e-38
0.054933816 0.090371266 0.022137165 1.2794315e-38
0.054532841 0.10640712 0.018961966 1.3256716e-38
0.054230168 0.10905437 0.019968808 1.2982646e-38
0.050146669 0.071797565 0.028200388 1.4725412e-38
0.050296605 0.0754904 0.02669245 1.3807746e-38
0.050378636 0.079258516 0.025507092 1.362371e-38
0.050587714 0.086725369 0.022925675 1.2336564e-38
0.050098106 0.090024635 0.022054434 1.1230226e-38
0.04932712 0.094375536 0.021051645 1.067884e-38
0.04971315 0.099163696 0.020330966 1.132387e-38
0.050550237 0.1022224 0.019916177 1.2246513e-38
0.051223859 0.10599132 0.019736469 1.2981908e-38
0.046365216 0.071944505 0.028041899 1.3162385e-38
0.046377406 0.075449929 0.026457489 1.2425536e-38
0.046437874 0.079244375 0.025379479 1.2701395e-38
0.046452031 0.083091483 0.024515927 1.205817e-38
0.046628758 0.086739406 0.022904932 1.1134778e-38
0.04668963 0.090524569 0.021829009 1.0678135e-38
0.046703756 0.094366118 0.020966709 1.1318099e-38
0.046554506 0.098420039 0.020848989 1.1783757e-38
0.046656787 0.10172452 0.020953298 1.1969226e-38
0.042916179 0.073055819 0.027677834 1.3254187e-38
0.042486191 0.075723097 0.026808262 1.2610983e-38
0.042353094 0.079393134 0.025893986 1.2610984e-38
0.042439163 0.083160236 0.024709046 1.3349592e-38
0.042501315 0.086952612 0.023631513 1.2520183e-38
0.042562366 0.090742722 0.022554457 1.2705317e-38
0.04263626 0.094558939 0.022198379 1.2609866e-38
0.043391645 0.098352894 0.021755934 1.3346369e-38
0.039667636 0.083959922 0.025121033 9.3862867e-39
0.039679408 0.087170511 0.024400473 9.379119e-39
0.039693579 0.091023192 0.023535609 8.5439942e-39
0.083800554 0.1020288 0.0015636683 2.2108988e-38
0.080610737 0.097135469 0.002794981 2.1919535e-38
0.15115887 0.075681642 0.013173223 1.334893e-38
0.14572245 0.0770863 0.014088809 1.4547099e-38
0.14696339 0.064708278 0.018499911 1.6387781e-38
0.12607375 0.094527915 0.011844516 1.3997534e-38
0.13515449 0.046781123 0.025361121 1.7768907e-38
0.11693635 0.088091463 0.01760596 1.7677791e-38
0.14905909 0.05403088 0.023244619 1.8506477e-38
0.066604659 0.089182869 0.022742689 1.0217146e-38
0.066142961 0.088269755 0.0226143 1.169191e-38
0.12630343 0.033544764 0.039319932 2.0070216e-38
0.16585997 0.033880115 0.044146836 2.15522e-38
0.1663518 0.035378039 0.04254508 2.2563831e-38
0.16685922 0.11974818 0.024268925 2.2564193e-38
0.1652845 0.12222962 0.024798751 2.2749634e-38
0.16031617 0.030504957 0.045233607 2.0269719e-38
0.16169083 0.032915741 0.043712437 2.1000093e-38
0.16238379 0.12000005 0.023152232 2.163755e-38
0.16167833 0.1223111 0.023891628 2.163825e-38
0.15899307 0.030500203 0.045190752 1.9991353e-38
0.15771721 0.032286093 0.043892682 2.0448354e-38
0.15808086 0.12040748 0.023259699 2.0903556e-38
0.1580293 0.12321953 0.023951113 2.0903574e-38
0.15237753 0.030476451 0.044976473 2.0717731e-38
0.15376124 0.032242507 0.043600321 2.0446906e-38
0.15411049 0.1197997 0.023435235 1.9519222e-38
0.154241 0.12312926 0.023589075 2.0534084e-38
0.14905551 0.026589587 0.045739055 1.7775013e-38
0.14956941 0.029314607 0.04501605 1.9523867e-38
0.15051411 0.031412333 0.042653501 2.044366e-38
0.15018146 0.12027818 0.022684693 1.9337326e-38
0.1503115 0.12283655 0.023286402 2.0350402e-38
0.14574775 0.026577696 0.045631945 1.758989e-38
0.14597884 0.028850451 0.044231951 1.897142e-38
0.14754286 0.12026872 0.02259922 1.9430228e-38
0.14633366 0.12298642 0.022974193 2.0718447e-38
0.14177841 0.026563443 0.045503378 1.8231313e-38
0.14171071 0.028771281 0.043723404 1.9061091e-38
0.14199786 0.12358828 0.022987962 2.0811e-38
0.1391322 0.026553929 0.045417607 1.8324242e-38
0.13804112 0.029165715 0.044025719 1.9151857e-38
0.13666147 0.031362586 0.042204738 1.9888335e-38
0.13824141 0.12311886 0.022675753 2.0535862e-38
0.13413279 0.029859729 0.044304132 1.9794364e-38
0.13402286 0.031353116 0.042119324 1.979471e-38
0.13446322 0.12286739 0.02235043 2.0260724e-38
0.13054627 0.030398034 0.044269264 2.0344649e-38
0.13003507 0.031396963 0.042318821 2.0436126e-38
0.13031419 0.1230904 0.022418916 2.016961e-38
0.12606271 0.03205575 0.042209864 2.0162772e-38
0.12635058 0.12307616 0.022290468 1.8331445e-38
0.12207614 0.032734491 0.042209923 1.960961e-38
0.12241986 0.12295927 0.021844447 1.2062897e-38
0.1223313 0.12584688 0.022218466 1.1510776e-38
0.11820444 0.033009559 0.042760253 1.9426636e-38
0.11785015 0.035525829 0.040901601 1.9243328e-38
0.11719898 0.12015973 0.02161628 9.3831043e-39
0.11859103 0.12320031 0.0225178 8.467608e-39
0.11428441 0.033697918 0.0429883 1.8688736e-38
0.11398298 0.036193773 0.04109925 1.8227031e-38
0.11587968 0.12015499 0.021573484 1.2154653e-38
0.11588442 0.12144293 0.021284401 1.2433037e-38
0.11137547 0.034204111 0.042778015 1.8410339e-38
0.11031787 0.037047878 0.041518211 1.7396909e-38
0.10898461 0.038990751 0.039572656 1.6385632e-38
0.10642689 0.037738368 0.04181993 1.7124977e-38
0.10601738 0.039302066 0.039404213 1.6014329e-38
0.10650122 0.081161484 0.030019403 6.4407391e-39
0.1023073 0.040378883 0.03972286 1.6294853e-38
0.1014164 0.043793306 0.038242817 1.5832407e-38
0.10252911 0.077283427 0.03075844 5.6123965e-39
0.10245416 0.080344424 0.030752182 6.1641312e-39
0.10226179 0.083321109 0.029598773 6.8988109e-39
0.098212622 0.040551946 0.040573537 1.841499e-38
0.098330408 0.044275641 0.038943529 1.8232747e-38
0.098264076 0.047856167 0.037481964 1.657251e-38
0.097153559 0.050539613 0.036586225 1.4089686e-38
0.09855818 0.073727354 0.031425238 7.1808082e-39
0.0985379 0.077329442 0.030871987 7.0860987e-39
0.098508507 0.08030282 0.030516505 7.084305e-39
0.099913016 0.083391681 0.029299796 7.4534154e-39
0.094245203 0.040537685 0.04044503 1.8967102e-38
0.094352193 0.044283018 0.0389238 1.9151853e-38
0.09442845 0.048063725 0.037621379 1.8597237e-38
0.094845966 0.050853297 0.036439121 1.6664708e-38
0.095933795 0.077581719 0.030472517 8.1895694e-39
0.095940903 0.079513639 0.030038834 8.187424e-39
0.090293668 0.040502653 0.040207684 1.8874539e-38
0.090469226 0.044161156 0.038252413 1.8783777e-38
0.090734713 0.047572717 0.037039399 1.8414628e-38
0.086681642 0.040704086 0.040205479 1.8319943e-38
0.086518437 0.043972507 0.038092494 1.7860037e-38
0.08790426 0.046642616 0.037154257 1.7861463e-38
0.083618745 0.041854277 0.040138245 1.7768208e-38
0.082426421 0.044282287 0.038755894 1.7673847e-38
0.082102187 0.047394529 0.036792815 1.7030266e-38
0.08132197 0.050482765 0.036073327 1.6291272e-38
0.078389376 0.044354022 0.039061487 1.8041543e-38
0.078565314 0.048029438 0.037216365 1.7397971e-38
0.078192167 0.051397905 0.036105752 1.6844088e-38
0.074700832 0.045374289 0.039051652 1.8316696e-38
0.074417576 0.048235103 0.038171887 1.7858232e-38
0.074618474 0.051882148 0.036220074 1.7306143e-38
0.074080035 0.054320514 0.034970999 1.6846602e-38
0.069518276 0.045248032 0.038907945 1.8042996e-38
0.070411444 0.048265085 0.038260102 1.8042631e-38
0.070598997 0.051935181 0.036416531 1.7581293e-38
0.072101094 0.054313406 0.034906864 1.7122484e-38
0.067094162 0.045669869 0.038732767 1.8410691e-38
0.06644211 0.048250839 0.038131535 1.7859674e-38
0.066595823 0.051966622 0.036504447 1.7399072e-38
0.066828646 0.055582389 0.034446776 1.7215025e-38
0.062638775 0.048398629 0.037972033 1.7123197e-38
0.062589467 0.05199784 0.036592484 1.6845899e-38
0.062808543 0.055637911 0.034642696 1.675549e-38
0.062225297 0.05942966 0.03343004 1.6111181e-38
0.062018052 0.062863395 0.032651961 1.5373973e-38
0.059831321 0.049518719 0.03762722 1.675226e-38
0.058708102 0.052467033 0.036927879 1.6477461e-38
0.058722422 0.055763111 0.035162568 1.6111187e-38
0.058736667 0.059632555 0.034294069 1.5557646e-38
0.058447123 0.063440844 0.032403648 1.5096665e-38
0.057643294 0.069072664 0.031112194 1.4089364e-38
0.05587627 0.053379461 0.036628902 1.5735604e-38
0.054752335 0.055932269 0.035890162 1.518743e-38
0.054707244 0.059689447 0.034489274 1.5556567e-38
0.054936394 0.06396617 0.032425523 1.564876e-38
0.055661976 0.068421587 0.031192601 1.5928229e-38
0.055061594 0.1112812 0.022059858 1.3628376e-38
0.054114997 0.11408046 0.022938013 1.3904915e-38
0.051259652 0.057237819 0.035609066 1.5276771e-38
0.050823793 0.059926644 0.034734309 1.647635e-38
0.050926939 0.06400685 0.032539546 1.6200501e-38
0.050878942 0.068243399 0.031073809 1.6477815e-38
0.049872056 0.10832655 0.0220384 1.288901e-38
0.050808802 0.11139368 0.022534311 1.2887916e-38
0.052130327 0.11407332 0.0228737 1.2059895e-38
0.046643034 0.061096177 0.034589291 1.610615e-38
0.046879396 0.064084396 0.032815099 1.5462949e-38
0.047086537 0.068390772 0.030914843 1.509596e-38
0.047149494 0.10454649 0.023138821 1.2520221e-38
0.047090098 0.10721852 0.022878587 1.2979393e-38
0.046885982 0.11101992 0.023092389 1.3074479e-38
0.043052137 0.064739987 0.033309937 1.4726128e-38
0.042915434 0.068604216 0.031753898 1.4175799e-38
0.042833894 0.071512967 0.03027761 1.3714801e-38
0.041925445 0.099926487 0.023661077 1.3806973e-38
0.04293181 0.10352054 0.023656428 1.3530781e-38
0.042915404 0.10748768 0.023704946 1.1501767e-38
0.043515876 0.11016746 0.023464859 1.1960599e-38
0.039603889 0.06580691 0.033297598 1.3622276e-38
0.038805246 0.068741739 0.032270193 1.3622961e-38
0.039014071 0.072406933 0.030542314 1.408252e-38
0.038726941 0.076007023 0.029366314 1.2058183e-38
0.038443357 0.08007367 0.028516769 1.0112759e-38
0.038181752 0.083554178 0.027470171 1.0113764e-38
0.037922516 0.087676778 0.026279211 9.8278554e-39
0.037863165 0.091628268 0.025731623 9.0017003e-39
0.038705125 0.095820948 0.025355279 7.6277972e-39
0.039064661 0.099545687 0.024677098 8.6423051e-39
0.039300799 0.10343049 0.024544954 9.3787687e-39
0.036103338 0.073328927 0.031492054 1.3163103e-38
0.035586923 0.076814547 0.03069216 1.2702464e-38
0.035467908 0.080430716 0.029876113 1.2332564e-38
0.035519287 0.084264025 0.028845906 1.1410235e-38
0.03560774 0.088052914 0.027656019 1.0857091e-38
0.035584897 0.091968939 0.026946902 1.0302133e-38
0.036186501 0.095933035 0.026418328 8.9163654e-39
0.036196008 0.098516345 0.025838435 9.106879e-39
0.083337568 0.096864551 0.0028219819 2.1357009e-38
0.15114944 0.083356023 0.012095153 1.2431633e-38
0.14798594 0.072794482 0.014936984 1.5098845e-38
0.11221826 0.072051048 0.016180754 1.8601545e-38
0.11743639 0.082523316 0.018625796 1.0307524e-38
0.063396603 0.080928594 0.024424851 1.2058899e-38
0.067519277 0.085200474 0.023625135 1.0862873e-38
0.16112129 0.025998391 0.049202263 1.5842184e-38
0.16171063 0.029419124 0.047702849 1.9527841e-38
0.16288683 0.032154873 0.046999276 2.0541629e-38
0.16189033 0.12484676 0.026405454 2.2009571e-38
0.1581624 0.023231894 0.049871862 1.4278065e-38
0.15752347 0.02576834 0.048939109 1.6577588e-38
0.15740317 0.029382527 0.047439814 1.8973229e-38
0.15792236 0.12540311 0.025892437 2.1911296e-38
0.15721545 0.12700613 0.026534438 2.237836e-38
0.15353891 0.025754012 0.048810005 1.666763e-38
0.15375417 0.029369429 0.047321618 1.878595e-38
0.1526147 0.12538405 0.025720537 2.0899641e-38
0.15325549 0.12683679 0.025928259 2.0724592e-38
0.14919168 0.022875361 0.049654067 1.3996095e-38
0.14977387 0.025284201 0.048253477 1.658117e-38
0.1509303 0.028225839 0.047484756 1.8613754e-38
0.14929742 0.12537213 0.025613129 2.1276666e-38
0.14990695 0.1269799 0.026297748 2.1826968e-38
0.14553863 0.023186564 0.049462914 1.4825491e-38
0.14561072 0.024968334 0.048039675 1.6666178e-38
0.14594132 0.12686221 0.025850534 2.1826242e-38
0.14288099 0.023176998 0.049376845 1.5374003e-38
0.14186797 0.025149778 0.048284829 1.7402651e-38
0.14198078 0.12674458 0.025403678 2.0995396e-38
0.13761631 0.026317582 0.047983885 1.8047306e-38
0.13633424 0.028173417 0.047011852 1.8506854e-38
0.13797286 0.12683357 0.025592387 2.090428e-38
0.13359357 0.027035311 0.048201978 1.9425923e-38
0.13334987 0.028486535 0.046842456 1.9885475e-38
0.13271099 0.12531255 0.025075793 2.0535187e-38
0.13401484 0.12671597 0.02514565 2.0812465e-38
0.12947589 0.029146448 0.047005057 2.0898894e-38
0.13006192 0.1265984 0.024699032 2.1183032e-38
0.12586701 0.02963534 0.046592355 2.0438636e-38
0.12608117 0.12658411 0.024570048 1.7960511e-38
0.12169573 0.030149281 0.046594858 1.997694e-38
0.12200653 0.12817691 0.025102615 1.1417479e-38
0.11801884 0.030503541 0.046649516 1.9701774e-38
0.11644482 0.031988062 0.045494795 1.9426945e-38
0.11673248 0.12476166 0.025181711 1.0583811e-38
0.11944661 0.12656029 0.024355173 1.0490147e-38
0.11346045 0.032301188 0.045325458 1.9057862e-38
0.11545633 0.12395523 0.024807751 1.2800768e-38
0.10975702 0.033563793 0.045431554 1.9149336e-38
0.10916109 0.035847992 0.044386089 1.7952587e-38
0.10571703 0.034718513 0.045550942 1.9148598e-38
0.10558032 0.036353275 0.04415375 1.8412122e-38
0.10162132 0.037067384 0.044502795 1.8138054e-38
0.097963654 0.03762947 0.044493258 1.8597958e-38
0.093793109 0.037888095 0.044272304 1.9151484e-38
0.090152293 0.038183987 0.043999434 1.9058566e-38
0.086683378 0.038109407 0.044157505 1.8779835e-38
0.084477425 0.040479705 0.043551803 1.8135155e-38
0.082088895 0.041379184 0.043270469 1.8226651e-38
0.077840492 0.042401716 0.042899907 1.8868431e-38
0.075182855 0.04239215 0.042813718 1.9055334e-38
0.073762976 0.044011161 0.041377544 1.8594363e-38
0.06853877 0.042368293 0.042598486 1.7767848e-38
0.070462607 0.044376627 0.041356802 1.813519e-38
0.064552322 0.042353973 0.042469323 1.7952577e-38
0.065878808 0.044389978 0.041030765 1.8227744e-38
0.063223496 0.042349204 0.042426288 1.767636e-38
0.062027395 0.044809982 0.041150331 1.7859343e-38
0.060771614 0.047332451 0.040200293 1.7308295e-38
0.058162838 0.045240685 0.041316032 1.6663982e-38
0.057908237 0.048504815 0.04009825 1.6477088e-38
0.057468623 0.051206663 0.039220512 1.6476378e-38
0.056846708 0.11497065 0.025905013 1.6117319e-38
0.054899454 0.049603358 0.040178895 1.5833149e-38
0.054099768 0.052548036 0.039100468 1.5369676e-38
0.052843496 0.05637151 0.037907064 1.4907597e-38
0.055513114 0.11366865 0.026153207 1.482695e-38
0.053529426 0.11625595 0.025506198 1.3629784e-38
0.050862566 0.053547397 0.039501071 1.4634259e-38
0.049969614 0.056020811 0.038036942 1.4633545e-38
0.048872277 0.058947966 0.037196636 1.6382381e-38
0.05002071 0.11560707 0.025125265 1.1876241e-38
0.046534792 0.057077572 0.038564503 1.5096319e-38
0.046151355 0.059657052 0.037288785 1.6477078e-38
0.046418652 0.11334439 0.024898589 1.2706766e-38
0.046320513 0.11511041 0.02501142 1.233618e-38
0.042869762 0.060653165 0.037434697 1.5831385e-38
0.041297257 0.063311681 0.036306918 1.509275e-38
0.042347953 0.11215065 0.025441706 1.0302911e-38
0.037839606 0.065496102 0.0358724 1.4080369e-38
0.037099257 0.10489105 0.026487708 9.9287489e-39
0.038806215 0.10779881 0.026233077 9.4655834e-39
0.039557755 0.11101688 0.02621901 9.5682341e-39
0.035408989 0.066896498 0.03598994 1.2887916e-38
0.03482838 0.069412693 0.035063684 1.2796806e-38
0.034031987 0.073221967 0.033839941 1.3255651e-38
0.033289939 0.076762661 0.032934725 1.3070892e-38
0.032954842 0.080993667 0.032058775 1.2703882e-38
0.032818183 0.085048303 0.03182739 1.206067e-38
0.032907978 0.088854805 0.030633569 1.2332944e-38
0.033073217 0.092570648 0.029120982 1.270389e-38
0.033938318 0.09657447 0.028689981 1.1682913e-38
0.034206867 0.10057728 0.027616799 1.1960919e-38
0.034342855 0.10435727 0.026971757 1.2238226e-38
0.034892559 0.10710846 0.026941895 1.21475e-38
0.031475052 0.081151798 0.032657862 1.270428e-38
0.031489372 0.085043505 0.031784236 1.2152912e-38
0.031503692 0.088935241 0.03091079 1.2427306e-38
0.030189797 0.092984304 0.029957771 1.2334062e-38
0.030203506 0.096713871 0.029120624 1.1322416e-38
0.030217826 0.10060559 0.028247118 9.6632519e-39
0.030560777 0.10352556 0.027602732 9.5731877e-39
0.026869535 0.093458846 0.029740989 1.1781209e-38
0.13960846 0.083258435 0.011505961 1.261423e-38
0.14984725 0.08597441 0.011919558 1.252311e-38
0.11699464 0.077635199 0.011804342 1.9799748e-38
0.10101626 0.09848088 0.012337089 1.4724994e-38
0.11121899 0.097927794 0.011484504 1.6756573e-38
0.11858657 0.080814704 0.015123308 1.8415713e-38
0.15279642 0.060358927 0.018633187 1.7032794e-38
0.13495779 0.052650854 0.018781006 1.7308308e-38
0.13321407 0.072039917 0.016779184 1.6758357e-38
0.11626361 0.079402462 0.021424174 1.5650576e-38
0.11475675 0.086559072 0.020877779 1.5928956e-38
0.11275268 0.082351804 0.020860314 1.5561613e-38
0.11046804 0.087660074 0.020524979 1.5100635e-38
0.11377896 0.08577399 0.016989648 1.8785207e-38
0.078468844 0.057700276 0.031794071 1.4451314e-38
0.078014411 0.070860967 0.028246045 1.1873793e-38
0.078252167 0.080037877 0.026219547 1.2149282e-38
0.080808811 0.075887829 0.027063191 1.2703155e-38
0.067683093 0.077474639 0.025152922 1.1780875e-38
0.096841708 0.055204555 0.034280598 1.7124987e-38
0.065991804 0.063395664 0.030100703 1.509596e-38
0.08300975 0.062589064 0.029287279 1.693844e-38
0.091778263 0.07129024 0.027645171 1.362514e-38
0.087452434 0.07342267 0.029355466 1.5097389e-38
0.050480172 0.056622401 0.036704123 1.555551e-38
0.16287124 0.023406193 0.053358376 1.031654e-38
0.16340874 0.026175633 0.051435828 1.3259621e-38
0.15833716 0.020841315 0.055131495 1.0955059e-38
0.15805048 0.022740439 0.052371204 1.31692e-38
0.15935142 0.12866403 0.029104292 2.2383743e-38
0.15445322 0.020112574 0.054551005 1.1235982e-38
0.1540684 0.022889741 0.05186367 1.390569e-38
0.15576418 0.12842779 0.028730571 2.1185211e-38
0.15061027 0.020098791 0.054426491 1.1511845e-38
0.15103963 0.022633448 0.052333355 1.3536906e-38
0.15028745 0.12983872 0.030795515 2.2008857e-38
0.14675295 0.020123914 0.054549217 1.1601887e-38
0.14540392 0.022208147 0.051729083 1.3538679e-38
0.14644763 0.12896679 0.028043866 2.1827321e-38
0.14580125 0.13018741 0.027491868 2.1828746e-38
0.14254746 0.020664491 0.054715395 1.3166679e-38
0.1418283 0.022682175 0.05184567 1.4824053e-38
0.14246491 0.12887447 0.027676046 2.1088672e-38
0.14306781 0.13049148 0.028358281 2.1368847e-38
0.13918173 0.021358259 0.054789722 1.4271954e-38
0.13863052 0.023074403 0.052847862 1.6483554e-38
0.13875037 0.02478613 0.050929129 1.7403031e-38
0.13913333 0.12886252 0.027568042 2.0813155e-38
0.13928819 0.13127539 0.029594898 2.0997924e-38
0.13458975 0.024444669 0.052918613 1.8139126e-38
0.13472992 0.026127696 0.050836146 1.8597234e-38
0.13513546 0.12884815 0.027438581 2.0445832e-38
0.13490137 0.13108996 0.030003667 2.0171041e-38
0.13083035 0.024921164 0.053712189 2.016385e-38
0.13044327 0.026676744 0.050844014 2.0623746e-38
0.13113758 0.12883379 0.02730906 2.0816045e-38
0.13122216 0.13140337 0.029811084 2.0541264e-38
0.12715112 0.02523458 0.053519666 2.0808506e-38
0.12667137 0.026859693 0.051087916 2.0991445e-38
0.1271397 0.12881942 0.027179539 1.9620017e-38
0.12687135 0.13106111 0.029743493 1.943527e-38
0.12285763 0.027422011 0.052373171 2.0808125e-38
0.12210691 0.028629169 0.049513519 2.0531897e-38
0.12447444 0.12880985 0.027093232 1.5007755e-38
0.1226681 0.1309018 0.028101563 1.1969955e-38
0.11827896 0.028203197 0.051738024 2.0345005e-38
0.1167812 0.029910967 0.049048841 1.9977645e-38
0.11821914 0.12845778 0.027306378 1.0956866e-38
0.11923388 0.13117962 0.028232872 1.1510037e-38
0.11483812 0.028698802 0.051820219 2.0346429e-38
0.11406352 0.030637078 0.04930824 1.9794333e-38
0.11368898 0.12517478 0.02857691 1.2157555e-38
0.11497073 0.12796278 0.028579414 1.3074848e-38
0.11579099 0.13124757 0.028650165 1.3350717e-38
0.11110549 0.029096492 0.052119672 2.0164553e-38
0.1106158 0.031231008 0.050085843 1.9885824e-38
0.11111947 0.12095626 0.028413653 7.002863e-39
0.11162606 0.12401845 0.029280841 9.5764569e-39
0.11146607 0.12708624 0.030124724 1.0314026e-38
0.10651341 0.03222993 0.050579846 2.0163478e-38
0.10613456 0.033775538 0.047827423 1.9519904e-38
0.10268648 0.032463193 0.051084042 2.0348248e-38
0.10253838 0.034283005 0.04759407 1.9244035e-38
0.098069936 0.032642581 0.050890446 2.0253522e-38
0.098741747 0.03448765 0.047934771 1.9518832e-38
0.097482063 0.036346346 0.046962798 1.896423e-38
0.094388306 0.03230273 0.05084455 2.0621588e-38
0.094674803 0.035213575 0.048149407 1.961031e-38
0.090641446 0.03241992 0.05069381 2.0346439e-38
0.090692937 0.034518138 0.048002481 1.9518832e-38
0.090486974 0.036646456 0.046663165 1.9151479e-38
0.086511254 0.03275317 0.049456358 1.9884012e-38
0.086763993 0.03441523 0.047382414 1.9240805e-38
0.086822972 0.036828429 0.046500623 1.8136626e-38
0.082904637 0.035843819 0.048984349 1.8594011e-38
0.082674727 0.038427159 0.047029376 1.8042623e-38
0.081504904 0.04019177 0.045568705 1.8135176e-38
0.07834509 0.036817893 0.049297869 1.841105e-38
0.078458361 0.038655534 0.048205256 1.8319923e-38
0.078842051 0.040832683 0.045336425 1.9147152e-38
0.075668417 0.036808297 0.049211144 1.8962784e-38
0.07419502 0.038989678 0.048379302 1.9056766e-38
0.074180253 0.0414664 0.045039296 1.9147168e-38
0.070498541 0.039870322 0.047326326 1.8412861e-38
0.070184767 0.042102516 0.044763744 1.804515e-38
0.066489249 0.039855942 0.047196507 1.67519e-38
0.066126727 0.041933626 0.045008719 1.7582004e-38
0.062542051 0.040433124 0.046594024 1.7122813e-38
0.061843544 0.041980773 0.045197845 1.7306861e-38
0.061249584 0.11906682 0.030258536 2.1552904e-38
0.058953628 0.040667787 0.047789395 1.6385261e-38
0.058667898 0.042249009 0.045373976 1.6477472e-38
0.057531998 0.044008479 0.043915629 1.6573227e-38
0.059121937 0.1139396 0.028263032 1.4647218e-38
0.059036195 0.11636357 0.028228581 1.786758e-38
0.05869709 0.11885951 0.029536724 1.9889761e-38
0.054542586 0.043880984 0.045554101 1.5002325e-38
0.054605976 0.045559093 0.043470263 1.4636767e-38
0.053994298 0.048332229 0.042827129 1.5187794e-38
0.0554488 0.11661676 0.028223515 1.6115874e-38
0.054515377 0.11892349 0.028529048 1.5747077e-38
0.052003399 0.044179872 0.044718981 1.4171494e-38
0.050588727 0.04686664 0.044524431 1.4542802e-38
0.050856769 0.049871832 0.04254806 1.4911549e-38
0.050677523 0.11895636 0.027881444 1.2245077e-38
0.046779081 0.047526523 0.04550308 1.4820105e-38
0.046495408 0.050535828 0.043236911 1.3897782e-38
0.047066599 0.053478345 0.041587889 1.3898492e-38
0.045583844 0.056324482 0.040753007 1.4543494e-38
0.047139063 0.11682366 0.027217507 1.2153223e-38
0.046974525 0.11902367 0.027572453 1.2152872e-38
0.043603614 0.051718011 0.044798076 1.3344986e-38
0.042979985 0.054555133 0.043319881 1.3898485e-38
0.042886242 0.057217047 0.040633798 1.4361262e-38
0.041597947 0.059562519 0.039893448 1.6198363e-38
0.041798994 0.1142026 0.027628899 1.0664467e-38
0.043032795 0.11630563 0.027710199 1.1495999e-38
0.043391168 0.1187055 0.028721333 1.1870217e-38
0.039161667 0.058674976 0.042062759 1.463642e-38
0.038794532 0.061648056 0.040015578 1.5646986e-38
0.037616819 0.064101472 0.038741887 1.5185998e-38
0.037118047 0.10963251 0.028499782 1.0667006e-38
0.037807047 0.11310332 0.030819535 1.0951857e-38
0.039824158 0.11572357 0.030297995 1.0307542e-38
0.034630209 0.062181637 0.04174006 1.6107576e-38
0.034413114 0.064711645 0.039230943 1.5001589e-38
0.033630908 0.06733951 0.037882388 1.3163435e-38
0.034226924 0.10925582 0.029513836 1.224366e-38
0.035343766 0.11084867 0.030218661 1.2609546e-38
0.030848488 0.065386757 0.040425837 1.3898494e-38
0.030817077 0.068780765 0.03814888 1.3348914e-38
0.030760467 0.072754905 0.03691262 1.3807743e-38
0.030108422 0.076788321 0.036053479 1.3440032e-38
0.030213937 0.080336615 0.034849942 1.298013e-38
0.03014265 0.085106462 0.033776343 1.2335855e-38
0.029712006 0.088790908 0.032934606 1.2518797e-38
0.029721573 0.09139283 0.0323506 1.2792511e-38
0.02977185 0.10505284 0.029284418 8.467182e-39
0.030770913 0.10786557 0.030224025 1.0585208e-38
0.031777322 0.11112188 0.031064332 1.2980181e-38
0.027074113 0.069557875 0.040242732 1.353187e-38
0.027031124 0.073137954 0.039095461 1.3806674e-38
0.026814729 0.077185541 0.037935197 1.3622272e-38
0.026729137 0.080621466 0.03592366 1.353186e-38
0.02695407 0.084960818 0.034044921 1.3069446e-38
0.027046785 0.088781342 0.032848239 1.2518444e-38
0.026789322 0.091252193 0.032284796 1.2518783e-38
0.026409164 0.096584663 0.031074643 9.4774159e-39
0.02642113 0.09983705 0.030344546 8.1931203e-39
0.026587233 0.10408472 0.02998209 8.4679051e-39
0.02714625 0.10714592 0.029752553 9.1118228e-39
0.023636729 0.081042841 0.037549317 1.4820788e-38
0.022805914 0.084845558 0.035129547 1.4451651e-38
0.022759914 0.088405058 0.033303142 1.3715171e-38
0.022980332 0.092105731 0.03230834 1.3257385e-38
0.022914991 0.096099123 0.031751275 1.0216403e-38
0.022849903 0.10009541 0.031193435 8.560458e-39
0.02265121 0.10425031 0.031165242 7.8247063e-39
0.022394553 0.10716864 0.031640589 8.6537565e-39
0.019559532 0.088611916 0.034688592 1.3534008e-38
0.019827321 0.092614457 0.034140408 1.3166975e-38
0.019172579 0.09652853 0.033239603 9.5739023e-39
0.019105822 0.1005345 0.032679498 8.2835306e-39
0.019269332 0.10417314 0.031799376 7.4527162e-39
0.14346075 0.081364438 0.011945248 1.2245814e-38
0.14079523 0.065082535 0.016045153 1.5376143e-38
0.13966992 0.063855365 0.014099598 1.5466179e-38
0.13966221 0.075478584 0.012153566 1.3992844e-38
0.13956931 0.086564735 0.011445761 1.2430553e-38
0.085892931 0.10039635 0.0049621463 2.2849036e-38
0.15832098 0.070906028 0.018063188 1.6943107e-38
0.096352026 0.091212422 0.018808544 1.0674897e-38
0.058359519 0.083022222 0.024471045 1.7398697e-38
0.081161164 0.076302364 0.026628971 1.3070527e-38
0.06218338 0.073838517 0.03248775 1.3434652e-38
0.1584152 0.016701236 0.059892237 8.2846138e-39
0.15884581 0.019374073 0.057426393 9.3927481e-39
0.15884992 0.13350183 0.033561289 2.2574272e-38
0.15863761 0.13768329 0.033925474 2.2490678e-38
0.15744588 0.14063533 0.033735633 1.8494645e-38
0.15432045 0.014209002 0.061341465 8.1009597e-39
0.15439901 0.016636498 0.059431612 8.9300155e-39
0.15585157 0.01895918 0.056907356 1.0041013e-38
0.15425043 0.13016501 0.031879246 2.1551841e-38
0.1547707 0.13376747 0.034277737 2.2567416e-38
0.1552875 0.13740574 0.034184158 2.276437e-38
0.15609801 0.14063048 0.033692002 1.9694565e-38
0.15026027 0.014243327 0.061540842 8.471882e-39
0.15038535 0.016571775 0.058971226 9.5739444e-39
0.15049061 0.018939927 0.056733727 1.0398339e-38
0.15224007 0.13015778 0.031814098 2.1734075e-38
0.15074567 0.13368325 0.033935189 2.2376916e-38
0.15069206 0.13666363 0.034403384 2.2850104e-38
0.14754608 0.01428245 0.061783731 8.8409798e-39
0.14631963 0.016640477 0.059390366 1.0127812e-38
0.14512965 0.018920675 0.05656004 1.141785e-38
0.14690897 0.13367163 0.033283293 2.2012073e-38
0.14272958 0.017081961 0.059285939 1.1048707e-38
0.14244916 0.018911056 0.056473255 1.2800045e-38
0.14279151 0.13376535 0.031886518 2.1919507e-38
0.14125708 0.13662975 0.034097731 2.2018534e-38
0.13879953 0.018198453 0.060613871 1.3259979e-38
0.13819703 0.019918367 0.056691825 1.4547118e-38
0.13847791 0.13395479 0.031940043 2.1919172e-38
0.13856137 0.13662006 0.03401053 2.2287945e-38
0.13414729 0.021366358 0.059064269 1.7127483e-38
0.13434197 0.022966713 0.0563187 1.7772123e-38
0.13470861 0.13384156 0.031942964 2.0724211e-38
0.13038875 0.021786712 0.059528768 1.7960117e-38
0.12996313 0.023633972 0.057048798 1.989013e-38
0.13042086 0.13392513 0.031679213 2.0449087e-38
0.12533551 0.022097498 0.059291184 1.8422903e-38
0.12599558 0.024054512 0.056969106 2.0350399e-38
0.12672684 0.13354853 0.030889213 1.9250531e-38
0.12646584 0.13778593 0.033005178 2.0914723e-38
0.12590894 0.14131154 0.032536685 1.5192512e-38
0.1221159 0.024482198 0.05716753 2.0901405e-38
0.12170433 0.026686765 0.054038167 2.0900318e-38
0.12299703 0.13358159 0.030484438 1.243167e-38
0.12247855 0.13759394 0.032346308 1.4278472e-38
0.12243933 0.14171644 0.03198874 9.4771749e-39
0.12116688 0.14412181 0.030722678 7.5504245e-39
0.11808711 0.0246232 0.056945145 2.0994322e-38
0.11835372 0.026674747 0.053929687 2.0716652e-38
0.1183354 0.13387227 0.030623317 1.1142362e-38
0.11846177 0.13750809 0.032004356 1.4554673e-38
0.11836289 0.14181076 0.03217411 7.545307e-39
0.11388364 0.024608076 0.056808829 2.0624106e-38
0.11406687 0.027182683 0.053673267 2.0714849e-38
0.11337309 0.13001819 0.03055501 1.316559e-38
0.11422309 0.13323261 0.03037411 1.3442911e-38
0.11455757 0.13709988 0.030712903 1.7045704e-38
0.11037239 0.025444284 0.057359099 2.0899253e-38
0.11004142 0.027697727 0.054156423 2.0806684e-38
0.10898648 0.030566201 0.052744627 2.0254594e-38
0.10907248 0.11750408 0.035273552 6.7209119e-39
0.10962476 0.12092136 0.032729983 4.7869575e-39
0.10929449 0.12487099 0.031917453 4.9703034e-39
0.11041525 0.12929568 0.031351686 8.8381772e-39
0.11053796 0.13308211 0.031254053 1.1506429e-38
0.10580612 0.025974795 0.05777204 2.108437e-38
0.10609613 0.02821631 0.054885447 2.0993589e-38
0.10630599 0.030556589 0.052657902 2.0624445e-38
0.1049091 0.11515658 0.03668803 5.7075055e-39
0.10623769 0.11785467 0.036354125 6.7198399e-39
0.10629103 0.12169765 0.035151064 6.0762487e-39
0.10704456 0.12547243 0.033758521 6.3535475e-39
0.10734592 0.12921409 0.033355474 6.5300074e-39
0.10755099 0.13387711 0.033596873 1.2426294e-38
0.10176254 0.025960267 0.057641029 2.1357364e-38
0.10199491 0.028294608 0.055301368 2.0897822e-38
0.10191948 0.030910604 0.052689016 2.0809934e-38
0.10243466 0.11473726 0.037110209 5.6138623e-39
0.10214327 0.11797079 0.036647737 7.5477957e-39
0.10345901 0.12070432 0.036419392 7.6406864e-39
0.097860865 0.028409936 0.05593586 2.0898172e-38
0.098482281 0.031120136 0.052681684 2.0622657e-38
0.09817934 0.11513241 0.036470056 9.4742294e-39
0.093837209 0.028376319 0.055696011 2.1173326e-38
0.094243817 0.030513264 0.052267134 2.117476e-38
0.094141483 0.11511789 0.036339223 1.3792943e-38
0.09406016 0.11794154 0.036385953 1.1690474e-38
0.089752108 0.028417729 0.055892766 2.0989303e-38
0.089817278 0.030909851 0.052543819 2.0807068e-38
0.0907766 0.11510582 0.036230206 1.6840819e-38
0.089837924 0.11752288 0.036242187 1.4269411e-38
0.085899808 0.029290579 0.056161284 2.0622299e-38
0.085971907 0.031687036 0.053340316 2.016025e-38
0.085795641 0.11777122 0.036235392 1.6753672e-38
0.084589034 0.12063655 0.035808146 1.7125004e-38
0.081688352 0.032331862 0.054746091 2.0529727e-38
0.081304215 0.034828022 0.050868511 1.9791819e-38
0.082246512 0.1179675 0.033937037 1.7948627e-38
0.082018301 0.121712 0.034683704 1.7586339e-38
0.080559976 0.12456952 0.034791052 1.9425936e-38
0.077578723 0.032394245 0.055051327 2.0069469e-38
0.078150786 0.035064161 0.050881684 1.9329766e-38
0.079517916 0.12133794 0.033431292 1.7486963e-38
0.073713057 0.03253758 0.054848015 1.9700341e-38
0.073908195 0.035598576 0.050962567 1.9056062e-38
0.069497488 0.033023104 0.054641664 1.8321371e-38
0.069833219 0.035974488 0.052053154 1.8689804e-38
0.070148364 0.038276955 0.049723566 1.8596158e-38
0.066296451 0.033289105 0.054817617 1.8135189e-38
0.06570451 0.036058873 0.052466691 1.8226663e-38
0.066127643 0.038262501 0.049593329 1.7578083e-38
0.064554706 0.12158136 0.033905268 2.1365572e-38
0.061694041 0.036350146 0.053080022 1.6294519e-38
0.061987087 0.039023429 0.049968541 1.6661498e-38
0.062214613 0.12143932 0.032834053 2.2932206e-38
0.057387024 0.036925197 0.053363383 1.5556595e-38
0.057493195 0.039557263 0.051213086 1.5925017e-38
0.058109656 0.12176661 0.032111585 2.0997556e-38
0.057646438 0.12448722 0.034048855 2.1272706e-38
0.053957254 0.037630811 0.053432822 1.5279991e-38
0.053704739 0.040194109 0.051566958 1.5831734e-38
0.053735688 0.042741463 0.04858613 1.52782e-38
0.054523408 0.12161379 0.031104028 1.6943481e-38
0.053767487 0.12487888 0.032977521 1.685128e-38
0.049641937 0.040924981 0.051934421 1.4911574e-38
0.049670175 0.043485448 0.049027443 1.4542434e-38
0.050587416 0.12176582 0.030836582 1.3073058e-38
0.049997762 0.12463729 0.033248425 1.353583e-38
0.045986563 0.041456744 0.051796138 1.3989984e-38
0.045800224 0.04396458 0.049688578 1.3805947e-38
0.045161024 0.046473548 0.047053099 1.4268359e-38
0.046900555 0.12207966 0.030643702 1.2337274e-38
0.046863601 0.12444849 0.033699572 1.279754e-38
0.042973951 0.044170395 0.051599562 1.37141e-38
0.041847318 0.048050001 0.049372435 1.3068379e-38
0.04148528 0.051241904 0.046739161 1.2517006e-38
0.040654555 0.055247933 0.045274734 1.3804477e-38
0.040743798 0.11827731 0.031805933 1.1777614e-38
0.042641163 0.12140362 0.032875955 1.2149308e-38
0.039841086 0.047448635 0.050759196 1.2881467e-38
0.038101479 0.052189797 0.049021363 1.3344606e-38
0.037859589 0.05566828 0.046411991 1.3711961e-38
0.036719397 0.059090808 0.043939233 1.4634256e-38
0.036702886 0.11433211 0.032557786 1.28872e-38
0.037241548 0.11656888 0.033782423 1.3437883e-38
0.034367234 0.055878058 0.048171699 1.4077851e-38
0.034095645 0.059350312 0.044306457 1.4909397e-38
0.032708302 0.061693162 0.043221533 1.5554409e-38
0.034014583 0.11323154 0.032715797 1.399104e-38
0.034525767 0.11718215 0.034511507 1.6018271e-38
0.031414255 0.056778967 0.048042119 1.4081819e-38
0.03045553 0.059363157 0.046013951 1.4081459e-38
0.029915333 0.062445328 0.043472648 1.445133e-38
0.028699622 0.064949676 0.042357147 1.3623345e-38
0.029535815 0.11009149 0.032246768 1.0126408e-38
0.030336678 0.11347593 0.03356415 1.2612832e-38
0.03077583 0.11700796 0.034323633 1.5563051e-38
0.026820347 0.060563371 0.046766341 1.4358045e-38
0.026213139 0.062755749 0.044818103 1.3715179e-38
0.025891006 0.065716133 0.042661369 1.2796101e-38
0.0250296 0.069188699 0.04128325 1.2703198e-38
0.024710178 0.073439777 0.040318012 1.3161655e-38
0.024722233 0.076710746 0.039583683 1.3712671e-38
0.025789991 0.10982199 0.032439291 9.7553929e-39
0.026598319 0.11330669 0.033591926 1.104761e-38
0.02656047 0.11725368 0.034055293 1.454604e-38
0.023717657 0.061206684 0.047134101 1.3900322e-38
0.02278915 0.063178644 0.046045065 1.2517012e-38
0.022112802 0.066095203 0.044273794 1.159829e-38
0.022286549 0.069882929 0.042745352 1.1599734e-38
0.021816298 0.073635489 0.041089296 1.2518451e-38
0.02188383 0.077512994 0.039992929 1.3808097e-38
0.021675646 0.081279114 0.038456678 1.4453095e-38
0.021989614 0.10933231 0.032899201 9.2047765e-39
0.022433057 0.11345232 0.033990741 1.1693326e-38
0.022577986 0.11778225 0.03439039 1.4641826e-38
0.019251987 0.066628262 0.045358062 1.0861068e-38
0.01868017 0.070257619 0.044293165 1.1319543e-38
0.018026501 0.074034169 0.042697012 1.1871998e-38
0.018041015 0.077974185 0.041812599 1.2889016e-38
0.018299729 0.081671819 0.039965332 1.353333e-38
0.018127903 0.08544834 0.037786961 1.3810256e-38
0.017213121 0.089163795 0.036742687 1.3071968e-38
0.017287403 0.093168691 0.036153436 1.233652e-38
0.016672909 0.097050741 0.035090268 9.386644e-39
0.016769826 0.10088708 0.033890128 7.9165194e-39
0.016996905 0.10527891 0.03342402 7.0853546e-39
0.018311158 0.10879786 0.033043563 8.0087668e-39
0.018721953 0.11336298 0.034400225 1.2337964e-38
0.019882292 0.11777256 0.034303069 1.446066e-38
0.015128717 0.074217811 0.043414056 1.132061e-38
0.014837429 0.078366354 0.042545915 1.2151812e-38
0.014581561 0.082010284 0.04124701 1.2889735e-38
0.014381155 0.085594147 0.039735675 1.3533668e-38
0.014382184 0.089442998 0.037748218 1.3071611e-38
0.014312938 0.093460724 0.037185431 1.1785167e-38
0.013992131 0.097381309 0.035610616 9.5692626e-39
0.013838217 0.10114768 0.034759581 7.8232672e-39
0.013852686 0.10507841 0.033877373 6.8098467e-39
0.014373899 0.10945098 0.034507811 7.180081e-39
0.014556646 0.11305273 0.034844279 1.2804384e-38
0.0109808 0.079582214 0.04258436 1.1508957e-38
0.010344684 0.082184508 0.041864812 1.2059271e-38
0.010472342 0.086020753 0.040551841 1.3256719e-38
0.010600597 0.08985284 0.039239645 1.3069099e-38
0.010615095 0.093794748 0.038354874 1.187521e-38
0.010021314 0.09766756 0.037208974 1.048978e-38
0.0097547472 0.10119368 0.034841657 8.3739424e-39
0.0098019242 0.10527234 0.034468293 8.0069466e-39
0.010473639 0.10976134 0.034892499 7.8236385e-39
0.010554388 0.11233278 0.034702241 1.0036733e-38
0.0070826858 0.082462996 0.04180795 1.159722e-38
0.0066732913 0.086333752 0.040925145 1.2430191e-38
0.0063885301 0.090007544 0.039748669 1.2152156e-38
0.0065772533 0.093780234 0.038224041 1.1229848e-38
0.0063181221 0.097542837 0.036686778 1.0401871e-38
0.0059525222 0.10095556 0.034541011 9.1122067e-39
0.0063400269 0.10502647 0.034152329 8.744499e-39
0.0067051947 0.10949014 0.035084546 8.930335e-39
0.0070582777 0.11246327 0.035069525 9.2998952e-39
0.0030681342 0.090343401 0.039904892 9.8447369e-39
0.0027822256 0.10143484 0.035558581 8.5622573e-39
0.0031222552 0.10585614 0.035397351 8.0998372e-39
0.003226459 0.10894071 0.035733521 7.9172593e-39
0.0036886483 0.11245115 0.034960449 9.0207804e-39
0.12880574 0.097337827 0.012087107 1.4453787e-38
0.090085268 0.0804445 0.026705623 9.7551028e-39
0.062570304 0.058669522 0.03651768 1.5095966e-38
