# .PCD v0.7 - Point Cloud Data file format
VERSION 0.7
FIELDS x y z rgb
SIZE 4 4 4 4
TYPE F F F F
COUNT 1 1 1 1
WIDTH 978
HEIGHT 1
VIEWPOINT 0 0 0 0 1 0 0
POINTS 978
DATA ascii
0.13549787 0.08740247 0.0078528523 1.2429124e-38
0.13227703 0.070866525 0.013387203 1.4372439e-38
0.12891603 0.082112432 0.012840986 1.6026558e-38
0.15795788 0.1179364 0.013035476 1.8794223e-38
0.16695568 0.053218268 0.017633319 2.267797e-38
0.16698045 0.056694258 0.015853524 2.2769808e-38
0.16683672 0.059240311 0.01429379 2.2768014e-38
0.16740976 0.10938183 0.011187851 2.164475e-38
0.16672136 0.11229718 0.011920571 2.1184495e-38
0.16696894 0.11646236 0.012905896 2.2013894e-38
0.1671681 0.11948231 0.014754832 2.2662858e-38
0.16257054 0.052858457 0.017439187 2.2573902e-38
0.16277367 0.055825293 0.014848173 2.2569598e-38
0.16420558 0.11325499 0.011313379 1.9706515e-38
0.16242312 0.11728887 0.01280266 2.0260382e-38
0.16211435 0.12088929 0.014547408 2.1275947e-38
0.15685405 0.046430819 0.019218206 2.2753615e-38
0.15775077 0.049196098 0.018713057 2.2754327e-38
0.15794143 0.052857175 0.016461432 2.2751423e-38
0.1590789 0.05540074 0.01455456 2.3209541e-38
0.15789378 0.11726633 0.012849987 1.7772157e-38
0.1580666 0.12136243 0.014650285 1.9152215e-38
0.15395322 0.046120636 0.019513011 2.2843644e-38
0.15419511 0.049020529 0.01834625 2.2658528e-38
0.15397979 0.052213095 0.015533507 2.2288299e-38
0.15369587 0.11793327 0.012106121 1.6669747e-38
0.15418594 0.12135437 0.01480186 1.7310824e-38
0.15395322 0.12439442 0.015797615 1.9060763e-38
0.15040776 0.045813404 0.019869924 2.2563813e-38
0.15030758 0.049034905 0.018385649 2.2377255e-38
0.15042761 0.05190333 0.015555918 2.2192865e-38
0.15026668 0.12128261 0.014401495 1.675585e-38
0.15022358 0.12501216 0.016128421 1.9061096e-38
0.14634617 0.045553908 0.020130694 2.2466944e-38
0.14639421 0.049044713 0.017980814 2.2281474e-38
0.14690301 0.051597904 0.015910685 2.2005281e-38
0.14636272 0.12122283 0.014110744 1.6572888e-38
0.14650163 0.12533177 0.015913785 1.795692e-38
0.14525074 0.12799211 0.016467094 1.9518854e-38
0.14138298 0.042620216 0.020892859 2.1916641e-38
0.14265098 0.045200057 0.020312667 2.1916993e-38
0.14252344 0.049059652 0.018130302 2.2007377e-38
0.14369883 0.051612556 0.016219378 2.1171151e-38
0.14209674 0.11817924 0.013214409 1.5746007e-38
0.14248802 0.12120163 0.014150679 1.6759437e-38
0.14260137 0.12528151 0.015734017 1.8050549e-38
0.14267224 0.12800391 0.016715527 1.9060037e-38
0.13878509 0.04521773 0.020685077 2.1362747e-38
0.13887969 0.048712857 0.018977523 2.1363091e-38
0.13921297 0.11787088 0.013507485 1.5655259e-38
0.13866249 0.12127031 0.014963806 1.6850575e-38
0.13876534 0.12535341 0.016548097 1.8601557e-38
0.13944909 0.12801865 0.017026007 1.8786676e-38
0.13429207 0.042652644 0.021575987 2.1634995e-38
0.13491923 0.04523541 0.021057546 2.089888e-38
0.13486683 0.048460212 0.019903898 2.0715939e-38
0.13502614 0.12197158 0.014521718 1.7034962e-38
0.13491362 0.12539852 0.017141283 1.8878135e-38
0.13042431 0.042670328 0.021948636 2.0258911e-38
0.13103302 0.045251038 0.020985007 2.0808499e-38
0.13097553 0.047827583 0.019639134 2.1270183e-38
0.13096556 0.12520103 0.015743852 1.878631e-38
0.13019449 0.12845035 0.017563879 1.9340918e-38
0.12849042 0.042679172 0.0221349 2.0809932e-38
0.12716015 0.045267679 0.021134794 2.0624835e-38
0.12643823 0.047840651 0.019070804 2.0440784e-38
0.12575543 0.12243402 0.014590263 1.6666904e-38
0.1271009 0.12519057 0.015894055 1.8233146e-38
0.12717414 0.12863758 0.017511368 1.915617e-38
0.12304394 0.045416392 0.021625698 2.0440438e-38
0.12142372 0.048633747 0.019316137 2.007165e-38
0.12191041 0.12245161 0.014960706 1.6021192e-38
0.12262836 0.12529527 0.017019331 1.7776476e-38
0.12222527 0.1284024 0.017665148 1.869591e-38
0.11874013 0.04545315 0.022609413 1.9887629e-38
0.11794238 0.049008489 0.020212829 1.9612478e-38
0.11678372 0.051735636 0.018812358 1.989014e-38
0.11678372 0.12247505 0.01545459 1.3540519e-38
0.11812159 0.12544712 0.01719588 1.4737275e-38
0.11815604 0.12834476 0.018312216 1.4279505e-38
0.11430462 0.045977537 0.023180425 2.0254969e-38
0.1142792 0.049199656 0.021856546 1.9705402e-38
0.11422037 0.051747359 0.0190593 1.8969621e-38
0.11336593 0.12206195 0.015804172 8.4672311e-39
0.11426652 0.12531716 0.017686009 9.2055248e-39
0.11396975 0.12836437 0.018715501 8.0105731e-39
0.11044084 0.046643056 0.023689568 1.8138428e-38
0.11042243 0.049219001 0.02245146 1.7125364e-38
0.11037536 0.051764943 0.019429684 1.5925387e-38
0.11038502 0.11872067 0.016921163 7.9158173e-39
0.11038864 0.12132177 0.017020822 8.2832055e-39
0.11041516 0.12537497 0.018390357 9.4820892e-39
0.11042929 0.1280676 0.019155264 1.0312217e-38
0.10656455 0.049240045 0.023158312 1.5372185e-38
0.10653034 0.052104067 0.019784868 1.4818276e-38
0.10697307 0.11838244 0.017937124 7.6396018e-39
0.10719445 0.12146498 0.018440008 8.192805e-39
0.10733947 0.12524682 0.019654572 9.3012979e-39
0.1030259 0.050231993 0.023983717 1.3621913e-38
0.10226921 0.052698001 0.022850215 1.2885403e-38
0.10140365 0.05566448 0.020110905 1.1140459e-38
0.10205163 0.089883119 0.020435631 8.095901e-39
0.099696644 0.054017887 0.024041653 1.0211015e-38
0.098998219 0.057177059 0.022911429 8.6411658e-39
0.098325811 0.060333569 0.021192193 7.8132297e-39
0.097558632 0.063399091 0.020115018 7.2708571e-39
0.098838396 0.090661198 0.02238518 8.0948416e-39
0.098840475 0.092380323 0.019286096 9.1079103e-39
0.09625902 0.058351941 0.024503112 1.0405785e-38
0.095403574 0.061351474 0.023605287 1.0862106e-38
0.094981052 0.064761236 0.022310734 1.0030211e-38
0.094616629 0.068432845 0.021740615 8.3743138e-39
0.094339915 0.072497994 0.02183789 7.3651995e-39
0.094974026 0.090655386 0.022423387 9.1068453e-39
0.094988897 0.092422053 0.019991279 9.8419049e-39
0.091746628 0.066135265 0.024569333 1.0677768e-38
0.09110672 0.068708599 0.024061918 1.0214631e-38
0.091106735 0.072587833 0.0238778 9.1126089e-39
0.091101997 0.075194687 0.024201572 8.7441879e-39
0.09086936 0.089424551 0.021637678 1.0948241e-38
0.092431948 0.091718301 0.019265771 1.0484039e-38
0.08594498 0.082980953 0.024329901 1.1962046e-38
0.087082669 0.085692897 0.023588479 1.1867337e-38
0.08685261 0.08912611 0.021380305 1.2790348e-38
0.084655724 0.06616769 0.025252461 1.3901003e-38
0.084655724 0.067461476 0.025191069 1.3258144e-38
0.082077213 0.079117298 0.024886727 1.3711951e-38
0.083369277 0.081692383 0.024527967 1.2882554e-38
0.082938075 0.085595824 0.022850335 1.3804858e-38
0.082938962 0.088187099 0.02075243 1.5002676e-38
0.079176381 0.078807116 0.025181592 1.4450586e-38
0.079049096 0.081799261 0.024411738 1.4080377e-38
0.078513071 0.085378081 0.023425043 1.5737365e-38
0.078333557 0.087924257 0.020807147 1.7493032e-38
0.074341677 0.073977545 0.025877595 1.6573596e-38
0.07481049 0.077856749 0.025648177 1.5189589e-38
0.074613839 0.081586368 0.025087833 1.4449524e-38
0.074390627 0.085536912 0.023983181 1.6936962e-38
0.074488543 0.088263378 0.021162331 1.8966327e-38
0.07004416 0.069037698 0.026527047 1.6755125e-38
0.070312753 0.072863907 0.026319444 1.5924294e-38
0.070473894 0.077229679 0.026096642 1.4913005e-38
0.070507303 0.081713527 0.025098324 1.4080387e-38
0.070525952 0.085561357 0.024466932 1.7857168e-38
0.070300967 0.088315859 0.02206707 2.2097099e-38
0.066606134 0.068999514 0.026860774 1.5742774e-38
0.066606134 0.072719134 0.026684225 1.5003403e-38
0.066863991 0.07698743 0.026456714 1.408253e-38
0.066611283 0.081769019 0.026142418 1.3161292e-38
0.066692062 0.085543334 0.024279237 1.804588e-38
0.068080179 0.087971143 0.021794915 2.1828795e-38
0.062738374 0.069502369 0.027210414 1.4817941e-38
0.062953256 0.072304577 0.027056634 1.4539912e-38
0.064027637 0.075965382 0.026779115 1.3804867e-38
0.063254088 0.082308449 0.026552737 1.4358026e-38
0.063013107 0.085376665 0.024293184 1.7673497e-38
0.058870606 0.069304422 0.027593255 1.5188161e-38
0.058870606 0.083104759 0.0269382 1.8318836e-38
0.058784261 0.085451476 0.025577962 1.914789e-38
0.057826802 0.08801803 0.022782743 1.9427005e-38
0.054358222 0.083125398 0.027372897 1.8874547e-38
0.055060335 0.085653245 0.026291132 1.9151843e-38
0.05516126 0.089422613 0.024537921 1.9056781e-38
0.054859497 0.093217634 0.023397207 1.6107206e-38
0.050490454 0.079261735 0.027929783 1.7215766e-38
0.050991856 0.081993967 0.027500153 1.7400516e-38
0.051205911 0.085664518 0.026551008 1.7766058e-38
0.051276766 0.089471273 0.025357723 1.6750469e-38
0.050975904 0.092781395 0.023441613 1.4819719e-38
0.051034592 0.11318815 0.02405417 1.1971024e-38
0.050526813 0.11543415 0.02570641 1.4454175e-38
0.046622679 0.074104294 0.028548002 1.4359509e-38
0.047032602 0.077579819 0.028041661 1.4543885e-38
0.047327243 0.081819102 0.027331471 1.5279628e-38
0.047343835 0.085682184 0.02692306 1.5279281e-38
0.047179341 0.089604914 0.025545835 1.4542436e-38
0.046612173 0.092249371 0.023664713 1.3440382e-38
0.04501009 0.10929847 0.023010135 1.1784836e-38
0.047192998 0.11313874 0.025203347 1.2062824e-38
0.04726731 0.11550236 0.026520729 1.3350333e-38
0.043077223 0.073797062 0.028904915 1.3989603e-38
0.043413244 0.077344537 0.028536439 1.3437862e-38
0.043463275 0.081836566 0.027703702 1.3256009e-38
0.043273792 0.085791506 0.026707351 1.270317e-38
0.042760894 0.089380473 0.026001334 1.1599367e-38
0.041990846 0.092830531 0.024418652 1.1504656e-38
0.04193408 0.1053254 0.023495734 1.0680299e-38
0.042501323 0.10862793 0.024541378 1.1782322e-38
0.043481745 0.11283056 0.026007295 1.1967792e-38
0.044044167 0.11551709 0.026831269 1.160149e-38
0.040821038 0.074130833 0.029106915 1.3437139e-38
0.040176392 0.078015119 0.028984785 1.2701736e-38
0.039736405 0.082031153 0.028333783 1.2887205e-38
0.039480738 0.08554022 0.027437568 1.3253477e-38
0.038422123 0.089530051 0.026596129 1.2061786e-38
0.038481563 0.093349352 0.025738537 1.233585e-38
0.038392432 0.09676493 0.024531484 1.2336184e-38
0.038441509 0.10112916 0.024032116 1.3072683e-38
0.038441665 0.1049898 0.025636911 1.2889041e-38
0.039009683 0.10893841 0.026246727 1.3071592e-38
0.039560765 0.11226952 0.027083039 1.3622279e-38
0.036331557 0.082546175 0.028889537 9.5660649e-39
0.035901129 0.086130559 0.028437734 1.021392e-38
0.035098001 0.089624926 0.028085947 8.82306e-39
0.034501642 0.093466997 0.027458251 8.4550173e-39
0.034585685 0.097269043 0.026375651 7.7174537e-39
0.034554079 0.10116747 0.026528955 8.1791549e-39
0.034512043 0.10507864 0.026794314 8.6404918e-39
0.035730593 0.10901713 0.027224183 8.8273844e-39
0.036953256 0.11166818 0.027698636 1.0486508e-38
0.033085495 0.089691579 0.0291152 9.0035094e-39
0.031796232 0.093578823 0.029055178 1.0660193e-38
0.031184696 0.097435988 0.028595924 1.1492435e-38
0.031498738 0.10099848 0.028480291 1.0663064e-38
0.03147392 0.10490088 0.028548896 1.0761374e-38
0.033085495 0.10845141 0.028224766 9.3816722e-39
0.065324731 0.10776956 0 1.5099934e-38
0.075461321 0.10457744 0.0021901131 2.1081137e-38
0.076860107 0.097765684 0.0071558356 2.2928637e-38
0.07736855 0.10454717 0.0048692822 2.275505e-38
0.077531755 0.11212699 0.0050961971 2.3129573e-38
0.14228788 0.061708126 0.008836031 1.8966737e-38
0.13595718 0.093504973 0.0061946511 1.1968138e-38
0.13731173 0.095514938 0.0057002902 1.2983009e-38
0.1302554 0.087372243 0.0083771944 1.6297749e-38
0.11976843 0.094544679 0.012157798 1.325638e-38
0.16617253 0.1230754 0.017697752 2.2571722e-38
0.16267794 0.04944855 0.021082997 2.2393831e-38
0.16314074 0.12423126 0.017823875 2.2381597e-38
0.15773377 0.045143191 0.021960318 2.2662497e-38
0.1596536 0.048379786 0.021369815 2.2571751e-38
0.15835962 0.1250004 0.017857909 2.0351499e-38
0.15710792 0.12701532 0.018386006 2.0533358e-38
0.15451804 0.042560354 0.022644818 2.2843275e-38
0.15471236 0.044376418 0.021735311 2.2844721e-38
0.1544372 0.12625501 0.017674148 1.9706841e-38
0.15451804 0.12832665 0.018573821 1.9890155e-38
0.1506332 0.04257812 0.023019075 2.2841475e-38
0.15055805 0.043875985 0.021959007 2.274929e-38
0.15120459 0.12691858 0.017954826 1.942844e-38
0.150621 0.12897328 0.0187518 1.9520996e-38
0.14647588 0.042077322 0.023243129 2.2561298e-38
0.14732544 0.043890767 0.022270381 2.2652777e-38
0.1467087 0.12958953 0.018693209 1.9796511e-38
0.14299354 0.041151579 0.023321629 2.2192875e-38
0.14283165 0.13026556 0.019107282 2.044439e-38
0.13895291 0.041332226 0.023759007 2.1732256e-38
0.13876081 0.12999688 0.019441307 1.9799008e-38
0.13525589 0.04097819 0.024148822 2.1359873e-38
0.13523611 0.12950477 0.020002484 1.9430589e-38
0.13137403 0.040995941 0.024522781 2.0809565e-38
0.13145833 0.12996636 0.020521343 1.93402e-38
0.13120905 0.13233171 0.020634294 1.952281e-38
0.1273037 0.041602179 0.024815142 2.0718094e-38
0.12732422 0.13104999 0.021070242 1.9525312e-38
0.12342761 0.042052764 0.02533561 2.0990365e-38
0.12373568 0.13032053 0.020696998 1.9526019e-38
0.11954993 0.042070508 0.02587682 1.9792908e-38
0.11952491 0.044017896 0.024948657 1.9887288e-38
0.12018721 0.13036911 0.021288753 1.7133599e-38
0.11566052 0.042218219 0.026010633 1.961031e-38
0.11499925 0.044038594 0.025384665 1.997946e-38
0.11528002 0.13043801 0.021400154 1.0224684e-38
0.11243237 0.042752806 0.026699305 1.9429508e-38
0.11047873 0.044708714 0.026124597 1.8231336e-38
0.11080503 0.13008715 0.022208095 1.1327455e-38
0.10703079 0.045807086 0.026573002 1.6020804e-38
0.10788748 0.12841426 0.022066295 1.1879897e-38
0.10401523 0.046689764 0.027325153 1.5093111e-38
0.10271857 0.048643015 0.027106166 1.4265124e-38
0.10336603 0.086310975 0.02525562 6.9870899e-39
0.10271633 0.088234931 0.02480799 7.5413287e-39
0.098835155 0.052882686 0.027279854 1.2142461e-38
0.097543098 0.055796694 0.026512027 1.1130069e-38
0.09818799 0.0785539 0.026375294 5.0610304e-39
0.097540513 0.080506101 0.026345134 5.4294472e-39
0.098835453 0.086997628 0.025911987 6.3485379e-39
0.098835804 0.088912576 0.025318205 7.0850155e-39
0.095599219 0.057118922 0.027391255 1.2702797e-38
0.094092213 0.060146034 0.026974082 1.2610634e-38
0.094953455 0.077896729 0.02627176 6.8105726e-39
0.094580635 0.081633478 0.026577413 6.8069937e-39
0.093979418 0.08539547 0.026456892 7.5398924e-39
0.094955198 0.088919215 0.025524974 8.1888407e-39
0.091071196 0.061679102 0.027360618 1.4269054e-38
0.090891153 0.064543843 0.026882827 1.2883979e-38
0.09107291 0.077908546 0.0265342 8.5583435e-39
0.091070458 0.081816129 0.026572466 8.0955773e-39
0.091073133 0.085698716 0.026164412 9.3830819e-39
0.087187208 0.061701313 0.027902186 1.5377213e-38
0.087194987 0.064933911 0.027300954 1.4085034e-38
0.087198719 0.068819873 0.026892722 1.2244001e-38
0.087198719 0.07271263 0.026707947 1.1048347e-38
0.087197408 0.077258483 0.026576161 1.0491589e-38
0.08736036 0.0816328 0.026268899 1.0856774e-38
0.08849176 0.084384993 0.026028991 1.0671667e-38
0.083312079 0.061709814 0.027940691 1.5095615e-38
0.083157949 0.064783394 0.027474463 1.4358402e-38
0.083157949 0.069000542 0.027274251 1.3160582e-38
0.083316974 0.072735459 0.027193367 1.316308e-38
0.083434999 0.077098787 0.026954591 1.3437868e-38
0.079430714 0.061727565 0.02831465 1.5372531e-38
0.079433545 0.064969823 0.028048694 1.5278192e-38
0.079436988 0.068859808 0.027751982 1.5555507e-38
0.07943093 0.072762549 0.027790785 1.5925341e-38
0.07960207 0.07647793 0.027262688 1.4911918e-38
0.075526468 0.061764166 0.029360354 1.7490532e-38
0.075526476 0.065012895 0.029206157 1.7397611e-38
0.075549692 0.068885207 0.028349578 1.7030992e-38
0.07571882 0.072608165 0.027947009 1.6572163e-38
0.075884551 0.076008335 0.027643859 1.5744196e-38
0.071641639 0.061781932 0.029734612 1.8135912e-38
0.071660064 0.065015748 0.029132307 1.7581297e-38
0.072113164 0.06867259 0.028356254 1.7030647e-38
0.07265193 0.072454751 0.02812469 1.6480339e-38
0.072975188 0.075372845 0.027954936 1.5930013e-38
0.068015799 0.061928462 0.030077755 1.8319958e-38
0.06778761 0.065026045 0.029282272 1.7766777e-38
0.066509947 0.067616887 0.028947353 1.6660084e-38
0.063548237 0.062143818 0.030498862 1.7952605e-38
0.063439518 0.06516204 0.029634714 1.7030291e-38
0.062630802 0.067634627 0.029321074 1.574063e-38
0.062199794 0.073692001 0.029075146 1.4541344e-38
0.062846325 0.077798076 0.028817892 1.3622262e-38
0.059617154 0.06192974 0.030888617 1.7493401e-38
0.05898688 0.06493856 0.030203223 1.6478187e-38
0.058751665 0.068733692 0.029643476 1.5371478e-38
0.058751665 0.072842717 0.02944845 1.4727536e-38
0.05875168 0.077384271 0.02923286 1.5096317e-38
0.058751665 0.081277028 0.029048085 1.7306854e-38
0.055066355 0.061987676 0.031325281 1.5833194e-38
0.054814398 0.065104008 0.031089902 1.6016854e-38
0.054828666 0.068993092 0.030680418 1.527856e-38
0.054814391 0.072899885 0.030719817 1.5371458e-38
0.054861844 0.077410623 0.029774845 1.7400846e-38
0.055057243 0.081571981 0.029390812 1.868799e-38
0.054855756 0.11408509 0.028118372 1.1414973e-38
0.053966425 0.1161892 0.028523445 1.3716638e-38
0.052217484 0.062520504 0.031575024 1.6199838e-38
0.051354185 0.065989755 0.031493723 1.6200155e-38
0.050922535 0.06902387 0.031391382 1.6384929e-38
0.050922543 0.072922334 0.03120631 1.730796e-38
0.05112268 0.077029884 0.029986322 1.7307604e-38
0.052286431 0.080657795 0.02970171 1.8044422e-38
0.052286431 0.11439505 0.028100312 1.261567e-38
0.05095797 0.11726746 0.02859515 1.4547097e-38
0.047199585 0.069203332 0.031742334 1.675585e-38
0.047255501 0.072548777 0.031147122 1.6201975e-38
0.048407286 0.076133981 0.030290961 1.592287e-38
0.047075979 0.11771806 0.028948605 1.3163798e-38
0.046390235 0.11972468 0.029422402 1.2613144e-38
0.043152876 0.069709145 0.032109022 1.5556229e-38
0.043477654 0.072142392 0.031157613 1.5003774e-38
0.043003127 0.11746625 0.029425681 1.2245057e-38
0.040131345 0.069939539 0.032389879 1.4636058e-38
0.039150141 0.072791353 0.031846404 1.3806261e-38
0.038709424 0.076827124 0.031194508 1.3069787e-38
0.0380629 0.080722839 0.031071961 1.3162354e-38
0.039355963 0.11445419 0.029345989 1.3346786e-38
0.039268054 0.11585878 0.030293584 1.2795392e-38
0.036030672 0.074289925 0.032579303 1.3441084e-38
0.035669915 0.077784389 0.032146573 1.0768167e-38
0.034940496 0.081526719 0.03153646 9.744694e-39
0.034782544 0.084661074 0.031704605 9.2819026e-39
0.034183756 0.11058508 0.030029058 8.0023027e-39
0.036077008 0.11322346 0.030223846 9.3801658e-39
0.032793336 0.082751408 0.032490253 1.1594296e-38
0.032858245 0.085957304 0.031661272 1.0483631e-38
0.031020097 0.090138808 0.031908453 1.2050631e-38
0.030304611 0.09373419 0.031203449 1.3248079e-38
0.030304611 0.1021685 0.030803084 1.2327583e-38
0.030304611 0.10606126 0.03061831 1.2701742e-38
0.031299368 0.10908039 0.030781269 1.1590383e-38
0.027613558 0.093820758 0.032464921 1.3251665e-38
0.027648129 0.097691983 0.031942606 1.2053129e-38
0.027647935 0.10158898 0.031757653 1.1226965e-38
0.027647935 0.10548554 0.0315727 1.1134069e-38
0.028312579 0.10806434 0.031218469 1.2239314e-38
0.024699949 0.098057419 0.032545149 9.2933918e-39
0.024376191 0.1016325 0.032406747 8.6519712e-39
0.025023676 0.10487826 0.032190144 8.6530516e-39
0.1394875 0.09333919 0.0069864392 1.3995369e-38
0.13455701 0.078634769 0.0070179105 1.2980141e-38
0.13034168 0.07559108 0.0093624592 1.5282867e-38
0.10170609 0.088251039 0.010959089 1.5006271e-38
0.13844559 0.077322021 0.0024312735 1.5833899e-38
0.10737913 0.081036359 0.0070286393 1.9240819e-38
0.10337225 0.06767264 0.015886545 1.3441448e-38
0.16196012 0.042526562 0.025448143 2.2574258e-38
0.16321559 0.045130711 0.024700344 2.2488549e-38
0.16367674 0.047724113 0.022521138 2.2581462e-38
0.16302833 0.12581059 0.018877208 2.3116279e-38
0.1631836 0.12862399 0.020405054 2.2657463e-38
0.16135401 0.13141216 0.021790385 2.2381609e-38
0.15854834 0.042542048 0.023932874 2.2754681e-38
0.15955044 0.044817775 0.024063349 2.2479913e-38
0.15873849 0.12872274 0.020159006 2.1822292e-38
0.15842333 0.13175234 0.022057235 2.2105004e-38
0.15443537 0.040734373 0.024952173 2.2842904e-38
0.15524729 0.12975036 0.019441545 2.0809948e-38
0.15472108 0.13190125 0.020898998 2.1548236e-38
0.14963126 0.038661677 0.027324855 2.2474484e-38
0.15080887 0.04062032 0.025441945 2.2841109e-38
0.15078351 0.13185421 0.020778477 2.0719198e-38
0.14682055 0.037742499 0.027352512 2.201028e-38
0.14717773 0.040314689 0.024968803 2.2379776e-38
0.14688691 0.13252386 0.021122932 2.0443313e-38
0.14306235 0.037390262 0.027125418 2.1824464e-38
0.14302297 0.13325962 0.021963954 2.0815326e-38
0.13915899 0.037408117 0.027501464 2.1454958e-38
0.139182 0.13340853 0.023333609 2.053838e-38
0.13527703 0.037586663 0.028258979 2.1544273e-38
0.13507329 0.13310114 0.023385704 1.9892652e-38
0.13121554 0.037604287 0.02877599 2.0715949e-38
0.12728465 0.03783264 0.029090881 2.0992879e-38
0.12671682 0.040084776 0.026452422 2.0626257e-38
0.12357451 0.03812822 0.029698431 2.0806338e-38
0.12347472 0.040099598 0.02676475 2.062374e-38
0.12354491 0.13243547 0.024386704 1.9804054e-38
0.11967313 0.038798671 0.030210972 2.0068779e-38
0.1195842 0.04011739 0.027139544 1.9885101e-38
0.11926819 0.13276324 0.024640381 1.4646845e-38
0.11576556 0.038816541 0.030587375 2.0068417e-38
0.11569368 0.040460531 0.027498901 1.9334083e-38
0.11573823 0.13342817 0.024925768 1.0406572e-38
0.11250924 0.038831431 0.030901134 1.9519907e-38
0.11163248 0.041080657 0.028723836 1.878271e-38
0.11184411 0.13284174 0.025698423 1.1604031e-38
0.10809653 0.041630063 0.029937088 1.7860761e-38
0.10575125 0.044518616 0.028266311 1.620484e-38
0.10791264 0.12996681 0.024001658 1.2342671e-38
0.10920948 0.13126227 0.023814917 1.3168463e-38
0.10490823 0.04235176 0.031132698 1.7584506e-38
0.10325177 0.045140885 0.029886246 1.5558383e-38
0.10142845 0.048008762 0.028518021 1.4450951e-38
0.10220656 0.085225016 0.026676357 6.1609082e-39
0.10039447 0.046204656 0.031318545 1.5372197e-38
0.099204741 0.049520478 0.030241549 1.4450941e-38
0.097537927 0.052581426 0.028676629 1.4634582e-38
0.098996878 0.082018748 0.027138472 4.6000593e-39
0.09883476 0.085110299 0.027007341 5.7035314e-39
0.096878901 0.050013252 0.031879544 1.7769933e-38
0.095121682 0.053632475 0.030009508 1.6297296e-38
0.09397161 0.056827262 0.028819442 1.4910854e-38
0.096241094 0.082519375 0.027380764 6.1630704e-39
0.095722362 0.086035505 0.027263939 6.8062902e-39
0.091025561 0.053296939 0.031618297 1.8967074e-38
0.091039047 0.057188921 0.030202925 1.684945e-38
0.091053717 0.059768733 0.028961539 1.5375733e-38
0.086784311 0.05038619 0.032836497 1.9978723e-38
0.087135993 0.053302623 0.031211257 1.9517019e-38
0.087144732 0.057206735 0.030578136 1.7402269e-38
0.087163202 0.059786525 0.029336333 1.6298437e-38
0.087109946 0.11672002 0.02965641 1.4911183e-38
0.083865345 0.050720572 0.032599628 1.8688729e-38
0.083225794 0.053328145 0.032034636 1.7673147e-38
0.083263107 0.057210483 0.030282199 1.6384552e-38
0.083272681 0.059804313 0.029711127 1.5741692e-38
0.083202362 0.11739144 0.030001879 1.6654968e-38
0.080597304 0.050741255 0.033417046 1.8412134e-38
0.07931722 0.053348988 0.032634497 1.7580577e-38
0.079368792 0.057227869 0.030657411 1.665754e-38
0.079382166 0.059822105 0.030085921 1.5922471e-38
0.075410396 0.053368345 0.033122599 1.8502888e-38
0.075468443 0.057249948 0.031256437 1.7856442e-38
0.075491644 0.059839897 0.030460775 1.758165e-38
0.071555272 0.057277597 0.032079935 1.8411773e-38
0.07160113 0.059857689 0.030835569 1.8228476e-38
0.067897655 0.054393858 0.034469903 1.9240805e-38
0.067602403 0.057321757 0.033688903 1.896315e-38
0.067317113 0.060239833 0.032739818 1.8594728e-38
0.063664451 0.054739989 0.034862161 1.8962784e-38
0.06387274 0.057716876 0.034269691 1.8873112e-38
0.064017199 0.06044269 0.03274709 1.8414641e-38
0.059756868 0.054757856 0.035238624 1.8136979e-38
0.059789054 0.057359613 0.034553289 1.8136259e-38
0.059854075 0.059944477 0.033306837 1.8045137e-38
0.055849276 0.054775726 0.035615087 1.7493792e-38
0.055926181 0.057362638 0.034255505 1.7493767e-38
0.056330688 0.060265269 0.032793581 1.6847676e-38
0.055198014 0.1201337 0.032575667 1.906362e-38
0.05222939 0.05818158 0.035400629 1.6199791e-38
0.051601648 0.061109561 0.033587277 1.610689e-38
0.050635554 0.064725332 0.032628834 1.6476736e-38
0.052729905 0.11861704 0.030874372 1.5749987e-38
0.051217988 0.12032346 0.032146335 1.6300653e-38
0.047833309 0.061848599 0.035248756 1.749124e-38
0.04710415 0.065345578 0.0331918 1.6662895e-38
0.045664333 0.067784645 0.032963634 1.6479627e-38
0.047617212 0.1214506 0.031377256 1.3812048e-38
0.045468271 0.061997943 0.035771728 1.8135522e-38
0.043545306 0.06540852 0.034286857 1.6201223e-38
0.043070652 0.067796506 0.033213496 1.5832817e-38
0.04365883 0.12123798 0.031374335 1.2428047e-38
0.044126533 0.12410562 0.033456147 1.2244741e-38
0.041521467 0.062683843 0.03662312 1.7119942e-38
0.040243246 0.065294355 0.036335289 1.6200142e-38
0.03892079 0.068856597 0.033563852 1.4819733e-38
0.039784603 0.11797033 0.031652093 1.2893316e-38
0.040521413 0.12139432 0.032927155 1.2981558e-38
0.037613899 0.065969467 0.036844492 1.5645907e-38
0.035845391 0.069392823 0.035846949 1.4082535e-38
0.035023063 0.072703533 0.034619808 1.3255626e-38
0.033992797 0.076297067 0.033686519 1.1506797e-38
0.034222454 0.11381575 0.032889307 9.0142812e-39
0.036644861 0.11725725 0.033699036 1.0483998e-38
0.033055037 0.069911607 0.037097514 1.3436802e-38
0.032102495 0.073499054 0.036767781 1.2515557e-38
0.031899065 0.077683046 0.035331547 1.1966329e-38
0.031624034 0.081895009 0.034655333 1.1965235e-38
0.030716963 0.0860928 0.033873081 1.232899e-38
0.030102268 0.088678077 0.033474505 1.3435707e-38
0.030750692 0.11079878 0.032361865 1.2510179e-38
0.031916074 0.11353522 0.033460617 1.0947895e-38
0.033706322 0.11631067 0.034832239 1.0576964e-38
0.029364556 0.083217338 0.036822319 1.2609542e-38
0.027625524 0.086425185 0.036263287 1.3435738e-38
0.027438611 0.090036094 0.034337699 1.3344256e-38
0.027439244 0.10979544 0.03339982 1.2055296e-38
0.028777309 0.11291458 0.035268247 1.3806645e-38
0.025239885 0.086286098 0.037074864 1.3160934e-38
0.023384035 0.09015388 0.036176443 1.2794315e-38
0.023618057 0.093913302 0.033852041 1.1225558e-38
0.022839949 0.097560756 0.033754051 9.4788508e-39
0.022321209 0.10172758 0.03360635 8.8367142e-39
0.023134992 0.10590561 0.034335315 8.6519586e-39
0.024154991 0.10921986 0.035286486 9.2951953e-39
0.02589114 0.11242511 0.035771251 1.1693707e-38
0.020182915 0.090477854 0.037163079 1.3163442e-38
0.019493982 0.094080061 0.03625387 1.1414956e-38
0.019571126 0.097942621 0.035392642 9.2969469e-39
0.019571766 0.1018561 0.035206795 8.006599e-39
0.02018293 0.1056364 0.036443532 8.3768277e-39
0.016773447 0.094820961 0.037487268 1.0214999e-38
0.016447812 0.098416977 0.037347972 8.465415e-39
0.016152218 0.10133836 0.036986411 7.2704689e-39
0.13899781 0.081790626 0.0062193871 1.4823697e-38
0.1353887 0.085967258 0.0061155558 1.473294e-38
0.13613766 0.07228525 0.0084323883 1.5375057e-38
0.13305445 0.12110101 0.014973104 1.3903168e-38
0.10426335 0.078257948 0.013018668 1.6939874e-38
0.10170978 0.064536631 0.015637159 1.1508594e-38
0.10975671 0.10761856 0.010910571 1.6576479e-38
0.099006884 0.057176173 0.022715092 8.8270074e-39
0.097558632 0.063399091 0.020115018 7.2708571e-39
0.069001451 0.084271908 0.027787507 1.4175797e-38
0.079253487 0.067660846 0.026485503 1.5464742e-38
0.076801538 0.075417466 0.025859237 1.3533678e-38
0.096878901 0.050013252 0.031879544 1.7769933e-38
0.1588708 0.037660204 0.030072331 2.2014982e-38
0.15895052 0.040572893 0.028681099 2.2204025e-38
0.15923518 0.13385814 0.024493933 2.2659262e-38
0.15909505 0.1358844 0.025819302 2.2571007e-38
0.15483718 0.034342498 0.031050265 2.0267571e-38
0.15508386 0.037305746 0.029880047 2.1739118e-38
0.15630935 0.039930765 0.02863127 2.256923e-38
0.15500304 0.1343219 0.024276972 2.2014601e-38
0.15483877 0.13632087 0.025404871 2.2477017e-38
0.15103675 0.0337511 0.031301618 1.9894101e-38
0.15130422 0.037161369 0.030000448 2.1922051e-38
0.15108408 0.13433982 0.024654508 2.0819659e-38
0.15117802 0.13614792 0.025816917 2.1370675e-38
0.14730404 0.030761495 0.031947613 1.8973564e-38
0.14725794 0.033399116 0.031156361 2.0354721e-38
0.14781828 0.036036879 0.029635966 2.1735861e-38
0.14781828 0.13435476 0.024969161 2.0630577e-38
0.14726236 0.13638331 0.026334643 2.081426e-38
0.14337371 0.03077947 0.032326281 1.8606601e-38
0.14331722 0.03341987 0.031312346 2.0720622e-38
0.14295411 0.13698858 0.026606977 2.0997568e-38
0.14009842 0.030794445 0.032641768 1.869301e-38
0.13939174 0.033437818 0.031690538 2.0536583e-38
0.13937904 0.13713805 0.026545942 2.0905366e-38
0.13878831 0.1399214 0.027588367 2.1271998e-38
0.13551304 0.030815415 0.033083558 1.9149699e-38
0.13546646 0.033455767 0.03206867 2.0167447e-38
0.13540825 0.036093626 0.030831516 2.1360958e-38
0.13546064 0.13717142 0.027034461 2.0537301e-38
0.13616809 0.13993338 0.027840793 2.0631644e-38
0.13155654 0.033469643 0.032780766 2.0807423e-38
0.1327956 0.036105573 0.031083226 2.1083319e-38
0.13153102 0.13717394 0.027302027 2.0075618e-38
0.13158271 0.13995436 0.028282523 2.0636342e-38
0.12763186 0.034143899 0.033183634 2.1452411e-38
0.12822348 0.03612648 0.031523705 2.108112e-38
0.12757033 0.13444735 0.026919782 1.9800457e-38
0.12760679 0.13719189 0.027680039 1.9982698e-38
0.12765238 0.13997233 0.028661251 2.0905722e-38
0.12371056 0.03415994 0.033729076 2.126839e-38
0.12365137 0.03614739 0.031964183 2.0990731e-38
0.12365137 0.13446528 0.027297318 1.9804417e-38
0.12368256 0.13720983 0.028058112 2.007992e-38
0.12437709 0.1399873 0.028976738 2.090858e-38
0.11978677 0.034175996 0.034274876 2.0532276e-38
0.11974724 0.036815975 0.032812357 2.0254606e-38
0.12103873 0.13447721 0.027549028 1.7497378e-38
0.11975569 0.13721235 0.028325438 1.4736551e-38
0.11979171 0.14000827 0.029418528 1.5475223e-38
0.11607972 0.033971939 0.034810126 2.0162405e-38
0.11582543 0.036833908 0.033190191 2.0437918e-38
0.11583453 0.13724571 0.028814197 1.0314042e-38
0.11586137 0.14002624 0.029797137 1.2246177e-38
0.111723 0.037130475 0.033931375 1.9609597e-38
0.11124952 0.13458861 0.028991878 1.2799691e-38
0.11210693 0.13696085 0.02973038 1.2340168e-38
0.10824938 0.038308486 0.034354568 1.8780547e-38
0.1066799 0.040153973 0.034418523 1.7767464e-38
0.10668346 0.1294674 0.030514002 8.3854821e-39
0.10799199 0.13318232 0.030211329 1.1880608e-38
0.10931081 0.13611206 0.030615389 1.3814545e-38
0.10407037 0.038847458 0.03573823 1.8873844e-38
0.1036274 0.041042183 0.034671068 1.8136961e-38
0.10504855 0.12588212 0.031009674 5.5266875e-39
0.10493791 0.12859954 0.030723751 5.0649919e-39
0.10032579 0.041869856 0.035237968 1.8414979e-38
0.099810854 0.044450056 0.034123421 1.684444e-38
0.096472226 0.042300433 0.036106825 1.9335162e-38
0.096214257 0.045452215 0.035065711 1.9056429e-38
0.095781095 0.048949797 0.03438288 1.9150722e-38
0.094912335 0.052009668 0.033986151 1.8414933e-38
0.09227936 0.042516831 0.036702514 2.0163131e-38
0.092287265 0.045471456 0.035779238 2.0532987e-38
0.092294268 0.049404517 0.034921348 2.0716645e-38
0.093606025 0.05201564 0.034111977 1.8782282e-38
0.089004077 0.042860486 0.037002444 1.9887261e-38
0.088354304 0.04549095 0.03660506 2.0440437e-38
0.088565364 0.049043432 0.034883499 2.0897819e-38
0.087719657 0.11829752 0.032037079 1.3255272e-38
0.084433049 0.045507595 0.036647677 1.9425576e-38
0.08331877 0.048949286 0.035250902 1.8965674e-38
0.084200524 0.11865264 0.031857133 1.4266548e-38
0.084438346 0.12033695 0.032760024 1.4269075e-38
0.080665499 0.045689724 0.03717041 1.9054981e-38
0.079449371 0.049459849 0.035767853 1.8411415e-38
0.079861484 0.11904508 0.033263266 1.5555855e-38
0.080160826 0.12079751 0.034156919 1.5464744e-38
0.076558024 0.046204172 0.038045526 1.9606361e-38
0.076166473 0.049479336 0.036586821 1.8962784e-38
0.07659094 0.11906003 0.033578336 1.9882561e-38
0.076558024 0.12048531 0.034519553 1.7286379e-38
0.073501095 0.046437271 0.038329601 1.9975508e-38
0.072216928 0.049503993 0.037637472 1.951632e-38
0.070092268 0.052123167 0.036377251 1.9518115e-38
0.068276048 0.049524993 0.038352251 1.9701418e-38
0.067199498 0.052666109 0.037033081 1.9333715e-38
0.063734487 0.049546145 0.038823247 1.9426278e-38
0.06356068 0.05280849 0.036975443 1.8872742e-38
0.062907517 0.056088738 0.036882758 1.8964222e-38
0.059799731 0.050354112 0.039265454 1.8687632e-38
0.059631802 0.052828684 0.037521482 1.8136619e-38
0.05863224 0.1217116 0.034683526 2.1736904e-38
0.055659167 0.052858636 0.038741767 1.7585605e-38
0.057029083 0.11903906 0.034462273 1.8323543e-38
0.055891573 0.12207381 0.034715474 2.1181246e-38
0.05559624 0.1245253 0.0363518 2.1731899e-38
0.051700376 0.054197513 0.039563298 1.6661118e-38
0.051459506 0.056473583 0.03822124 1.5918539e-38
0.052037865 0.12251669 0.035181463 1.8874593e-38
0.051665902 0.12454328 0.036730468 2.0441884e-38
0.047747687 0.054221321 0.04027915 1.574132e-38
0.047818072 0.057486676 0.039167404 1.5275315e-38
0.047859326 0.060098533 0.038480699 1.6387765e-38
0.049191162 0.12300763 0.035030723 1.620628e-38
0.047860593 0.12436396 0.035430074 1.4919476e-38
0.045115352 0.054893576 0.040668964 1.4726796e-38
0.044003606 0.05790044 0.040489972 1.564696e-38
0.04354649 0.061247796 0.03908211 1.7123531e-38
0.043965876 0.06404078 0.038334191 1.6478878e-38
0.043859407 0.12581372 0.036753416 1.2981576e-38
0.040748313 0.058419436 0.040923297 1.5925365e-38
0.039797388 0.061299451 0.039872646 1.7400481e-38
0.038740613 0.064064682 0.038837612 1.6567129e-38
0.038740613 0.12239996 0.036068618 1.2060331e-38
0.039972939 0.12540011 0.036669374 1.2795747e-38
0.036020651 0.062142864 0.040364861 1.6938443e-38
0.035741352 0.065206394 0.039216757 1.5738116e-38
0.034821637 0.068015315 0.039028466 1.4171144e-38
0.035257064 0.11870165 0.036580503 9.9319341e-39
0.036025435 0.12188469 0.037472785 1.1870574e-38
0.033324331 0.062835753 0.041430414 1.6935578e-38
0.032121591 0.065434031 0.040305734 1.5278926e-38
0.031740464 0.068915732 0.039618552 1.3620831e-38
0.030902676 0.072621405 0.039188206 1.2791792e-38
0.031984381 0.11807533 0.03755486 1.3065868e-38
0.032499291 0.12150678 0.038222313 1.3992841e-38
0.028345898 0.066276774 0.041747808 1.3990338e-38
0.028152198 0.06940712 0.040947437 1.3530426e-38
0.028186969 0.073333099 0.040422499 1.3254201e-38
0.028220847 0.077910632 0.039866686 1.2885417e-38
0.027837105 0.082039453 0.039204836 1.2977613e-38
0.027937204 0.11493783 0.037717342 1.4086102e-38
0.028285831 0.11787207 0.038927436 1.4822243e-38
0.025463678 0.069445252 0.04187578 1.3347479e-38
0.025463678 0.073389389 0.041688561 1.3531513e-38
0.024684921 0.078303821 0.041153312 1.3713386e-38
0.024285883 0.082527265 0.040139258 1.3805929e-38
0.023391344 0.086092532 0.039274037 1.3530052e-38
0.023500197 0.11088999 0.038086474 9.2073226e-39
0.024167016 0.11414884 0.038244605 1.1695159e-38
0.024153568 0.11678082 0.039755404 1.4272662e-38
0.021533355 0.078666195 0.041817486 1.4359828e-38
0.020429425 0.082757808 0.041352749 1.3899559e-38
0.02041357 0.086454406 0.039879739 1.3989966e-38
0.019145809 0.089061484 0.039543033 1.3532603e-38
0.019145809 0.10741415 0.038671911 8.6566376e-39
0.020217068 0.11025633 0.039062262 9.7604796e-39
0.020312041 0.11408985 0.039471745 1.1419642e-38
0.01891312 0.11746214 0.040228963 1.4089706e-38
0.017126247 0.086812034 0.041454077 1.3530452e-38
0.0166054 0.090599522 0.040469706 1.2702127e-38
0.015431397 0.094068155 0.040669858 1.1229141e-38
0.015104823 0.097679868 0.040529966 8.8320661e-39
0.015880011 0.10349637 0.039173186 6.4418041e-39
0.016492717 0.10614627 0.039323568 7.3641261e-39
0.016531259 0.11001758 0.040183783 9.0236306e-39
0.017305031 0.11382881 0.040305197 1.197245e-38
0.013198182 0.094713695 0.041458368 1.0767439e-38
0.012825944 0.098557092 0.040995717 8.3732446e-39
0.012445599 0.10231563 0.040902019 6.6258114e-39
0.012840554 0.1060656 0.041021049 6.3485182e-39
0.0097423345 0.10632904 0.041642904 6.8998717e-39
0.0014449582 0.098916955 0.042795956 8.7434298e-39
0.14131898 0.085805707 0.0066310167 1.3625524e-38
0.14099556 0.087283745 0.0064718127 1.4086491e-38
0.13660671 0.077831432 0.008407414 1.4454911e-38
0.12646049 0.084392965 0.0095481277 1.1140176e-38
0.089602724 0.1001588 0.013145626 1.3809907e-38
0.13344187 0.072853029 0.010192752 1.6112263e-38
0.1008713 0.089392744 0.009978652 1.5283241e-38
0.071344562 0.084610909 0.027146161 1.5372908e-38
0.068080179 0.087971143 0.021794915 2.1828795e-38
0.043965876 0.06404078 0.038334191 1.6478878e-38
0.15996924 0.035938807 0.032993436 2.1463242e-38
0.1593546 0.13760909 0.028729677 2.2390223e-38
0.15513888 0.030331127 0.034983158 1.8330703e-38
0.15562187 0.032529213 0.033474445 2.0080994e-38
0.15571499 0.13858178 0.0287835 2.2662485e-38
0.1513329 0.02952658 0.035137355 1.768247e-38
0.15204161 0.032024238 0.033441782 1.8421835e-38
0.15142974 0.13838276 0.029055774 2.2013169e-38
0.15153494 0.14042656 0.030356705 2.2478464e-38
0.14758188 0.026725039 0.036135435 1.5013138e-38
0.14754714 0.028718162 0.035541356 1.7686079e-38
0.14747815 0.13858472 0.029327214 2.1181254e-38
0.14758188 0.14044464 0.030737579 2.20103e-38
0.14428763 0.026740104 0.03645283 1.5200383e-38
0.1435969 0.028736226 0.035921872 1.6763414e-38
0.14337792 0.14127499 0.030601203 2.1551808e-38
0.13944651 0.029042076 0.036092639 1.7681049e-38
0.13997513 0.14140072 0.030923784 2.1642214e-38
0.13570952 0.029098131 0.036917746 1.8690873e-38
0.13536794 0.14142179 0.03136766 2.1184099e-38
0.13173029 0.030117549 0.03666693 1.9794699e-38
0.13173217 0.14119783 0.031427622 2.1004406e-38
0.12804717 0.030266047 0.037048995 2.1638587e-38
0.12773439 0.032135386 0.03578347 2.1455637e-38
0.12777542 0.14171477 0.031583905 2.1460676e-38
0.12381688 0.030823413 0.03689456 2.1637528e-38
0.12379268 0.032153413 0.036163211 2.1453497e-38
0.12349071 0.14136904 0.0317626 2.0726709e-38
0.11988062 0.030835733 0.037609279 2.1820483e-38
0.11985098 0.032171436 0.036542952 2.1269832e-38
0.11988062 0.14175087 0.03234446 1.7040054e-38
0.11660311 0.030842192 0.038428247 2.1633227e-38
0.11547866 0.032625888 0.037278831 2.0991427e-38
0.11592954 0.14240597 0.032527268 1.2799351e-38
0.11595718 0.14455622 0.03359592 1.5103561e-38
0.11332179 0.030848671 0.039247692 2.1636446e-38
0.1119836 0.03351289 0.038132966 2.0624444e-38
0.11131061 0.13901025 0.0322963 1.3812057e-38
0.11198339 0.14177175 0.03299427 1.3997149e-38
0.11174056 0.14510442 0.033977091 1.7775384e-38
0.1080486 0.034180474 0.039431095 2.0440779e-38
0.10770681 0.036505062 0.038264155 1.9610317e-38
0.10736889 0.13507274 0.032863736 1.1788404e-38
0.10786767 0.13794154 0.033182323 1.2891168e-38
0.1080464 0.14190058 0.034150541 1.4270155e-38
0.10821392 0.14573033 0.034162164 1.898108e-38
0.10870986 0.14855631 0.034105837 1.6667171e-38
0.10497639 0.034413014 0.039884329 2.0902124e-38
0.10409039 0.036849182 0.03884846 1.9702507e-38
0.10365869 0.11904758 0.035994232 6.2620735e-39
0.10392163 0.12209624 0.034063995 6.999647e-39
0.10329818 0.12564525 0.034106612 6.8141669e-39
0.10364617 0.13025521 0.033451855 6.0758914e-39
0.10408546 0.13379884 0.03346473 6.6243989e-39
0.10409388 0.13792314 0.034497499 8.191747e-39
0.10426265 0.14179976 0.034855962 1.4453104e-38
0.10541561 0.14526558 0.034580112 2.1279826e-38
0.10014375 0.037523877 0.03964448 2.0163833e-38
0.099485472 0.040175661 0.038129389 1.9245828e-38
0.10014483 0.11950442 0.036311805 6.9045521e-39
0.10014366 0.12209809 0.035741806 7.0885958e-39
0.10014332 0.12604898 0.035442531 7.3633722e-39
0.10030732 0.1298075 0.03492707 7.3630485e-39
0.10080215 0.13398127 0.03505832 8.4672339e-39
0.10093545 0.13827777 0.035344422 1.3259572e-38
0.10102329 0.14109832 0.035202026 1.8145613e-38
0.096381009 0.037917163 0.040260673 2.0714504e-38
0.095869526 0.040519956 0.038965106 1.9701793e-38
0.095664673 0.11873153 0.036781132 7.733968e-39
0.096379995 0.12178849 0.036566973 8.1009513e-39
0.097509451 0.12678924 0.036220491 8.558705e-39
0.092504248 0.038349994 0.040700614 2.0899244e-38
0.092252918 0.0407339 0.03940475 2.0347158e-38
0.092410222 0.1183147 0.036486506 1.0034553e-38
0.092238672 0.12180741 0.036965907 1.0312929e-38
0.08828558 0.038897078 0.041283071 2.0529065e-38
0.088117734 0.041167039 0.039898396 2.0345721e-38
0.089188583 0.11893099 0.035720646 1.2704975e-38
0.088134751 0.12193993 0.036475837 1.2704997e-38
0.084332496 0.038915154 0.041663885 1.9976954e-38
0.084361024 0.041561265 0.040194511 1.9608522e-38
0.084354319 0.12248486 0.036689341 1.4637857e-38
0.083673641 0.12486903 0.037647545 1.5282881e-38
0.081038252 0.038930219 0.04198122 1.9515643e-38
0.080406643 0.041578315 0.04091078 1.914645e-38
0.079119973 0.044224337 0.039903581 1.9237586e-38
0.080675252 0.12289327 0.036823928 1.5652355e-38
0.080121689 0.12539059 0.037764668 1.6482518e-38
0.076440752 0.04159607 0.04185164 1.9698198e-38
0.076492161 0.044236355 0.040156782 1.9791114e-38
0.076475471 0.1222515 0.036958158 1.5649844e-38
0.076442793 0.12550424 0.03781271 1.6759827e-38
0.072489791 0.041991737 0.042230427 2.0621945e-38
0.072112486 0.045135394 0.040537 2.0346802e-38
0.072550453 0.11940977 0.036969125 2.3203743e-38
0.072520219 0.12213621 0.037624955 1.8409947e-38
0.07248611 0.12620316 0.038329184 1.6114097e-38
0.068542287 0.042293128 0.042525172 2.0163488e-38
0.068598486 0.045591615 0.04107815 1.9976945e-38
0.069922656 0.11942178 0.037222266 2.3118067e-38
0.068745829 0.12257228 0.03833586 2.0994638e-38
0.068529792 0.12623438 0.038821578 1.5559109e-38
0.064575076 0.0423113 0.043242812 1.8226302e-38
0.06463372 0.045611039 0.041907072 1.9240103e-38
0.065980941 0.048239969 0.04098165 1.9700714e-38
0.064578377 0.12625244 0.039202213 1.5556204e-38
0.065884762 0.12891734 0.039173007 1.6395328e-38
0.06061399 0.041668262 0.043823421 1.7951162e-38
0.060681835 0.045629755 0.042399526 1.8966737e-38
0.060068376 0.048267003 0.041551232 1.9889393e-38
0.05995512 0.12365517 0.039995313 2.0902799e-38
0.060624734 0.12547974 0.03964293 1.9061417e-38
0.057539344 0.042563867 0.044077694 1.7676021e-38
0.056687951 0.045650817 0.043566346 1.8229182e-38
0.056596369 0.04943946 0.042207956 1.8321361e-38
0.056856766 0.12641929 0.039660394 2.2008822e-38
0.053037226 0.046661608 0.044317901 1.6571087e-38
0.052767001 0.049628921 0.043309152 1.6660769e-38
0.052184962 0.0522586 0.04212296 1.6755819e-38
0.052953519 0.12660684 0.039669216 2.0996126e-38
0.052048959 0.12898061 0.040505886 2.0258209e-38
0.048955567 0.049815286 0.044059455 1.6016832e-38
0.048900194 0.052273616 0.042439401 1.6201569e-38
0.049101852 0.12929372 0.040524185 1.7771774e-38
0.045080483 0.050464313 0.044704556 1.454426e-38
0.044493742 0.053177245 0.043157279 1.4453099e-38
0.043644577 0.056253202 0.042757988 1.4630645e-38
0.045267835 0.12714645 0.03948766 1.4455251e-38
0.044569843 0.12949423 0.040801406 1.3994276e-38
0.040913552 0.053646289 0.044374704 1.3898503e-38
0.040666811 0.056601219 0.043280482 1.4909781e-38
0.041673742 0.12746206 0.039568245 1.2888668e-38
0.041548505 0.12896675 0.041017532 1.3070551e-38
0.038213149 0.054993905 0.045353711 1.4725744e-38
0.037149742 0.057786509 0.04431808 1.5922877e-38
0.035761155 0.060244799 0.043329656 1.7036023e-38
0.038388975 0.12747708 0.039884686 1.2976908e-38
0.033852033 0.058532406 0.045271635 1.656932e-38
0.032286949 0.061330378 0.04421711 1.7122477e-38
0.029039249 0.062294632 0.045390129 1.6109379e-38
0.027877755 0.064675897 0.043880522 1.4172941e-38
0.027774662 0.12104535 0.042220592 1.5281434e-38
0.026353896 0.06298206 0.04611963 1.5279275e-38
0.024782367 0.065407127 0.045006752 1.362442e-38
0.02360756 0.069859609 0.044046819 1.3163805e-38
0.023279078 0.073487028 0.043906331 1.343895e-38
0.022950597 0.077444077 0.043750226 1.3898838e-38
0.024250112 0.11912838 0.042220891 1.4914439e-38
0.025143057 0.12105739 0.042474091 1.5282522e-38
0.021289557 0.065802515 0.046097517 1.2518781e-38
0.021016896 0.069419421 0.045449376 1.2609923e-38
0.020575285 0.07352861 0.044835985 1.3438592e-38
0.020127602 0.07834129 0.04409194 1.3992481e-38
0.018680416 0.081419155 0.043973863 1.3624412e-38
0.020594046 0.11838309 0.042537451 1.4089344e-38
0.018008485 0.06654641 0.046756208 1.215037e-38
0.01752314 0.06981723 0.0465042 1.1964197e-38
0.017155893 0.073592737 0.046280622 1.2426964e-38
0.016949289 0.077931672 0.045614123 1.3256005e-38
0.016689539 0.082755983 0.044270277 1.3899582e-38
0.015067182 0.086380109 0.044087231 1.3899229e-38
0.014738716 0.089348271 0.043978035 1.2976209e-38
0.014738716 0.11176304 0.042914093 1.0861417e-38
0.016052611 0.11505331 0.04263109 1.2893329e-38
0.014494643 0.07493718 0.046697199 1.2151804e-38
0.013452679 0.07850688 0.046527863 1.2796827e-38
0.013272934 0.082832038 0.045658231 1.3993933e-38
0.011985101 0.086786687 0.045371354 1.4452032e-38
0.012068972 0.090701215 0.044506848 1.3253854e-38
0.011125468 0.094309226 0.044091463 1.1687953e-38
0.010797001 0.097936645 0.043950975 8.9260568e-39
0.011234947 0.1069445 0.043481112 6.6229457e-39
0.012486607 0.11004393 0.044420063 8.0994953e-39
0.014494643 0.11328448 0.044876993 1.2250471e-38
0.0093885586 0.083059743 0.046804726 1.4270517e-38
0.0082021654 0.086969033 0.045727909 1.44513e-38
0.0080520883 0.090758309 0.045450747 1.2793589e-38
0.0080664605 0.094710395 0.045149982 1.1873775e-38
0.0080808848 0.098661646 0.044849455 8.7434508e-39
0.0081397444 0.10258222 0.044210494 7.637071e-39
0.0079718381 0.10654324 0.044066608 7.5437964e-39
0.0082486123 0.10981788 0.045041144 8.1905965e-39
0.0056001842 0.083903514 0.047130406 1.3625524e-38
0.0049332306 0.086674385 0.046775997 1.3624047e-38
0.0040902719 0.090784043 0.045943916 1.2424426e-38
0.0041663125 0.094703056 0.045191705 1.1411707e-38
0.004227452 0.098625943 0.044552565 9.2040618e-39
0.0042274818 0.10258149 0.04436475 8.5604749e-39
0.0041817427 0.10656834 0.044515252 8.4668443e-39
0.0044687614 0.11048546 0.045419157 8.7434536e-39
0.0026353747 0.084247649 0.047400355 1.2611693e-38
0.0014824048 0.087062865 0.047378123 1.1409905e-38
0.00075348467 0.090821519 0.046599627 9.6589247e-39
0.00087159872 0.094722241 0.045564771 9.8443964e-39
0.00072374195 0.098202467 0.044911027 9.0185818e-39
0.00094272941 0.10259652 0.044681311 8.1942161e-39
0.00084778666 0.10661374 0.045170307 7.9169033e-39
0.00094927847 0.11065386 0.045806885 8.3771766e-39
0 0.11335076 0.04627341 8.7456102e-39
0.14190748 0.081307337 0.0066015124 1.5375432e-38
0.13304758 0.080772743 0.0048001409 1.5280728e-38
0.14215825 0.091143772 0.0068031549 1.4548184e-38
0.056924708 0.099731416 0.016279161 1.1874509e-38
0.1383979 0.11370006 0.010766804 1.5193925e-38
0.070766717 0.072462603 0.027510047 1.5741329e-38
0.1583773 0.026607387 0.038115978 1.3449353e-38
0.15518539 0.025829706 0.038259923 1.4000021e-38
0.15591401 0.028497986 0.037258327 1.6577923e-38
0.15528941 0.14127465 0.032971323 2.2670403e-38
0.1517272 0.025320098 0.038372099 1.418336e-38
0.15300673 0.027980831 0.037563622 1.6575755e-38
0.150437 0.1421822 0.033396721 2.2572106e-38
0.14774683 0.025176901 0.038581729 1.3722034e-38
0.14772078 0.14205186 0.032659411 2.2199007e-38
0.14360371 0.024977773 0.039188802 1.3718429e-38
0.14378726 0.14280523 0.033506334 2.173657e-38
0.1398209 0.0260396 0.039431751 1.5284657e-38
0.13984993 0.14355865 0.034353673 2.2102824e-38
0.13648814 0.026730239 0.039217889 1.6665809e-38
0.13585263 0.028048843 0.039719522 1.7864703e-38
0.13586169 0.14352864 0.034404814 2.2104616e-38
0.13189469 0.028063465 0.0402686 1.8783431e-38
0.13190964 0.14359495 0.035118639 2.1648703e-38
0.12757789 0.028423432 0.040249288 2.1637513e-38
0.12793949 0.1436131 0.035501122 2.1919873e-38
0.12421282 0.028899837 0.040702462 2.1729717e-38
0.12393401 0.14348674 0.034888029 2.2013494e-38
0.12396935 0.14495929 0.035820484 2.2660662e-38
0.12132258 0.029432885 0.041559696 2.218926e-38
0.11996955 0.14350487 0.035269976 1.8703136e-38
0.11911694 0.14542416 0.036267042 1.8155341e-38
0.11468361 0.030808326 0.041129649 2.1636446e-38
0.11601275 0.14688841 0.035826623 1.6855622e-38
0.11602904 0.14964369 0.036364853 1.2787469e-38
0.11137988 0.030823432 0.041447937 2.1637172e-38
0.11238061 0.14726162 0.036327243 1.7876209e-38
0.11205342 0.14961079 0.036414981 1.269488e-38
0.10807616 0.032164663 0.041703284 2.1268036e-38
0.10939766 0.15018384 0.035973728 8.4492258e-39
0.10367204 0.033066362 0.042253315 2.1453865e-38
0.10279021 0.11838704 0.038120985 4.9742046e-39
0.10014763 0.033521999 0.04273963 2.1636802e-38
0.099816874 0.1180691 0.038423181 6.8098425e-39
0.098825753 0.13166642 0.037873447 8.8364045e-39
0.098825507 0.13436247 0.038080752 1.0221057e-38
0.099155955 0.13799781 0.037792444 1.5563052e-38
