# .PCD v0.7 - Point Cloud Data file format
VERSION 0.7
FIELDS x y z rgb
SIZE 4 4 4 4
TYPE F F F F
COUNT 1 1 1 1
WIDTH 980
HEIGHT 1
VIEWPOINT 0 0 0 0 1 0 0
POINTS 980
DATA ascii
0.14272049 0.043559581 0.02398926 1.6294866e-38
0.1430077 0.046692342 0.02155757 1.5649858e-38
0.14303184 0.050080717 0.020303071 1.5097405e-38
0.14303181 0.062740847 0.016044497 1.2981583e-38
0.14287624 0.065861598 0.014971554 1.3164898e-38
0.14303184 0.069890037 0.013639629 1.2706062e-38
0.14272089 0.074608654 0.013545334 1.2523137e-38
0.14238562 0.078788549 0.013746738 1.2523481e-38
0.1426357 0.081672519 0.012813926 1.2800057e-38
0.13888443 0.041046381 0.025920033 1.6755488e-38
0.13873217 0.043759897 0.024511099 1.6111555e-38
0.1391495 0.046711013 0.021567941 1.5374713e-38
0.13929752 0.050657123 0.019552171 1.4915177e-38
0.13894187 0.054981753 0.018044531 1.4360221e-38
0.13914192 0.05854407 0.016876101 1.4086131e-38
0.13929752 0.061976761 0.015744627 1.3258181e-38
0.13929752 0.06555137 0.014542222 1.3256345e-38
0.139422 0.069369912 0.013276339 1.3163803e-38
0.13892309 0.073901176 0.012937069 1.2797545e-38
0.13881804 0.078429133 0.013202369 1.2798987e-38
0.13488306 0.043738753 0.024417698 1.5927523e-38
0.13493301 0.047254518 0.023005784 1.5098496e-38
0.13527857 0.050917327 0.020197272 1.4638599e-38
0.13546184 0.054814413 0.01805532 1.4084697e-38
0.13553782 0.058273107 0.016548097 1.4086132e-38
0.13556322 0.061808467 0.015244305 1.3902471e-38
0.13556322 0.065383092 0.014041901 1.3718775e-38
0.13548702 0.069081455 0.013141632 1.3535108e-38
0.13522266 0.073695496 0.012793362 1.3441473e-38
0.13550827 0.077880144 0.013026655 1.3442934e-38
0.1313104 0.043919742 0.023823977 1.5742777e-38
0.13148904 0.047347665 0.022697568 1.4820476e-38
0.13115098 0.051321104 0.021221876 1.3901401e-38
0.13138975 0.055151016 0.018874049 1.307414e-38
0.13159612 0.058420196 0.016857922 1.3350008e-38
0.13175082 0.061760232 0.015047133 1.3809906e-38
0.13167357 0.065458983 0.014146686 1.3902097e-38
0.13141537 0.069449306 0.013949811 1.3536923e-38
0.13130848 0.073831439 0.013471663 1.399431e-38
0.12750554 0.051545575 0.020691395 1.2337306e-38
0.12753919 0.05513683 0.018778086 1.1602258e-38
0.12761852 0.05860649 0.017267704 1.1694447e-38
0.12772368 0.062031925 0.015657604 1.2523124e-38
0.12759146 0.06581834 0.014956117 1.2981951e-38
0.12743297 0.06965144 0.014353514 1.3073427e-38
0.12788068 0.073107675 0.013494432 1.3625533e-38
0.12362921 0.048019409 0.021299422 1.0406545e-38
0.12304568 0.051105201 0.020174503 9.7568811e-39
0.12308523 0.055056229 0.018496215 8.8363765e-39
0.12322846 0.058438957 0.016758204 8.286095e-39
0.12310505 0.062204957 0.016005754 9.0225783e-39
0.12300399 0.065945581 0.015176356 9.7594174e-39
0.12335135 0.069286078 0.014104426 1.0772845e-38
0.11894011 0.051398963 0.019463301 1.0951091e-38
0.1186275 0.054975733 0.01821357 9.755079e-39
0.11871062 0.058448583 0.016702652 7.3630485e-39
0.11878382 0.062014878 0.015869081 6.8130739e-39
0.11987793 0.06580469 0.014757454 6.9038696e-39
0.11550143 0.058724955 0.016486228 7.6471758e-39
0.11487623 0.061988398 0.015295267 5.0595955e-39
0.11237538 0.062474176 0.014758885 4.2334264e-39
0.14549448 0.056770757 0.018479168 1.3164901e-38
0.16119167 0.056513369 0.023602962 1.5376151e-38
0.1560521 0.054238141 0.020846367 1.6110123e-38
0.17964594 0.073453441 0.020587504 1.1784473e-38
0.17840421 0.074922502 0.017488599 1.0494469e-38
0.185553 0.041368768 0.037033737 1.8326791e-38
0.18459758 0.046062604 0.03318125 1.482403e-38
0.18585178 0.089459538 0.018770635 1.2246186e-38
0.18533412 0.091790825 0.018619657 1.390281e-38
0.18177909 0.040897653 0.036629379 2.0167436e-38
0.1820375 0.043057352 0.034165502 1.9705023e-38
0.18208918 0.046206832 0.032758713 1.8048351e-38
0.18083499 0.089713693 0.017937005 1.372168e-38
0.18196061 0.091906995 0.018255055 1.5195714e-38
0.17788835 0.039886445 0.036122799 2.0717742e-38
0.17830895 0.04281494 0.033454239 2.1176204e-38
0.17958079 0.045836508 0.032509089 2.0347875e-38
0.17832658 0.089600652 0.017601013 1.4457087e-38
0.17804906 0.092147946 0.017501891 1.5376891e-38
0.1767472 0.095159858 0.017626524 1.6389598e-38
0.17423126 0.03694497 0.036833346 2.0720968e-38
0.17441654 0.039294302 0.034886718 1.9981979e-38
0.17487754 0.041722715 0.033191442 2.0350037e-38
0.17581819 0.089487612 0.017264843 1.491841e-38
0.17450854 0.091967136 0.016590655 1.5931491e-38
0.17401294 0.0954355 0.016912937 1.7036398e-38
0.17038316 0.035288498 0.036496937 2.0625551e-38
0.17098056 0.038502812 0.033693433 1.9979833e-38
0.1720556 0.041295394 0.03291434 2.0072384e-38
0.17078012 0.091863304 0.015847564 1.5194297e-38
0.17048633 0.095410794 0.016430855 1.6116258e-38
0.16416749 0.03137368 0.037206471 1.9983051e-38
0.16621169 0.034793094 0.035428822 2.0442234e-38
0.1664117 0.091464818 0.015196919 1.4363444e-38
0.16614377 0.095077038 0.015540183 1.5101377e-38
0.16165155 0.031862393 0.03666687 2.0350044e-38
0.16194499 0.034371093 0.034179628 1.9796869e-38
0.16202199 0.037241548 0.032781661 1.961137e-38
0.16076781 0.088809341 0.015248477 1.3994686e-38
0.16186523 0.091410011 0.014537334 1.4362023e-38
0.16155124 0.095157713 0.01490438 1.5007375e-38
0.15790914 0.031038284 0.036208391 1.9061085e-38
0.15819563 0.034175143 0.033597589 1.9428084e-38
0.15794586 0.037357971 0.032134533 1.9240435e-38
0.15700521 0.088639766 0.014744401 1.4087221e-38
0.15825941 0.091097414 0.014104724 1.4362726e-38
0.15815395 0.095116347 0.014202297 1.5008432e-38
0.15385213 0.031029224 0.035784006 1.8691957e-38
0.15439855 0.034057975 0.033248246 1.8875272e-38
0.15481037 0.037216678 0.031714439 1.9057827e-38
0.1544968 0.088526756 0.01440835 1.4273035e-38
0.15429068 0.091171712 0.013754249 1.4364519e-38
0.15447325 0.09438929 0.013924599 1.464146e-38
0.15158778 0.030806765 0.03552115 1.8599385e-38
0.15053202 0.034045637 0.033208609 1.8599027e-38
0.1507342 0.036732852 0.031269372 1.8782338e-38
0.14948002 0.084698945 0.014947712 1.3536552e-38
0.15031615 0.087537944 0.01411742 1.3720944e-38
0.15046419 0.091294408 0.01429671 1.3995726e-38
0.1503298 0.093969345 0.01408726 1.3996098e-38
0.14682126 0.034131065 0.032917142 1.7953286e-38
0.14697161 0.080984205 0.015823185 1.307628e-38
0.14722246 0.084116995 0.014806807 1.3076281e-38
0.14690234 0.08711952 0.014104247 1.344437e-38
0.14710104 0.090852082 0.014441192 1.3903183e-38
0.14274178 0.034251094 0.032617092 1.7770003e-38
0.14216384 0.037146986 0.029851854 1.7676371e-38
0.14220566 0.084131002 0.014053881 1.3167752e-38
0.14301881 0.087169498 0.014100194 1.3719868e-38
0.13867435 0.034614757 0.032101214 1.7861463e-38
0.13831063 0.037451342 0.029814124 1.7768571e-38
0.13787869 0.04005532 0.028234482 1.6938819e-38
0.13693804 0.080532044 0.014478922 1.3350737e-38
0.1380692 0.08320716 0.014339745 1.3167049e-38
0.13854855 0.087216437 0.014388561 1.3720584e-38
0.13416155 0.034345627 0.031598628 1.7860381e-38
0.13425308 0.037447318 0.029399872 1.7033514e-38
0.13442963 0.040800318 0.027469516 1.666437e-38
0.13392794 0.079676032 0.01431793 1.3444013e-38
0.13422832 0.083167225 0.01413548 1.3351464e-38
0.13379647 0.086859345 0.014013231 1.3721302e-38
0.13083127 0.035290152 0.030917525 1.7492322e-38
0.13033119 0.037491024 0.029510558 1.6849834e-38
0.13066703 0.040630743 0.026965439 1.6572532e-38
0.13003993 0.043003619 0.026073754 1.6019355e-38
0.12941283 0.047177345 0.024576306 1.5188888e-38
0.13054161 0.078803092 0.014106512 1.3629107e-38
0.13053775 0.082867324 0.013330817 1.3626945e-38
0.13041492 0.086649328 0.013427317 1.3996095e-38
0.12682277 0.038040653 0.028755188 1.6849127e-38
0.12685177 0.040533155 0.026666045 1.6481784e-38
0.12690443 0.044062883 0.025249839 1.5743857e-38
0.12690443 0.047664583 0.024038315 1.4915879e-38
0.12627733 0.050037444 0.023146629 1.3163819e-38
0.12627733 0.074348897 0.014968872 1.3626612e-38
0.12701847 0.07812044 0.013810754 1.3995746e-38
0.12656423 0.082585335 0.013200045 1.4180846e-38
0.12672758 0.086081654 0.013007462 1.4547472e-38
0.12273505 0.038426846 0.028299749 1.5837866e-38
0.12284359 0.040688753 0.02708149 1.4821507e-38
0.12306041 0.044003189 0.025051773 1.3716967e-38
0.12314184 0.047344938 0.023584664 1.0953989e-38
0.12188764 0.049839616 0.02255851 8.5597504e-39
0.12314184 0.071506321 0.015457392 1.1419976e-38
0.12314184 0.073907465 0.014649749 1.224581e-38
0.12284294 0.07797569 0.014539123 1.3074856e-38
0.1237092 0.082093686 0.01389873 1.3905331e-38
0.11950952 0.038392454 0.028185487 1.4084323e-38
0.11893576 0.04069975 0.027086973 1.3531151e-38
0.11924031 0.043906987 0.024751186 1.2702471e-38
0.11937925 0.047325447 0.023030102 1.1135868e-38
0.11812505 0.050270349 0.021852493 1.1781599e-38
0.11812505 0.066477999 0.016400695 6.9953352e-39
0.11922246 0.070279211 0.015285671 7.8236679e-39
0.11915739 0.074073076 0.014946997 9.2029898e-39
0.11888054 0.07689777 0.01513952 1.0123496e-38
0.1163646 0.041863248 0.026548982 1.4083618e-38
0.11553836 0.044308469 0.025298893 1.3257061e-38
0.11536102 0.047490999 0.023440599 1.3257427e-38
0.11491211 0.050831631 0.021504223 1.1876663e-38
0.11431931 0.054960608 0.019884825 9.2062296e-39
0.11386077 0.058842301 0.018333137 6.7227182e-39
0.114676 0.06287092 0.017099619 5.7053138e-39
0.11498955 0.066336676 0.015980542 6.4435865e-39
0.11259067 0.048918232 0.023613036 9.7593894e-39
0.11196169 0.051298246 0.022718668 7.0889727e-39
0.11100027 0.055750638 0.020722389 5.5256099e-39
0.11087751 0.059434757 0.019109726 6.0784264e-39
0.11185405 0.061393112 0.017175853 4.9624042e-39
0.074851543 0.09177202 0.0035699606 1.4457464e-38
0.073593587 0.099542469 0.00076854229 2.0443297e-38
0.072260946 0.098860413 0 1.9893019e-38
0.1456773 0.049183071 0.023406923 1.5927528e-38
0.14931279 0.065580577 0.017547727 1.4454916e-38
0.14863795 0.061135888 0.019649267 1.3995014e-38
0.16333938 0.074155062 0.012984097 1.2616388e-38
0.15597209 0.070044324 0.018366933 1.2059984e-38
0.14856791 0.054001763 0.023742139 9.4842557e-39
0.18571846 0.064987332 0.022010148 9.9405479e-39
0.18525422 0.040209264 0.03951031 1.8048384e-38
0.18536523 0.09463793 0.021928787 1.417904e-38
0.18124524 0.032637239 0.042998552 1.9064666e-38
0.1814559 0.036441579 0.040300071 1.9246215e-38
0.18146899 0.039917901 0.039043844 1.9892299e-38
0.18146899 0.094992995 0.020517945 1.6208419e-38
0.18136604 0.097681582 0.020308554 1.7037462e-38
0.18052614 0.1012263 0.02041167 1.7403398e-38
0.17745142 0.032466277 0.042490244 1.9891569e-38
0.17767051 0.036270991 0.039792955 2.0811746e-38
0.17894551 0.03932105 0.038868189 2.0169601e-38
0.17894551 0.09487927 0.020179868 1.6118751e-38
0.17778121 0.097549975 0.019507468 1.7588119e-38
0.17790031 0.10114521 0.01983428 1.8693385e-38
0.17371389 0.032191306 0.041670203 2.0077772e-38
0.17389852 0.035319284 0.039461672 2.0719542e-38
0.17417285 0.098090023 0.018654406 1.8417163e-38
0.17319973 0.1009582 0.019054055 1.9157944e-38
0.16926306 0.029125094 0.042984903 1.8417156e-38
0.17001794 0.031848282 0.04064244 2.0074539e-38
0.17074418 0.035328075 0.038988233 2.0626267e-38
0.17011331 0.098104596 0.017777741 1.7774322e-38
0.16988435 0.10107234 0.018166065 1.8325329e-38
0.16533996 0.026040941 0.043437302 1.6850566e-38
0.1660521 0.028356344 0.042291105 1.8418241e-38
0.16626884 0.031608582 0.039927185 1.9707915e-38
0.16632807 0.097934008 0.017270625 1.5746387e-38
0.16620962 0.10062572 0.017057896 1.7036024e-38
0.16512904 0.10396472 0.017194271 1.7404441e-38
0.16119188 0.024911806 0.043198466 1.6391023e-38
0.16166626 0.028088942 0.041490197 1.8233135e-38
0.1616416 0.030604348 0.039219737 1.924838e-38
0.16254285 0.097763419 0.016763449 1.5559476e-38
0.16178912 0.1004265 0.016465664 1.6114795e-38
0.16154341 0.10339931 0.016849756 1.6392097e-38
0.15711412 0.025064528 0.042538941 1.7956545e-38
0.15728337 0.027821884 0.040689588 1.8601199e-38
0.15749587 0.02989988 0.038838327 1.8600837e-38
0.15623413 0.097479105 0.015918255 1.5377569e-38
0.157305 0.10036543 0.016172588 1.5378655e-38
0.15837963 0.10325673 0.016425848 1.5655615e-38
0.15395032 0.024921954 0.042115092 1.8143444e-38
0.15362316 0.027851745 0.040281713 1.8600481e-38
0.15402608 0.030045465 0.038271904 1.8324264e-38
0.15339521 0.097049236 0.015639484 1.4826566e-38
0.15354946 0.10030755 0.016297996 1.501095e-38
0.14962211 0.028203711 0.03983295 1.8506121e-38
0.1495074 0.030665606 0.037693918 1.8597941e-38
0.14982432 0.096795201 0.015725195 1.4733307e-38
0.14952102 0.099829018 0.016257703 1.5470863e-38
0.1458284 0.02803275 0.039324701 1.8230251e-38
0.14611688 0.030630052 0.037014127 1.8229516e-38
0.14487845 0.032954633 0.035929084 1.8044071e-38
0.14550932 0.09276852 0.015903354 1.4088646e-38
0.14602491 0.096042901 0.015470862 1.4641834e-38
0.14540809 0.099340826 0.015808582 1.5655274e-38
0.14192793 0.027754784 0.039369285 1.8136974e-38
0.1422126 0.030630574 0.037023664 1.7861825e-38
0.14298584 0.032869339 0.035675526 1.7862579e-38
0.1423073 0.092111975 0.015883505 1.3905323e-38
0.14214145 0.09605208 0.015362084 1.427377e-38
0.14222373 0.099295139 0.015136003 1.5102086e-38
0.13939691 0.027900279 0.038942814 1.8229881e-38
0.13835055 0.030562058 0.036825955 1.8229525e-38
0.1382543 0.032958046 0.034940064 1.8045856e-38
0.13730799 0.088775575 0.016023338 1.3813145e-38
0.13842361 0.092119545 0.015775263 1.408899e-38
0.13832599 0.095926344 0.014953792 1.4456728e-38
0.13813138 0.09871003 0.014935553 1.4731862e-38
0.13410017 0.030480698 0.036219478 1.813554e-38
0.13411552 0.032925859 0.034511268 1.8228085e-38
0.13415363 0.089237303 0.015397608 1.3998237e-38
0.13400342 0.091920197 0.015183151 1.4089358e-38
0.13444772 0.095611364 0.014895737 1.4181194e-38
0.13560036 0.098595977 0.014596462 1.4639994e-38
0.12977165 0.030388489 0.036315262 1.7398316e-38
0.12951821 0.033840761 0.033766568 1.7584164e-38
0.12910666 0.089009851 0.014721453 1.418014e-38
0.12947893 0.091898859 0.014989138 1.4180493e-38
0.1305383 0.094733655 0.015140712 1.3814582e-38
0.126109 0.031541348 0.035736382 1.8689425e-38
0.12571394 0.034225836 0.03370893 1.7582725e-38
0.12563688 0.037220582 0.031624556 1.721861e-38
0.12563688 0.088551551 0.014358163 1.4363803e-38
0.12579277 0.091517121 0.014906108 1.4456367e-38
0.12184215 0.034765586 0.033305168 1.6481408e-38
0.12204522 0.037525281 0.031519234 1.6390656e-38
0.12141001 0.082865626 0.015640438 1.2891897e-38
0.1218971 0.087296069 0.014900804 1.2708589e-38
0.12205651 0.090917915 0.014892936 1.2522408e-38
0.1182614 0.035648584 0.032918096 1.48201e-38
0.11798733 0.037719309 0.031229377 1.4360194e-38
0.11834595 0.079264045 0.016547203 1.0122801e-38
0.1181325 0.082874179 0.016214252 1.1047278e-38
0.11827457 0.086867988 0.015484035 1.0771781e-38
0.11788315 0.089721531 0.014939308 1.0682817e-38
0.11535212 0.035902172 0.032665312 1.4357668e-38
0.11449909 0.038106039 0.030731261 1.2979423e-38
0.11440678 0.041134566 0.028766453 1.2426995e-38
0.11333486 0.044214845 0.02743721 1.1591811e-38
0.11459661 0.076278061 0.01684016 9.5749897e-39
0.11515003 0.078790963 0.016929865 1.0674889e-38
0.11535212 0.083146691 0.016773462 1.1232018e-38
0.11155558 0.039365262 0.030934215 1.0673444e-38
0.11118221 0.041434214 0.029117107 9.5681668e-39
0.11054945 0.045035079 0.027811527 7.5406154e-39
0.11084726 0.048561826 0.026314378 7.7318464e-39
0.10989681 0.051879853 0.024985492 5.801506e-39
0.10954964 0.054914355 0.023273647 5.9880342e-39
0.10775903 0.057365134 0.024313331 7.1808054e-39
0.10775903 0.058576539 0.023905814 7.3655456e-39
0.084979773 0.08662352 0.011074364 2.007164e-38
0.084979773 0.089853913 0.0099877119 2.1545344e-38
0.082161784 0.085777909 0.010465026 1.979292e-38
0.082787156 0.089629143 0.0089905858 1.9796156e-38
0.082718357 0.093420565 0.0075036287 2.1731913e-38
0.081917316 0.097247988 0.006688714 2.2474144e-38
0.081815973 0.099806339 0.0061681867 2.024774e-38
0.078335807 0.08238706 0.011508524 2.062411e-38
0.079011291 0.085277051 0.0093940496 1.9423405e-38
0.078636944 0.089150965 0.0071472526 1.6290183e-38
0.078636914 0.092774332 0.0059284568 1.6847713e-38
0.078501344 0.09670341 0.0056521297 2.0629884e-38
0.078652173 0.099663764 0.0057442784 2.3377726e-38
0.075108737 0.08205992 0.011137307 1.8688724e-38
0.07470569 0.085217059 0.0088077784 1.767348e-38
0.074220836 0.088951975 0.0065556169 1.5372548e-38
0.074220836 0.092575341 0.0053367615 1.4364896e-38
0.074379146 0.096453518 0.004375577 1.7308689e-38
0.074459642 0.10006401 0.0041852593 2.0069842e-38
0.072324604 0.082419008 0.010601342 1.5737371e-38
0.070399731 0.088825166 0.006146729 1.6201598e-38
0.070435613 0.092404753 0.0048296452 1.6019011e-38
0.070364058 0.096118093 0.0038067102 1.7771452e-38
0.069804743 0.09901914 0.0025106072 1.9982285e-38
0.06641759 0.08880952 0.006611824 1.4638234e-38
0.066440821 0.092541575 0.005386591 1.4916988e-38
0.067063749 0.096156716 0.0037750602 1.8049457e-38
0.067912117 0.098329931 0.0024601817 1.9339089e-38
0.15724781 0.064363137 0.019230604 1.4914458e-38
0.15608189 0.060112357 0.019865394 1.4362358e-38
0.13896421 0.063334674 0.019318759 1.5007727e-38
0.16514425 0.064053595 0.022724807 1.4087569e-38
0.16371456 0.064008623 0.020825565 1.4270878e-38
0.17149538 0.065730765 0.021414757 1.3810253e-38
0.16155124 0.095157713 0.01490438 1.5007375e-38
0.12579277 0.091517121 0.014906108 1.4456367e-38
0.16311327 0.099830955 0.020641327 1.676268e-38
0.18053868 0.016995743 0.053008795 6.0780929e-39
0.18055612 0.019400597 0.052084088 6.5393961e-39
0.18144953 0.10294944 0.021461546 1.7681417e-38
0.18057793 0.10615516 0.022757292 1.9432774e-38
0.17671952 0.016823635 0.052497089 5.5227274e-39
0.17673716 0.019228488 0.051572382 6.2610057e-39
0.17684411 0.022687122 0.049714565 7.8233092e-39
0.17688023 0.026272252 0.048277199 1.0772133e-38
0.17705837 0.029581785 0.04600656 1.6301343e-38
0.17656794 0.10268152 0.020397484 1.9152925e-38
0.17679988 0.10618329 0.021917939 1.9896602e-38
0.17417341 0.016708851 0.052155912 6.441465e-39
0.17305946 0.019248247 0.051135719 8.0105675e-39
0.17291903 0.022711664 0.049831331 9.3920474e-39
0.17304844 0.026133522 0.047870696 1.3628763e-38
0.17424436 0.10277903 0.02001822 1.9435254e-38
0.17301187 0.1065509 0.021051824 1.9984471e-38
0.17162728 0.10920921 0.020661473 2.0809962e-38
0.16908117 0.020135254 0.050244033 1.2245446e-38
0.16915783 0.022441044 0.049006224 1.2984455e-38
0.16940737 0.025661692 0.046420872 1.6579363e-38
0.17023093 0.028390527 0.044441938 1.7867222e-38
0.16934897 0.10600695 0.019741356 1.9061101e-38
0.16908117 0.10909447 0.020320415 1.9799738e-38
0.16558026 0.019672796 0.049877405 1.2891165e-38
0.16545983 0.022072196 0.04786849 1.4093663e-38
0.16597608 0.024819136 0.045008719 1.6484303e-38
0.16609967 0.10593283 0.018453002 1.8048737e-38
0.16529191 0.10946131 0.01945436 1.8879207e-38
0.16144282 0.019791022 0.049220681 1.3903177e-38
0.16164653 0.021900296 0.0473575 1.4826566e-38
0.1624153 0.024196506 0.044687212 1.5655613e-38
0.16180949 0.10608453 0.018117309 1.6666887e-38
0.16144282 0.10935956 0.019092143 1.7402283e-38
0.15698712 0.019590199 0.048623621 1.3996109e-38
0.15728697 0.021561533 0.046318173 1.5930052e-38
0.15692322 0.02354461 0.04408741 1.6204851e-38
0.15715149 0.10542494 0.017431378 1.5838211e-38
0.15741146 0.10897478 0.018620312 1.6758006e-38
0.15253139 0.019389421 0.048026741 1.5835679e-38
0.15266243 0.02163054 0.046582043 1.6388505e-38
0.15253469 0.024197012 0.043639541 1.749666e-38
0.15185362 0.026955739 0.042183876 1.869267e-38
0.15185362 0.10217434 0.0168823 1.5101323e-38
0.15274936 0.10544854 0.017927289 1.5009519e-38
0.15316793 0.10837731 0.018188357 1.5469071e-38
0.14897223 0.02166681 0.046197057 1.7031362e-38
0.14891443 0.025011942 0.044530451 1.8139855e-38
0.14931881 0.026841521 0.041844368 1.8414638e-38
0.14931881 0.10206011 0.016542733 1.5562679e-38
0.14898074 0.10522112 0.018168926 1.5654879e-38
0.14463843 0.022202104 0.045903444 1.7768923e-38
0.14516997 0.024739668 0.043708384 1.8230251e-38
0.1455166 0.026670158 0.041334927 1.8322431e-38
0.14560306 0.10174584 0.016946673 1.5930409e-38
0.14503162 0.10407153 0.017712951 1.5286824e-38
0.14234693 0.022586286 0.045432508 1.8319934e-38
0.14131068 0.024633721 0.043405414 1.8781264e-38
0.14171441 0.026498795 0.040825486 1.8411768e-38
0.14107728 0.10202006 0.016925395 1.5286123e-38
0.14139214 0.10449541 0.017737985 1.5469784e-38
0.13737623 0.024628043 0.043412387 1.9057139e-38
0.13742377 0.027523652 0.040449739 1.8505396e-38
0.13769303 0.10135266 0.016112387 1.5193569e-38
0.13725469 0.10400432 0.017286181 1.5839283e-38
0.13380952 0.025475398 0.042921066 1.887454e-38
0.13375984 0.027839556 0.040845752 1.8413216e-38
0.1328426 0.097071379 0.015763581 1.4181557e-38
0.13344501 0.10123262 0.016851127 1.4732211e-38
0.12989049 0.028113171 0.041182876 1.7767834e-38
0.13021486 0.096512705 0.015985787 1.4089735e-38
0.12960522 0.10058865 0.016809821 1.4640737e-38
0.1308894 0.10371745 0.016433358 1.5379377e-38
0.12583621 0.028492138 0.040805936 1.7584163e-38
0.12539791 0.030541003 0.037945747 1.7675287e-38
0.12579373 0.095500946 0.016306043 1.4732955e-38
0.12574069 0.099947989 0.016613841 1.464146e-38
0.12261452 0.029008731 0.040329337 1.7122467e-38
0.12122683 0.030910298 0.038310707 1.6663643e-38
0.12143597 0.032864168 0.035660148 1.6665086e-38
0.12080228 0.092282563 0.015578806 1.2245813e-38
0.12141019 0.095675558 0.016659141 1.2982659e-38
0.12189004 0.099292427 0.016342938 1.3719874e-38
0.11769906 0.031404153 0.038577437 1.5465454e-38
0.11706901 0.03425391 0.036272824 1.491407e-38
0.11636639 0.088443041 0.016208768 1.0773583e-38
0.11718008 0.091962397 0.015998721 1.1602593e-38
0.1171383 0.095319808 0.016902983 9.6668434e-39
0.1181588 0.098269254 0.016367376 9.2991525e-39
0.11341697 0.035356194 0.036023378 1.3346035e-38
0.11256419 0.037317142 0.032839179 1.178051e-38
0.11249571 0.080668062 0.019845068 1.1504642e-38
0.112941 0.083833665 0.018313944 1.1691557e-38
0.11341676 0.087652206 0.017100334 1.1602233e-38
0.11349076 0.091285497 0.016244411 1.2431266e-38
0.1128847 0.095246166 0.016597807 9.9430099e-39
0.11179352 0.098591685 0.015309632 7.0882357e-39
0.11052045 0.03699404 0.035839617 1.1783737e-38
0.11001378 0.039242476 0.034474969 1.076744e-38
0.10849944 0.042929813 0.031410515 1.0025914e-38
0.10876198 0.048671231 0.028452873 7.5438721e-39
0.11064985 0.080674857 0.020633042 1.113693e-38
0.10940653 0.084622353 0.019652665 1.2148945e-38
0.10933366 0.087988168 0.018154323 1.2151084e-38
0.10933386 0.091642648 0.016925156 1.2796815e-38
0.10924739 0.095430434 0.015993357 1.1505353e-38
0.11052045 0.097925007 0.015344024 7.4544902e-39
0.1068335 0.047014311 0.031386435 9.4741817e-39
0.10658133 0.050265536 0.029988825 8.4657877e-39
0.10650578 0.053285688 0.027984917 8.009148e-39
0.10749458 0.055893332 0.02583456 6.6294449e-39
0.10670128 0.0855667 0.018931508 1.1964202e-38
0.1054282 0.087946594 0.017941177 1.2241142e-38
0.10542822 0.091602474 0.016711414 1.390172e-38
0.10638303 0.094996661 0.015712023 1.3809176e-38
0.10160905 0.087774485 0.017429471 1.2056394e-38
0.10160905 0.091430336 0.016199768 1.4085774e-38
0.10160904 0.095086187 0.014970005 1.7313663e-38
0.10160902 0.097523451 0.014150202 1.2425887e-38
0.097607985 0.087942362 0.016776323 1.1689741e-38
0.097789854 0.091258228 0.015688062 1.408472e-38
0.097944304 0.094690382 0.013964593 1.9340517e-38
0.098385289 0.097264677 0.012690842 1.4540635e-38
0.093811542 0.087575406 0.01633358 1.2055673e-38
0.0940651 0.090953529 0.014879823 1.4450991e-38
0.094222724 0.094385028 0.01315701 2.0353933e-38
0.088878453 0.084763497 0.016543627 1.3346422e-38
0.090151504 0.08725813 0.015894473 1.3163094e-38
0.089660704 0.090687215 0.014134943 1.6478935e-38
0.085549921 0.083577096 0.016209602 1.6570363e-38
0.08611232 0.086635411 0.014629662 1.7491611e-38
0.086058348 0.089853853 0.012127519 2.0532276e-38
0.084681362 0.10036036 0.0074747205 1.6477828e-38
0.079967037 0.08070603 0.016579449 1.8318174e-38
0.081828028 0.082666993 0.015025377 1.9059303e-38
0.083413959 0.085138202 0.012406051 2.0074904e-38
0.083413959 0.097876847 0.0081211925 2.2382275e-38
0.083413959 0.10030326 0.0073049068 1.7856452e-38
0.077180088 0.080177218 0.016075313 2.0068068e-38
0.078352332 0.08146596 0.013738871 2.0163135e-38
0.077524155 0.10299787 0.0083615184 1.9609559e-38
0.073810726 0.078947812 0.015542448 1.8598667e-38
0.074225307 0.080781192 0.012501299 1.7951153e-38
0.070100784 0.078998476 0.015149713 1.2877892e-38
0.070341229 0.08166185 0.012424946 1.2974374e-38
0.067236453 0.083788186 0.013644159 1.1865136e-38
0.066549182 0.086399019 0.012130618 1.3715172e-38
0.065670341 0.087371588 0.009008646 1.500987e-38
0.063745826 0.088098496 0.010608137 1.4360559e-38
0.16044314 0.05781506 0.022298515 1.5283588e-38
0.15766923 0.060808182 0.020512819 1.5283594e-38
0.160109 0.067822099 0.017299116 1.3902457e-38
0.15720496 0.057055712 0.021204829 1.5927172e-38
0.1685499 0.060613438 0.019630432 1.5191032e-38
0.15956214 0.078273356 0.018040061 1.5009539e-38
0.15912539 0.055402219 0.023830175 1.5561979e-38
0.15735358 0.061610162 0.023374796 1.4179044e-38
0.17694902 0.018124804 0.053361058 6.9982247e-39
0.18038365 0.10759327 0.023576498 2.016998e-38
0.18021636 0.11108807 0.024400473 2.192744e-38
0.1794342 0.11330006 0.023646414 2.2667917e-38
0.17650461 0.015372902 0.054373741 5.2471957e-39
0.17592134 0.1086126 0.022568166 2.0908964e-38
0.17646652 0.11094499 0.023691535 2.1833442e-38
0.17604057 0.11490387 0.023903072 2.248423e-38
0.17142728 0.010684758 0.059100509 6.4424921e-39
0.17214267 0.013044596 0.057939768 6.0751585e-39
0.17238674 0.015874609 0.054434419 7.0853742e-39
0.17145903 0.018100068 0.052348733 8.7420411e-39
0.17278934 0.11094269 0.022595942 2.1551102e-38
0.17217973 0.11416551 0.023694158 2.1920611e-38
0.16796456 0.010037646 0.05880177 7.1804299e-39
0.1682784 0.012902215 0.057529747 7.6410619e-39
0.16846932 0.016268313 0.055242062 8.8417603e-39
0.16879383 0.018786788 0.052430689 1.0683159e-38
0.16890913 0.11073744 0.020807683 2.0169969e-38
0.16842204 0.11377892 0.022731066 2.1272734e-38
0.16501483 0.010395765 0.058241367 7.8251099e-39
0.16443282 0.0127289 0.057014465 8.7456228e-39
0.16466972 0.016032338 0.054517984 1.0774622e-38
0.16475748 0.018404216 0.051673293 1.206393e-38
0.1650843 0.1117855 0.019884706 1.9706493e-38
0.16455126 0.11428908 0.022159755 2.0348617e-38
0.16052613 0.0132626 0.056607604 9.849811e-39
0.16079095 0.015922278 0.054213345 1.095688e-38
0.1610755 0.018537849 0.051718473 1.2799708e-38
0.16189694 0.11164185 0.019457698 1.7863615e-38
0.16043562 0.11368868 0.021481454 1.8048012e-38
0.15674102 0.013609931 0.055571139 1.0771762e-38
0.15688844 0.015843496 0.054013014 1.1418213e-38
0.15737163 0.018173739 0.050578296 1.2797926e-38
0.15743464 0.11083055 0.019065082 1.7035305e-38
0.1565741 0.11352715 0.021439433 1.749412e-38
0.15411368 0.01358743 0.055542052 1.1415702e-38
0.15316135 0.015897244 0.053690672 1.2061448e-38
0.15318936 0.018058404 0.049942672 1.390282e-38
0.15258984 0.10975793 0.018703341 1.5838568e-38
0.15328196 0.11304644 0.020897031 1.675943e-38
0.14927989 0.016502857 0.053627372 1.4085062e-38
0.14855349 0.018847898 0.05069387 1.5743846e-38
0.14723507 0.020669669 0.047871768 1.7031377e-38
0.14787254 0.10734856 0.018810272 1.6022231e-38
0.14830656 0.10963029 0.019173026 1.6483571e-38
0.14873229 0.11306247 0.020669818 1.7496999e-38
0.14492095 0.019497216 0.051970065 1.6846969e-38
0.14474268 0.02123785 0.048640847 1.7398729e-38
0.14494017 0.10648414 0.018663764 1.5746359e-38
0.14399771 0.10978988 0.019998968 1.6207006e-38
0.14430927 0.1131005 0.020149589 1.7954389e-38
0.14016697 0.022171617 0.048976243 1.8872372e-38
0.13979396 0.10661748 0.019982517 1.546871e-38
0.14024332 0.10946846 0.020037591 1.6205566e-38
0.14030512 0.11280876 0.019894123 1.8322459e-38
0.1367801 0.02237086 0.04787147 1.9701416e-38
0.13703552 0.10563976 0.017768919 1.6020792e-38
0.13637801 0.10934189 0.019622087 1.666616e-38
0.13615882 0.11221763 0.019687712 1.7955813e-38
0.1324984 0.022795022 0.048333287 1.9700715e-38
0.13286498 0.02429384 0.044935882 1.8965305e-38
0.13302854 0.1051105 0.017349362 1.5746733e-38
0.13278058 0.10917208 0.018743157 1.6482867e-38
0.13102888 0.11198643 0.019000411 1.7314768e-38
0.12881221 0.0228834 0.048215628 1.9054992e-38
0.12894964 0.025307029 0.045597613 1.8502891e-38
0.12811089 0.027130365 0.042846501 1.7951861e-38
0.12938584 0.10529503 0.016744018 1.5654532e-38
0.12867552 0.10903794 0.017814636 1.6115524e-38
0.12525767 0.023335829 0.047959507 1.85951e-38
0.12487839 0.025431693 0.046013951 1.8228821e-38
0.125561 0.027015448 0.042504847 1.795365e-38
0.12554327 0.10437399 0.017279983 1.5468691e-38
0.12482589 0.1088697 0.018176556 1.5748871e-38
0.12102097 0.02586256 0.046173334 1.7766761e-38
0.12120777 0.02813603 0.043000877 1.6845166e-38
0.12046123 0.10123155 0.0167799 1.3446846e-38
0.12146688 0.10419145 0.017118156 1.2616375e-38
0.12120418 0.10879058 0.018305779 1.2158226e-38
0.11700334 0.026543647 0.045294285 1.74855e-38
0.11744264 0.028459564 0.04282105 1.6291635e-38
0.11578643 0.031456649 0.039553225 1.5188519e-38
0.11599892 0.097369164 0.017413616 7.8222386e-39
0.11726719 0.10099596 0.018361688 8.6537901e-39
0.11307403 0.026469693 0.045088351 1.7859665e-38
0.11321445 0.028756812 0.043747842 1.6292712e-38
0.11339599 0.031582132 0.040524542 1.4820453e-38
0.11217409 0.034344926 0.038042963 1.3437159e-38
0.11344902 0.097254276 0.017072022 7.9990362e-39
0.11310884 0.10064867 0.01922828 6.7194658e-39
0.11008155 0.029608563 0.043586195 1.6200133e-38
0.10981372 0.032362968 0.041706443 1.4545286e-38
0.10929695 0.035583764 0.039195001 1.2885413e-38
0.10885639 0.081988156 0.02205497 1.1411723e-38
0.10771178 0.083571017 0.020819068 1.1687251e-38
0.1055336 0.036900401 0.04034853 1.5467586e-38
0.10407507 0.050628304 0.032636464 1.1044348e-38
0.10352932 0.054561377 0.031374097 1.0489417e-38
0.10407801 0.058376104 0.030528069 8.5612077e-39
0.10468379 0.082476467 0.023932278 1.0765296e-38
0.10500252 0.084516793 0.020096898 1.159506e-38
0.10439691 0.095869988 0.016187668 1.5189945e-38
0.10281411 0.037056133 0.03999722 1.7033832e-38
0.10153164 0.040681258 0.038586497 1.4820444e-38
0.10121101 0.044349745 0.037304699 1.3255262e-38
0.10043025 0.047769204 0.035327673 1.2520223e-38
0.10058112 0.051262617 0.033583105 1.1968486e-38
0.10061115 0.054901287 0.032245278 1.1231271e-38
0.10036939 0.058884621 0.031816483 1.0404004e-38
0.10101864 0.062019214 0.031332493 9.4827843e-39
0.10024913 0.079908162 0.025200367 1.0489424e-38
0.10077779 0.081871212 0.023553371 1.1041514e-38
0.10121575 0.084674716 0.019952655 1.1686529e-38
0.095760435 0.040421203 0.037813365 1.5834598e-38
0.095974177 0.044522986 0.036465466 1.4267637e-38
0.096494019 0.04770577 0.035117149 1.3255642e-38
0.096617192 0.051238507 0.033473611 1.2520591e-38
0.096555278 0.054993033 0.032438278 1.2337619e-38
0.096829161 0.058474839 0.031899929 1.1602199e-38
0.096401662 0.079120964 0.024891376 1.1134058e-38
0.096771851 0.08168292 0.022664011 1.1779042e-38
0.097450942 0.084417045 0.019241035 1.1873046e-38
0.098149687 0.08680138 0.018306434 1.1689408e-38
0.093836695 0.04156214 0.037142634 1.518816e-38
0.092554197 0.045187294 0.035731971 1.4084332e-38
0.092554212 0.047642559 0.03490603 1.3348566e-38
0.092554212 0.0513255 0.033667207 1.2521672e-38
0.093409181 0.054228559 0.032818258 1.2152909e-38
0.092554197 0.078947574 0.024375916 1.1505014e-38
0.092869192 0.081593841 0.022348762 1.1689758e-38
0.094962329 0.086657733 0.017879367 1.1963829e-38
0.089989215 0.045071691 0.03538835 1.4175085e-38
0.089989215 0.046299338 0.03497541 1.3808101e-38
0.089989215 0.051209927 0.033323586 1.2704248e-38
0.088706732 0.078774184 0.023860455 1.2424094e-38
0.088963568 0.08150506 0.022032976 1.2515571e-38
0.089949667 0.083937466 0.018313289 1.2701036e-38
0.084859252 0.078600794 0.023344994 1.3435383e-38
0.08535111 0.081036866 0.020823002 1.398819e-38
0.087312639 0.083261937 0.017880797 1.426695e-38
0.081332415 0.078748733 0.022769213 1.4449535e-38
0.081712425 0.080610663 0.019713283 1.537291e-38
0.077164337 0.078254014 0.022314012 1.8869887e-38
0.07763043 0.079579353 0.019045591 1.8962455e-38
0.073375955 0.076990962 0.021534443 1.9975857e-38
0.068188488 0.078128606 0.016755462 1.1040103e-38
0.067118421 0.076928854 0.020551264 1.1590758e-38
0.06691353 0.080511987 0.01576364 1.1134458e-38
0.065563932 0.083363295 0.016521215 1.1780507e-38
0.0650011 0.085917711 0.013660073 1.2978678e-38
0.063056946 0.085597932 0.017739832 1.2336918e-38
0.06234102 0.087411642 0.016223848 1.3165956e-38
0.060491979 0.091006756 0.015537918 1.3714843e-38
0.15892525 0.080810994 0.015681148 1.3442913e-38
0.15703431 0.056013972 0.021993816 1.6665084e-38
0.13038075 0.097342789 0.013173997 1.8137327e-38
0.17551421 0.010958105 0.062281966 7.4588385e-39
0.17165259 0.0099626333 0.062040925 6.9035053e-39
0.17173578 0.11715132 0.025465012 2.2286901e-38
0.16706091 0.0076355934 0.062671602 7.5488523e-39
0.16815603 0.0090168267 0.061571181 7.1800796e-39
0.16781902 0.11712065 0.025246382 2.210105e-38
0.16641682 0.11858219 0.025255978 2.2008132e-38
0.16448461 0.0075194985 0.062326491 7.2729983e-39
0.16380879 0.0093627572 0.06069237 7.6414305e-39
0.16389976 0.11708987 0.025027454 2.0532282e-38
0.16030669 0.010424271 0.060300112 8.7452375e-39
0.16015944 0.01197277 0.059117913 9.4810187e-39
0.16009896 0.11677274 0.024212062 1.8969258e-38
0.15997609 0.11829194 0.024393082 1.9891552e-38
0.15675572 0.010870367 0.060046673 9.5753639e-39
0.15620615 0.012552276 0.058866203 1.0220027e-38
0.15630065 0.1164557 0.023397088 1.8509331e-38
0.15482351 0.11805972 0.0237028 1.9244731e-38
0.15254377 0.013335764 0.058376133 1.1231676e-38
0.15115561 0.015260771 0.056669176 1.2431291e-38
0.15237698 0.1160143 0.023315549 1.7771061e-38
0.14967091 0.014250278 0.057853162 1.3076993e-38
0.1481609 0.015578344 0.056648433 1.4084688e-38
0.14845017 0.1163936 0.022957563 1.8142e-38
0.14489138 0.017352536 0.055830479 1.5742403e-38
0.14408116 0.01863572 0.054478884 1.6663642e-38
0.14465626 0.1160768 0.022143185 1.8508618e-38
0.1409286 0.020246014 0.054075956 1.8045133e-38
0.14022239 0.11542332 0.021346509 1.8875263e-38
0.13617253 0.020386487 0.053642809 2.0253489e-38
0.13507734 0.021923736 0.052030087 2.0160956e-38
0.13625497 0.11484718 0.021481395 1.8783076e-38
0.13202938 0.020181298 0.052587867 2.0344973e-38
0.13186169 0.021778807 0.051599264 2.0161334e-38
0.13211893 0.11364219 0.020737231 1.8047672e-38
0.1285308 0.020546675 0.052049696 1.9885095e-38
0.12762325 0.021970674 0.051168978 1.9333365e-38
0.12769955 0.1132839 0.02041167 1.7681038e-38
0.12402603 0.022602215 0.050686538 1.8779122e-38
0.12398669 0.11405927 0.020094395 1.5104958e-38
0.12098226 0.023542628 0.05009383 1.8413206e-38
0.1196422 0.024921894 0.048719645 1.8135543e-38
0.11899906 0.11046529 0.019849122 9.6735851e-39
0.12028533 0.11237016 0.019400239 1.0590897e-38
0.11630282 0.02553992 0.048546553 1.804191e-38
0.11497405 0.10625836 0.021374345 5.8882589e-39
0.11694625 0.10997292 0.020241439 7.2715619e-39
0.11682317 0.11264801 0.019855976 7.9198068e-39
0.11240956 0.025864854 0.047989786 1.8043701e-38
0.1132109 0.10343251 0.021351576 5.2490006e-39
0.11234298 0.1062336 0.021227002 6.9052625e-39
0.1110265 0.10868761 0.020323634 8.096617e-39
0.10909428 0.026601866 0.047646999 1.7674911e-38
0.10834748 0.029217213 0.046016574 1.6751879e-38
0.10742271 0.032374382 0.0443905 1.5465457e-38
0.10742271 0.082240313 0.027616858 1.0489428e-38
0.10491136 0.033150151 0.044154584 1.629451e-38
0.10420707 0.035307616 0.042924225 1.684838e-38
0.10474518 0.067246228 0.032687366 6.8138082e-39
0.10587391 0.070846975 0.032283843 6.0780354e-39
0.10329762 0.079978853 0.028827906 9.2011962e-39
0.1047841 0.081602931 0.02770412 9.8454964e-39
0.10075963 0.03331469 0.043993831 1.7124625e-38
0.10056266 0.036785066 0.041883826 1.7126413e-38
0.09970516 0.044954792 0.039007783 1.381094e-38
0.10066985 0.064390555 0.032613993 9.1136641e-39
0.10081103 0.066797271 0.032535851 8.3778899e-39
0.10081168 0.079121292 0.028390467 9.7532881e-39
0.10227767 0.080777168 0.027341723 9.9376822e-39
0.096856892 0.033448756 0.043518901 1.7491963e-38
0.097279578 0.036725402 0.041840494 1.7032787e-38
0.097775757 0.041174084 0.039991856 1.5833162e-38
0.097389877 0.044111714 0.038946152 1.4728247e-38
0.09584637 0.060787231 0.033106685 1.1049059e-38
0.096937135 0.063498259 0.032490671 1.0310412e-38
0.096856892 0.066741437 0.032320082 9.5735576e-39
0.097198188 0.077898264 0.028009236 1.0673085e-38
0.093211532 0.037033096 0.041382134 1.6571446e-38
0.092502087 0.040690169 0.039368153 1.5462946e-38
0.092630714 0.04402034 0.038267076 1.4543511e-38
0.092416331 0.056528464 0.034027696 1.1691568e-38
0.093042254 0.059673265 0.033329606 1.1139823e-38
0.093188405 0.063448235 0.032747567 1.0769962e-38
0.093851209 0.066400468 0.031986535 1.0679185e-38
0.091704309 0.075757205 0.028518975 1.1503918e-38
0.093226641 0.077355027 0.027320623 1.1228051e-38
0.089900881 0.037697598 0.041052282 1.6014693e-38
0.089318752 0.040903285 0.039176881 1.5186363e-38
0.088860944 0.044395849 0.037845016 1.435804e-38
0.087968022 0.048273534 0.036141098 1.3438248e-38
0.088128775 0.051644757 0.03503108 1.2793953e-38
0.089223266 0.055799246 0.034507155 1.2058553e-38
0.08928901 0.059464395 0.033639252 1.159972e-38
0.088966966 0.06314908 0.032351792 1.1691896e-38
0.08848393 0.066364095 0.031198323 1.196778e-38
0.089450032 0.074730814 0.028528035 1.1962728e-38
0.088965267 0.077296585 0.026831686 1.2055302e-38
0.086551696 0.042232305 0.039027452 1.4723956e-38
0.08526355 0.044845894 0.037956178 1.435733e-38
0.084343448 0.048474252 0.036598504 1.4081449e-38
0.084458455 0.051848337 0.035480678 1.3529723e-38
0.085079536 0.055729643 0.034267724 1.3069827e-38
0.08411853 0.059248507 0.032940745 1.3164891e-38
0.084443808 0.062987298 0.031731725 1.224508e-38
0.084619492 0.066559866 0.030556142 1.2244734e-38
0.086551696 0.075524986 0.027828634 1.2792124e-38
0.08492507 0.077193499 0.026385486 1.316165e-38
0.081399113 0.051864594 0.035018981 1.4266571e-38
0.081399113 0.056796849 0.033359885 1.3899939e-38
0.08075504 0.059233949 0.03244406 1.3623731e-38
0.08075504 0.062316597 0.031407118 1.2980861e-38
0.080100089 0.077353209 0.025718808 1.4634634e-38
0.076399475 0.076724499 0.025378406 1.8686193e-38
0.071627811 0.074314237 0.025655091 1.9793617e-38
0.073181957 0.075963825 0.025154352 2.0531188e-38
0.068676263 0.073912114 0.025172591 1.5648786e-38
0.065941364 0.074596167 0.025067389 1.1777317e-38
0.064717799 0.076683164 0.023969769 1.242302e-38
0.064573348 0.080098599 0.02221328 1.1501796e-38
0.061514512 0.08539477 0.020508349 1.1875947e-38
0.059610769 0.088972598 0.018932223 1.3348912e-38
0.058212474 0.090277672 0.018639863 1.3717332e-38
0.058212474 0.091510713 0.018225074 1.3991772e-38
0.15158778 0.030806765 0.03552115 1.8599385e-38
0.16392758 0.057553649 0.021600187 1.3810256e-38
0.16793765 0.067040026 0.017927945 1.2612799e-38
0.13651882 0.10353744 0.013552785 1.3622282e-38
0.17511243 0.007932961 0.065903544 9.0268592e-39
0.17100406 0.0075609982 0.065720379 8.2878705e-39
0.17269309 0.0094011426 0.063983262 7.6418046e-39
0.17092915 0.12113389 0.028134108 2.265926e-38
0.1674723 0.0067341626 0.065623879 7.8257979e-39
0.16739412 0.12122816 0.027441978 2.2470187e-38
0.16645505 0.12383977 0.027222633 2.2383062e-38
0.16345556 0.0066287071 0.064781368 7.4577525e-39
0.16336672 0.12085599 0.026877761 2.1362774e-38
0.15947025 0.0091139674 0.062107861 8.283525e-39
0.159449 0.12092593 0.02649188 1.9890494e-38
0.15621945 0.0078410208 0.065247893 8.0094997e-39
0.15546755 0.0099055469 0.06276691 9.1136865e-39
0.15572953 0.12075832 0.025993645 1.9428433e-38
0.15535566 0.12356192 0.026193559 2.0353286e-38
0.15175962 0.010731369 0.062012255 1.0400108e-38
0.15106151 0.012731925 0.060347259 1.1600092e-38
0.15076253 0.1170812 0.024491847 1.8051953e-38
0.15172687 0.12033084 0.025318503 1.9154353e-38
0.14822936 0.011615217 0.062786758 1.1967791e-38
0.14774506 0.013453469 0.060364664 1.3074478e-38
0.14811356 0.1201219 0.025737882 1.9062876e-38
0.14304659 0.015102506 0.060840786 1.5466517e-38
0.14388882 0.016237825 0.058240354 1.5373973e-38
0.14338289 0.11960635 0.024672985 1.8969609e-38
0.14033921 0.017104298 0.057898939 1.7770338e-38
0.13979724 0.019032463 0.055837572 1.9059984e-38
0.14008975 0.1198068 0.023759305 1.9337672e-38
0.140019 0.12304524 0.023014605 1.9984129e-38
0.13635486 0.017316341 0.05696708 1.8967816e-38
0.13657215 0.018887132 0.055405498 2.0069467e-38
0.13592714 0.11641261 0.02250427 1.8968923e-38
0.13616374 0.11989665 0.024164677 1.9155799e-38
0.13216698 0.017661095 0.057718337 1.9704305e-38
0.13167003 0.01891318 0.054665685 2.007055e-38
0.13225615 0.11712226 0.023849189 1.8784885e-38
0.1321069 0.11864689 0.024024487 1.915832e-38
0.12793605 0.017685771 0.05718559 2.0071281e-38
0.12738889 0.019698963 0.054473341 1.9793971e-38
0.12854573 0.11631817 0.022767186 1.8787749e-38
0.12944184 0.11867324 0.023973346 1.9526026e-38
0.12425907 0.017976671 0.057072103 1.9884738e-38
0.12373534 0.020004243 0.054772794 1.9700344e-38
0.12238181 0.021952227 0.052258193 1.9331558e-38
0.12555477 0.11725777 0.023869753 1.7960871e-38
0.11991978 0.020311221 0.055183113 1.9702134e-38
0.11920989 0.022832766 0.052199423 1.8781617e-38
0.11947775 0.11563668 0.021732926 1.012781e-38
0.11583708 0.021317989 0.054692149 1.9241488e-38
0.11551856 0.023380369 0.052530229 1.8781966e-38
0.11464159 0.1105139 0.021314025 5.4341317e-39
0.11532336 0.11535111 0.021615267 7.2715844e-39
0.11000647 0.021055222 0.05391103 1.9057136e-38
0.11166799 0.023172647 0.051907361 1.8781273e-38
0.11283556 0.11018553 0.021155119 7.3651715e-39
0.10741508 0.020938441 0.053563833 1.9514875e-38
0.10773855 0.0233991 0.052118361 1.8964222e-38
0.10757115 0.025852591 0.04916364 1.8134093e-38
0.10690139 0.028663784 0.047691941 1.7028479e-38
0.10690139 0.073119029 0.032738328 5.9844132e-39
0.10683385 0.076465875 0.0332008 6.8120089e-39
0.10702696 0.080069393 0.032550275 8.4672142e-39
0.10690139 0.081763119 0.029830694 9.8469187e-39
0.10357177 0.023815289 0.051845372 1.8963884e-38
0.10402668 0.026405424 0.049206793 1.8042263e-38
0.10389131 0.029351383 0.047011733 1.7215017e-38
0.10303129 0.032193989 0.045927286 1.675548e-38
0.10389131 0.068867147 0.033719659 7.1815117e-39
0.10387719 0.072031766 0.032957554 6.8138166e-39
0.10402751 0.07588163 0.032564461 7.0864462e-39
0.10428566 0.07931003 0.031064928 8.3735837e-39
0.10561137 0.081704974 0.029657841 9.6618142e-39
0.10009585 0.026856318 0.049416125 1.7951501e-38
0.10045123 0.029607981 0.046412408 1.7398334e-38
0.10045123 0.032077715 0.045581639 1.7214301e-38
0.10045123 0.069123745 0.033120334 8.0094703e-39
0.1001507 0.071997106 0.033292949 7.5467125e-39
0.10015112 0.07570532 0.032045603 8.6494573e-39
0.10045123 0.077767819 0.030212641 9.2926589e-39
0.096122921 0.027251408 0.049330056 1.7581649e-38
0.096397296 0.029632732 0.046509862 1.7489816e-38
0.096581131 0.031903297 0.045063138 1.7767109e-38
0.096581131 0.068949327 0.032601833 9.2969637e-39
0.096152604 0.07198289 0.033174992 9.8472578e-39
0.096397296 0.075367361 0.031125903 1.0399717e-38
0.092514634 0.027708635 0.049064338 1.739584e-38
0.092309207 0.030021116 0.047190309 1.7028488e-38
0.092648074 0.03303127 0.044333875 1.6938439e-38
0.091421008 0.035375357 0.043125689 1.6752969e-38
0.091421008 0.063777313 0.033571959 1.1414603e-38
0.092281014 0.067932293 0.032302618 1.1413154e-38
0.092711031 0.071244657 0.031252563 1.141351e-38
0.092872292 0.07480216 0.030079961 1.1320598e-38
0.088102728 0.030209854 0.047108352 1.7121025e-38
0.088330582 0.033331946 0.045246422 1.7027046e-38
0.088288054 0.036469057 0.042290628 1.6290205e-38
0.087550908 0.061133176 0.033884227 1.2242904e-38
0.09013097 0.064954042 0.03298378 1.1599709e-38
0.089356944 0.067882851 0.03188318 1.1874502e-38
0.088840932 0.071070254 0.030734062 1.205746e-38
0.088582933 0.074516267 0.029536426 1.2147468e-38
0.084320098 0.033292711 0.045135021 1.7580906e-38
0.084774733 0.03714402 0.042249978 1.6568209e-38
0.08432582 0.043699682 0.039267421 1.5736663e-38
0.083680809 0.053549558 0.035858035 1.3622999e-38
0.084540814 0.056469679 0.03500402 1.3071975e-38
0.085830867 0.060232416 0.033930719 1.2979771e-38
0.08626087 0.064779639 0.032465279 1.215289e-38
0.08626087 0.068484247 0.031219125 1.2152538e-38
0.084970832 0.070895851 0.030215561 1.2244381e-38
0.084809586 0.07443881 0.028999746 1.3070519e-38
0.083680809 0.077012032 0.027965844 1.3437513e-38
0.080927536 0.033927977 0.044977903 1.7858593e-38
0.080503941 0.037385061 0.042952597 1.7306494e-38
0.080701619 0.041507959 0.040884852 1.6750446e-38
0.081100732 0.04478921 0.038419962 1.592355e-38
0.080939487 0.048332185 0.037204146 1.5004106e-38
0.080670714 0.052384853 0.035800874 1.4266568e-38
0.080916435 0.055541903 0.034775615 1.3899942e-38
0.08045572 0.06451802 0.031687498 1.2796459e-38
0.080732137 0.06717664 0.030834556 1.2519528e-38
0.081100732 0.070721433 0.029697061 1.2704285e-38
0.081100732 0.074426025 0.028450906 1.3715176e-38
0.082390755 0.076953918 0.02779299 1.3347479e-38
0.076657236 0.037468582 0.042641461 1.7307196e-38
0.076690525 0.041473925 0.040771723 1.6752248e-38
0.076761514 0.044705912 0.037800848 1.6109397e-38
0.076585621 0.048290327 0.03656894 1.5739567e-38
0.076585621 0.051994935 0.035322785 1.481866e-38
0.076585621 0.055699542 0.034076691 1.41758e-38
0.076585621 0.059404135 0.032830536 1.3715923e-38
0.076585621 0.063108742 0.031584382 1.3256368e-38
0.077094674 0.067000657 0.03082478 1.2887588e-38
0.07668969 0.071188539 0.030776381 1.2883638e-38
0.076596022 0.074542135 0.028321326 1.6569659e-38
0.072637916 0.037757754 0.042009354 1.6937722e-38
0.072741121 0.0413699 0.040454507 1.6660424e-38
0.072459936 0.044799134 0.038954675 1.6476385e-38
0.072153866 0.048329979 0.036161065 1.5372558e-38
0.072070509 0.051791459 0.034717917 1.4727546e-38
0.072070494 0.055496067 0.033471763 1.4268709e-38
0.072231755 0.05905357 0.032299161 1.3899939e-38
0.072301298 0.063401595 0.032267809 1.3441115e-38
0.072741121 0.06737794 0.031706095 1.3070892e-38
0.072741121 0.07109338 0.030456305 1.2423382e-38
0.07263121 0.073731109 0.028030515 1.7955098e-38
0.069447517 0.037948757 0.041753471 1.6201238e-38
0.068753958 0.041300565 0.04023844 1.6018281e-38
0.06882447 0.044946015 0.038785875 1.5741698e-38
0.068760902 0.04815045 0.03666687 1.5007357e-38
0.068845421 0.051646113 0.034285784 1.4544213e-38
0.068845421 0.055350721 0.033039689 1.3809525e-38
0.068670779 0.059737027 0.033060491 1.3440401e-38
0.068754166 0.063604414 0.032736003 1.2980116e-38
0.069192201 0.067586958 0.032172084 1.2152172e-38
0.068649471 0.071157977 0.030534804 1.1502145e-38
0.068200395 0.072609797 0.027137935 1.2152172e-38
0.065434679 0.041619718 0.040346444 1.5556939e-38
0.064764068 0.044949755 0.038771152 1.5187812e-38
0.064978302 0.048450932 0.036914945 1.4453451e-38
0.064978302 0.052166373 0.035665154 1.4359831e-38
0.06494242 0.055919588 0.034515738 1.3808813e-38
0.064799309 0.059788346 0.03366673 1.2980857e-38
0.065952957 0.06309998 0.033198297 1.2612785e-38
0.065789074 0.071276456 0.029890776 1.1411334e-38
0.064459562 0.073883414 0.027430356 1.2424826e-38
0.063040286 0.077316731 0.024785101 1.3163082e-38
0.063040286 0.081638753 0.023331285 1.150323e-38
0.063040286 0.083491057 0.022708237 1.1597576e-38
0.061633974 0.045748085 0.038390934 1.5092021e-38
0.060878456 0.048494086 0.036999404 1.4267651e-38
0.060770199 0.052324027 0.036050141 1.399107e-38
0.060842365 0.055969968 0.034597754 1.3162022e-38
0.060955316 0.059596866 0.033631325 1.2334406e-38
0.060674593 0.074578226 0.028017342 1.3807376e-38
0.059875667 0.077858865 0.026025057 1.2611704e-38
0.059839159 0.081615061 0.024874508 1.1320984e-38
0.059810519 0.084431589 0.022620618 1.1323855e-38
0.059170187 0.087021261 0.020943582 1.2149307e-38
0.05850926 0.095221609 0.020217776 1.2519554e-38
0.057401389 0.048699394 0.036766946 1.3622643e-38
0.05766055 0.052431926 0.035550117 1.3161669e-38
0.05766052 0.055904716 0.034381926 1.2699982e-38
0.056883126 0.074473947 0.028019786 1.2979408e-38
0.056346059 0.078042209 0.026384234 1.205817e-38
0.056457132 0.081636041 0.024836779 1.0953959e-38
0.056069374 0.085027397 0.022809267 1.1596485e-38
0.056321591 0.088695496 0.020808041 1.3163449e-38
0.055729747 0.092786044 0.020409346 1.3441466e-38
0.057215452 0.095163286 0.020044446 1.2520612e-38
0.052672148 0.074594229 0.02735132 1.1598638e-38
