# .PCD v0.7 - Point Cloud Data file format
VERSION 0.7
FIELDS x y z rgb
SIZE 4 4 4 4
TYPE F F F F
COUNT 1 1 1 1
WIDTH 974
HEIGHT 1
VIEWPOINT 0 0 0 0 1 0 0
POINTS 974
DATA ascii
0.10850456 0.084904686 0.016643763 2.2933693e-38
0.10339554 0.082205385 0.017826498 2.2372578e-38
0.0996681 0.080224827 0.020054221 2.2738493e-38
0.099515274 0.081152678 0.017895937 2.2741727e-38
0.095818363 0.079640493 0.020561099 2.3204492e-38
0.096865699 0.080974355 0.016965866 2.3205184e-38
0.090691224 0.076526791 0.02163738 2.2926819e-38
0.092212915 0.078761682 0.020869493 2.2650244e-38
0.087829627 0.076312475 0.022363961 2.0252454e-38
0.088035509 0.077578224 0.020185947 1.9698155e-38
0.084297866 0.075387821 0.022787035 2.0161302e-38
0.083998971 0.07849618 0.020183384 1.6460532e-38
0.082862481 0.082558692 0.018882036 1.3711208e-38
0.082993098 0.1028228 0.01842761 1.5004836e-38
0.080467246 0.075492106 0.023473322 2.2466571e-38
0.080391429 0.079061903 0.021367788 2.0808807e-38
0.080498315 0.082247168 0.019290984 1.7403339e-38
0.080316447 0.10044868 0.016632915 1.4735093e-38
0.080298677 0.10310733 0.018856049 1.7131097e-38
0.080614731 0.10730915 0.019153059 2.0727488e-38
0.075388156 0.069348231 0.026068687 2.1544622e-38
0.075388156 0.071910955 0.025690496 2.1637904e-38
0.076621719 0.075539745 0.023829579 2.1451356e-38
0.076497391 0.08142601 0.020026445 1.7671334e-38
0.0755881 0.10000761 0.017423928 1.3080247e-38
0.076077648 0.10318556 0.017902195 1.6211298e-38
0.076635167 0.10759443 0.019437969 1.8788484e-38
0.072186768 0.064293779 0.02730608 2.0628055e-38
0.072649099 0.068209007 0.026146114 2.0257129e-38
0.072520964 0.07187371 0.024704814 1.9427731e-38
0.072469108 0.075220138 0.022787571 1.8872769e-38
0.072678342 0.077689223 0.021164238 1.7033177e-38
0.072678342 0.10061805 0.017780602 1.1878469e-38
0.07206136 0.10455906 0.017804921 1.5474091e-38
0.072781399 0.10758474 0.019576728 1.6023676e-38
0.067704841 0.059908397 0.028641403 2.0258196e-38
0.0684397 0.063692197 0.026811421 1.822811e-38
0.068440229 0.067690499 0.024684608 1.666257e-38
0.069210947 0.070603415 0.02376467 1.6108685e-38
0.067586273 0.10455243 0.017981827 1.6021872e-38
0.068453521 0.10735807 0.019293487 1.5655256e-38
0.068345122 0.11050797 0.021076083 1.5286434e-38
0.064662971 0.059359394 0.028538704 1.8693022e-38
0.064013101 0.063112065 0.026008964 1.6478169e-38
0.065040231 0.06639418 0.024003744 1.5091622e-38
0.063130714 0.10465123 0.018651307 8.1863702e-39
0.064068154 0.1077168 0.019997537 1.2151475e-38
0.065143742 0.11057895 0.021557093 1.5010947e-38
0.060015731 0.056188099 0.030030131 1.8042996e-38
0.060255624 0.059131518 0.028672814 1.7858953e-38
0.059822604 0.062961608 0.026220202 1.4819723e-38
0.059542157 0.10409331 0.020307004 1.5095251e-38
0.060190834 0.10760711 0.022025883 1.3427444e-38
0.062582642 0.11063574 0.02194196 1.1232405e-38
0.056171738 0.056226961 0.030273795 1.7307931e-38
0.056162953 0.059331156 0.029135406 1.6018276e-38
0.056143284 0.06358137 0.026977599 1.3531882e-38
0.055969976 0.0677099 0.025202155 1.0862532e-38
0.055765383 0.071695134 0.024645507 9.1976481e-39
0.0561454 0.10381377 0.021210611 1.546368e-38
0.056428388 0.10731252 0.022763908 1.8871303e-38
0.052333221 0.056312062 0.03085053 1.7581649e-38
0.052330181 0.05944854 0.029933691 1.5003752e-38
0.052326024 0.063842535 0.028717995 1.2058553e-38
0.052328214 0.068368763 0.028390467 1.0861104e-38
0.052327849 0.072186604 0.027713478 1.2239346e-38
0.052063905 0.075034186 0.025947869 1.4450225e-38
0.052055448 0.10056582 0.020954609 8.3739943e-39
0.052323505 0.10403757 0.022445917 9.944173e-39
0.052336454 0.10748869 0.023775041 1.4365595e-38
0.04875204 0.056584693 0.031837344 1.7489811e-38
0.048495159 0.059549779 0.030621171 1.4820418e-38
0.048495121 0.06404072 0.030043602 1.2795373e-38
0.048495308 0.068593167 0.029854596 1.3348909e-38
0.0484946 0.072325848 0.02862227 1.5468707e-38
0.048333138 0.075731248 0.026468992 1.6204084e-38
0.048490979 0.099668264 0.02163434 8.8367282e-39
0.048377484 0.10367958 0.023197472 1.0037051e-38
0.048313104 0.10790099 0.023952067 1.4089009e-38
0.045081772 0.059555806 0.032166839 1.4269059e-38
0.044654906 0.06426359 0.031537592 1.3900627e-38
0.044655584 0.068730682 0.030764639 1.5191767e-38
0.044659175 0.072429188 0.029309511 1.6482127e-38
0.044663273 0.076080225 0.027634144 1.5096314e-38
0.04467193 0.07958407 0.025184512 1.4267264e-38
0.044035435 0.082145825 0.024904251 1.3624783e-38
0.044668578 0.098872572 0.02324748 8.5619238e-39
0.044777937 0.10346769 0.024060249 1.068098e-38
0.044655718 0.10733122 0.024841249 1.3719858e-38
0.041773692 0.065288506 0.031828761 1.4639312e-38
0.040996209 0.069195591 0.031371534 1.5374349e-38
0.040823169 0.072514668 0.029885828 1.5096335e-38
0.040828243 0.076259024 0.028764486 1.4729355e-38
0.040833071 0.080017269 0.027754843 1.4915504e-38
0.040584892 0.082945988 0.026542783 1.3900651e-38
0.039579868 0.087976843 0.024727821 1.2061776e-38
0.039579868 0.092435211 0.024069905 9.756151e-39
0.040850885 0.098986432 0.023163617 8.1009807e-39
0.040828876 0.10310708 0.024802446 1.0866072e-38
0.041666985 0.10640121 0.025778115 1.3077296e-38
0.036974214 0.069532864 0.031768858 1.5282883e-38
0.036985233 0.07261765 0.030573547 1.5926469e-38
0.036992349 0.076381288 0.029562652 1.7219346e-38
0.037002727 0.080102205 0.028330386 1.7310826e-38
0.037009217 0.083854131 0.027321219 1.6573971e-38
0.037015289 0.087603152 0.026312709 1.4545306e-38
0.036394402 0.091264173 0.024902105 1.1505337e-38
0.036670104 0.094319493 0.024238586 9.2951518e-39
0.036556445 0.099667519 0.023466825 7.8240379e-39
0.037151128 0.10341243 0.025634527 1.0308586e-38
0.033129975 0.066441193 0.032985747 1.3163466e-38
0.033556819 0.069848694 0.032417357 1.4546054e-38
0.033138953 0.072775051 0.03159529 1.6207006e-38
0.03315074 0.076522805 0.030472338 1.7589573e-38
0.033165306 0.080244683 0.029239297 1.8693771e-38
0.033172369 0.084019922 0.02834034 1.8043008e-38
0.032737464 0.087510303 0.026590765 1.6384534e-38
0.03321477 0.090028703 0.025402248 1.4911552e-38
0.03246256 0.099558935 0.02527982 9.2987812e-39
0.033052608 0.10368937 0.025641918 1.0865361e-38
0.032891966 0.10753468 0.026140273 1.4461781e-38
0.030568868 0.066497982 0.033370614 1.3072694e-38
0.030568868 0.069060706 0.032992423 1.3534401e-38
0.029479183 0.073248029 0.032249689 1.5559126e-38
0.029315151 0.076608278 0.031048596 1.6296319e-38
0.028701536 0.080300629 0.029660761 1.7031354e-38
0.028727897 0.083967797 0.028178453 1.5279272e-38
0.028750889 0.10059866 0.024868667 9.6661064e-39
0.028911442 0.10401098 0.025168002 1.0681714e-38
0.028699934 0.10843006 0.025595248 1.4180829e-38
0.028675832 0.11116832 0.026046813 1.60197e-38
0.025462918 0.073576383 0.032598734 1.2612074e-38
0.025020763 0.076789036 0.031495392 1.3255651e-38
0.024234876 0.08038532 0.03024888 1.3625151e-38
0.024280712 0.083976239 0.028348684 1.288579e-38
0.023030631 0.086433068 0.027496517 1.077104e-38
0.024303652 0.10169072 0.025049448 9.3895573e-39
0.024121784 0.10460636 0.024647117 1.0221816e-38
0.024253964 0.10837367 0.025547624 1.1325276e-38
0.025747903 0.11165696 0.026015222 1.4551411e-38
0.021617398 0.073689088 0.033342957 1.1045818e-38
0.020624012 0.076656029 0.03227371 1.0953275e-38
0.020399861 0.080489494 0.030935884 1.178337e-38
0.020457879 0.084060997 0.028923094 1.0122778e-38
0.019848071 0.08650364 0.027974725 8.3714341e-39
0.020484589 0.10432306 0.025247395 8.7434522e-39
0.020426959 0.10845855 0.026122689 9.7583048e-39
0.021267451 0.11194441 0.02736181 1.1138371e-38
0.019043908 0.073801026 0.034062326 1.0580528e-38
0.017763346 0.077032827 0.033782065 1.0308256e-38
0.01690007 0.080879122 0.032178462 9.4784991e-39
0.01657334 0.084387362 0.030834615 7.8182659e-39
0.016483091 0.087784588 0.028813541 6.899541e-39
0.016347267 0.096453398 0.027043939 5.7953585e-39
0.01660379 0.099584386 0.027905643 6.0715796e-39
0.016566247 0.10422581 0.028078616 7.1768454e-39
0.017295308 0.10886249 0.028134346 7.9144286e-39
0.017770655 0.11266068 0.028352857 9.2069597e-39
0.018617049 0.11630896 0.027854979 1.0408362e-38
0.014561966 0.081588581 0.033601284 6.8084174e-39
0.012853161 0.0850925 0.032762349 5.6077246e-39
0.012731977 0.088346928 0.031067252 5.7938969e-39
0.012748867 0.09211649 0.03016758 5.3325726e-39
0.012742981 0.095971882 0.029713154 4.9659467e-39
0.012697965 0.099985063 0.030036628 5.1503268e-39
0.012692474 0.10448563 0.029486954 6.3492371e-39
0.013166018 0.10850018 0.028949559 6.9964128e-39
0.014287561 0.11317107 0.028982759 8.2889495e-39
0.0094397664 0.086186923 0.033709109 6.5328899e-39
0.0088436007 0.088618279 0.032646537 8.7405613e-39
0.0088499188 0.092437238 0.031968474 9.5692304e-39
0.008830525 0.096342057 0.031735957 9.4784781e-39
0.0089733303 0.10024166 0.031450987 5.9818699e-39
0.0089310929 0.10454562 0.030799031 6.6301302e-39
0.010135151 0.10774103 0.029399157 6.812725e-39
0.0058002025 0.088862702 0.03264612 1.4452349e-38
0.0056392401 0.092551306 0.032671869 1.3627284e-38
0.005598098 0.096523002 0.032773614 1.2431254e-38
0.0055981129 0.10036708 0.032206357 5.3354523e-39
0.006238386 0.10419697 0.031542897 6.812739e-39
0.1192418 0.084296897 0.020196974 2.2932974e-38
0.11973528 0.087079942 0.019506037 2.2658186e-38
0.12046748 0.090595663 0.018495083 2.3044945e-38
0.11632302 0.083994478 0.020434141 2.28343e-38
0.11735941 0.086507 0.019341946 2.2662139e-38
0.11276985 0.082708403 0.020986974 2.3109072e-38
0.10830909 0.080678284 0.022409499 2.2741363e-38
0.10909049 0.083029188 0.021687031 2.2741006e-38
0.10475145 0.080391437 0.02274245 2.2186412e-38
0.10589425 0.082329303 0.021854997 2.2555538e-38
0.10104498 0.079165094 0.023364723 2.2371502e-38
0.096716002 0.077031747 0.024471998 2.2651303e-38
0.096698225 0.078275643 0.024035573 2.2927537e-38
0.090945385 0.073341221 0.026158154 1.9517061e-38
0.091935098 0.076048918 0.024993241 2.2743528e-38
0.093450479 0.078261569 0.024025023 2.3388888e-38
0.087944254 0.07254976 0.026735723 1.87795e-38
0.08860594 0.075127557 0.025844753 2.0621241e-38
0.084257141 0.060104579 0.029138386 1.7030625e-38
0.08422856 0.064338058 0.028518021 1.6936989e-38
0.08451438 0.068335772 0.027884185 1.6292335e-38
0.084514387 0.072196811 0.027314425 1.8968912e-38
0.080012679 0.056208953 0.030364931 1.8044784e-38
0.080650605 0.059396148 0.029683053 1.7766763e-38
0.080648027 0.063892186 0.028963149 1.749124e-38
0.080645226 0.068386242 0.028243601 1.8874191e-38
0.08062388 0.072174393 0.027233481 2.1269125e-38
0.076154076 0.053076982 0.031419516 1.8412148e-38
0.076782905 0.055590369 0.030611336 1.823026e-38
0.076754361 0.059354864 0.029378593 1.8045145e-38
0.076758079 0.063865513 0.028797626 1.8689446e-38
0.076914907 0.068186566 0.028050661 2.1270197e-38
0.077396519 0.072191924 0.027385652 2.1545005e-38
0.076154076 0.11099261 0.022872865 2.0355079e-38
0.072777793 0.052025713 0.032093048 1.7951893e-38
0.072917715 0.055645354 0.030969441 1.7954024e-38
0.072901413 0.0594403 0.029957533 1.8324259e-38
0.073543563 0.063281447 0.029292107 2.0075253e-38
0.074185714 0.067122586 0.028626621 2.1086875e-38
0.072938569 0.11106393 0.02335608 1.6579014e-38
0.069240749 0.052104145 0.032624543 1.7952235e-38
0.069065973 0.055746123 0.031659544 1.8966374e-38
0.069415398 0.05933401 0.030508459 1.9889068e-38
0.06939318 0.11205299 0.023498833 1.4825486e-38
0.065478608 0.052798897 0.033099651 1.9520264e-38
0.065204129 0.055801041 0.032017171 1.9152196e-38
0.065195486 0.11230148 0.023339868 1.5380785e-38
0.065221369 0.11380908 0.024135828 1.5196743e-38
0.061362773 0.053404965 0.033642113 1.9975137e-38
0.061864734 0.055370115 0.032661617 1.8684412e-38
0.060927615 0.1116865 0.024767518 1.085389e-38
0.05750417 0.053168774 0.034269392 1.9428066e-38
0.057489581 0.054641508 0.033031881 1.8503221e-38
0.057825722 0.11043377 0.025769353 1.7678798e-38
0.053638868 0.053153634 0.034098268 1.9242587e-38
0.053636633 0.054726943 0.033610821 1.8686884e-38
0.05363664 0.10870241 0.025645614 1.583678e-38
0.053324021 0.1105336 0.026445806 1.7217568e-38
0.04978697 0.053661652 0.035381496 1.8872393e-38
0.049141876 0.055181988 0.034489393 1.8502886e-38
0.049624979 0.1113385 0.02651161 1.5381559e-38
0.045413889 0.053501219 0.036076605 1.8042585e-38
0.04490196 0.05613181 0.035153627 1.638487e-38
0.043362103 0.10893023 0.027189493 1.4273378e-38
0.045285858 0.11065748 0.027406037 1.4914451e-38
0.041426666 0.05706457 0.036162913 1.528107e-38
0.040785342 0.060264356 0.035562038 1.3900295e-38
0.040311851 0.064178981 0.034261882 1.445635e-38
0.040151305 0.06787727 0.033740699 1.5470122e-38
0.040534995 0.10800792 0.027964175 1.5471546e-38
0.037439451 0.060885325 0.036211252 1.3438222e-38
0.036932737 0.064810127 0.035198689 1.4085758e-38
0.036940515 0.067948468 0.034223139 1.5008446e-38
0.036750384 0.10751636 0.028851509 1.6856703e-38
0.033066362 0.061754502 0.036754429 1.3255272e-38
0.033075996 0.064727157 0.035849571 1.3438241e-38
0.032873519 0.068895414 0.034707904 1.3993232e-38
0.034362219 0.10859498 0.029131949 1.6770639e-38
0.032434799 0.11056635 0.029136956 1.8698075e-38
0.029207759 0.061840065 0.037334204 1.2245809e-38
0.029103212 0.064815253 0.036446512 1.2519528e-38
0.02907408 0.069408044 0.035215616 1.3256014e-38
0.02859246 0.07198897 0.034908593 1.4727203e-38
0.02923461 0.11245632 0.028838217 1.685197e-38
0.026635364 0.061897106 0.03772074 9.2959324e-39
0.025609478 0.065379471 0.037262201 9.6665127e-39
0.025374234 0.069524571 0.035993636 1.1690132e-38
0.025381655 0.072060168 0.035391092 1.2520956e-38
0.024097338 0.11321279 0.029515326 1.1966716e-38
0.02534917 0.11533672 0.030032098 1.3168468e-38
0.022776745 0.067130722 0.037540853 9.3856225e-39
0.021503277 0.069680013 0.037019432 9.7558063e-39
0.021528691 0.072145604 0.035970032 1.0771019e-38
0.02024439 0.11458337 0.029904604 1.0863573e-38
0.021498553 0.11666395 0.030223012 1.1138006e-38
0.01850339 0.07060454 0.037343562 8.4650703e-39
0.017289497 0.073410362 0.036872447 8.9228282e-39
0.016391441 0.077400036 0.035983384 9.5724744e-39
0.016391441 0.10952829 0.031242192 7.5460118e-39
0.017033592 0.11465457 0.030387104 9.3942264e-39
0.017033592 0.11593969 0.030197442 9.7640809e-39
0.015059553 0.077597961 0.03718102 7.4537826e-39
0.013369337 0.080980465 0.03643024 6.5307557e-39
0.012538478 0.083911121 0.035614073 5.8835716e-39
0.015107125 0.10955676 0.031435132 7.2715844e-39
0.013180643 0.11184846 0.031392753 7.5513886e-39
0.015107125 0.11598241 0.030486941 9.0265229e-39
0.0099331215 0.081514046 0.037049472 6.2555911e-39
0.0096905604 0.084559456 0.036364615 6.0704824e-39
0.011254162 0.11156988 0.031729639 7.3677008e-39
0.0067291483 0.086057484 0.036700428 1.2706697e-38
0.007401213 0.10073173 0.033920586 4.6032697e-39
0.13949892 0.068607904 0.02349174 1.5008838e-38
0.13906768 0.071638092 0.023110807 1.4090831e-38
0.13906768 0.074227192 0.022728682 1.3534423e-38
0.13648021 0.055513568 0.025887549 1.3722367e-38
0.13645187 0.058718406 0.025191844 1.3260342e-38
0.13644817 0.063244216 0.024496138 1.2430923e-38
0.13639453 0.067708984 0.02341944 1.1509698e-38
0.13642311 0.071624838 0.023064494 1.1140554e-38
0.13648021 0.074608207 0.023069739 1.0587733e-38
0.13162872 0.047530197 0.027810514 1.1686182e-38
0.13195214 0.051083043 0.027236581 1.0400835e-38
0.13242182 0.055100597 0.026443839 9.2969609e-39
0.1325027 0.058725804 0.025228918 9.1136402e-39
0.13245457 0.063195042 0.02417922 8.8370716e-39
0.13248813 0.067761332 0.02378422 8.7459577e-39
0.13254356 0.071710847 0.023647308 9.2022822e-39
0.13259901 0.074694268 0.023652911 9.1140186e-39
0.12936467 0.044667661 0.028580546 1.3160594e-38
0.12871782 0.047271125 0.028295755 1.3069098e-38
0.12871782 0.051154777 0.027722657 1.205711e-38
0.12871782 0.055038437 0.027149498 1.1046542e-38
0.12949404 0.059163772 0.026421487 1.003667e-38
0.12968811 0.062460572 0.025905192 1.003705e-38
0.13001154 0.073133454 0.024280548 1.1507509e-38
0.12742408 0.084841795 0.022949994 2.1465018e-38
0.12742408 0.086783618 0.022663414 2.3310344e-38
0.12613034 0.047975764 0.028588951 1.3809883e-38
0.12580691 0.051219314 0.028159976 1.2335483e-38
0.12481818 0.084222049 0.023271203 2.2664286e-38
0.1247131 0.087284669 0.021869838 2.2760436e-38
0.12468848 0.091120526 0.021080136 2.3232581e-38
0.12396757 0.094881549 0.019954264 1.887668e-38
0.12098403 0.0833029 0.022887766 2.2011012e-38
0.12160092 0.086681738 0.02050525 2.2932252e-38
0.12192293 0.08957462 0.020028889 2.2943416e-38
0.12192293 0.094085768 0.019363165 2.276759e-38
0.11617862 0.080717348 0.024944425 2.2558428e-38
0.11710995 0.082605779 0.0226143 2.2741729e-38
0.11280424 0.079982549 0.02372086 2.2836078e-38
0.10866494 0.077490449 0.026915014 2.2556235e-38
0.10927802 0.079273954 0.024074733 2.2649889e-38
0.10413688 0.073707208 0.028168499 2.2926106e-38
0.10517439 0.076497503 0.026721179 2.2556976e-38
0.10546992 0.078923792 0.024535716 2.2463355e-38
0.10154942 0.073764578 0.028557301 2.1914852e-38
0.10143566 0.076111302 0.026751637 2.2280741e-38
0.097327024 0.073493421 0.02899003 2.1181243e-38
0.097522311 0.075459875 0.026880622 2.2097799e-38
0.09292452 0.060578793 0.031827331 1.9150052e-38
0.092888817 0.064235076 0.03072536 1.8320294e-38
0.092675224 0.068724118 0.029436767 1.7396907e-38
0.093233645 0.072329447 0.028744578 1.8965316e-38
0.093870386 0.075312048 0.026849627 2.2373332e-38
0.089043319 0.05289755 0.033556759 2.0809211e-38
0.089214593 0.056133159 0.032286227 1.9884401e-38
0.089149997 0.059535503 0.030686438 1.8688005e-38
0.088981628 0.063919701 0.029417753 1.730758e-38
0.088432759 0.068405963 0.028294623 1.6383836e-38
0.089291483 0.071394354 0.027721822 1.675336e-38
0.085248373 0.048493922 0.034789264 2.1268751e-38
0.085334837 0.052268662 0.033401132 2.1084014e-38
0.085068144 0.055549145 0.031266212 1.9332309e-38
0.08489053 0.058495551 0.030300975 1.7308658e-38
0.085427225 0.062457748 0.02963388 1.6844071e-38
0.082143418 0.045714758 0.035676122 2.1083284e-38
0.081546217 0.048411556 0.035184026 2.0901043e-38
0.081006624 0.051803701 0.032804966 2.0348947e-38
0.081219502 0.055161372 0.031356633 1.8687999e-38
0.077291913 0.045498699 0.036452889 2.0072006e-38
0.076935589 0.048319563 0.035296023 1.9796852e-38
0.07702402 0.051535025 0.03253597 1.9335525e-38
0.076901428 0.1121715 0.025140226 2.1187729e-38
0.073087282 0.045915566 0.037036896 1.9522073e-38
0.073025949 0.048292801 0.034991503 1.942915e-38
0.074263833 0.050675571 0.033086538 1.8417884e-38
0.073001802 0.11271814 0.024806321 1.7314791e-38
0.072213039 0.11490338 0.026649773 1.7865813e-38
0.06886737 0.045623928 0.037216663 1.8137348e-38
0.069132522 0.048294917 0.034907281 1.7947562e-38
0.067823417 0.050818384 0.034054279 1.7216469e-38
0.069147162 0.11548556 0.02544415 1.5561958e-38
0.065320581 0.045419991 0.038132131 1.7859675e-38
0.065269843 0.048408784 0.035710752 1.6560329e-38
0.064925238 0.051204868 0.034442246 1.9244756e-38
0.065282077 0.11626655 0.026149571 1.5009863e-38
0.061443679 0.046173759 0.038786471 1.6938077e-38
0.061430193 0.048677906 0.037737429 1.6937015e-38
0.061383002 0.051605642 0.034926951 1.9885095e-38
0.06159275 0.11532268 0.026806533 1.1231277e-38
0.057557635 0.048806101 0.03865391 1.7124628e-38
0.057518743 0.051562436 0.035526633 1.9613547e-38
0.057272047 0.11258087 0.027377963 1.8413503e-38
0.058201127 0.11474538 0.028653979 1.5742002e-38
0.053681284 0.049905904 0.039427519 1.7675651e-38
0.053661644 0.051752545 0.036908805 1.9244037e-38
0.053920023 0.11265519 0.027881682 1.8879225e-38
0.052387558 0.11498581 0.030022264 1.9713639e-38
0.04980009 0.050315604 0.039962947 1.7671717e-38
0.049793541 0.051993355 0.037671626 1.8782352e-38
0.051078342 0.11305682 0.027440667 1.7313726e-38
0.049798533 0.11489454 0.029751718 1.777507e-38
0.045918889 0.050401665 0.040546179 1.7028495e-38
0.045925818 0.051871784 0.037669837 1.7766748e-38
0.045664884 0.11288247 0.029320002 1.5283969e-38
0.041891009 0.05266872 0.038912952 1.6754034e-38
0.04141771 0.055270605 0.037451446 1.6749376e-38
0.042047672 0.1121563 0.030834615 1.6389939e-38
0.038591973 0.053539939 0.040867209 1.6569299e-38
0.037936747 0.056792848 0.037965775 1.4081822e-38
0.036265373 0.059896 0.037559927 1.3347465e-38
0.038197495 0.10947575 0.029946744 1.9525314e-38
0.037806854 0.11170052 0.031431198 2.1369928e-38
0.035569027 0.054514818 0.041528225 1.5279987e-38
0.03412807 0.05686944 0.040635228 1.3069818e-38
0.033045158 0.059967406 0.038043797 1.2703885e-38
0.033794835 0.11215654 0.031454146 2.0632379e-38
0.030406579 0.057795614 0.04132551 1.1688686e-38
0.029180899 0.060053088 0.038624465 1.1692985e-38
0.029787496 0.11386067 0.032124519 1.6851273e-38
0.028496601 0.11518101 0.032127917 1.5562349e-38
0.026783511 0.058019429 0.041951001 1.0311137e-38
0.025494054 0.060945608 0.040251672 9.5714262e-39
0.024028584 0.064034037 0.038828015 9.206601e-39
0.025293693 0.11573061 0.031771719 1.3164521e-38
0.023925431 0.058656663 0.042704701 9.2058541e-39
0.022859111 0.061221138 0.042149246 8.4683115e-39
0.021436781 0.06543985 0.039427519 8.3750326e-39
0.02004423 0.062626377 0.042714775 7.2697571e-39
0.018453516 0.065802462 0.041851401 7.2697388e-39
0.017113142 0.069714896 0.040073991 7.2676145e-39
0.016163014 0.067890644 0.042533815 5.9783092e-39
0.014486231 0.071221627 0.041277289 7.0807065e-39
0.013701499 0.074001268 0.03939718 6.4382153e-39
0.013062745 0.07786613 0.038811266 5.7953431e-39
0.012281828 0.071860366 0.042543888 7.2693731e-39
0.011112273 0.074094437 0.040008247 6.991724e-39
0.010611221 0.078189373 0.039208114 6.8087593e-39
0.0066394359 0.084397554 0.038492799 1.2059908e-38
0.15261322 0.066780329 0.02583766 2.209852e-38
0.14784192 0.051695108 0.028796375 1.9522082e-38
0.1480588 0.055162534 0.02825141 1.9612491e-38
0.14825451 0.059167698 0.027046025 1.9704339e-38
0.14899808 0.063519277 0.026289701 1.9244071e-38
0.14928716 0.068077944 0.025645554 2.0255346e-38
0.14891168 0.072005682 0.025225997 2.1457116e-38
0.14740816 0.076010384 0.025274754 2.1828063e-38
0.14740816 0.081218727 0.024506092 2.1547867e-38
0.14477454 0.051299401 0.029098451 1.906039e-38
0.14468113 0.05511412 0.02786833 1.8878513e-38
0.1446338 0.058968447 0.026965976 1.8877072e-38
0.14461827 0.063502058 0.026185751 1.7678526e-38
0.14458729 0.068015821 0.025297165 1.8506847e-38
0.14460295 0.071931243 0.02483058 1.8692335e-38
0.14464986 0.075884856 0.024580717 1.9796895e-38
0.14459088 0.07991384 0.024747789 1.9521727e-38
0.14350435 0.08325842 0.024804473 1.6945244e-38
0.14090183 0.048159741 0.030383646 2.0168164e-38
0.14078194 0.05129955 0.029029906 1.8601573e-38
0.14067706 0.055095382 0.027690589 1.7956209e-38
0.14063162 0.058945701 0.026788592 1.7681039e-38
0.14063162 0.063489817 0.02611798 1.6576135e-38
0.14106412 0.067591578 0.025446296 1.6299197e-38
0.14128037 0.071914516 0.024775147 1.5745657e-38
0.14081094 0.076003455 0.024371624 1.4915198e-38
0.14072232 0.079832844 0.024373949 1.5287199e-38
0.14081216 0.083849788 0.024448931 1.5838197e-38
0.13960055 0.086600214 0.024910688 1.6201989e-38
0.13628361 0.044294752 0.031151772 1.9801568e-38
0.13688317 0.047484756 0.030191422 1.6943479e-38
0.13678269 0.051284887 0.028850853 1.5194991e-38
0.1367391 0.053838715 0.02813977 1.3997891e-38
0.13673912 0.076689161 0.024767756 1.0678856e-38
0.13673912 0.079805136 0.024307966 1.1599029e-38
0.13682584 0.083818391 0.024384022 1.4087579e-38
0.13673842 0.087488636 0.024634838 1.6854169e-38
0.13179296 0.040549174 0.032905221 1.7034254e-38
0.13291603 0.04360348 0.03080529 1.445385e-38
0.13362512 0.047156513 0.029604018 1.2516684e-38
0.13414411 0.051299617 0.028912902 1.1600414e-38
0.13414413 0.053896256 0.028529704 1.0311069e-38
0.13284662 0.076775476 0.025352657 9.8519606e-39
0.13284662 0.079891451 0.024892867 1.0953293e-38
0.1328606 0.083806269 0.024426579 1.3349276e-38
0.13294312 0.087824225 0.024502635 1.6939114e-38
0.13283397 0.091177359 0.025274158 1.7215358e-38
0.12913135 0.040549442 0.032802582 1.4913006e-38
0.12876877 0.043257952 0.030924976 1.3624085e-38
0.12798099 0.058901623 0.028737307 1.0496584e-38
0.1285114 0.064302698 0.02824229 9.9434191e-39
0.12907103 0.068447374 0.028183758 9.8508802e-39
0.12889439 0.072169267 0.027533829 1.0676681e-38
0.12920421 0.076366074 0.02673912 1.1322415e-38
0.12899309 0.080034479 0.025804222 1.1412096e-38
0.12911631 0.083706833 0.024902523 1.5926795e-38
0.12932484 0.08794494 0.024245083 2.1186604e-38
0.12891056 0.091692552 0.024778068 2.2946524e-38
0.1277729 0.094480246 0.024541378 2.3382646e-38
0.12526757 0.040674284 0.033718169 1.4546043e-38
0.12511122 0.043763489 0.031866372 1.4270877e-38
0.12470672 0.047446325 0.03107667 1.4085757e-38
0.12428313 0.051518291 0.030394673 1.2243293e-38
0.12454263 0.055926822 0.029704273 1.1232371e-38
0.12507391 0.059306875 0.029237509 1.0496586e-38
0.12520194 0.064021409 0.02968657 9.0221887e-39
0.12626258 0.068341203 0.029653013 8.097385e-39
0.1265879 0.072565779 0.028979659 8.923931e-39
0.12593725 0.077788562 0.028308809 1.0766005e-38
0.12519914 0.080272689 0.027260363 1.1959539e-38
0.12506162 0.082660705 0.02567941 1.7955154e-38
0.12643538 0.095745191 0.024219275 1.610935e-38
0.1226841 0.040751159 0.034273922 1.4731496e-38
0.12131118 0.043955564 0.033330321 1.4270514e-38
0.12125181 0.04778906 0.032205641 1.3624414e-38
0.12116913 0.051587343 0.03086257 1.2059265e-38
0.12116913 0.055482298 0.030287802 1.0680284e-38
0.12121619 0.059440583 0.03015089 9.668979e-39
0.12147848 0.063308932 0.030491114 8.1913364e-39
0.12111356 0.080487013 0.027628779 1.4447725e-38
0.11807812 0.045349017 0.033791363 1.2706434e-38
0.11742239 0.047958389 0.033450186 1.1601871e-38
0.11737783 0.051803999 0.032435119 1.0953996e-38
0.11732141 0.055628642 0.031311452 8.0084333e-39
0.11735492 0.059573755 0.031064868 5.3401355e-39
0.11799281 0.063578188 0.031187415 4.7833659e-39
0.11769805 0.080244645 0.028802454 1.8601538e-38
0.11407625 0.048598588 0.034232974 8.6527251e-39
0.11354276 0.051977418 0.033679903 8.4701149e-39
0.11368942 0.055692747 0.032938719 6.7148261e-39
0.11484402 0.059756696 0.032332122 3.6817113e-39
0.1132265 0.077702321 0.030017436 2.0163113e-38
0.11412937 0.07918033 0.028893948 2.1823712e-38
0.10887308 0.073186092 0.031403482 1.9892648e-38
0.10953659 0.076380551 0.029501081 2.2099222e-38
0.10446639 0.065243781 0.033456624 1.7771057e-38
0.10555303 0.069190294 0.032068312 1.7767502e-38
0.10582545 0.072659992 0.030875504 2.0903196e-38
0.10624788 0.07528796 0.029655933 2.2282914e-38
0.10056258 0.049705267 0.036348939 1.7861107e-38
0.10108308 0.052558318 0.035848022 1.7126401e-38
0.10170119 0.056353226 0.035193086 1.6108676e-38
0.10184678 0.060061313 0.034396291 1.6848389e-38
0.10181192 0.0645511 0.033284724 1.823133e-38
0.10174178 0.068965472 0.031735241 1.8412152e-38
0.10170664 0.072421081 0.030776322 1.9979482e-38
0.097092547 0.045441926 0.037510931 1.8685484e-38
0.097944245 0.04843282 0.036711514 1.8224853e-38
0.097895399 0.052250527 0.035474062 1.7950793e-38
0.097887084 0.056136802 0.034788191 1.8594733e-38
0.097871296 0.060005583 0.033992529 1.9151483e-38
0.097845182 0.064501047 0.032963991 1.8690152e-38
0.097814143 0.068983383 0.031881213 1.8319225e-38
0.098073639 0.072093599 0.031382442 1.9423796e-38
0.094056256 0.042037018 0.038479567 1.9699616e-38
0.094019473 0.04457441 0.037542701 1.9332654e-38
0.09398894 0.048422009 0.03652519 1.9517036e-38
0.09396714 0.052278921 0.035618603 2.0348217e-38
0.093944706 0.056132056 0.034712613 1.979399e-38
0.094365671 0.059562497 0.033971369 1.9424853e-38
0.095219135 0.064496793 0.032941699 1.8596523e-38
0.095219135 0.068391748 0.032366872 1.7950432e-38
0.089688197 0.041207373 0.038761497 2.1543902e-38
0.09008415 0.044594295 0.03757596 2.1452439e-38
0.090043262 0.048410565 0.036337495 2.1268772e-38
0.090461642 0.051835485 0.03554064 2.0992527e-38
0.091326632 0.05549486 0.034867764 1.9976953e-38
0.086051464 0.041001968 0.03922224 2.2003445e-38
0.086143076 0.044587359 0.037386894 2.1636109e-38
0.087109752 0.048123024 0.036603034 2.1176211e-38
0.087434135 0.051037051 0.036123216 2.1542835e-38
0.082294732 0.04104168 0.039409757 2.1543549e-38
0.082244143 0.044498265 0.03788507 2.1176556e-38
0.080946632 0.047285952 0.037672818 2.0809925e-38
0.077790424 0.03849142 0.041500092 2.1820134e-38
0.078391597 0.04095275 0.039908588 2.0992171e-38
0.078567892 0.044309296 0.038477361 2.0532262e-38
0.077747598 0.11379239 0.029372036 2.2482424e-38
0.077096969 0.11510701 0.029277921 2.2484953e-38
0.074202649 0.038217485 0.041835725 2.1361681e-38
0.074476719 0.040988594 0.04005003 2.0438999e-38
0.074459143 0.044184014 0.039126694 1.9703952e-38
0.074742831 0.11585014 0.029120862 2.1557224e-38
0.070886649 0.038101293 0.042413116 2.0256045e-38
0.070320323 0.041205324 0.040610671 1.9608886e-38
0.070195936 0.044185817 0.039780974 1.9151145e-38
0.071899436 0.11782268 0.029675186 1.934167e-38
0.069280282 0.11902849 0.02921778 1.648285e-38
0.066729672 0.038736701 0.043162167 1.8229542e-38
0.066269405 0.041234188 0.041841805 1.8229539e-38
0.065376647 0.043736242 0.040587187 1.7951164e-38
0.065835647 0.11969075 0.030330479 1.5191736e-38
0.062371247 0.041320629 0.04242754 1.7770355e-38
0.061484151 0.044471726 0.041076303 1.6756203e-38
0.061484151 0.1178268 0.030251205 1.1048039e-38
0.062803134 0.11932459 0.030850112 1.2983388e-38
0.058472693 0.041407913 0.043013215 1.6939514e-38
0.057593063 0.045220435 0.041676819 1.6201597e-38
0.058037244 0.1170097 0.031753123 1.4729327e-38
0.054689601 0.04172653 0.044185996 1.5375075e-38
0.053702936 0.045346707 0.04259634 1.5740615e-38
0.053699158 0.048409484 0.041690469 1.6939155e-38
0.053967953 0.11640076 0.032638073 2.0352156e-38
0.050593965 0.04247991 0.045087099 1.5186328e-38
0.049810454 0.045527548 0.043962479 1.6752976e-38
0.050461255 0.11711031 0.033582985 1.9707203e-38
0.045909427 0.043104634 0.0457142 1.5923919e-38
0.045910984 0.045627281 0.044660032 1.6936274e-38
0.045914158 0.049198814 0.042769253 1.6660791e-38
0.045585997 0.11613128 0.033964813 1.6112657e-38
0.042171277 0.045908257 0.045490861 1.7306138e-38
0.042013422 0.049574114 0.044335186 1.6752614e-38
0.041372903 0.1143778 0.033847928 1.8420744e-38
0.042268701 0.11653396 0.03502816 1.7222922e-38
0.038752452 0.047169589 0.04621309 1.6105806e-38
0.038267657 0.049915075 0.04562676 1.6107605e-38
0.037254423 0.052669674 0.04426825 1.6107965e-38
0.038129158 0.11444972 0.034335315 2.1736912e-38
0.038108654 0.11673412 0.035535038 2.1642924e-38
0.035065539 0.050723597 0.046254754 1.5375412e-38
0.034067236 0.053405486 0.044350863 1.51885e-38
0.034229584 0.11460993 0.035251319 2.0817854e-38
0.034210265 0.11613233 0.036051989 2.0907899e-38
0.030507848 0.054082282 0.045290411 1.3436443e-38
0.030344144 0.056197941 0.044126868 1.2150384e-38
0.031641655 0.11459358 0.035310149 1.9152573e-38
0.030308492 0.11754192 0.036540449 1.69431e-38
0.027267508 0.054757938 0.046515763 1.0860352e-38
0.026111506 0.056684561 0.045216143 1.0124233e-38
0.026730098 0.11861309 0.037004709 1.3443969e-38
0.022528946 0.058000527 0.045912862 8.4672199e-39
0.021261655 0.060943462 0.044821024 7.5442056e-39
0.023822285 0.11888877 0.036899328 1.114196e-38
0.018918142 0.05896765 0.047261655 7.2654579e-39
0.018483035 0.061563425 0.04566741 6.438923e-39
0.017369159 0.06427557 0.044926941 6.8977081e-39
0.015980288 0.059393346 0.047905564 8.6451413e-39
0.01511278 0.062450804 0.047587574 7.725336e-39
0.014603294 0.066270486 0.046172619 6.5307403e-39
0.013892666 0.070030451 0.044952333 6.6215178e-39
0.011113361 0.068252042 0.047089815 7.2686416e-39
0.010625392 0.071029089 0.046754956 7.636355e-39
0.15714781 0.047656193 0.032053351 2.1364917e-38
0.14175096 0.05364728 0.031630278 2.0440075e-38
0.15760826 0.072726101 0.027874112 2.2934386e-38
0.15714781 0.076467976 0.027801573 2.200885e-38
0.15714781 0.079742044 0.027318418 2.2192151e-38
0.15420301 0.04477483 0.032930672 2.163935e-38
0.15447932 0.047672838 0.032119691 2.1271643e-38
0.15437627 0.051513948 0.030887187 2.0533718e-38
0.1543425 0.055407405 0.03009057 2.0718824e-38
0.15429118 0.059281915 0.029185832 2.1363822e-38
0.15432531 0.063888155 0.028728127 2.246622e-38
0.15444365 0.068578601 0.027719498 2.2747494e-38
0.15432559 0.072384685 0.027474165 2.3119513e-38
0.15441091 0.076397903 0.027436912 2.1734052e-38
0.15446243 0.080379255 0.027182281 2.1548223e-38
0.15387583 0.084398299 0.027133703 2.1825898e-38
0.15322141 0.08703205 0.026845455 2.2655661e-38
0.14798622 0.041311212 0.034396291 2.182769e-38
0.14977096 0.044009961 0.033724129 2.1550013e-38
0.14976549 0.047660753 0.031908095 2.0811376e-38
0.15017891 0.051343836 0.030647755 2.0165294e-38
0.15095976 0.055374674 0.029819489 2.0442596e-38
0.15109026 0.059028178 0.029260337 2.0809226e-38
0.15161228 0.063848279 0.028468847 2.0993964e-38
0.15161228 0.072336353 0.027216256 2.2192525e-38
0.15035708 0.076338306 0.027159154 2.1825521e-38
0.14991409 0.080185384 0.02687639 2.1916283e-38
0.14979051 0.084294513 0.026668549 2.0996487e-38
0.14973137 0.088249817 0.026922822 2.1643662e-38
0.14885876 0.091930762 0.026792407 2.1826982e-38
0.14405982 0.037469402 0.035566032 2.2379792e-38
0.14518166 0.040437959 0.0349558 2.1920599e-38
0.14527521 0.043909296 0.033747494 2.1640769e-38
0.14513403 0.047710389 0.032185733 2.0348967e-38
0.14639214 0.080287255 0.026844442 2.1268786e-38
0.14550048 0.084463045 0.026657283 1.7768905e-38
0.1452283 0.088333994 0.026858151 1.7034265e-38
0.1453532 0.09242402 0.027144253 1.8415024e-38
0.14458334 0.09612906 0.026829302 1.8048384e-38
0.14144222 0.037527442 0.035959363 2.2470914e-38
0.14141244 0.04012125 0.035354018 2.2104991e-38
0.1412625 0.043917418 0.033680737 2.145783e-38
0.14117202 0.046450704 0.032639205 2.0721683e-38
0.14140293 0.088489652 0.026911259 1.6390673e-38
0.14133757 0.092385724 0.027084827 1.6022239e-38
0.14136717 0.096353471 0.026721895 1.5654181e-38
0.14118049 0.099609554 0.026838124 1.5471246e-38
0.13751584 0.0369597 0.036646068 2.2471987e-38
0.13742954 0.040157951 0.035505652 2.2380852e-38
0.13780521 0.043415189 0.033808529 2.1734069e-38
0.13790944 0.089616358 0.026770115 1.7686773e-38
0.13734365 0.092368379 0.027132452 1.3071632e-38
0.13738638 0.096353903 0.026878595 1.1231678e-38
0.13747267 0.10041071 0.026948214 1.0584132e-38
0.13751583 0.10309583 0.026886225 9.576747e-39
0.13352817 0.036992505 0.03674221 2.1555418e-38
0.13375035 0.039931946 0.035032809 2.0265044e-38
0.13366809 0.093301505 0.026877463 1.3065442e-38
0.13347897 0.096462607 0.027576089 1.0402257e-38
0.13375846 0.1001571 0.02775079 1.0493015e-38
0.12954488 0.037025511 0.036837637 1.7955098e-38
0.12942672 0.038875997 0.03556031 1.6201231e-38
0.1281217 0.075468957 0.030360579 1.0956524e-38
0.13073176 0.093693078 0.027270496 1.803886e-38
0.12972349 0.096712574 0.028129935 1.1776149e-38
0.13031745 0.099326566 0.028547645 1.0128542e-38
0.12562414 0.037112452 0.03742677 1.6110842e-38
0.12551163 0.038962811 0.036148548 1.518852e-38
0.12477288 0.069338322 0.032188475 6.8999222e-39
0.12523413 0.073061049 0.032035708 7.5445909e-39
0.12538895 0.076557986 0.031203628 9.8451587e-39
0.12168527 0.037181154 0.037850976 1.4913018e-38
0.12125393 0.040209033 0.036910415 1.4271227e-38
0.12127028 0.066153407 0.032787204 6.7165847e-39
0.12186676 0.069073156 0.033287168 5.7946662e-39
0.12279185 0.072973505 0.033592045 6.3485687e-39
0.12175109 0.077158272 0.032566249 8.00229e-39
0.12290157 0.079502277 0.030566871 8.9224681e-39
0.11784949 0.037358806 0.039265752 1.3259934e-38
0.11783824 0.040618904 0.038672686 1.2429456e-38
0.11756676 0.044074878 0.037344277 1.1232013e-38
0.11701799 0.065711975 0.034732223 3.8657172e-39
0.11883969 0.069093466 0.034515858 4.9648901e-39
0.1178168 0.077226795 0.033046603 9.8390098e-39
0.11898647 0.079589091 0.031155169 1.2793908e-38
0.11526626 0.040727131 0.039506078 9.4673504e-39
0.11386191 0.044564612 0.038133025 8.8305878e-39
0.11311383 0.047725804 0.0367589 9.3859546e-39
0.11246131 0.057534203 0.035411656 5.9779757e-39
0.11316066 0.060202368 0.035421789 4.7848107e-39
0.11390906 0.063601851 0.035827637 5.0613611e-39
0.11264866 0.070906579 0.035454392 7.3526046e-39
0.11348997 0.073889166 0.03454423 1.1313397e-38
0.11412366 0.076468587 0.03338474 1.5462216e-38
0.1100011 0.044731706 0.039382696 1.5559347e-38
0.10992098 0.048547849 0.037923038 1.2793557e-38
0.10990056 0.052441426 0.037124276 1.1227318e-38
0.1098908 0.056346796 0.036435962 9.4763369e-39
0.10993095 0.060329728 0.036296368 8.8302444e-39
0.11001608 0.065047033 0.036552906 8.3724991e-39
0.10997196 0.069551155 0.035383701 1.0951117e-38
0.11092181 0.073074438 0.034377158 1.5745608e-38
0.11115628 0.075845152 0.03290987 1.9985572e-38
0.10479587 0.038340047 0.041465938 2.3120919e-38
0.10512307 0.04127945 0.040981948 2.2471951e-38
0.10604892 0.044779122 0.039641738 1.9981587e-38
0.10602041 0.048662975 0.038732171 1.8324577e-38
0.10598339 0.052527674 0.03771311 1.7217876e-38
0.10594572 0.056387976 0.036694765 1.5008062e-38
0.10593614 0.060290605 0.036006629 1.2977627e-38
0.10639989 0.064683683 0.03562814 1.353224e-38
0.10732732 0.068250105 0.035640955 1.5004805e-38
0.10217828 0.037743285 0.041955948 2.2929368e-38
0.10212649 0.040941395 0.040810227 2.2191778e-38
0.10208263 0.044799902 0.039679587 2.043933e-38
0.10221437 0.048504785 0.038700759 1.8690858e-38
0.10299982 0.052194111 0.037652373 1.7310793e-38
0.10332608 0.055125058 0.037169755 1.611011e-38
0.098002374 0.037460163 0.041762471 2.0808855e-38
0.098146901 0.040939279 0.040626287 2.015951e-38
0.098540962 0.044349015 0.039494634 1.8505044e-38
0.094454765 0.037538834 0.042295516 2.0530815e-38
0.094202086 0.040328965 0.04092443 2.0069114e-38
0.090327464 0.037876487 0.042562842 2.1447766e-38
0.091145784 0.040160134 0.041248202 2.1360577e-38
0.086398318 0.037944973 0.042985559 2.2274301e-38
0.087665699 0.039802022 0.041835368 2.2000939e-38
0.081237495 0.034933552 0.045585632 2.2185694e-38
0.082495935 0.037413672 0.044004023 2.2003099e-38
0.082445577 0.039917774 0.042619765 2.1635751e-38
0.082848787 0.11303836 0.033301055 2.3324408e-38
0.078881666 0.034461953 0.046016991 2.1359162e-38
0.078761883 0.03712301 0.044620216 2.1543558e-38
0.0798821 0.11397673 0.033106804 2.2768365e-38
0.077718198 0.11736874 0.033279359 2.2858762e-38
0.077311099 0.12014633 0.033613563 2.2672918e-38
0.07443174 0.034560628 0.046685636 2.0163501e-38
0.074908018 0.036776155 0.045058548 2.1177661e-38
0.074629024 0.11851817 0.032561541 2.2388433e-38
0.074673973 0.12074529 0.033418894 2.2849755e-38
0.070755661 0.034475781 0.04692173 1.9704311e-38
0.070399091 0.036674857 0.045714676 2.0162415e-38
0.070906624 0.1216425 0.032915473 1.8971443e-38
0.070583344 0.12522244 0.033258379 2.0536611e-38
0.066840723 0.034597993 0.047845602 1.8688012e-38
0.066803373 0.03707204 0.046122909 1.8689085e-38
0.067046188 0.12200594 0.032870293 1.5189976e-38
0.066812754 0.12538224 0.033430338 1.9800835e-38
0.066830829 0.1281565 0.033699751 2.2194658e-38
0.062914319 0.035339862 0.04833889 1.7671681e-38
0.06288483 0.03781186 0.046615362 1.6658611e-38
0.063153595 0.1220628 0.034482002 1.353585e-38
0.064223111 0.12436543 0.035000384 1.6943149e-38
0.058987916 0.035426922 0.048928916 1.7307973e-38
0.058971457 0.037935317 0.047538877 1.7399396e-38
0.057649963 0.11881906 0.034783185 1.5644441e-38
0.05896534 0.12024821 0.035051942 1.1690143e-38
0.055048905 0.038380675 0.047929347 1.6755125e-38
0.053734861 0.040554412 0.046933889 1.5741706e-38
0.055039898 0.11887693 0.035175383 1.8691895e-38
0.054726228 0.12080303 0.036217391 1.7679859e-38
0.05112996 0.038764305 0.048620403 1.5185303e-38
0.050799355 0.040974408 0.047578156 1.5094169e-38
0.051125892 0.11903934 0.036093175 2.016781e-38
0.051132001 0.12122887 0.036791503 1.9705359e-38
0.047470227 0.039064981 0.049955904 1.4633564e-38
0.047209069 0.041427873 0.048488498 1.5280347e-38
0.047209457 0.11851105 0.03694284 1.7406611e-38
0.047209069 0.12131587 0.037381053 1.8139128e-38
0.043287463 0.042444177 0.049451888 1.5464724e-38
0.043288469 0.11936432 0.037930131 1.6482487e-38
0.0432854 0.12144129 0.03813529 1.6389939e-38
0.039357938 0.043172613 0.050595224 1.5836382e-38
0.039113432 0.045366317 0.048877656 1.6294852e-38
0.039696924 0.1190608 0.038270772 1.9338011e-38
0.039358422 0.12125814 0.039020956 1.7956886e-38
0.036738344 0.043778047 0.051112592 1.5646611e-38
0.035440765 0.046344377 0.050251424 1.4359114e-38
0.035133332 0.049159758 0.048775554 1.4912655e-38
0.035192959 0.11893079 0.038828135 2.1183013e-38
0.035429545 0.12107503 0.03990674 2.0168494e-38
0.03216286 0.047122784 0.051065922 1.2240422e-38
0.031697564 0.050426409 0.049499571 1.279504e-38
0.030219316 0.052959271 0.049736142 1.417976e-38
0.032412283 0.11901902 0.038969338 1.8691958e-38
0.031519182 0.12100929 0.039835215 1.6573603e-38
0.027576759 0.051838957 0.051329613 1.0856023e-38
0.027278766 0.053350955 0.050129831 1.0857118e-38
0.027292654 0.12123935 0.039598107 1.3528985e-38
0.024108931 0.054882005 0.050731421 8.7395272e-39
0.022414081 0.056919217 0.049327731 8.0977381e-39
0.023683511 0.12110682 0.04068315 1.0495859e-38
0.018988617 0.05762662 0.05056721 7.908312e-39
0.017106369 0.0553452 0.052419782 1.0307153e-38
0.017106369 0.057309642 0.052129865 9.3837517e-39
0.011973836 0.063680008 0.049932957 8.831308e-39
0.010995053 0.066639893 0.049646437 8.1866393e-39
0.071011044 0.089447156 0.015595376 1.1508238e-38
0.071286857 0.098523885 0.016400456 1.1785915e-38
0.066285491 0.068755232 0.022441685 1.4728946e-38
0.014287561 0.11317107 0.028982759 8.2889495e-39
0.040073358 0.083649278 0.028943896 1.2797533e-38
0.037134342 0.089131013 0.027170956 1.4269424e-38
0.005598098 0.096523002 0.032773614 1.2431254e-38
0.10537522 0.068615034 0.029207766 1.813843e-38
0.084635906 0.063897341 0.031297505 1.7401218e-38
0.082635418 0.060244977 0.032074988 1.5652381e-38
0.080988154 0.074857093 0.030304909 1.5836768e-38
0.083216585 0.070061736 0.031402111 1.6114079e-38
0.12450299 0.068197966 0.033608079 1.3711581e-38
0.1179292 0.058898903 0.032656491 1.9887256e-38
0.096648008 0.061038002 0.033914447 1.9147545e-38
0.09398894 0.048422009 0.03652519 1.9517036e-38
0.089279905 0.049444102 0.036543548 2.0990735e-38
0.10216829 0.046264663 0.036127329 2.1545711e-38
0.11628573 0.049762093 0.034115791 2.0809218e-38
0.11182662 0.053402178 0.035003722 2.1269473e-38
0.11507599 0.056569099 0.035656095 2.1084361e-38
0.087032013 0.038873509 0.042410493 2.2091702e-38
0.10355462 0.060811184 0.039056063 1.7954029e-38
0.11009356 0.049809657 0.0350824 2.1177283e-38
0.15367755 0.092175812 0.02908355 2.2293697e-38
0.14885792 0.037260167 0.037927568 2.2470533e-38
0.15046352 0.040089533 0.036519885 2.2010998e-38
0.15221295 0.0427659 0.035577476 2.1827684e-38
0.15221295 0.090048134 0.028599977 2.3114822e-38
0.15119292 0.092998415 0.028525651 2.2102842e-38
0.14965351 0.09675926 0.028456926 2.2017503e-38
0.14880973 0.099889398 0.028351784 2.2295155e-38
0.14572081 0.036616772 0.037992835 2.228759e-38
0.1463064 0.038956694 0.037046492 2.2196461e-38
0.14663455 0.097067147 0.028420687 1.9613567e-38
0.14552292 0.10041535 0.028535426 1.9708638e-38
0.14177996 0.035827622 0.038714349 2.2286886e-38
0.14204058 0.1017659 0.028432608 1.6208462e-38
0.14119029 0.10363257 0.029310107 1.492025e-38
0.13658974 0.034024775 0.040288508 2.2192851e-38
0.1379042 0.035310924 0.039896965 2.2103918e-38
0.13783967 0.10508305 0.029099226 9.4831556e-39
0.13357079 0.033709794 0.040287256 2.1921304e-38
0.13383704 0.035292998 0.039501607 2.1920953e-38
0.13318077 0.1022907 0.029715478 1.0310059e-38
0.13437803 0.10462613 0.030038893 9.3891874e-39
0.1299466 0.033582248 0.040760338 2.1274143e-38
0.12989935 0.035380319 0.040093303 2.0628401e-38
0.13081439 0.10153565 0.03053093 1.0863933e-38
0.12626955 0.033663787 0.041312873 1.8600862e-38
0.12596166 0.035467632 0.040684938 1.7311549e-38
0.12213082 0.034345403 0.042461216 1.6389227e-38
0.12202395 0.035554945 0.041276634 1.5378668e-38
0.12071139 0.071045727 0.036240757 5.4244544e-39
0.12123642 0.073923551 0.035735488 6.3438982e-39
0.11950191 0.034403689 0.042856157 1.5372534e-38
0.11815309 0.035712838 0.042529166 1.3811692e-38
0.11733846 0.070133016 0.037302315 5.3325853e-39
0.11810853 0.073765978 0.036466122 5.9761764e-39
0.11439041 0.037475981 0.042749345 1.3437823e-38
0.1135079 0.041016325 0.041948557 1.3341669e-38
0.11414856 0.06659437 0.037905276 5.8868114e-39
0.11434917 0.069768138 0.037789524 5.7024356e-39
0.11502361 0.072923042 0.036836982 6.4356832e-39
0.11030079 0.037895933 0.043753564 2.0167018e-38
0.11025103 0.04112035 0.042717218 1.8323063e-38
0.1063153 0.037490249 0.04391402 2.3118401e-38
0.10706072 0.040877648 0.042788506 2.1733289e-38
0.10213585 0.034241423 0.045341909 2.3115186e-38
0.10233548 0.03599152 0.044235051 2.3116271e-38
0.098422408 0.034142971 0.045449436 2.1360959e-38
0.099054068 0.03606429 0.04472816 2.1637545e-38
0.094471 0.034213215 0.045875311 2.0437577e-38
0.093803808 0.036180705 0.045517027 2.0715584e-38
0.090542629 0.034317702 0.046633422 2.1726865e-38
0.090522401 0.036253467 0.046010137 2.1448846e-38
0.086603366 0.033747725 0.047322333 2.2829963e-38
0.086584702 0.036340788 0.046601832 2.2737058e-38
0.086640731 0.11536443 0.035954118 2.3025486e-38
0.082015902 0.031238794 0.048567355 2.2561648e-38
0.08282391 0.033658832 0.047830582 2.2832841e-38
0.082664408 0.11530514 0.035891652 2.3323322e-38
0.082040146 0.1167817 0.036451221 2.3140739e-38
0.078720488 0.030957907 0.048859179 2.1636453e-38
0.078381173 0.032910854 0.0483675 2.1082577e-38
0.07914684 0.11793622 0.035702646 2.276837e-38
0.0780968 0.12147261 0.036364436 2.2579638e-38
0.074784011 0.031382397 0.049486101 1.9332665e-38
0.075099766 0.032983616 0.04886055 1.9702886e-38
0.074115343 0.12330136 0.035683453 2.2665008e-38
0.073459059 0.12528601 0.035491347 2.2658902e-38
0.070845686 0.031469725 0.050077856 1.9242609e-38
0.070833921 0.032749861 0.049549997 1.9336597e-38
0.067552522 0.031509228 0.050236881 1.8870954e-38
0.066896237 0.032837175 0.050141692 1.8686207e-38
0.062980659 0.031711176 0.0519315 1.8869144e-38
0.062958531 0.03358119 0.05063647 1.8410682e-38
0.061645977 0.12357786 0.037557125 1.2978402e-38
0.06330926 0.12607518 0.037955642 1.7777569e-38
0.059037313 0.031798616 0.05252403 1.73987e-38
0.05902084 0.033668503 0.051228166 1.7492337e-38
0.059029065 0.12309542 0.038541257 1.2517038e-38
0.059694521 0.12516887 0.038644314 1.464079e-38
0.05575119 0.031871468 0.053017735 1.6663297e-38
0.055085123 0.034435451 0.051946402 1.6293074e-38
0.055083156 0.03703931 0.051335275 1.5830306e-38
0.055350371 0.1232851 0.038975894 1.5649452e-38
0.051148586 0.035226323 0.052888453 1.6109756e-38
0.051145457 0.037126623 0.05192697 1.5739185e-38
0.051146545 0.12388816 0.039464116 1.823312e-38
0.052458026 0.12509499 0.038743913 1.7218617e-38
0.04852172 0.035977617 0.053521752 1.5461533e-38
0.047207586 0.037687771 0.052789509 1.5276419e-38
0.047208212 0.12397549 0.040055871 1.7678873e-38
0.044141635 0.039544865 0.053326964 1.5648039e-38
0.042606696 0.0413699 0.053634167 1.58342e-38
0.043265335 0.12414041 0.040977657 1.6388502e-38
0.043266051 0.125416 0.040618956 1.620411e-38
0.039320596 0.041881204 0.05406332 1.5283944e-38
0.03976202 0.12334186 0.041633368 1.7588461e-38
0.035383359 0.043025382 0.054158032 1.3623362e-38
0.035118215 0.12356326 0.042450011 1.8694087e-38
0.032101721 0.044174641 0.054321945 1.1873411e-38
0.030916974 0.046316355 0.054289997 1.1781226e-38
0.030144423 0.049412861 0.05333823 1.1409947e-38
0.031779826 0.1233132 0.042437196 1.6576824e-38
0.028805003 0.048252337 0.054737568 1.1225534e-38
0.027504906 0.050190613 0.054139912 1.0487965e-38
0.027764559 0.12394327 0.04331857 1.1229181e-38
0.026512377 0.12683159 0.043237925 9.5797443e-39
0.026206717 0.12961727 0.042106986 1.4750971e-38
0.024423525 0.05185692 0.054878414 9.1014798e-39
0.022682361 0.054044068 0.054482043 8.2760407e-39
0.024204433 0.12332527 0.044365346 8.5439676e-39
0.02399075 0.12745538 0.043618202 1.0227993e-38
0.023558043 0.12983599 0.043162882 1.5119762e-38
0.020300195 0.056198128 0.053848386 6.9899822e-39
0.02091831 0.12997454 0.043888628 1.5119768e-38
0.020544641 0.095746398 0.024970114 7.9140601e-39
0.057764448 0.09335804 0.016271174 1.1507882e-38
0.067585714 0.090394199 0.013997972 1.2698177e-38
0.087948143 0.091363788 0.009008646 1.6121272e-38
0.10236892 0.089203686 0.0047277212 2.2662506e-38
0.088017315 0.085445464 0.010493696 1.9345609e-38
0.085585915 0.083553672 0.012729645 1.7215749e-38
