# .PCD v0.7 - Point Cloud Data file format
VERSION 0.7
FIELDS x y z rgb
SIZE 4 4 4 4
TYPE F F F F
COUNT 1 1 1 1
WIDTH 976
HEIGHT 1
VIEWPOINT 0 0 0 0 1 0 0
POINTS 976
DATA ascii
0.1614626 0.046858847 0.028192759 1.0681718e-38
0.1664696 0.044668585 0.029840291 1.2157211e-38
0.1685897 0.046849757 0.028487802 1.4550725e-38
0.16959207 0.048243374 0.028148532 1.5653832e-38
0.17274806 0.081150115 0.013722837 1.9890508e-38
0.16821408 0.02916503 0.037218094 4.6922535e-39
0.16854069 0.036578059 0.033676505 8.0055747e-39
0.16854069 0.039881945 0.032221735 1.022039e-38
0.16881119 0.044068217 0.030101657 1.3814203e-38
0.16968605 0.081965119 0.0134027 1.8693742e-38
0.16772003 0.084492981 0.012587786 1.8416087e-38
0.16773412 0.088840216 0.012403488 1.8509362e-38
0.16576095 0.091336638 0.011511266 1.8508654e-38
0.16312873 0.02268815 0.041773736 7.0907552e-39
0.16312735 0.026048869 0.039565325 7.0907552e-39
0.16312666 0.028328925 0.03819716 7.3655484e-39
0.16312458 0.084998548 0.012150228 1.6113736e-38
0.16312733 0.088575184 0.011910737 1.6941324e-38
0.16312873 0.091348976 0.01153928 1.7769678e-38
0.15936846 0.023049921 0.041662157 7.8297257e-39
0.15918286 0.026067317 0.039607227 8.2903718e-39
0.15918589 0.028756857 0.037512362 8.6573775e-39
0.1591877 0.085617483 0.011927485 1.5747456e-38
0.15918691 0.088176489 0.011164963 1.6388879e-38
0.15918308 0.092308521 0.010559559 1.7494858e-38
0.15786433 0.094987273 0.010003805 1.814165e-38
0.15523213 0.022725075 0.0418576 8.1974713e-39
0.15523836 0.026085764 0.039649129 8.2886075e-39
0.15557189 0.028569013 0.037914038 8.7485039e-39
0.15590698 0.085632801 0.011962354 1.5286485e-38
0.15525083 0.088038087 0.010911584 1.5928973e-38
0.15524147 0.092115879 0.010208786 1.7495196e-38
0.15523213 0.094999611 0.010031819 1.8233502e-38
0.15172252 0.023143053 0.041718066 8.8381772e-39
0.15129009 0.026188582 0.039896786 9.2033654e-39
0.15129888 0.028384209 0.038322747 9.4821145e-39
0.15147799 0.088205874 0.010885537 1.5651662e-38
0.15130433 0.091976523 0.0099557638 1.7217551e-38
0.1509628 0.095081687 0.0095033646 1.8876697e-38
0.14733551 0.026375711 0.040350139 1.0218217e-38
0.14718069 0.029043078 0.037460446 1.1046517e-38
0.14737707 0.088675439 0.010730743 1.5746384e-38
0.14736971 0.091836751 0.0097030401 1.7405153e-38
0.1473459 0.095399767 0.0094091296 1.9614972e-38
0.14404526 0.027595699 0.039854646 1.297975e-38
0.14341328 0.029622972 0.037877262 1.2429111e-38
0.14300276 0.032444924 0.035547078 1.2887581e-38
0.14327615 0.08824423 0.010972619 1.5103556e-38
0.14342862 0.091908097 0.0098429322 1.7126441e-38
0.14323263 0.095930457 0.0093641877 1.9244057e-38
0.13946037 0.029769778 0.038226902 1.2980477e-38
0.13950332 0.03286165 0.03540796 1.3994289e-38
0.13976577 0.088831156 0.010758698 1.4455993e-38
0.13948184 0.092032015 0.010081232 1.5838577e-38
0.13944964 0.096118629 0.0093747973 1.749523e-38
0.13551556 0.030390233 0.038003683 1.4179394e-38
0.13553652 0.033182621 0.036166787 1.6017199e-38
0.13556643 0.035282195 0.03439194 1.6477098e-38
0.13594139 0.091903239 0.0094543695 1.4272689e-38
0.13222121 0.031071901 0.037927389 1.4734744e-38
0.13158087 0.033330798 0.036515951 1.6755477e-38
0.13134927 0.035939425 0.034593165 1.7491966e-38
0.13162956 0.091751814 0.0095757246 1.3168136e-38
0.12803268 0.034094989 0.037195742 1.7308285e-38
0.12748405 0.036346197 0.034494221 1.7769619e-38
0.12703653 0.089371085 0.010682225 1.0776452e-38
0.12768149 0.09187609 0.0098139048 1.1512943e-38
0.12430373 0.034915447 0.036881685 1.8045141e-38
0.12371867 0.036801189 0.034601748 1.795366e-38
0.12356833 0.039799511 0.032554924 1.7583077e-38
0.12441196 0.089383334 0.01071012 9.8523347e-39
0.1237558 0.09178862 0.0096593499 9.4824872e-39
0.12368239 0.096032441 0.0092484355 1.0219653e-38
0.11969738 0.034936994 0.036930621 1.7767491e-38
0.11974443 0.037038833 0.035154581 1.7308666e-38
0.11979149 0.040337503 0.032851517 1.7031712e-38
0.11938149 0.043365151 0.031037867 1.6203394e-38
0.11916278 0.089407891 0.010765851 9.6660994e-39
0.11981893 0.091807038 0.0097011328 9.3916915e-39
0.11977165 0.095784605 0.0088000894 1.0035234e-38
0.11969738 0.09877947 0.0088177919 1.0126748e-38
0.11592166 0.037464857 0.035728753 1.7492333e-38
0.11582273 0.040533841 0.033301055 1.6940607e-38
0.11573733 0.044103414 0.030977547 1.5927884e-38
0.11456975 0.047391266 0.029325902 1.5099196e-38
0.11456975 0.085826099 0.012401283 1.0030199e-38
0.11584816 0.089058101 0.011508346 9.1139794e-39
0.1159879 0.092089772 0.010581315 8.5626329e-39
0.11163625 0.037534416 0.03588903 1.7308665e-38
0.11186516 0.040641159 0.033546805 1.6756209e-38
0.11190289 0.044637024 0.031210065 1.6111541e-38
0.11157022 0.048434824 0.028904498 1.4729703e-38
0.11096095 0.051912218 0.027380884 1.39021e-38
0.11063288 0.054616213 0.026194334 1.3258891e-38
0.11191245 0.084844291 0.01335305 5.9800916e-39
0.11147631 0.088674039 0.012591422 5.0621066e-39
0.1078873 0.037225902 0.035586715 1.7582382e-38
0.10793036 0.04061532 0.033486605 1.7032057e-38
0.10795602 0.044689327 0.031328082 1.6112973e-38
0.1080083 0.048623055 0.028866768 1.4821179e-38
0.1080083 0.052226335 0.027280092 1.3625868e-38
0.1080083 0.055829585 0.025693417 1.2521672e-38
0.10735215 0.059435934 0.024113655 1.1138374e-38
0.10718898 0.063453555 0.022783577 9.4792138e-39
0.10717303 0.067146212 0.021376312 7.9136733e-39
0.107189 0.070183188 0.019820392 7.2672249e-39
0.10731223 0.074073344 0.018214941 6.3474392e-39
0.10696422 0.078095406 0.016721487 6.0701307e-39
0.10816143 0.081433475 0.015327394 6.3535321e-39
0.10873409 0.084783345 0.013808727 6.3481525e-39
0.10924457 0.087519646 0.012815833 5.7063844e-39
0.10258805 0.035016984 0.037112296 1.7399424e-38
0.1039599 0.037156254 0.035424352 1.7398694e-38
0.10398778 0.040633768 0.033528507 1.7306486e-38
0.10407141 0.048641473 0.028908551 1.50974e-38
0.10407141 0.052244723 0.027321875 1.4083624e-38
0.10403381 0.056036234 0.026138484 1.3254214e-38
0.10400594 0.059784234 0.024852574 1.2150715e-38
0.10397785 0.063536108 0.023565054 1.0768128e-38
0.10408933 0.067273855 0.02261579 9.2058499e-39
0.10489123 0.070842326 0.021307528 8.4686534e-39
0.10522025 0.074755698 0.019580185 8.2813797e-39
0.10522026 0.077164829 0.018519282 7.8240126e-39
0.10014385 0.037781745 0.035925865 1.7215386e-38
0.10000484 0.040829748 0.033978283 1.7675986e-38
0.10013454 0.048659861 0.028950393 1.5465079e-38
0.10013454 0.052263141 0.027363658 1.4730783e-38
0.10011488 0.055960685 0.025978506 1.4363789e-38
0.10005533 0.059850186 0.024995029 1.4640018e-38
0.10002554 0.063602626 0.023707271 1.3165565e-38
0.09980274 0.067348421 0.022773921 1.1232701e-38
0.099297792 0.069965065 0.021764755 1.0772085e-38
0.096007541 0.038059235 0.035856128 1.7952224e-38
0.096028872 0.040981323 0.034326196 1.7952231e-38
0.096187107 0.048723876 0.029093564 1.5375787e-38
0.096197657 0.052281559 0.0274055 1.4915171e-38
0.096197657 0.055884808 0.025818825 1.4640015e-38
0.096155189 0.059678465 0.02463448 1.4547828e-38
0.096113376 0.063476533 0.023448169 1.4363071e-38
0.096102603 0.06713295 0.021959662 1.3072699e-38
0.096007541 0.070582747 0.021534503 1.2244711e-38
0.092059225 0.038198113 0.035844982 1.7860387e-38
0.092059225 0.041089088 0.034571946 1.74005e-38
0.092118174 0.04506743 0.032181978 1.6571098e-38
0.092238598 0.048787892 0.029236853 1.5282183e-38
0.092260778 0.052299947 0.027447283 1.4731153e-38
0.092260778 0.055903226 0.025860608 1.4454552e-38
0.092227191 0.059649706 0.024575472 1.4364158e-38
0.092215993 0.063302815 0.023088396 1.4453479e-38
0.092160001 0.067151368 0.022001505 1.3717015e-38
0.092075706 0.070527494 0.021426499 1.3257809e-38
0.088110924 0.041107565 0.034613848 1.7490535e-38
0.088181749 0.045052052 0.032147467 1.6665427e-38
0.087667763 0.048718154 0.029082775 1.4913382e-38
0.087667756 0.052321434 0.02749604 1.4453118e-38
0.087667763 0.055924714 0.025909364 1.4451319e-38
0.087817661 0.059535146 0.024615645 1.4085063e-38
0.088264532 0.063369364 0.023230612 1.3993578e-38
0.088217407 0.067169815 0.022043347 1.3625533e-38
0.088439956 0.07031697 0.02174741 1.3164892e-38
0.083636425 0.049079835 0.029885173 1.4911557e-38
0.083692849 0.052478731 0.027841449 1.4635705e-38
0.083617724 0.056365818 0.026859164 1.463501e-38
0.083899334 0.060144871 0.025191605 1.4267292e-38
0.084274821 0.063579738 0.02367425 1.3715205e-38
0.08426214 0.067237169 0.022185266 1.3070192e-38
0.084162623 0.07063815 0.021660268 1.2426632e-38
0.078898206 0.04115063 0.034711659 1.6389573e-38
0.08026693 0.045781255 0.03216958 1.6016836e-38
0.08033222 0.049164206 0.030072033 1.5372198e-38
0.08033222 0.052772701 0.028483033 1.5188883e-38
0.080318905 0.056428373 0.026994884 1.5005206e-38
0.08033222 0.059989691 0.025305092 1.4543506e-38
0.080318905 0.063646525 0.023816407 1.4176174e-38
0.080240302 0.067548096 0.022827864 1.3623359e-38
0.080214307 0.070656598 0.02170223 1.2979785e-38
0.076841138 0.046297431 0.032034338 1.5832453e-38
0.076306581 0.04945752 0.030722439 1.574205e-38
0.076293059 0.053115904 0.029233038 1.5375422e-38
0.075722396 0.05643779 0.027018607 1.5004137e-38
0.075732544 0.060011208 0.025353909 1.4636066e-38
0.075878024 0.063628137 0.024057448 1.4269103e-38
0.076266006 0.06766361 0.023070157 1.3900668e-38
0.073633805 0.047198117 0.0321154 1.6296678e-38
0.07330478 0.049608827 0.031058073 1.5280364e-38
0.072317705 0.053227156 0.029477239 1.4449519e-38
0.071659654 0.056843996 0.027893007 1.463823e-38
0.071724325 0.060243696 0.025848806 1.4730768e-38
0.072119907 0.063997447 0.024555027 1.4087199e-38
0.0731951 0.066874921 0.023456454 1.3993215e-38
0.068369396 0.054450214 0.028988779 1.4267651e-38
0.068369396 0.056859344 0.027927876 1.4453508e-38
0.068533912 0.06047231 0.026334822 1.4640388e-38
0.069246791 0.063279659 0.025089681 1.4087552e-38
0.063104987 0.070134282 0.022149026 1.4086138e-38
0.13380109 0.073160857 0.013363719 1.4547818e-38
0.13844344 0.057392508 0.018842995 1.3349278e-38
0.14182273 0.061861813 0.016294777 1.427087e-38
0.15149733 0.05818978 0.016696453 1.5744945e-38
0.16060802 0.064349979 0.016782343 1.4363077e-38
0.15413538 0.055503696 0.019754231 1.1784119e-38
0.14222659 0.05576238 0.019926131 1.4546742e-38
0.13754842 0.055684 0.020535827 1.5099201e-38
0.11619929 0.053773642 0.021273911 1.4270528e-38
0.11501086 0.049970239 0.027763486 1.2340521e-38
0.11869802 0.040892661 0.03082639 1.1509335e-38
0.091615111 0.072879493 0.019895852 9.9394815e-39
0.16446078 0.014483109 0.049740851 8.1049281e-39
0.16313447 0.020015031 0.045743227 8.1042135e-39
0.16313289 0.094106525 0.0125103 1.8323915e-38
0.16313566 0.097766906 0.012355447 1.8785231e-38
0.16313705 0.10050923 0.011876345 1.8877791e-38
0.159168 0.017293602 0.047841787 8.5633685e-39
0.15917215 0.019910693 0.045475245 7.7350484e-39
0.1585132 0.022248447 0.044211328 7.5524312e-39
0.15933657 0.097535968 0.011594713 1.8509353e-38
0.15916589 0.10052779 0.011918485 1.8692653e-38
0.15519941 0.017372936 0.048039258 7.5488649e-39
0.15521218 0.019888461 0.045413733 7.4591888e-39
0.15520595 0.098168999 0.011732519 1.924371e-38
0.15492998 0.10103226 0.011750162 1.9702865e-38
0.15122859 0.017452329 0.048236907 6.8131005e-39
0.15124868 0.019988447 0.04566282 8.1020513e-39
0.15037376 0.022689193 0.044120431 8.6552054e-39
0.15150864 0.098194748 0.011513114 1.9611752e-38
0.15122357 0.10117072 0.011736155 2.0074514e-38
0.14813489 0.017790228 0.048491538 7.7336149e-39
0.1472566 0.020539314 0.047049284 8.1935126e-39
0.14727969 0.023757219 0.044417858 8.4689953e-39
0.14728075 0.098729849 0.011403859 2.06259e-38
0.14328125 0.020639896 0.047298312 8.561942e-39
0.14329575 0.024066448 0.045182109 9.3891944e-39
0.14313783 0.026915103 0.042663455 1.1510387e-38
0.14465414 0.098421156 0.010844648 2.0626631e-38
0.14313613 0.1013 0.010962129 2.1363835e-38
0.13957483 0.025018811 0.045417011 1.0495898e-38
0.13934228 0.027547836 0.043213606 1.1692635e-38
0.13536388 0.028298438 0.043297768 1.2244379e-38
0.13541476 0.029604822 0.041264772 1.2984464e-38
0.13533892 0.10427386 0.010571003 2.081101e-38
0.13136776 0.028570682 0.043957055 1.1877047e-38
0.13124776 0.030650973 0.041325271 1.3165631e-38
0.13144049 0.10106128 0.010213792 1.6208794e-38
0.13136776 0.10477707 0.010399818 1.8325687e-38
0.1273966 0.028329641 0.044113517 1.0955088e-38
0.12745713 0.03114751 0.041536331 1.3536929e-38
0.12661535 0.033672839 0.039584994 1.721753e-38
0.12747335 0.10113367 0.010353565 1.4181575e-38
0.12742127 0.10467243 0.0099495649 1.5286478e-38
0.12346806 0.031337142 0.041988969 1.4458149e-38
0.123331 0.034259081 0.03968066 1.7859309e-38
0.1235172 0.10109833 0.010297954 1.0402266e-38
0.12371182 0.10461751 0.010130107 1.1322056e-38
0.11949986 0.031517923 0.041990042 1.5193196e-38
0.11954978 0.034332097 0.039852619 1.7583455e-38
0.12035638 0.1017592 0.011504114 9.9401793e-39
0.12077799 0.10434192 0.010725617 1.0301782e-38
0.11535101 0.031690836 0.041849434 1.4913402e-38
0.11559393 0.034658879 0.039654732 1.7491624e-38
0.11429618 0.036951959 0.038297236 1.7492713e-38
0.1108501 0.029272348 0.043908119 1.0397256e-38
0.11157635 0.031349897 0.042012751 1.4362728e-38
0.11165635 0.034548134 0.039389133 1.7400865e-38
0.11297627 0.036958128 0.038311243 1.7493084e-38
0.1077647 0.031572819 0.042114735 1.5926807e-38
0.10767065 0.034695923 0.039738894 1.7765331e-38
0.10637672 0.083499372 0.017900705 7.182934e-39
0.10637672 0.085915476 0.016836762 7.3626716e-39
0.10359719 0.032206655 0.042343736 1.7677801e-38
0.10383916 0.034724861 0.040230036 1.7676005e-38
0.10241698 0.069625169 0.024060309 9.6653931e-39
0.10294494 0.072280437 0.022884369 9.1172444e-39
0.10304842 0.07581225 0.021692097 9.5782449e-39
0.10349753 0.079832941 0.020507872 8.3803828e-39
0.10439654 0.083396763 0.019719422 7.732875e-39
0.10489334 0.086242974 0.018896818 7.6389165e-39
0.099598467 0.032353878 0.042693853 1.7216813e-38
0.099667743 0.03507942 0.040642798 1.7306859e-38
0.099071585 0.037219435 0.038918853 1.7398341e-38
0.10109707 0.069631338 0.024074316 1.0219636e-38
0.099965714 0.072397918 0.022870421 1.0035954e-38
0.099697322 0.076077282 0.022224903 1.0220375e-38
0.099812828 0.079733789 0.021515429 1.0128166e-38
0.095627308 0.032372445 0.042736053 1.5927165e-38
0.095679894 0.035184324 0.040890098 1.6938082e-38
0.095817424 0.037038356 0.038493454 1.7767828e-38
0.095817424 0.073280215 0.02253449 1.2062104e-38
0.095701039 0.076245278 0.022565961 1.187916e-38
0.095892057 0.079500437 0.021980047 1.1693707e-38
0.091656148 0.032391012 0.042778194 1.4913751e-38
0.091723338 0.035159647 0.040829778 1.6292366e-38
0.091857687 0.03735888 0.038402498 1.7584879e-38
0.091857687 0.073298723 0.022576571 1.3258177e-38
0.091689736 0.076463491 0.02300638 1.2798614e-38
0.091656148 0.07903558 0.022238374 1.206214e-38
0.087684989 0.032409579 0.042820394 1.4083973e-38
0.087755978 0.035178155 0.040871859 1.5645909e-38
0.087897949 0.038283408 0.038045526 1.6939159e-38
0.087633982 0.072835237 0.022834182 1.2889028e-38
0.087732531 0.076432139 0.022948861 1.2704993e-38
0.087684974 0.079054147 0.022280514 1.2241871e-38
0.084375679 0.032425016 0.042855442 1.3441115e-38
0.083879292 0.035607696 0.041460335 1.4910511e-38
0.083838284 0.038652748 0.038905799 1.6201251e-38
0.083925545 0.041970789 0.036593616 1.7309752e-38
0.083938219 0.073335737 0.022660673 1.2335158e-38
0.083851174 0.07610178 0.022293627 1.2336582e-38
0.083367936 0.079983741 0.021613777 1.1785919e-38
0.083184332 0.08367911 0.020301104 1.2061431e-38
0.082919583 0.11687678 0.0056859851 1.4082908e-38
0.083051965 0.12026849 0.004190743 1.4821565e-38
0.082919598 0.12366146 0.0026983619 1.6297772e-38
0.07974267 0.03184092 0.043171406 1.3160929e-38
0.080007419 0.036201268 0.041248024 1.4264788e-38
0.079821691 0.038846612 0.039357007 1.5003428e-38
0.080128975 0.041993648 0.036646843 1.6756913e-38
0.079978488 0.044360787 0.03546989 1.6574312e-38
0.079978488 0.073354274 0.022702694 1.2704608e-38
0.079899877 0.076070249 0.022236228 1.24302e-38
0.079821274 0.080000699 0.021234989 1.2245797e-38
0.079553559 0.083592236 0.020385385 1.2520591e-38
0.078860179 0.11382645 0.007080555 1.5376864e-38
0.07974267 0.11664933 0.0058264136 1.5006631e-38
0.079821266 0.11994225 0.003646791 1.5373273e-38
0.079808384 0.12363201 0.002143681 1.5928254e-38
0.079213172 0.12707108 0.0012439489 1.7406634e-38
0.074447781 0.036711872 0.041093647 1.1689066e-38
0.075853914 0.03886497 0.039399266 1.3993222e-38
0.075949863 0.042185694 0.037085891 1.5558037e-38
0.075623706 0.045474201 0.03519094 1.5926084e-38
0.076018751 0.072164685 0.023276627 1.3348939e-38
0.075895123 0.076237857 0.022577465 1.3073777e-38
0.075840175 0.080069661 0.021376431 1.307449e-38
0.075771496 0.083956093 0.020273089 1.3626209e-38
0.076764286 0.11302856 0.007458508 1.3619762e-38
0.076149702 0.1168392 0.0057883263 1.2517382e-38
0.075785011 0.1202457 0.0041715503 1.5007006e-38
0.075798541 0.12382251 0.0024748445 1.6112256e-38
0.075936958 0.12741959 0.0011320114 1.6489365e-38
0.075771496 0.12999487 0 1.622825e-38
0.071814507 0.039103299 0.039952576 1.3162387e-38
0.071929693 0.042381853 0.037536085 1.4636446e-38
0.07185638 0.046303868 0.03541261 1.54662e-38
0.071267068 0.050441831 0.032902539 1.4820823e-38
0.070739105 0.066149086 0.025992572 1.3902445e-38
0.071619049 0.068963796 0.024742007 1.3626229e-38
0.072044656 0.072232723 0.023418486 1.3626236e-38
0.071958847 0.076156795 0.022420228 1.3351074e-38
0.071886986 0.080037564 0.02131927 1.3627307e-38
0.071800336 0.083823204 0.020381927 1.3626577e-38
0.073124051 0.12516105 0.0021620989 1.6395048e-38
0.072682813 0.12718236 0.0012776256 1.6494432e-38
0.069152907 0.040371269 0.039549351 1.2336939e-38
0.067874193 0.042666614 0.038190603 1.3346764e-38
0.06797564 0.04660064 0.035637379 1.4268729e-38
0.068069488 0.050547868 0.03313911 1.4359849e-38
0.06809929 0.053476781 0.031606257 1.3991776e-38
0.066779383 0.061335355 0.028162479 1.4640026e-38
0.067659318 0.065358132 0.026379943 1.390244e-38
0.068099298 0.068577528 0.024956644 1.3535436e-38
0.068069488 0.072300732 0.023560345 1.3626941e-38
0.068009891 0.076125234 0.022362709 1.3719858e-38
0.067919217 0.08005628 0.021361232 1.3996447e-38
0.068093911 0.083265066 0.020674706 1.3534741e-38
0.064047113 0.043164432 0.038384199 1.2331194e-38
0.063975014 0.046720713 0.03590852 1.3254579e-38
0.06406115 0.050703704 0.033485711 1.408434e-38
0.064139552 0.054099321 0.031382263 1.3899959e-38
0.06413956 0.057723492 0.029786348 1.41769e-38
0.064123705 0.061395258 0.028291166 1.4269085e-38
0.06413956 0.064971864 0.026594579 1.4085398e-38
0.06413956 0.068596035 0.024998665 1.3901373e-38
0.064304546 0.07237047 0.023334563 1.408612e-38
0.064123705 0.075894505 0.021906435 1.4086854e-38
0.063951865 0.080074906 0.021403491 1.3628742e-38
0.063858002 0.08280021 0.020933032 1.3075904e-38
0.061210573 0.044043034 0.038033187 1.2240789e-38
0.060073599 0.047057241 0.036223769 1.2886868e-38
0.060065478 0.061699212 0.02893734 1.3349645e-38
0.060130358 0.065134883 0.026938021 1.3717702e-38
0.060146846 0.068711877 0.025241196 1.3897784e-38
0.060146838 0.072337568 0.023644567 1.3902478e-38
0.06008175 0.076162696 0.022446692 1.371807e-38
0.059935257 0.08024466 0.021743834 1.2707138e-38
0.061210573 0.082812577 0.020961165 1.2431626e-38
0.056475237 0.048102826 0.036087036 1.2793252e-38
0.05603385 0.051015943 0.034178436 1.3255294e-38
0.056067899 0.054554075 0.032377183 1.316237e-38
0.056067884 0.058183491 0.030779004 1.2241135e-38
0.056050763 0.061860442 0.029281497 1.3348562e-38
0.056033656 0.065538615 0.027783453 1.3349295e-38
0.05601652 0.06921792 0.026284873 1.362587e-38
0.05601652 0.072849065 0.024685919 1.316596e-38
0.055999607 0.076530337 0.023186564 1.261316e-38
0.056099951 0.08020547 0.022037387 1.178233e-38
0.053268254 0.048926383 0.035983503 1.2609581e-38
0.05214899 0.051403016 0.034633994 1.2792875e-38
0.052066937 0.054665238 0.032621801 1.2978703e-38
0.051996738 0.058484375 0.031426549 1.3807369e-38
0.051944524 0.062259614 0.030129135 1.2705342e-38
0.051944524 0.065894276 0.028528631 1.353222e-38
0.051944524 0.069528908 0.026928127 1.3164175e-38
0.05232273 0.072988719 0.025399804 1.2979774e-38
0.052110001 0.076948881 0.023658693 1.2056392e-38
0.052209273 0.079704672 0.022443891 1.1595033e-38
0.049297079 0.055002689 0.033358157 1.2979433e-38
0.049297079 0.058637321 0.031757653 1.3624071e-38
0.048635229 0.065909743 0.028563738 1.3438962e-38
0.049297079 0.068329722 0.027489662 1.3071629e-38
0.049297079 0.077416331 0.023488402 1.2056741e-38
0.049297079 0.079233646 0.02268815 1.2058176e-38
0.13586935 0.049263597 0.022661567 1.3349997e-38
0.13946921 0.060621977 0.016840279 1.3165968e-38
0.14508209 0.0697712 0.013134956 1.4179757e-38
0.158429 0.070919991 0.011852682 1.4455286e-38
0.13583186 0.059877396 0.015909135 1.4639301e-38
0.13964278 0.07073158 0.012853026 1.4180109e-38
0.13539515 0.05230096 0.022966087 1.1694067e-38
0.16297531 0.01393126 0.052461326 8.0113018e-39
0.16181368 0.016429424 0.051102817 8.8381814e-39
0.15942088 0.011447981 0.054419398 6.6287177e-39
0.1591572 0.014130801 0.052512884 7.4559672e-39
0.15915862 0.016441822 0.05113101 8.2875061e-39
0.1591571 0.10347903 0.013168693 1.8323176e-38
0.15516669 0.011954606 0.0542503 6.6269198e-39
0.1551698 0.014268279 0.052867055 7.1797405e-39
0.15517603 0.016460449 0.05117327 7.4570168e-39
0.15550791 0.10363764 0.012780964 1.887527e-38
0.15450196 0.10564959 0.013000429 1.860084e-38
0.1515628 0.014476091 0.052873373 6.9942786e-39
0.15119344 0.016479075 0.051215589 6.8102068e-39
0.15119344 0.10396159 0.012692988 1.9797581e-38
0.15117837 0.10566515 0.013035774 1.9429159e-38
0.14700906 0.014619887 0.052711725 7.1786629e-39
0.14676835 0.017309785 0.050905883 7.6399927e-39
0.14754273 0.10367489 0.012865543 2.0904283e-38
0.14719008 0.1056838 0.013078153 2.1177276e-38
0.14321029 0.014932662 0.052726269 7.7314625e-39
0.1432251 0.017771512 0.050868869 7.916581e-39
0.14455579 0.10399261 0.0127635 2.2007426e-38
0.14320177 0.10570246 0.013120472 2.2101034e-38
0.13987818 0.015068024 0.053073108 7.3644582e-39
0.13922399 0.017991632 0.051429689 8.0116325e-39
0.13924567 0.021395087 0.049202323 9.0240174e-39
0.1389138 0.024130464 0.048002005 9.9437975e-39
0.13922957 0.10608515 0.012455881 2.0993609e-38
0.13524444 0.018557966 0.051048696 7.4588441e-39
0.13526309 0.021413684 0.049244583 8.4740792e-39
0.13526309 0.025058806 0.047639489 1.0315091e-38
0.13526309 0.027488858 0.046569407 1.1785902e-38
0.13490276 0.10713968 0.012319624 2.0720598e-38
0.13190158 0.019364029 0.051282465 6.9046025e-39
0.13141371 0.021859914 0.049916387 7.7336527e-39
0.13127545 0.025118768 0.047784984 9.5796939e-39
0.1312805 0.027507484 0.046611726 1.196851e-38
0.13124777 0.10776511 0.012090445 1.8787378e-38
0.12791328 0.023033023 0.049717426 6.9950031e-39
0.12728146 0.025220007 0.048033893 9.1151158e-39
0.12729791 0.02752611 0.046653986 1.1047267e-38
0.12729791 0.10771841 0.011341631 1.5932574e-38
0.1232783 0.025971562 0.048117876 8.5633952e-39
0.12287281 0.02835682 0.04634428 1.1047977e-38
0.12329696 0.10749605 0.01185447 1.1784123e-38
0.11993667 0.026720643 0.048194706 9.0240286e-39
0.11931247 0.02890411 0.046512604 1.0679914e-38
0.11933273 0.031208456 0.045133471 1.3630165e-38
0.11933273 0.10350302 0.01329881 1.0496577e-38
0.12066025 0.10653439 0.011947155 1.1049768e-38
0.11532079 0.028964847 0.04665792 1.0218575e-38
0.1160139 0.031223983 0.045168698 1.2889403e-38
0.10996592 0.026767254 0.048300564 1.003132e-38
0.11153684 0.028575391 0.046703994 1.0306126e-38
0.10730705 0.026779741 0.048328876 1.0489427e-38
0.10736743 0.028918087 0.046536505 1.1686497e-38
0.10605744 0.031270534 0.045274436 1.6389577e-38
0.1033745 0.028978616 0.046681881 1.5009121e-38
0.10340238 0.031282961 0.045302629 1.6851623e-38
0.10236443 0.085283369 0.022083223 8.5604721e-39
0.099350087 0.029165924 0.047136009 1.5099923e-38
0.099419788 0.031301558 0.045344889 1.6757617e-38
0.098756023 0.082336128 0.022880435 1.0864645e-38
0.0993599 0.08446148 0.022665441 1.0036311e-38
0.095342137 0.029269218 0.047384262 1.3809903e-38
0.095373817 0.031575203 0.046004117 1.5560153e-38
0.095105305 0.082049429 0.02305299 1.1418206e-38
0.095579222 0.084758133 0.022764862 1.0774618e-38
0.091353826 0.029635519 0.047273576 1.2519535e-38
0.091353826 0.031721443 0.046355069 1.4268727e-38
0.091404215 0.081990659 0.023672104 1.1692999e-38
0.090910688 0.084856153 0.022962987 1.123418e-38
0.090024397 0.12055239 0.007255435 1.6480401e-38
0.090024397 0.12602791 0.0048443675 2.3415532e-38
0.090024397 0.12846145 0.0037727356 2.2392385e-38
0.087365538 0.029914916 0.047201097 1.1598283e-38
0.087401658 0.031612486 0.046088755 1.2889045e-38
0.087454259 0.081857353 0.023416638 1.1966345e-38
0.087424904 0.085023701 0.022326231 1.1601161e-38
0.086036101 0.08771804 0.021764517 1.1601478e-38
0.087175608 0.11847985 0.0082042813 1.3160964e-38
0.087377571 0.12172455 0.0066514015 1.6018687e-38
0.087401666 0.12525967 0.0048516393 2.0541689e-38
0.087143965 0.12867776 0.0037140846 2.2850845e-38
0.086036101 0.13152206 0.0024755597 2.0085318e-38
0.084263511 0.030132204 0.047144771 1.1136962e-38
0.08291316 0.032260627 0.045568943 1.2611728e-38
0.082161896 0.035027355 0.04392308 1.3623362e-38
0.084816955 0.081793785 0.023295999 1.1968501e-38
0.084125623 0.085253537 0.022054434 1.1968864e-38
0.083134159 0.088125885 0.021403193 1.2244006e-38
0.083235934 0.11463284 0.0094798803 1.2885434e-38
0.084485069 0.11733511 0.0076497197 1.3257093e-38
0.084816948 0.1212824 0.0059072971 1.5008826e-38
0.084485076 0.12523282 0.0041719675 1.7491673e-38
0.083464913 0.12869504 0.0029031038 2.1461793e-38
0.08370959 0.13183713 0.0023663044 1.9900183e-38
0.079668805 0.033205897 0.045303047 1.279395e-38
0.079174951 0.035345107 0.043821037 1.3253862e-38
0.080170602 0.086068124 0.021472692 1.2336927e-38
0.079467528 0.088656753 0.020705938 1.2613515e-38
0.078724213 0.11208779 0.011126101 1.5282495e-38
0.079910353 0.11377645 0.0096389055 1.5095608e-38
0.080170594 0.12920186 0.0024788976 1.9248003e-38
0.079170957 0.13183048 0.0019896626 1.6953553e-38
0.076730058 0.034223348 0.045438707 1.1874519e-38
0.075659521 0.036217779 0.043754458 1.1781256e-38
0.075696498 0.088238537 0.02072978 1.3259232e-38
0.075780459 0.11071101 0.011769712 1.2698155e-38
0.074860476 0.11434251 0.0090894699 9.2833809e-39
0.074196719 0.11707944 0.0078927279 7.3483433e-39
0.075856134 0.13165212 0.0014546514 1.5851515e-38
0.071627006 0.036686271 0.04400903 1.1137327e-38
0.071541652 0.086108476 0.021564305 1.3534744e-38
0.071314506 0.088325322 0.02090323 1.2980868e-38
0.072741754 0.11576611 0.0095821619 1.0294966e-38
0.072504975 0.11812556 0.0077266693 1.176898e-38
0.072140746 0.12159723 0.006475687 1.5469426e-38
0.071523175 0.12506321 0.0045670867 1.667591e-38
0.071541652 0.12822968 0.0030164123 1.6682038e-38
0.072869189 0.13105854 0.0017538667 1.6044223e-38
0.067424007 0.037917227 0.043930173 1.1044054e-38
0.067393132 0.039804697 0.042006612 1.1412833e-38
0.067192949 0.085940212 0.021966696 1.3075185e-38
0.067632958 0.088607222 0.021450222 1.2522751e-38
0.0688866 0.12621704 0.0039363503 1.6499066e-38
0.063705526 0.040489942 0.042219877 1.1412807e-38
0.062912717 0.042407572 0.040917218 1.1780521e-38
0.063506097 0.085768819 0.022362113 1.2522722e-38
0.063701592 0.088309199 0.021787345 1.1968874e-38
0.060112126 0.041601717 0.042400301 1.1224829e-38
0.059353992 0.043686926 0.040945292 1.131883e-38
0.058266357 0.04607442 0.039361477 1.2154691e-38
0.059318095 0.085447252 0.022830009 1.1600076e-38
0.059447408 0.088450789 0.021779001 1.0772125e-38
0.05612383 0.045270681 0.040835261 1.1319179e-38
0.05516623 0.047303349 0.03932786 1.2239717e-38
0.054283768 0.082544059 0.023352683 1.1413535e-38
0.05556079 0.085121483 0.022565722 1.1045117e-38
0.055459112 0.089077801 0.021553397 1.0031686e-38
0.054794386 0.092731267 0.019953072 9.5732171e-39
0.051799476 0.049021631 0.038801253 1.2700318e-38
0.050301179 0.050971806 0.037305892 1.2886142e-38
0.050301179 0.07466498 0.026872694 1.2883996e-38
0.050301179 0.076487511 0.026070118 1.2331543e-38
0.051296823 0.082254291 0.023518145 1.1780463e-38
0.051540986 0.08524245 0.022806287 1.1598264e-38
0.051488139 0.089044988 0.021496713 1.1229487e-38
0.052800238 0.092740595 0.019974291 1.0585204e-38
0.052800246 0.095174134 0.0189026 1.10465e-38
0.048811935 0.050172001 0.038769662 1.3072311e-38
0.047979556 0.052877456 0.037224591 1.297798e-38
0.046899594 0.056056321 0.035656393 1.3071257e-38
0.046982363 0.059492558 0.03359592 1.2887198e-38
0.047456473 0.062788308 0.032138646 1.2519151e-38
0.046318598 0.066785872 0.030392706 1.2976552e-38
0.047480196 0.070577413 0.028708398 1.3345699e-38
0.047590956 0.074217826 0.027468145 1.3068748e-38
0.047266833 0.077543199 0.025643766 1.2332262e-38
0.047438808 0.081626564 0.024116635 1.2426251e-38
0.047689348 0.085197419 0.023087382 1.2888281e-38
0.044823639 0.056882918 0.035865128 1.2795022e-38
0.044823639 0.059924901 0.034525692 1.2423717e-38
0.044823639 0.063575238 0.032918274 1.2427675e-38
0.044823639 0.067225575 0.031310856 1.270103e-38
0.044823639 0.070875883 0.029703438 1.2426248e-38
0.044158906 0.07452935 0.028103054 1.3162743e-38
0.043921866 0.077878565 0.026318967 1.2702457e-38
0.044215031 0.081679076 0.024589598 1.2702842e-38
0.044823639 0.084868819 0.023541629 1.3716616e-38
0.1626785 0.060382903 0.016438782 1.6389562e-38
0.13189457 0.053153217 0.019931674 1.5098489e-38
0.13189135 0.060328424 0.016853094 1.4365584e-38
0.13268192 0.05970034 0.020261288 1.2244353e-38
0.14475922 0.051959395 0.021746218 1.4086834e-38
0.16007677 0.059998184 0.0166412 1.6481051e-38
0.13606116 0.065673083 0.015873432 1.2155772e-38
0.14021464 0.049805254 0.025040984 1.0682436e-38
0.1411753 0.054509968 0.023413539 1.3810985e-38
0.12157331 0.035113305 0.035736442 1.5005565e-38
0.093328454 0.057469487 0.0265342 9.2047933e-39
0.088061966 0.04087007 0.034347236 1.2707144e-38
0.068369396 0.054450214 0.028988779 1.4267651e-38
0.10359719 0.032206655 0.042343736 1.7677801e-38
0.10510904 0.052173436 0.028894186 1.34404e-38
0.10154431 0.0606879 0.024934173 1.2705348e-38
0.11535101 0.031690836 0.041849434 1.4913402e-38
0.10916587 0.029677004 0.044156015 1.1415702e-38
0.14919907 0.013059422 0.056298018 7.0003644e-39
0.12070535 0.02605468 0.048634291 9.6668547e-39
0.15981433 0.010607541 0.05697 6.3532084e-39
0.1600998 0.10726336 0.014716566 1.8232062e-38
0.1564589 0.0071019679 0.061834335 5.7085438e-39
0.15627825 0.0091953427 0.059353888 5.8010996e-39
0.15603681 0.011031955 0.056831002 6.0758886e-39
0.15647565 0.10790008 0.014989376 1.8507931e-38
0.15735522 0.11061001 0.015515149 1.9427013e-38
0.15260939 0.0065378696 0.062131584 4.7866015e-39
0.15246499 0.0094410479 0.058912456 5.6145727e-39
0.15220921 0.012085706 0.056852639 6.3492623e-39
0.15246834 0.10834649 0.01511693 1.9244413e-38
0.1484393 0.0099708289 0.059853256 5.9833202e-39
0.14809275 0.012324214 0.056831062 6.6265625e-39
0.14881508 0.014218077 0.055519521 6.8102391e-39
0.14780618 0.10812318 0.01472795 2.0072366e-38
0.14714852 0.10910141 0.013759136 1.9340211e-38
0.14574723 0.0076422542 0.061732233 5.5255777e-39
0.14459975 0.0099015534 0.059659302 6.6283547e-39
0.14420064 0.01219362 0.057125151 7.1779426e-39
0.14381541 0.013936386 0.055706978 7.4552413e-39
0.14381541 0.10789675 0.014331877 2.0995037e-38
0.14424564 0.11090344 0.015031874 2.0075254e-38
0.14041097 0.010497123 0.059814334 6.9967855e-39
0.14046179 0.012356937 0.057173431 7.4552413e-39
0.14048231 0.013951957 0.055742383 7.5470656e-39
0.14181554 0.1079061 0.014353096 2.0810294e-38
0.14044191 0.111013 0.014459372 2.0258559e-38
0.13670927 0.01105462 0.060344219 6.2592163e-39
0.13640612 0.013497412 0.058301091 6.8109762e-39
0.13645792 0.016040236 0.055602252 6.8120411e-39
0.13581595 0.017634571 0.054179907 6.9996568e-39
0.13369662 0.011375085 0.060241282 5.3390508e-39
0.13253498 0.013895705 0.058872879 5.5238177e-39
0.13227423 0.016637594 0.055756569 5.7082089e-39
0.13248284 0.018463671 0.053857088 6.536529e-39
0.13239938 0.11199075 0.014859319 2.0348947e-38
0.1310187 0.1143291 0.014939785 1.8693389e-38
0.12850815 0.014003515 0.059149623 4.1423181e-39
0.12839308 0.017126799 0.056561649 4.6954709e-39
0.12847489 0.019559771 0.053607345 5.6149147e-39
0.12821646 0.021819025 0.05243367 6.257438e-39
0.12874669 0.11145461 0.01459533 1.7959075e-38
0.12566286 0.015089124 0.058707654 3.4998004e-39
0.12432392 0.017546386 0.057642579 3.9582632e-39
0.12423628 0.020522654 0.054694116 5.3397529e-39
0.1243032 0.023119092 0.052183926 6.6244101e-39
0.12315013 0.025015384 0.05109036 7.3659198e-39
0.12377689 0.11049616 0.014260828 1.3166352e-38
0.12100595 0.0094225854 0.060715616 3.9579101e-39
0.12030704 0.017915308 0.057531059 3.3143385e-39
0.12038553 0.02075389 0.05482316 5.2468524e-39
0.12016952 0.023371786 0.05272609 6.6262079e-39
0.11895994 0.025906622 0.05075109 8.1939022e-39
0.11908963 0.10789153 0.015740335 1.114196e-38
0.11969643 0.11021364 0.01580286 1.1785908e-38
0.11648145 0.01793319 0.057571709 2.3002062e-39
0.11636151 0.020853758 0.055073082 5.1532261e-39
0.11641933 0.023847371 0.052782774 7.4545337e-39
0.11568397 0.02651462 0.050524831 8.9321581e-39
0.11673649 0.10540894 0.01904881 1.1049758e-38
0.11762913 0.10948974 0.017240584 1.141856e-38
0.1120055 0.014662787 0.059068561 2.7604641e-39
0.11227329 0.017952859 0.057616353 1.7470324e-39
0.11235098 0.020872504 0.0551157 4.6922563e-39
0.11244904 0.023419082 0.052475274 7.2690648e-39
0.11247638 0.026327014 0.050769448 9.1133137e-39
0.10758694 0.017931014 0.057685435 1.3789744e-39
0.1083071 0.021053493 0.055572867 3.8621327e-39
0.10843346 0.023499519 0.052672863 6.1637865e-39
0.10848446 0.025694102 0.050977409 9.1122459e-39
0.10557851 0.017021269 0.058111489 1.5619237e-39
0.10425729 0.021235287 0.056029797 5.0559844e-39
0.10421519 0.02419287 0.053058505 7.4509323e-39
0.10448472 0.026526302 0.050661683 1.1043326e-38
0.10354078 0.089683712 0.023591101 7.7310925e-39
0.10290059 0.092401683 0.024951935 7.6399535e-39
0.098883726 0.015214324 0.058992028 3.2153494e-39
0.099985592 0.016646355 0.057118177 3.0377614e-39
0.10003141 0.021686584 0.056127429 6.9013207e-39
0.10037854 0.024353355 0.053006172 8.7434508e-39
0.1004701 0.027014047 0.050679922 1.2244739e-38
0.10027438 0.088960409 0.023768723 9.0253781e-39
0.099887937 0.092722148 0.024848998 8.6548033e-39
0.099553198 0.11692721 0.014194667 1.2334764e-38
0.099553198 0.11937821 0.013115346 1.6572231e-38
0.098883726 0.12367058 0.011233747 2.3044552e-38
0.096205808 0.017677844 0.057941198 3.9539514e-39
0.096061721 0.021416605 0.056023479 7.4548756e-39
0.09639211 0.024290174 0.052841723 9.4785187e-39
0.096470065 0.027032763 0.050722361 1.1143407e-38
0.096616983 0.088919759 0.023696482 9.7608117e-39
0.096041694 0.093176037 0.02438575 1.0035611e-38
0.095536329 0.10591656 0.01909405 1.1138032e-38
0.095536329 0.1077548 0.018284619 1.1413565e-38
0.095670223 0.11155319 0.016610324 1.0954705e-38
0.096014522 0.11606842 0.014617682 1.1691207e-38
0.09624806 0.11917001 0.012763321 1.5191067e-38
0.096226916 0.12295705 0.01133877 2.2394554e-38
0.094866849 0.12552759 0.010466933 2.3417672e-38
0.092188932 0.021985859 0.056095064 8.1881485e-39
0.092386656 0.02430889 0.052884221 9.3856112e-39
0.092485525 0.026989162 0.050609946 1.0309354e-38
0.092485525 0.028819561 0.049803972 1.0772136e-38
0.093152151 0.086168885 0.024541974 1.0772839e-38
0.092463769 0.088715732 0.023671985 1.0773554e-38
0.092494294 0.092792392 0.023663044 1.0956873e-38
0.091921143 0.10544327 0.019348323 1.1415344e-38
0.092412092 0.1081779 0.018137932 1.1599011e-38
0.092188932 0.11205965 0.016431391 1.1506806e-38
0.092343144 0.11495858 0.013453186 1.2059631e-38
0.09242025 0.11823523 0.01115942 1.5005202e-38
0.09242025 0.12189955 0.0095458627 2.0269763e-38
0.092377163 0.12579313 0.0083175302 2.323365e-38
0.091646038 0.1288487 0.0062042475 2.2760445e-38
0.088506803 0.022309452 0.055999279 8.8306228e-39
0.088357553 0.024409562 0.053133845 9.3848756e-39
0.088450618 0.027132481 0.050962269 1.0121733e-38
0.0884858 0.028838277 0.049846411 1.0488725e-38
0.0884858 0.089241356 0.023248136 1.1326719e-38
0.08816006 0.092546016 0.023202062 1.1142704e-38
0.087502584 0.097375661 0.022956848 1.1234179e-38
0.088172063 0.10043627 0.021600664 1.1784825e-38
0.088172063 0.10472548 0.019711912 1.1508616e-38
0.088172056 0.10840198 0.01809299 1.1232398e-38
0.088335581 0.11130938 0.01511091 1.1044751e-38
0.088439748 0.11447832 0.012621343 1.1688693e-38
0.088676251 0.11756805 0.010772228 1.2976196e-38
0.089819044 0.12157214 0.0089945197 1.7495972e-38
0.089819044 0.12462279 0.0076511502 2.239384e-38
0.087152563 0.13012645 0.0052614808 2.3404365e-38
0.087152563 0.1313467 0.0047241449 2.3396443e-38
0.084601507 0.025493562 0.054646671 9.4767209e-39
0.084283546 0.027712673 0.052398741 9.6621869e-39
0.084152758 0.029163599 0.049758077 1.0305763e-38
0.084752716 0.090601087 0.022696733 1.160223e-38
0.084358342 0.093468308 0.0227139 1.1417856e-38
0.084254488 0.096971035 0.022204936 1.1326386e-38
0.083963908 0.10071856 0.021529734 1.1324577e-38
0.084155194 0.10474426 0.019754589 1.0768882e-38
0.084253639 0.10798496 0.017355025 1.0397967e-38
0.08441253 0.11094356 0.014471829 1.0947521e-38
0.084676526 0.11392596 0.012426734 1.1501067e-38
0.085819311 0.11670977 0.011186361 1.2425185e-38
0.083152823 0.13441607 0.003423214 1.3802664e-38
0.083152823 0.13624644 0.00261724 1.8403953e-40
0.08024101 0.02844733 0.052429974 9.3863245e-39
0.080466688 0.030769259 0.049279928 1.0033506e-38
0.079153098 0.032542706 0.048333526 1.1599362e-38
0.081819579 0.091102928 0.022512913 1.2428417e-38
0.080447346 0.093096137 0.022016883 1.206142e-38
0.080292135 0.096779823 0.021853685 1.1601164e-38
0.080163673 0.10098064 0.021219671 1.1045102e-38
0.080164522 0.10465518 0.019601583 1.1225914e-38
0.080383435 0.10740706 0.01632303 1.2609926e-38
0.080486342 0.11063337 0.013929665 1.3439663e-38
0.081152961 0.11307079 0.0128479 1.3438242e-38
0.081375159 0.13422102 0.0035316944 1.5092322e-38
0.080126114 0.13619602 0.0035520196 3.3982861e-39
0.07643716 0.029384285 0.052599847 1.0030234e-38
0.076167084 0.031658679 0.050126553 1.0583773e-38
0.075375572 0.033984005 0.047746718 1.1319189e-38
0.07448674 0.091137201 0.022590816 1.2892616e-38
0.076053508 0.093074232 0.022186339 1.2431633e-38
0.076202586 0.097114503 0.022486687 1.1601513e-38
0.076790929 0.099876732 0.021991313 1.0862867e-38
0.076243639 0.10444993 0.018891752 1.3804142e-38
0.07579986 0.10707557 0.015737772 1.5739531e-38
0.076105677 0.11030525 0.014129758 1.3071236e-38
0.073820122 0.11371523 0.012657106 7.1715218e-39
0.072334707 0.032457978 0.051189125 1.0121723e-38
0.071787909 0.03450349 0.047836602 1.0675261e-38
0.071820252 0.091149688 0.022619128 1.2797545e-38
0.072143763 0.09338212 0.022287607 1.243056e-38
0.07240507 0.096692413 0.022512615 1.1693359e-38
0.072514303 0.10431901 0.018216252 1.3714833e-38
0.071798697 0.10709488 0.015780091 1.3719453e-38
0.071734339 0.11100373 0.014606118 1.0023728e-38
0.071785688 0.11573946 0.013977051 1.0672382e-38
0.071153633 0.1179986 0.010804713 1.3155869e-38
0.069426656 0.033121735 0.051479995 9.9394843e-39
0.068330854 0.034872115 0.048719823 1.0583429e-38
0.067534819 0.036780804 0.046614647 1.1043332e-38
0.066487275 0.091174603 0.022675753 1.2061763e-38
0.068068169 0.093044519 0.022144496 1.1969224e-38
0.068201818 0.096712053 0.022557199 1.1601877e-38
0.068553686 0.10525227 0.018635988 9.9391326e-39
0.068263523 0.10784441 0.017133951 9.4803096e-39
0.068996072 0.11152881 0.016085088 9.9412737e-39
0.069426656 0.11890632 0.013705075 1.2707496e-38
0.069223166 0.12299263 0.010815561 1.6028335e-38
0.064189851 0.035878479 0.049395919 1.0766759e-38
0.063820787 0.038105577 0.046078265 1.0767102e-38
0.063154168 0.039939106 0.045279384 1.0954338e-38
0.064487413 0.09118396 0.022696972 1.1692645e-38
0.063903496 0.093281835 0.022873342 1.1416788e-38
0.064163402 0.096558034 0.022884369 1.114091e-38
0.060495228 0.036497742 0.048795342 1.0401895e-38
0.060366891 0.038446516 0.04688251 1.0302523e-38
0.060221031 0.040440917 0.045095563 1.0858185e-38
0.06048768 0.090592533 0.023008108 1.0955442e-38
0.060424052 0.093037605 0.022417903 1.0679216e-38
0.060178414 0.097098708 0.022488654 1.0587019e-38
0.059656456 0.10081875 0.021429539 1.0587013e-38
0.059518367 0.10534966 0.019800305 1.0218588e-38
0.059786163 0.10779941 0.018718183 9.9420038e-39
0.056037083 0.037473589 0.04973346 9.7511596e-39
0.056017004 0.039127886 0.047756433 1.0118133e-38
0.056635581 0.041391671 0.044858992 1.0766702e-38
0.055821329 0.044244319 0.043476522 1.0766343e-38
0.057821199 0.091215134 0.022767782 1.0033472e-38
0.057154581 0.093658775 0.021700144 9.8501697e-39
0.05643817 0.096870959 0.020659029 9.5750136e-39
0.056371473 0.10013574 0.019707918 1.0310779e-38
0.056204915 0.10433885 0.019073367 1.0218937e-38
0.055869728 0.10839981 0.018503428 1.0126759e-38
0.052517891 0.040218681 0.048205078 1.0949686e-38
0.052165329 0.042674333 0.045306981 1.1873422e-38
0.052678682 0.045217812 0.04308778 1.1779064e-38
0.051599391 0.047721475 0.041998923 1.2514436e-38
0.051154979 0.093686819 0.021763861 1.1047616e-38
0.052488215 0.096853286 0.020352602 1.1046872e-38
0.052349545 0.10020763 0.019848645 1.0955787e-38
0.052228205 0.10425046 0.018919826 1.0862849e-38
0.053359173 0.107952 0.018732488 1.058414e-38
0.04934229 0.041181356 0.048185587 1.1779787e-38
0.048181742 0.043197364 0.04609853 1.1965611e-38
0.048406996 0.045699269 0.043476164 1.1873768e-38
0.048470311 0.048594415 0.041775644 1.2794994e-38
0.047155246 0.051606417 0.040344536 1.3162359e-38
0.047155246 0.091264993 0.022881031 1.3350655e-38
0.04848849 0.093699306 0.021792173 1.2426202e-38
0.048434258 0.096908391 0.020744026 1.2796785e-38
0.048326761 0.10027939 0.019989491 1.334999e-38
0.048335053 0.10398388 0.020106375 1.2981569e-38
0.044177741 0.044006646 0.047006965 1.1503204e-38
0.044208422 0.046186268 0.044589937 1.1411379e-38
0.044320472 0.048973203 0.042632759 1.205674e-38
0.044451341 0.052319884 0.040307462 1.380375e-38
0.043599933 0.056097329 0.038412035 1.2977257e-38
0.043155506 0.060166955 0.036625624 1.2794294e-38
0.043155491 0.06321764 0.035282254 1.2606332e-38
0.043155506 0.067488551 0.033401608 1.2884691e-38
0.043155506 0.071149349 0.031789601 1.2518781e-38
0.043155506 0.072979748 0.030983567 1.3254567e-38
0.043155506 0.085792512 0.025341511 1.3257808e-38
0.044321813 0.089296013 0.023905337 1.2426236e-38
0.04440432 0.093342245 0.022547543 1.0212115e-38
0.044224553 0.096902192 0.02215308 9.0128771e-39
0.04507345 0.10070604 0.021481931 9.7536413e-39
0.041308567 0.046733648 0.045842528 1.1594681e-38
0.041059427 0.049901694 0.043904305 1.2239678e-38
0.04035195 0.053118616 0.041677177 1.3712644e-38
0.040483072 0.056484073 0.039155424 1.3527899e-38
0.040430672 0.063372225 0.035612941 1.3527173e-38
0.040610224 0.067334026 0.033501863 1.3160206e-38
0.039945319 0.07112062 0.032116055 1.3437495e-38
0.039822415 0.074215561 0.030481577 1.408217e-38
0.039640605 0.077877194 0.028871477 1.3808804e-38
0.040489033 0.081534058 0.027250528 1.3438228e-38
0.040334269 0.085602641 0.026432216 1.3071978e-38
0.040357113 0.089365184 0.025833189 1.2612427e-38
0.04142271 0.093604118 0.024473369 1.2520938e-38
0.037291691 0.057781875 0.04102838 1.362155e-38
0.03607069 0.060571015 0.039087236 1.3622615e-38
0.036190361 0.063958913 0.036865354 1.4450582e-38
0.036310434 0.067341357 0.034645975 1.4358756e-38
0.036143541 0.070855409 0.033100665 1.3804484e-38
0.035702482 0.074529409 0.031124234 1.4172583e-38
0.035642847 0.078342557 0.029810071 1.2610303e-38
0.036270261 0.082106441 0.028387547 1.3533298e-38
0.036458015 0.086024612 0.028238177 1.3626211e-38
0.037291691 0.089031965 0.027267516 1.3073766e-38
0.033274814 0.064540863 0.038103044 1.454349e-38
0.032787979 0.06778872 0.035586298 1.3900657e-38
0.032286346 0.07161507 0.033907771 1.2702104e-38
0.032180697 0.074986994 0.032060087 1.1872e-38
0.032727093 0.078952223 0.031035483 1.224331e-38
0.032812268 0.082500339 0.02976346 1.3167429e-38
0.029257938 0.07558912 0.033288896 1.0672742e-38
0.14950679 0.057762653 0.014481425 1.5561271e-38
0.13590789 0.062008291 0.013876975 1.3809177e-38
0.1318962 0.065637589 0.014393806 1.3536189e-38
0.13189135 0.071044087 0.012134492 1.2339469e-38
0.12915222 0.047003239 0.024546385 9.5757408e-39
0.12389489 0.06145829 0.018733501 1.3074133e-38
0.14154127 0.048641264 0.026443303 1.187596e-38
0.08977057 0.047979474 0.030947566 1.5926807e-38
0.086659104 0.055960536 0.026999056 1.4546379e-38
0.10636756 0.066479325 0.021777391 1.2612077e-38
0.16060802 0.064349979 0.016782343 1.4363077e-38
0.10451533 0.085683376 0.022865236 1.638922e-38
0.15600014 0.11291152 0.016886473 2.0443685e-38
0.151088 0.0055083483 0.06369698 4.1423041e-39
0.15242009 0.11260143 0.017250478 2.0259281e-38
0.15238875 0.11745107 0.017665088 2.2013153e-38
0.15372472 0.12041137 0.017437279 2.3027309e-38
0.14840627 0.006748125 0.063185036 4.6032584e-39
0.14840627 0.0092025995 0.062104225 5.6159768e-39
0.14856233 0.11275238 0.017187357 2.0166371e-38
0.14835154 0.11741433 0.017610967 2.1916274e-38
0.14833079 0.12074515 0.01735872 2.2103547e-38
0.14437927 0.0070287883 0.063294709 4.9734871e-39
0.14304283 0.0092276782 0.062161207 6.3550315e-39
0.14505412 0.11353344 0.016205013 2.0902502e-38
0.14433515 0.11699042 0.016877353 2.1455669e-38
0.14428535 0.1204555 0.017537534 2.2010641e-38
0.14034595 0.0075713247 0.063471138 5.2511726e-39
0.1403611 0.0092402101 0.062189698 6.2624827e-39
0.14023991 0.12047446 0.017580569 2.1918451e-38
0.13627785 0.0079922527 0.06461215 3.960431e-39
0.13606276 0.0098206401 0.062207103 5.3401284e-39
0.13620646 0.12032583 0.017332792 2.1824089e-38
0.13213268 0.010482728 0.062156558 3.7763985e-39
0.13097507 0.012965813 0.060668111 4.8781007e-39
0.1324679 0.1163879 0.015517354 1.8695187e-38
0.13220118 0.12019262 0.01644063 1.9064706e-38
0.12826699 0.010716915 0.062299788 2.115836e-39
0.12695247 0.012984619 0.060710788 3.1278187e-39
0.1276229 0.11361495 0.016390145 1.7406621e-38
0.1282402 0.11662221 0.016272187 1.7128239e-38
0.12838238 0.1209231 0.017314732 1.7681765e-38
0.12427075 0.0080882162 0.062900901 3.589845e-39
0.1242351 0.010775283 0.062446594 2.0225445e-39
0.12408962 0.014159948 0.060502708 2.1172485e-39
0.12427076 0.11363062 0.016425788 1.4181583e-38
0.12419988 0.11675236 0.016508937 1.5932912e-38
0.12432783 0.12104252 0.017532051 1.3718751e-38
0.11991295 0.01148349 0.061461091 3.310754e-39
0.12023509 0.014321581 0.060450077 1.3800478e-39
0.12024817 0.016697675 0.059160769 2.2098e-39
0.12024817 0.11303583 0.016738713 1.2244737e-38
0.12015004 0.11693701 0.01684314 1.4547792e-38
0.11958313 0.12122637 0.017147005 1.2057056e-38
0.11644284 0.011595517 0.062329948 6.3492217e-39
0.11621144 0.014340386 0.060492814 2.3909529e-39
0.11555515 0.016719639 0.059210598 9.2050876e-40
0.11518717 0.10501635 0.02088052 1.0589491e-38
0.11605797 0.10860667 0.018742085 1.1325999e-38
0.11620405 0.11260623 0.017343342 1.2062505e-38
0.11610402 0.11706677 0.017080128 1.8236005e-38
0.11601791 0.12143001 0.01661694 1.3254857e-38
0.11574998 0.12437847 0.015297651 8.8364102e-39
0.11354385 0.011820078 0.061393619 7.5499173e-39
0.11220299 0.016735315 0.059246182 1.1945803e-39
0.11199211 0.1028496 0.024606943 8.008034e-39
0.11203812 0.10622385 0.022391915 9.6639708e-39
0.1121327 0.10926682 0.019593775 1.0862887e-38
0.1121327 0.11295378 0.017970264 1.1785212e-38
0.10871676 0.017733395 0.058850884 1.0109121e-39
0.10791078 0.10313424 0.025140405 7.7317932e-39
0.10795237 0.10656589 0.023021698 9.2944708e-39
0.10805373 0.10961041 0.020222723 1.0491936e-38
0.10810441 0.11297262 0.01801306 1.1320987e-38
0.10810441 0.11665955 0.016389489 1.5467671e-38
0.10811305 0.12029025 0.014669299 2.2391683e-38
0.10388965 0.018737763 0.058469832 1.7477485e-39
0.10428479 0.094476074 0.025660038 7.0864378e-39
0.10404062 0.098454356 0.024943352 7.2679466e-39
0.10398655 0.10246253 0.023907483 8.5594183e-39
0.1039684 0.10626236 0.022477329 9.8458481e-39
0.10404062 0.10952139 0.020070016 1.0767771e-38
0.10408539 0.11293638 0.017958581 1.1505716e-38
0.10411306 0.1164563 0.016044021 1.2701053e-38
0.10414009 0.11997312 0.014130831 1.980696e-38
0.10413966 0.12365562 0.012509286 2.1834532e-38
0.10139056 0.018372566 0.059755087 2.20657e-39
0.10080567 0.020470321 0.057745993 5.6109476e-39
0.10040341 0.094842762 0.025001466 8.3764255e-39
