# .PCD v0.7 - Point Cloud Data file format
VERSION 0.7
FIELDS x y z rgb
SIZE 4 4 4 4
TYPE F F F F
COUNT 1 1 1 1
WIDTH 978
HEIGHT 1
VIEWPOINT 0 0 0 0 1 0 0
POINTS 978
DATA ascii
0.16156289 0.087012887 0.0049540997 1.4638967e-38
0.16135292 0.090982601 0.0044703484 1.4179418e-38
0.1571404 0.066954687 0.007386744 1.832172e-38
0.15815122 0.07121706 0.0068699121 1.7401571e-38
0.15764664 0.075729966 0.0063195229 1.6756209e-38
0.15824698 0.079647541 0.0058438182 1.5744209e-38
0.15840529 0.08325167 0.0054053664 1.4915543e-38
0.15840575 0.087012485 0.0049476027 1.4270531e-38
0.1584063 0.091400102 0.0044134855 1.3718799e-38
0.15443432 0.067312524 0.0073376298 1.7490172e-38
0.15461524 0.071341991 0.0068475604 1.6755853e-38
0.15461579 0.075729594 0.0063133836 1.6017951e-38
0.15461625 0.079490393 0.0058555007 1.5097773e-38
0.15461673 0.083251208 0.0053976774 1.4270175e-38
0.15461719 0.087012008 0.0049398541 1.3534398e-38
0.15461774 0.091399625 0.0044057369 1.3166327e-38
0.15398671 0.094533548 0.0040228963 1.3165974e-38
0.15118697 0.067133039 0.007352829 1.712497e-38
0.15083641 0.071299821 0.0065091252 1.5925373e-38
0.15085295 0.075613111 0.0054244399 1.5096338e-38
0.15084746 0.079399303 0.0051873326 1.4362009e-38
0.15084453 0.08317247 0.0048398972 1.3717363e-38
0.15082863 0.087011546 0.0049321055 1.3165959e-38
0.15082917 0.091399163 0.0043980479 1.3074137e-38
0.15082957 0.09453316 0.004016459 1.2891172e-38
0.14619572 0.067371204 0.0073135495 1.6480325e-38
0.14642474 0.071278781 0.006334722 1.5465824e-38
0.14644261 0.0755983 0.0053052902 1.4453495e-38
0.14644307 0.079353437 0.0048481822 1.4084686e-38
0.14644355 0.083108574 0.0043910146 1.353225e-38
0.14640865 0.087011009 0.0049231648 1.2981593e-38
0.14722092 0.090592816 0.0044887662 1.2891196e-38
0.14830385 0.094532847 0.004011333 1.2983371e-38
0.14135441 0.06444554 0.0076598525 1.7031709e-38
0.14198615 0.06695281 0.0073558688 1.6569302e-38
0.14201169 0.071268216 0.0062430501 1.5189249e-38
0.14202929 0.075597748 0.0052962303 1.4451699e-38
0.14202975 0.079352885 0.0048391223 1.4083966e-38
0.14202532 0.083123967 0.0044919848 1.3072345e-38
0.14198865 0.087010458 0.0049141049 1.2429491e-38
0.14325181 0.089517817 0.0046114326 1.2524565e-38
0.13693395 0.060684185 0.0081086159 1.7586313e-38
0.13801676 0.063549697 0.0077620149 1.6848038e-38
0.13822943 0.06687431 0.006686151 1.6019357e-38
0.13824588 0.071216285 0.0058219433 1.5005576e-38
0.13824642 0.075597271 0.0052885413 1.4177608e-38
0.13824689 0.079352409 0.0048313737 1.3991413e-38
0.13824227 0.083123505 0.0044842958 1.2979792e-38
0.13820007 0.087009981 0.0049063563 1.2521685e-38
0.134589 0.063549265 0.0077550411 1.6756189e-38
0.13443299 0.066899434 0.0068992376 1.6020048e-38
0.13445857 0.071225896 0.0058969259 1.5099547e-38
0.13443407 0.075668558 0.0058316588 1.427123e-38
0.13445789 0.079367056 0.0049338341 1.4361273e-38
0.13442887 0.083202124 0.0050264001 1.3716264e-38
0.13441151 0.087009519 0.0048986673 1.2981573e-38
0.13567469 0.089516878 0.0045960546 1.2522374e-38
0.13062015 0.064444214 0.007637918 1.6939133e-38
0.13062683 0.066938207 0.007222414 1.6111904e-38
0.13067016 0.071235493 0.0059719682 1.5099191e-38
0.13068072 0.075596347 0.0052731037 1.4730431e-38
0.13064811 0.079427421 0.0053662658 1.4730063e-38
0.13064221 0.083201662 0.0050187111 1.4085765e-38
0.13078079 0.086852372 0.0049102902 1.3347493e-38
0.12777904 0.066951066 0.007326901 1.5837467e-38
0.12708503 0.071589306 0.0067608356 1.5008085e-38
0.12688324 0.075624406 0.0054857731 1.509779e-38
0.12689134 0.079366118 0.0049183369 1.4912656e-38
0.12687019 0.083169714 0.0047910213 1.4177257e-38
0.12665394 0.086650386 0.0049264431 1.3808469e-38
0.12388596 0.072800726 0.0066067576 1.4822632e-38
0.1226864 0.075936899 0.0059203506 1.4547132e-38
0.12246642 0.079384461 0.0050470233 1.4453491e-38
0.12247308 0.083129063 0.004507184 1.3901736e-38
0.12245622 0.08692275 0.0042971969 1.381026e-38
0.12146761 0.089828521 0.0045288801 1.3167399e-38
0.11736126 0.073217779 0.006542623 1.3076633e-38
0.11799308 0.076351881 0.0061624646 1.3445431e-38
0.11799347 0.079485878 0.0057808757 1.3534399e-38
0.11802849 0.083183095 0.0048831701 1.289011e-38
0.11805525 0.086893335 0.0040957928 1.3075948e-38
0.11799479 0.090141505 0.0044837594 1.3168132e-38
0.1140891 0.071507931 0.0067440867 9.8519592e-39
0.11456524 0.075545564 0.0062535405 1.0587752e-38
0.11515201 0.079172119 0.005813241 1.1696253e-38
0.11420538 0.083246216 0.0053153038 1.0863247e-38
0.11483727 0.087007105 0.0048587918 1.1698396e-38
0.11504811 0.089932203 0.0045031309 1.23416e-38
0.11104675 0.071336612 0.0067587495 7.0882721e-39
0.1104158 0.075097322 0.0062996149 7.3633876e-39
0.0775861 0.11144774 0.0018069148 2.192135e-38
0.077586405 0.11395495 0.001501739 2.3308952e-38
0.072954714 0.10413449 0.0026878119 2.1359878e-38
0.073694199 0.10714976 0.0019444823 1.8596169e-38
0.074501798 0.11072896 0.0013845563 1.8229207e-38
0.073970608 0.11426117 0.0012332201 1.9338447e-38
0.068744794 0.10079102 0.0030862093 1.988042e-38
0.070075318 0.10322158 0.0023453236 2.0530121e-38
0.070175968 0.10686173 0.0012307763 1.7764971e-38
0.070210107 0.11057591 0.00055474043 1.4913395e-38
0.070085213 0.11511317 0.0008417964 1.6022979e-38
0.069504865 0.11984588 0.00076800585 2.0627703e-38
0.066850521 0.1007908 0.0030822754 1.739582e-38
0.066323608 0.10318272 0.0021185279 1.6014695e-38
0.066428281 0.10682136 0.0010040998 1.6568925e-38
0.066514969 0.11047345 0 1.5283584e-38
0.066338107 0.11506547 0.00058805943 1.5744219e-38
0.06606359 0.11975142 0.00077241659 2.0443654e-38
0.062430829 0.10329746 0.0027680397 1.1409615e-38
0.062593326 0.10688072 0.001324892 1.4635342e-38
0.062593803 0.11063585 0.00086772442 1.666327e-38
0.062553823 0.11506501 0.00058037043 1.6112289e-38
0.059590384 0.11113212 0.0018084645 1.5558733e-38
0.15824698 0.079647541 0.0058438182 1.5744209e-38
0.15229754 0.080040827 0.0067592263 1.3442544e-38
0.14916536 0.072650611 0.0080202818 1.307341e-38
0.14893982 0.080655754 0.007045269 1.1969927e-38
0.1430262 0.079956546 0.0070809126 1.2522033e-38
0.13226429 0.090045363 0.0057926774 1.5469786e-38
0.12594748 0.096644193 0.0054714084 1.4547839e-38
0.17521332 0.067605346 0.011374235 1.3532164e-38
0.17485087 0.071839198 0.01085794 1.2334019e-38
0.17485142 0.07625328 0.010320663 1.1968494e-38
0.17448887 0.079856589 0.0098813772 1.1784479e-38
0.17448933 0.083640084 0.0094207525 1.206071e-38
0.17448986 0.087783903 0.0089162588 1.3073064e-38
0.17467175 0.091026932 0.0085218549 1.4274834e-38
0.17103946 0.072010711 0.01082927 1.4178318e-38
0.17104 0.076252818 0.010312855 1.4086114e-38
0.17104046 0.080036312 0.0098523498 1.3993567e-38
0.17104097 0.083788112 0.0091716051 1.33482e-38
0.17104144 0.087554201 0.0086013079 1.3717e-38
0.17104189 0.091370001 0.0083605647 1.4731879e-38
0.17104219 0.09390913 0.0081635118 1.5654536e-38
0.16468613 0.064270958 0.011758506 2.0996483e-38
0.16580014 0.067552134 0.011109412 1.9520993e-38
0.16659716 0.071761131 0.010221004 1.7124614e-38
0.16659333 0.076252267 0.010303795 1.6112274e-38
0.16659769 0.079944804 0.0091826916 1.5651655e-38
0.16659917 0.083677605 0.0083925128 1.4821531e-38
0.16660124 0.087443322 0.0078501105 1.4362714e-38
0.16660154 0.091233268 0.0074727535 1.4824779e-38
0.16641647 0.095473796 0.0076037645 1.5836421e-38
0.16532585 0.10021426 0.007384181 1.6300634e-38
0.1659614 0.10273667 0.0070783496 1.7498443e-38
0.16087423 0.060486991 0.012211323 2.1452084e-38
0.16198801 0.063783526 0.011686325 2.0350051e-38
0.16216034 0.06727986 0.010155797 1.96114e-38
0.16216764 0.071611196 0.0090128183 1.7954383e-38
0.1621595 0.07612142 0.0093032122 1.7032794e-38
0.16252635 0.079661116 0.008441329 1.6757274e-38
0.16217071 0.083378255 0.0074124932 1.5650224e-38
0.16343787 0.087307751 0.0069367886 1.4731154e-38
0.16312172 0.091394186 0.0064385533 1.4455646e-38
0.16227828 0.095784098 0.0067266822 1.4731876e-38
0.16214965 0.10021387 0.0073777437 1.5559121e-38
0.16189595 0.10324062 0.0070087314 1.5563426e-38
0.15706243 0.057333607 0.012587368 2.0622681e-38
0.15815176 0.060216416 0.012238801 2.0166369e-38
0.15834947 0.063539952 0.010939002 1.9519213e-38
0.15873061 0.067189023 0.0093763471 1.8689055e-38
0.15963599 0.072218657 0.0087658167 1.7493045e-38
0.1593198 0.075990766 0.0083059669 1.6940228e-38
0.15963678 0.078505576 0.0080004334 1.6387055e-38
0.15835908 0.0962345 0.0066230297 1.3902118e-38
0.15833823 0.10021339 0.0073699951 1.4453141e-38
0.15833871 0.1039969 0.0069093704 1.5098875e-38
0.15420382 0.057017963 0.012619972 1.9978393e-38
0.15452945 0.059819747 0.011943638 1.97958e-38
0.15455568 0.063477591 0.010379136 1.8689817e-38
0.1552019 0.065931186 0.0095221996 1.8319232e-38
0.15474045 0.096560135 0.0063681006 1.3442928e-38
0.15452681 0.10021292 0.0073621273 1.3718443e-38
0.15452729 0.10399643 0.0069015622 1.4362733e-38
0.15070997 0.056702245 0.012651205 1.9887986e-38
0.15072951 0.059784036 0.011604428 1.9242619e-38
0.15075868 0.063452363 0.010150492 1.822952e-38
0.14950198 0.066559181 0.0094339848 1.7494456e-38
0.15075806 0.096817762 0.00625664 1.3259239e-38
0.15072858 0.10013899 0.0069156289 1.3351795e-38
0.15071587 0.10399595 0.0068938136 1.3996452e-38
0.14689849 0.056228835 0.012701035 1.9517403e-38
0.14693338 0.059748959 0.011265099 1.8872033e-38
0.14695658 0.063452318 0.010142744 1.7769626e-38
0.14696857 0.065930173 0.0095054507 1.7399402e-38
0.14633846 0.09170647 0.0063661337 1.2708241e-38
0.14670825 0.095778674 0.0061733723 1.2892261e-38
0.14691885 0.10013852 0.0069078207 1.3535471e-38
0.14690444 0.10399549 0.0068860054 1.3902454e-38
0.14245549 0.056062143 0.012628257 1.887383e-38
0.1425042 0.059721667 0.011007488 1.8137331e-38
0.14278825 0.063163415 0.0098335743 1.739906e-38
0.14228068 0.091344237 0.0065026879 1.2339099e-38
0.14250764 0.095598564 0.0066399574 1.2431643e-38
0.14248073 0.10011445 0.0067616701 1.298303e-38
0.14245778 0.10399492 0.0068768859 1.3442554e-38
0.13800484 0.053547759 0.013009131 1.9518833e-38
0.13804251 0.055991847 0.011928082 1.8322457e-38
0.13824776 0.059510957 0.010520756 1.7769986e-38
0.13873479 0.062157009 0.0099477768 1.7309012e-38
0.13810506 0.091076747 0.0064258575 1.2154696e-38
0.13805786 0.095637187 0.0068778992 1.2063203e-38
0.13801596 0.1001924 0.0072187781 1.261496e-38
0.13801108 0.10363406 0.0069118738 1.3076289e-38
0.13546389 0.053547446 0.013003945 1.8874542e-38
0.13422939 0.056002285 0.0120309 1.813627e-38
0.13428906 0.05966476 0.01046598 1.7492688e-38
0.13366812 0.062156383 0.0099374652 1.6941295e-38
0.13414675 0.091233432 0.0063986778 1.2338723e-38
0.13425645 0.095623642 0.0067878366 1.1971723e-38
0.13421112 0.10017391 0.007101357 1.2613878e-38
0.13438115 0.10363361 0.0069044232 1.3168844e-38
0.13054831 0.056214307 0.012543261 1.7954031e-38
0.13044813 0.059734348 0.011121154 1.7401563e-38
0.13049138 0.062802926 0.010020137 1.7399748e-38
0.1292381 0.088560894 0.0067139864 1.3257811e-38
0.13049829 0.091093019 0.0065202117 1.2705718e-38
0.13044643 0.095636234 0.006862402 1.2339068e-38
0.13040119 0.10017341 0.0070934892 1.2706782e-38
0.13064228 0.10323676 0.006945014 1.2984099e-38
0.12657097 0.056699265 0.012602031 1.7860754e-38
0.12657836 0.059840206 0.01210767 1.7493044e-38
0.12664352 0.063511267 0.010653436 1.6756912e-38
0.1259421 0.067184955 0.0093094707 1.5653085e-38
0.12543583 0.070328355 0.008925736 1.4916243e-38
0.12733808 0.088560656 0.0067101121 1.362479e-38
0.12668324 0.091126755 0.0067320466 1.3165961e-38
0.12664613 0.095622391 0.0067723393 1.2339426e-38
0.12659802 0.10015468 0.006976068 1.270824e-38
0.12657669 0.10273179 0.0069981813 1.3075576e-38
0.12294149 0.060212065 0.012166977 1.7124275e-38
0.1227759 0.063610032 0.011529088 1.6388862e-38
0.1228315 0.067301631 0.010296106 1.5190682e-38
0.12262112 0.071096405 0.0088264942 1.4547472e-38
0.12163638 0.074728727 0.0083822012 1.4456042e-38
0.12307626 0.091456279 0.006492734 1.2800073e-38
0.12283487 0.095635772 0.0068468451 1.2430933e-38
0.12278046 0.10017249 0.0070781112 1.3074871e-38
0.12276529 0.10273133 0.0069903731 1.3442565e-38
0.1189486 0.060481813 0.012125909 1.7309741e-38
0.11895769 0.063622132 0.011631608 1.6112641e-38
0.11878011 0.067415148 0.010173261 1.4364144e-38
0.11863416 0.071341634 0.0090043545 1.3443277e-38
0.11846972 0.07472834 0.0083757639 1.3536913e-38
0.11847192 0.092331722 0.0062327981 1.3076306e-38
0.11899116 0.095715597 0.0073329806 1.3259602e-38
0.11937699 0.099788189 0.0073416829 1.3628041e-38
0.11450195 0.060481261 0.012116849 1.5101003e-38
0.11451617 0.063615292 0.011567354 1.3166331e-38
0.1144357 0.067153677 0.010022223 1.1784455e-38
0.11530244 0.069698408 0.0089816451 1.2338342e-38
0.11276997 0.076613709 0.0081346035 8.2843084e-39
0.11327706 0.080008715 0.0077223182 9.6683148e-39
0.1127713 0.087301478 0.0068335533 9.2055472e-39
0.11357366 0.091569975 0.006819129 1.0773941e-38
0.11466059 0.095615268 0.0075041652 1.206394e-38
0.11577721 0.098946974 0.0074367523 1.2983723e-38
0.11047881 0.060690958 0.012082994 1.1041533e-38
0.11008558 0.063595861 0.011392713 1.1042961e-38
0.11019541 0.067234412 0.0097188354 9.5696186e-39
0.10960269 0.071583778 0.0087404847 8.2813881e-39
0.11023659 0.076164335 0.008184135 8.0984373e-39
0.11022687 0.079771951 0.0078567266 7.6388829e-39
0.11022733 0.083544955 0.0073974729 7.9151265e-39
0.11014704 0.087448463 0.0078175664 8.2839174e-39
0.11087403 0.091036096 0.0077852607 9.2952163e-39
0.11133 0.094532341 0.0079650283 9.6665099e-39
0.10649844 0.064389884 0.011624515 1.3072314e-38
0.10627609 0.06737721 0.010924518 1.3163787e-38
0.10632381 0.071727663 0.0098913908 1.2059917e-38
0.10632998 0.076128796 0.0092997551 1.0586598e-38
0.10630925 0.079937667 0.0090597868 8.656255e-39
0.10647685 0.083548173 0.0085365772 7.8254308e-39
0.10709412 0.08675462 0.0089032054 8.0980772e-39
0.10370347 0.064894006 0.0115574 1.3442171e-38
0.10370378 0.06741634 0.011250436 1.3167395e-38
0.10345028 0.072208732 0.01066649 1.0314725e-38
0.10279741 0.076424554 0.010151982 6.3517777e-39
0.10370535 0.080027997 0.0097150803 6.0783801e-39
0.084651299 0.10461837 0.0066823959 2.2468351e-38
0.08528693 0.10777138 0.0062998533 2.1449575e-38
0.084969744 0.11123952 0.005877018 2.2756856e-38
0.0847378 0.11521171 0.0047214031 2.1365584e-38
0.081928827 0.1043478 0.0067098737 2.3115193e-38
0.082198873 0.10765217 0.0056364536 2.2925038e-38
0.082199551 0.1114323 0.0051762462 2.3039201e-38
0.082243256 0.11514905 0.0043880343 2.2941924e-38
0.078329794 0.10394858 0.0065270066 2.302625e-38
0.078498252 0.10751382 0.0048621893 2.2281481e-38
0.078916885 0.11103387 0.0040187836 2.2294457e-38
0.078936733 0.11513938 0.0033751726 2.31339e-38
0.078575134 0.11747447 0.0030902028 2.2474141e-38
0.073924333 0.10138007 0.0065508485 2.2187842e-38
0.074807562 0.1036353 0.005648613 2.2375812e-38
0.075723849 0.1071007 0.0043471456 2.0715919e-38
0.07561937 0.11579758 0.0032882094 2.2843296e-38
0.074521869 0.1179769 0.0030206442 2.2844728e-38
0.070664585 0.1003713 0.0060193539 2.1821924e-38
0.072239935 0.10238506 0.0049140453 2.2097082e-38
0.071584247 0.11939242 0.0030100942 2.183273e-38
0.072095484 0.12144417 0.0036008358 2.3397479e-38
0.066423789 0.099678487 0.0059871078 1.6568227e-38
0.067808636 0.11873052 0.0029150844 1.7956222e-38
0.063172847 0.1003913 0.0063972473 9.739341e-39
0.057972141 0.11092089 0.0058603883 1.5194637e-38
0.14116032 0.089317217 0.0049744248 1.3902464e-38
0.14293757 0.080946684 0.0071653724 1.5376154e-38
0.15084453 0.08317247 0.0048398972 1.3717363e-38
0.12689278 0.096497312 0.0043151379 1.4823697e-38
0.1206448 0.088344857 0.0055007339 1.6203036e-38
0.11925656 0.088828012 0.005133152 1.5835334e-38
0.11817691 0.096639633 0.0043956637 1.4362356e-38
0.13800484 0.053547759 0.013009131 1.9518833e-38
0.11008558 0.063595861 0.011392713 1.1042961e-38
0.17359093 0.06702663 0.013456106 1.5837771e-38
0.10312385 0.074316636 0.010409176 8.2871544e-39
0.084969118 0.10619487 0.0064911246 2.1913044e-38
0.084853776 0.11322562 0.0052992105 2.2015301e-38
0.12855583 0.10405363 0.0073450208 1.8793478e-38
0.14234973 0.099527285 0.0085932612 1.7405165e-38
0.14687121 0.10420038 0.0091636181 1.8512616e-38
0.17104243 0.067658797 0.013373971 1.5283578e-38
0.17104276 0.070188686 0.013065934 1.3901734e-38
0.17104597 0.096120119 0.0099092126 1.6576485e-38
0.17104855 0.10006748 0.010352015 1.7589579e-38
0.17062448 0.10426308 0.010931671 1.906148e-38
0.16561472 0.057399753 0.016374588 2.2842942e-38
0.16657771 0.060173642 0.015283346 2.2933328e-38
0.16696364 0.06375885 0.014041781 2.1179451e-38
0.16817527 0.067342192 0.013406515 1.8042976e-38
0.16786075 0.099914551 0.0094407201 1.7222241e-38
0.16664314 0.10455099 0.0094232559 1.8510084e-38
0.16608474 0.10809214 0.0097846389 1.9892679e-38
0.16209759 0.053935792 0.017040849 2.2381571e-38
0.16210732 0.056394387 0.015958071 2.1826615e-38
0.16248557 0.059887353 0.014302433 2.1914157e-38
0.16339611 0.06259805 0.013974309 2.1729036e-38
0.16244571 0.10528991 0.008775115 1.6298847e-38
0.16195759 0.10813417 0.0093093514 1.7681388e-38
0.16082661 0.11102842 0.010087907 1.7866527e-38
0.15858279 0.053618174 0.01707232 2.1916646e-38
0.15844713 0.056176174 0.015375495 2.1363482e-38
0.15893564 0.058802668 0.014427185 2.1086176e-38
0.15830272 0.10815547 0.0085297227 1.6207373e-38
0.15860246 0.11120884 0.0093058944 1.749845e-38
0.15425318 0.053001087 0.01685077 2.1360605e-38
0.15472588 0.055532914 0.015018046 2.0346796e-38
0.1544818 0.10813506 0.0084124804 1.5377957e-38
0.15470064 0.11146262 0.0096195936 1.6298821e-38
0.14995524 0.050128106 0.01747942 2.1177643e-38
0.15062352 0.052570861 0.016176164 2.0899984e-38
0.15065233 0.055006798 0.014872193 2.0348956e-38
0.15064599 0.10821413 0.0088426471 1.5009875e-38
0.15124092 0.11102724 0.010068417 1.5286113e-38
0.14676 0.050127707 0.017472923 2.0715226e-38
0.14680983 0.052528221 0.015725791 2.0347878e-38
0.14682949 0.055006329 0.014864445 1.9885475e-38
0.14681315 0.10825332 0.0090538859 1.5009162e-38
0.14740664 0.11102676 0.010060608 1.5378668e-38
0.14293975 0.050097041 0.017133117 2.044006e-38
0.14298847 0.052517269 0.015607297 1.9793613e-38
0.14299987 0.10819344 0.0087175369 1.4918764e-38
0.14267775 0.11153366 0.009989202 1.6667583e-38
0.13799302 0.049070012 0.016800284 2.0163832e-38
0.13874379 0.052084822 0.015539348 1.9793977e-38
0.13791579 0.1056031 0.0086867213 1.3445078e-38
0.13853766 0.10819291 0.0087084174 1.4458145e-38
0.13837504 0.11154348 0.0098352432 1.5379377e-38
0.13402623 0.048778351 0.016715646 1.9518825e-38
0.13392702 0.052316729 0.015165448 1.8966367e-38
0.1334558 0.10560255 0.0086775422 1.3537255e-38
0.13406333 0.1082318 0.0089184046 1.3997873e-38
0.13424234 0.11153261 0.0099719763 1.4367733e-38
0.1301841 0.048797172 0.016929328 1.9609593e-38
0.13026348 0.052474391 0.015138745 1.8781623e-38
0.12898952 0.055004124 0.014828146 1.8137701e-38
0.12995148 0.10528588 0.0087088943 1.344471e-38
0.1302246 0.108271 0.0091296434 1.399715e-38
0.13015237 0.11102463 0.010025442 1.390355e-38
0.12674695 0.049264316 0.017369092 1.9335165e-38
0.12638952 0.052546676 0.01590544 1.8597251e-38
0.12644094 0.055003811 0.0148229 1.8045151e-38
0.12644717 0.10496922 0.0087403655 1.35351e-38
0.12639731 0.10827011 0.0091218948 1.3812769e-38
0.12599862 0.1113413 0.009978354 1.335396e-38
0.122669 0.053010929 0.016928613 1.8414996e-38
0.1226102 0.056279186 0.01477176 1.7770712e-38
0.12198143 0.058798093 0.014351785 1.7310104e-38
0.12262426 0.10449439 0.0087902546 1.3627664e-38
0.12256937 0.10826984 0.009114027 1.3813134e-38
0.12249403 0.11190401 0.0097587705 1.3262479e-38
0.11864243 0.05393042 0.016952276 1.8230253e-38
0.11876996 0.056300525 0.014985085 1.777e-38
0.11879572 0.058797706 0.014345348 1.7401222e-38
0.1179515 0.10138415 0.0091592669 1.3445798e-38
0.11876725 0.10441282 0.0092399716 1.3352875e-38
0.11882782 0.10828327 0.010084093 1.3444727e-38
0.11992772 0.11165774 0.009927392 1.3906042e-38
0.11512765 0.05361281 0.016983747 1.8231697e-38
0.11494521 0.056300048 0.014977336 1.7771079e-38
0.11497287 0.058797229 0.014337659 1.7311176e-38
0.11479607 0.10090189 0.0092115998 1.2154689e-38
0.11489609 0.10450804 0.0097800493 1.16948e-38
0.11609297 0.10785107 0.01038295 1.2338025e-38
0.11037871 0.053881269 0.01643765 1.5103863e-38
0.11047536 0.056307841 0.015051186 1.4730067e-38
0.11005787 0.059519459 0.014239609 1.3253849e-38
0.10890127 0.092040062 0.010530055 9.2033668e-39
0.10947701 0.095728725 0.010262132 1.0035276e-38
0.1109177 0.099935278 0.009786129 1.0771397e-38
0.11078636 0.10443215 0.010083079 1.0496603e-38
0.10970242 0.10721591 0.010447145 1.1507876e-38
0.10713961 0.053928997 0.016928852 1.4084322e-38
0.10595678 0.056365427 0.015622437 1.3898479e-38
0.10603143 0.060084362 0.014386415 1.3713747e-38
0.10573483 0.062907174 0.013818324 1.3347483e-38
0.10478191 0.085359856 0.011083007 7.1793747e-39
0.10605655 0.088206142 0.010739088 8.0980884e-39
0.10720666 0.091889501 0.011636198 9.664691e-39
0.10714482 0.095797047 0.011831939 1.0953625e-38
0.1067194 0.10066046 0.011239052 1.1415678e-38
0.10651851 0.10433963 0.010664821 1.1508961e-38
0.10330572 0.057100344 0.016534925 1.3807372e-38
0.10283459 0.060483191 0.015719235 1.3993578e-38
0.10215764 0.063935012 0.014405489 1.2796103e-38
0.10155966 0.067688912 0.013563395 1.1048323e-38
0.10150349 0.071806461 0.012726247 8.0991548e-39
0.10095788 0.075872287 0.012230158 4.6890319e-39
0.10156124 0.080345318 0.012022614 3.863932e-39
0.10252588 0.08318086 0.011595428 4.9663125e-39
0.10331148 0.10340893 0.010897458 1.1600452e-38
0.099472471 0.065346614 0.015523136 7.7300486e-39
0.099507742 0.067844421 0.014883339 7.4545239e-39
0.099578232 0.072200954 0.013681591 4.0469107e-39
0.099648707 0.076547399 0.012481093 4.6018572e-39
0.096921265 0.10531124 0.010652781 1.2517709e-38
0.094109446 0.10518402 0.010662436 1.3068381e-38
0.0937455 0.10845308 0.010095835 1.6848087e-38
0.094206169 0.11213033 0.0098170042 2.1830893e-38
0.09053041 0.10213862 0.011025906 1.3441108e-38
0.090430558 0.10474825 0.010204256 1.5740617e-38
0.090689659 0.10824531 0.0089396834 1.8320687e-38
0.090677008 0.11206473 0.0085865855 2.2380841e-38
0.090391248 0.11486159 0.0079656243 2.0160566e-38
0.0864904 0.10156341 0.010684669 1.6201182e-38
0.086903416 0.10438852 0.0090655684 1.9335516e-38
0.087581918 0.10812679 0.0082761645 1.9793638e-38
0.087104551 0.11207969 0.007793963 2.2842915e-38
0.086945638 0.11508392 0.0074279308 2.154494e-38
0.082710564 0.10086189 0.010359347 1.9244766e-38
0.0831213 0.10306644 0.0088829994 2.1642215e-38
0.07848426 0.10075112 0.010464966 2.0994352e-38
0.074519373 0.10024646 0.010341883 2.2000205e-38
0.069441229 0.097061113 0.011600673 2.3296699e-38
0.07051418 0.098641023 0.010201693 2.2649906e-38
0.066176392 0.096360952 0.01047051 1.9884752e-38
0.066554986 0.098004609 0.0094652176 1.9148985e-38
0.063369855 0.096530423 0.010981262 1.3884487e-38
0.062172778 0.098983675 0.01017642 9.83041e-39
0.14224392 0.070021465 0.0086339116 1.7400863e-38
0.14663337 0.075369924 0.0071983933 1.6295593e-38
0.15074648 0.080223426 0.0065768361 1.5558749e-38
0.11214374 0.083429486 0.0056840181 1.6203039e-38
0.1108367 0.092991188 0.004419446 1.4454188e-38
0.1200427 0.091031983 0.010006845 1.638959e-38
0.11864734 0.093772143 0.010343373 1.6571803e-38
0.087343231 0.11010323 0.0080350637 2.1272358e-38
0.10016081 0.10482508 0.0078363419 1.7954387e-38
0.12403406 0.095141411 0.01042223 1.9339485e-38
0.14811316 0.10747339 0.011697888 1.740552e-38
0.17190577 0.10570514 0.011766195 1.9983805e-38
0.17105606 0.10886753 0.012498736 2.1827709e-38
0.16607031 0.049672142 0.021345854 2.2477733e-38
0.16656142 0.052862789 0.019279242 2.1645472e-38
0.16704628 0.056097422 0.017795205 2.2847949e-38
0.16806625 0.10951652 0.011294365 2.2011731e-38
0.16639374 0.112583 0.012108147 2.109192e-38
0.1620629 0.049126137 0.020648479 2.2655298e-38
0.16208579 0.052126128 0.018268585 2.2285807e-38
0.16337298 0.10993947 0.011233151 1.933948e-38
0.1622456 0.11277777 0.011640787 1.9156899e-38
0.16120636 0.11594583 0.013183773 1.9248026e-38
0.15822236 0.049066097 0.019976258 2.2563083e-38
0.15798979 0.051998559 0.018275738 2.2099958e-38
0.15798974 0.11331646 0.011213899 1.7770365e-38
0.15872887 0.11619858 0.012677789 1.7954771e-38
0.15369326 0.046662059 0.021938622 2.2468387e-38
0.15438028 0.049045917 0.019747019 2.2007764e-38
0.15504572 0.051489946 0.018331528 2.1732973e-38
0.15409344 0.11343254 0.010788858 1.6206621e-38
0.15411557 0.11586758 0.012305737 1.6667602e-38
0.15016516 0.046321314 0.021721005 2.2008136e-38
0.15073237 0.048634749 0.019245982 2.1640062e-38
0.15038177 0.11289504 0.011134505 1.5286799e-38
0.15050198 0.11612605 0.012971997 1.5746346e-38
0.14663355 0.045994744 0.021669626 2.1638254e-38
0.14672534 0.048312373 0.018701315 2.117942e-38
0.14653085 0.11294746 0.011408091 1.5747784e-38
0.1466502 0.11638544 0.012860596 1.5837827e-38
0.1466309 0.11940981 0.01306808 1.648175e-38
0.1427847 0.0459801 0.021495521 2.0902838e-38
0.14288536 0.048311893 0.018693447 2.0627673e-38
0.14321345 0.11343119 0.010766685 1.6666888e-38
0.14261892 0.1163577 0.012711823 1.6207349e-38
0.13893837 0.045965787 0.021321535 2.0531919e-38
0.13989866 0.048099767 0.018713236 2.0440051e-38
0.13905346 0.11343068 0.010758221 1.5654536e-38
0.1389927 0.11654268 0.011722326 1.5931124e-38
0.13864155 0.11953475 0.012029052 1.6209862e-38
0.13451253 0.045852643 0.019982934 1.961067e-38
0.13418949 0.11349361 0.010740578 1.4920896e-38
0.1345035 0.11654182 0.011713266 1.6023667e-38
0.13430871 0.11958647 0.012618244 1.6393164e-38
0.13002588 0.045852099 0.019973874 1.9609597e-38
0.1300934 0.11263542 0.010836542 1.3997879e-38
0.1299755 0.11666627 0.012360513 1.6300268e-38
0.13023812 0.11972687 0.012995839 1.6578288e-38
0.1267252 0.045978118 0.021462798 1.9517036e-38
0.12650946 0.11323854 0.010755837 1.3446162e-38
0.12614635 0.11660387 0.012024343 1.5193926e-38
0.12580243 0.11991777 0.012963414 1.6207354e-38
0.12283617 0.046658244 0.021875739 1.9701071e-38
0.12234228 0.049022246 0.019460261 1.9241892e-38
0.12176579 0.051485837 0.018263757 1.8598672e-38
0.12241354 0.11374627 0.010685623 1.3446158e-38
0.12235153 0.11645669 0.011250913 1.436704e-38
0.1222616 0.11988376 0.012120843 1.5565209e-38
0.11846371 0.049061183 0.019895196 1.905896e-38
0.11856587 0.052120749 0.018179834 1.8413931e-38
0.11729307 0.10993378 0.011139274 1.2980875e-38
0.11820769 0.11265665 0.01080972 1.3351797e-38
0.11845472 0.11658172 0.011899292 1.381242e-38
0.11837044 0.11998023 0.012604773 1.3998616e-38
0.11458811 0.04909049 0.020219564 1.8966386e-38
0.11446986 0.05199318 0.018186986 1.8508647e-38
0.11436723 0.10884432 0.011265934 1.1695523e-38
0.11465921 0.11263798 0.011700094 1.1144841e-38
0.11454247 0.11672798 0.012657046 1.1418538e-38
0.1144881 0.11940587 0.013002634 9.5739388e-39
0.11066619 0.049802173 0.020964324 1.8324624e-38
0.11104316 0.052418519 0.018415987 1.7587752e-38
0.11105295 0.10882121 0.011261821 1.0497689e-38
0.11071791 0.1128407 0.012786627 9.5746282e-39
0.11065257 0.1166465 0.013078809 7.9147846e-39
0.10934526 0.11940521 0.012992084 7.7321856e-39
0.10740811 0.050485212 0.021378219 1.5559814e-38
0.10690475 0.052258659 0.019650161 1.482153e-38
0.1057073 0.092244402 0.013940573 9.3895419e-39
0.10577136 0.095955551 0.012817383 1.095578e-38
0.10577167 0.09849678 0.012507915 1.1691893e-38
0.10641262 0.10612059 0.011581123 1.2060338e-38
0.10699063 0.10878152 0.011929929 1.2429803e-38
0.10685612 0.11286078 0.012888193 9.2058415e-39
0.10756322 0.116559 0.013133466 6.5354402e-39
0.10815109 0.11921237 0.012005687 7.1811768e-39
0.10341844 0.053382833 0.020177841 1.4267267e-38
0.10219587 0.056297321 0.018141568 1.3715532e-38
0.10107359 0.060377616 0.017138839 1.1780544e-38
0.10064724 0.062918797 0.016828597 1.0585238e-38
0.10419867 0.089411721 0.016632855 7.9137e-39
0.10424779 0.093163148 0.015672505 9.3898824e-39
0.10304502 0.096218988 0.014458597 1.0494439e-38
0.10255162 0.099799484 0.012544215 1.1599717e-38
0.10203908 0.10442588 0.011778474 1.1784472e-38
0.10310148 0.10885914 0.012360275 1.3627978e-38
0.10307976 0.11144443 0.012269318 1.2613851e-38
0.10033716 0.054313216 0.020897686 1.2521307e-38
0.10040613 0.056798477 0.019923627 1.160152e-38
0.099425606 0.060322631 0.019660592 8.5529835e-39
0.098514766 0.0644124 0.018657088 7.2647502e-39
0.097231768 0.068234041 0.018189251 7.4555959e-39
0.097326167 0.072587058 0.016778052 4.969939e-39
0.097340137 0.075752988 0.016266704 4.9698998e-39
0.098799683 0.097451687 0.015642941 1.0124932e-38
0.098263152 0.099769354 0.01314348 1.1413154e-38
0.098348364 0.10395952 0.011827588 1.2057823e-38
0.098593414 0.10889791 0.012570143 1.7033876e-38
0.098094918 0.11243376 0.012138605 1.9613886e-38
0.097024344 0.1158126 0.012396753 1.0384664e-38
0.093958944 0.09713161 0.015269041 1.094824e-38
0.094176844 0.099874258 0.012987971 1.1776217e-38
0.094435155 0.10339636 0.011888206 1.2420504e-38
0.095532954 0.10866047 0.011249661 1.7032461e-38
0.095533587 0.11374295 0.010630786 1.8688715e-38
0.090076178 0.097040951 0.015507102 1.177621e-38
0.090333045 0.099873781 0.012980163 1.2606308e-38
0.090838894 0.10273035 0.011961937 1.3349981e-38
0.086051352 0.096747875 0.015414774 1.2882176e-38
0.086648434 0.099541232 0.013204992 1.3807689e-38
0.082407534 0.09650813 0.015220404 1.4268004e-38
0.082731701 0.098493934 0.012461007 1.611114e-38
0.078727044 0.096724033 0.01525867 1.5832808e-38
0.078891717 0.098493472 0.012453139 1.8136659e-38
0.074698791 0.096985549 0.015146494 1.7488737e-38
0.075051732 0.098492995 0.01244539 1.979186e-38
0.070616186 0.096247733 0.01459825 2.2283252e-38
0.072491728 0.098492667 0.012440145 2.1910514e-38
0.065063193 0.093796462 0.01551497 2.0709464e-38
0.066738069 0.095059633 0.013652146 2.1542468e-38
0.062733933 0.093344927 0.015397251 1.8318093e-38
0.061716698 0.095631704 0.013437867 1.49076e-38
0.059199795 0.097702056 0.015531182 1.141285e-38
0.059363894 0.098815933 0.014388621 1.0766758e-38
0.144823 0.083634585 0.0070480704 1.5283957e-38
0.14438958 0.089432523 0.006247282 1.528469e-38
0.14343119 0.070814267 0.0084032416 1.6020071e-38
0.14171091 0.084137127 0.0074039698 1.2522387e-38
0.13189764 0.085063338 0.011819601 1.7034962e-38
0.094286211 0.11347835 0.0096530914 1.8967079e-38
0.11659566 0.094171658 0.010538161 1.8785231e-38
0.15312968 0.048766065 0.024031937 2.1369947e-38
0.14010189 0.1091682 0.014234304 1.7954755e-38
0.15169798 0.11601323 0.015758514 2.1463951e-38
0.16604176 0.046263356 0.026797533 2.2667185e-38
0.16750985 0.048411533 0.023517013 2.2942674e-38
0.16848533 0.11449249 0.01471895 2.2197905e-38
0.16654767 0.11734915 0.015962243 2.2195393e-38
0.16632074 0.12119007 0.017704725 2.2476314e-38
0.16134445 0.043230366 0.027409017 2.256528e-38
0.16201252 0.045662303 0.025435448 2.2752886e-38
0.16246527 0.11766498 0.015327752 2.0444045e-38
0.16201144 0.12151024 0.017097294 2.1179794e-38
0.16135454 0.12423235 0.017548144 2.2286486e-38
0.15681064 0.039372567 0.027869344 2.1458907e-38
0.15811026 0.041926604 0.027337193 2.2195756e-38
0.15814956 0.045597244 0.024651885 2.2656727e-38
0.15752277 0.11787739 0.01529175 1.7770732e-38
0.15814491 0.12133679 0.016215026 1.9059692e-38
0.15775445 0.1252487 0.016985238 2.0626285e-38
0.15423349 0.041900132 0.026996672 2.2010299e-38
0.15446454 0.045220688 0.02456224 2.2562735e-38
0.15463334 0.11810118 0.014754951 1.7128222e-38
0.15428191 0.12122799 0.015660703 1.7494134e-38
0.15441313 0.12518224 0.016536772 1.9796163e-38
0.15423122 0.12808871 0.017064035 2.053445e-38
0.15017243 0.038246717 0.027992785 2.026035e-38
0.15037689 0.041830253 0.026101768 2.182553e-38
0.15069681 0.044733983 0.023577631 2.2099615e-38
0.15045917 0.11832482 0.01421541 1.6019004e-38
0.15043357 0.12105539 0.014778376 1.6756929e-38
0.15038048 0.12527324 0.016167641 1.9152942e-38
0.15164074 0.12808838 0.017058671 2.0258928e-38
0.14645243 0.038077358 0.027893782 2.0445811e-38
0.14652941 0.041760396 0.025206923 2.1364908e-38
0.1465871 0.04418974 0.02323246 2.1731536e-38
0.14659633 0.11832434 0.014207542 1.6114059e-38
0.14654458 0.12133329 0.01535213 1.6944186e-38
0.14669336 0.12486447 0.01600194 1.8507921e-38
0.14256293 0.038245771 0.027977228 2.0075244e-38
0.1426169 0.04183853 0.026196837 2.0442607e-38
0.14266945 0.044297434 0.024554431 2.1086888e-38
0.14337727 0.11832395 0.014200985 1.629847e-38
0.14265355 0.12126939 0.01585567 1.6758729e-38
0.14261383 0.1246736 0.016448557 1.8417526e-38
0.13893634 0.038856059 0.02789551 2.0166728e-38
0.13873881 0.041838046 0.02618891 2.0351465e-38
0.13880153 0.044296958 0.024546564 2.0811009e-38
0.13900977 0.12215561 0.016344726 1.6853789e-38
0.13935806 0.12477332 0.016933322 1.850865e-38
0.1347916 0.039048407 0.027863622 1.9612471e-38
0.13487855 0.041810732 0.025848448 1.9888332e-38
0.13499855 0.044188306 0.023208857 1.997945e-38
0.1352153 0.12184268 0.014763236 1.6945255e-38
0.13484588 0.12470633 0.016596556 1.82317e-38
0.13090593 0.039369367 0.027816534 1.9703226e-38
0.130982 0.041836247 0.026173174 1.9335164e-38
0.1311357 0.044187829 0.023200929 1.9886187e-38
0.13040955 0.12160909 0.013774395 1.6946002e-38
0.13101202 0.12453961 0.015769482 1.8234215e-38
0.12679951 0.042021748 0.026880741 1.9333726e-38
0.12590005 0.044934455 0.024442434 1.9792899e-38
0.1263168 0.12183683 0.013738275 1.6574349e-38
0.12646002 0.12501784 0.016171992 1.7863293e-38
0.12250116 0.041923963 0.027286768 1.9610673e-38
0.12181666 0.045239564 0.024780691 1.9885103e-38
0.12213209 0.12215587 0.013690889 1.6118375e-38
0.12176687 0.12486167 0.015951097 1.6856669e-38
0.11827783 0.042903606 0.02736038 1.9054279e-38
0.11809834 0.045637581 0.025124431 1.9241193e-38
0.11821709 0.12228638 0.014338553 1.4091536e-38
0.11806606 0.12524638 0.015992522 1.3447245e-38
0.11925986 0.12808439 0.016992688 1.4920938e-38
0.11536359 0.043224685 0.027315378 1.8594002e-38
0.11415941 0.045702089 0.0258919 1.8874909e-38
0.11432429 0.12171228 0.014736176 8.839245e-39
0.11416063 0.12531327 0.016312242 8.5615595e-39
0.11027049 0.046354141 0.025916636 1.8415005e-38
0.11053431 0.04801983 0.022692204 1.8414631e-38
0.11054306 0.11831988 0.014134049 7.912635e-39
0.11060659 0.12125611 0.014909983 7.824014e-39
0.11111413 0.12452249 0.016738117 8.3836114e-39
0.10657472 0.046549559 0.026691079 1.6296681e-38
0.10638026 0.049032059 0.023711741 1.5559821e-38
0.10370694 0.047080483 0.026822031 1.5740616e-38
0.10259853 0.04948261 0.024624527 1.4360907e-38
0.10188333 0.052341033 0.022819996 1.4082161e-38
0.10251633 0.09064649 0.020508587 7.9140489e-39
0.10228796 0.092811942 0.018805504 8.649802e-39
0.099873133 0.050249066 0.025924623 1.3073417e-38
0.098675288 0.053373504 0.024606526 1.1686543e-38
0.098125696 0.057131369 0.023236394 9.7493561e-39
0.097659737 0.060800064 0.021109879 8.0004613e-39
0.097660057 0.063356429 0.020798683 7.2650655e-39
0.098832488 0.094076231 0.020687878 8.5572533e-39
0.098588154 0.095979169 0.017836511 9.4792096e-39
0.09518148 0.057859313 0.025290847 1.0857825e-38
0.094776407 0.061093155 0.023866594 9.7550594e-39
0.094874769 0.064843833 0.022514701 8.8345716e-39
0.094329134 0.068585813 0.021162629 9.0175126e-39
0.094246261 0.0731581 0.021361291 7.4552413e-39
0.093996435 0.077294305 0.02312392 7.0879106e-39
0.094664894 0.093983278 0.020925701 9.2912184e-39
0.094889782 0.096104115 0.018619716 1.0211387e-38
0.090957776 0.06157409 0.024887443 1.2979761e-38
0.090821028 0.06501703 0.024052382 1.1874125e-38
0.090873219 0.068819717 0.023141801 1.0492281e-38
0.090844631 0.073343843 0.022842824 9.3866678e-39
0.090434507 0.07697244 0.023155749 8.8342241e-39
0.089464724 0.090151206 0.021549463 1.0305012e-38
0.090671413 0.093430102 0.020523071 1.0576939e-38
0.090524934 0.095388502 0.017388344 1.113012e-38
0.087129742 0.061735932 0.02500385 1.5466508e-38
0.087048069 0.065225422 0.024452925 1.3257058e-38
0.087258853 0.069103345 0.023963332 1.1878081e-38
0.08687216 0.073436186 0.023578942 1.1509304e-38
0.086710788 0.077775553 0.023050308 1.0677394e-38
0.086225584 0.081793457 0.022560239 1.0217856e-38
0.086711794 0.085811466 0.022072077 1.0308612e-38
0.086955518 0.089409187 0.020963073 1.095073e-38
0.086604916 0.093230903 0.019520164 1.150033e-38
0.086719289 0.095309645 0.016886353 1.1959509e-38
0.084280163 0.061221283 0.025060713 1.5373982e-38
0.083633035 0.065078437 0.024589777 1.3901366e-38
0.082988024 0.086017653 0.022039354 1.1597201e-38
0.082844585 0.089503124 0.020708084 1.2056017e-38
0.082198896 0.09294486 0.019280434 1.2792515e-38
0.082212642 0.095309094 0.016877174 1.3622296e-38
0.080395438 0.068935275 0.024113595 1.2980102e-38
0.078327723 0.089335978 0.021259487 1.33446e-38
0.078078099 0.093056723 0.019157648 1.4358758e-38
0.077705979 0.095308542 0.016867995 1.4818295e-38
0.074000187 0.08942394 0.021046519 1.4267633e-38
0.074110396 0.093159065 0.01980859 1.5184205e-38
0.074486919 0.09530814 0.016861439 1.6011812e-38
0.070899218 0.086505964 0.021955132 1.3160924e-38
0.070133962 0.089407101 0.0209288 1.5094868e-38
0.070314705 0.093072966 0.019251645 1.8873412e-38
0.0719117 0.095307827 0.016856194 1.9615662e-38
0.066175587 0.090123475 0.021337152 1.6662216e-38
0.066635907 0.092875764 0.019030213 2.1084734e-38
0.062264696 0.089504972 0.021572351 1.5189243e-38
0.062423296 0.092438176 0.02020818 1.8322069e-38
0.058769703 0.093495414 0.020273507 1.5646634e-38
0.057964578 0.096614242 0.018481851 1.3055849e-38
0.05793348 0.10100389 0.018148839 1.076423e-38
0.057417341 0.10459332 0.017710865 1.1597569e-38
0.054493919 0.09464699 0.02093035 1.6386001e-38
0.05453153 0.097183019 0.020397842 1.4633534e-38
0.054664366 0.10091141 0.019160628 1.1410297e-38
0.054740034 0.10468678 0.018253505 1.104798e-38
0.054031223 0.10859261 0.016881168 1.2336915e-38
0.053772919 0.11332357 0.015297413 1.3441825e-38
0.053201407 0.11650451 0.018266797 1.2338733e-38
0.050793625 0.09758538 0.020565033 1.3714829e-38
0.050725512 0.10096528 0.019481897 1.1782291e-38
0.050804354 0.10474339 0.018574357 1.113623e-38
0.050882988 0.10851669 0.017667472 1.2335132e-38
0.05082415 0.11242595 0.017527223 1.3534389e-38
0.051474318 0.11564714 0.018367648 1.3166003e-38
0.046981968 0.097989008 0.020508111 1.2426603e-38
0.046743222 0.10105629 0.020022213 1.1507868e-38
0.046904869 0.104762 0.018675983 1.123165e-38
0.046864703 0.10865282 0.018426061 1.2061414e-38
0.047246352 0.1121279 0.018283665 1.3166665e-38
0.044132531 0.098502949 0.020439684 1.1322766e-38
0.044132769 0.10043158 0.020204961 1.104725e-38
0.043615222 0.10493162 0.019656003 1.0955437e-38
0.044133648 0.10750318 0.019344032 1.1599381e-38
0.040246978 0.099788219 0.020275235 1.1781882e-38
0.14695124 0.089123279 0.0056744218 1.3901389e-38
0.14157547 0.090414837 0.0070734024 1.2245804e-38
0.16244571 0.10528991 0.008775115 1.6298847e-38
0.11640128 0.088545203 0.010861754 1.4270157e-38
0.11189547 0.088300422 0.011000812 1.6850555e-38
0.13840878 0.11079986 0.010649025 1.5561628e-38
0.12989628 0.1063506 0.010706007 1.3168491e-38
0.16613212 0.12504667 0.020279408 2.2664662e-38
0.16130641 0.039593849 0.030873835 2.2009929e-38
0.16215155 0.041752845 0.029893339 2.2381228e-38
0.16196929 0.12630114 0.020151794 2.2379064e-38
0.15832449 0.038774863 0.030362964 2.1275603e-38
0.1593812 0.12656315 0.019275069 2.1639731e-38
0.15871561 0.12870139 0.020020783 2.2467294e-38
0.15442951 0.037470143 0.030312359 2.06313e-38
0.15288606 0.1272071 0.019183338 2.0534441e-38
0.15417472 0.12859881 0.019520283 2.0534446e-38
0.15024786 0.035718225 0.031322956 1.9157621e-38
0.15157577 0.036940016 0.030169487 1.9528565e-38
0.146345 0.035717744 0.031314969 1.9248751e-38
0.14574131 0.12720624 0.019168854 1.95199e-38
0.14505564 0.12869971 0.019993007 1.9522764e-38
0.14244215 0.03571726 0.031307042 1.943314e-38
0.14248246 0.036938891 0.03015095 2.0167448e-38
0.1424937 0.12720582 0.019162178 1.8970697e-38
0.14245373 0.12869938 0.019987702 1.9429872e-38
0.1382606 0.037260748 0.030103087 1.9983774e-38
0.13807684 0.12643157 0.019247472 1.9153655e-38
0.13920136 0.12869897 0.019981027 1.9521378e-38
0.13468824 0.037453745 0.030072391 1.9612828e-38
0.13464788 0.127407 0.020129025 1.9797213e-38
0.13076249 0.037617106 0.030548096 1.9703958e-38
0.13080229 0.12720439 0.019138336 1.9889049e-38
0.12944424 0.12869777 0.019961119 1.9984485e-38
0.1282042 0.12720406 0.019133031 1.9428813e-38
0.12684233 0.12869745 0.019955873 1.9617874e-38
0.12298525 0.038882729 0.030042291 1.9611011e-38
0.12300801 0.12720342 0.019122481 1.860408e-38
0.12293948 0.12869698 0.019947886 1.8976807e-38
0.11936887 0.03924742 0.030578077 1.9517376e-38
0.11832076 0.041320305 0.029568017 1.9239392e-38
0.11862881 0.12927414 0.019533038 1.381459e-38
0.11398502 0.041866247 0.030276239 1.8873104e-38
0.1145244 0.12923962 0.0193609 8.8374401e-39
0.11056985 0.043461833 0.030298829 1.8508616e-38
0.11000729 0.044672046 0.029142916 1.8414282e-38
0.11062314 0.12665725 0.019667208 1.0223204e-38
0.11123093 0.12869552 0.019924104 1.2153944e-38
0.10601673 0.045183167 0.030079901 1.6571115e-38
0.10151327 0.047292504 0.029310167 1.4269808e-38
0.10135223 0.086795539 0.023997128 5.6099008e-39
0.10139874 0.089605093 0.024058223 6.9006312e-39
0.098047256 0.049872715 0.028989017 1.3255263e-38
0.09701781 0.052407604 0.028174579 1.3155907e-38
0.097021095 0.078842923 0.024956405 5.7056824e-39
0.09745647 0.082434237 0.025325954 5.5216274e-39
0.098649785 0.086077169 0.025086462 5.4258389e-39
0.098405235 0.090075523 0.024347305 6.5336298e-39
0.097970404 0.092743233 0.023518026 7.8211288e-39
0.095609896 0.051208496 0.029325068 1.5188485e-38
0.094696522 0.053961966 0.028844059 1.426791e-38
0.093742624 0.056945089 0.027867317 1.343745e-38
0.094747812 0.079165027 0.024912536 6.7180434e-39
0.09436217 0.082142577 0.025108933 6.9942562e-39
0.093012251 0.085430756 0.025153577 7.3626575e-39
0.094127961 0.090319842 0.02456063 7.4509029e-39
0.094387814 0.092433006 0.023632348 8.4625493e-39
0.090406567 0.055082109 0.028842747 1.7493722e-38
0.09044566 0.057630975 0.028196752 1.4917289e-38
0.089874014 0.060143892 0.027218103 1.4270864e-38
0.09078569 0.078971103 0.024928033 8.0999045e-39
0.09050063 0.082096577 0.024770856 8.193521e-39
0.090449847 0.086028948 0.024739742 8.372153e-39
0.090849057 0.089681521 0.024056017 9.1997402e-39
0.091826595 0.092382312 0.023297489 9.7507476e-39
0.086503714 0.055081625 0.028834879 1.9244732e-38
0.086558491 0.057619374 0.028078258 1.7308281e-38
0.086301722 0.06078821 0.027132332 1.5650192e-38
0.085327834 0.064011902 0.026737869 1.4546727e-38
0.0853284 0.068525255 0.026188493 1.2705684e-38
0.087927856 0.079486549 0.024859369 1.0222158e-38
0.086814709 0.082065478 0.024543226 9.8476432e-39
0.087928496 0.08464466 0.024231434 9.3899048e-39
0.08260078 0.054435436 0.028905451 1.7402279e-38
0.082643569 0.057630215 0.028180897 1.6478536e-38
0.082550846 0.061445501 0.027170599 1.5097036e-38
0.082210302 0.065301061 0.026574612 1.3900652e-38
0.08273039 0.0691697 0.026104748 1.2613499e-38
0.082730949 0.073683053 0.025555253 1.1875587e-38
0.082731523 0.078196391 0.025005877 1.1138032e-38
0.082674801 0.082125396 0.024975121 1.1506443e-38
0.08273232 0.08464402 0.024220824 1.1506086e-38
0.079348423 0.054435033 0.028898895 1.6753702e-38
0.078698359 0.057663497 0.028504491 1.6012907e-38
0.07872808 0.061514061 0.027811944 1.4816516e-38
0.078787871 0.065337554 0.026898921 1.3896331e-38
0.078653961 0.069183603 0.02622062 1.3254543e-38
0.078744523 0.073765635 0.02620858 1.3437881e-38
0.078789473 0.078239545 0.025328279 1.3069458e-38
0.078701414 0.082200438 0.025517404 1.2885058e-38
0.078835353 0.085933074 0.024055958 1.2885061e-38
0.07609652 0.058308888 0.028420568 1.5921419e-38
0.075229675 0.061967801 0.027973413 1.5092752e-38
0.074873783 0.065349236 0.027001381 1.4817958e-38
0.074920855 0.069181532 0.026199222 1.546295e-38
0.074879155 0.073734015 0.025952756 1.5095601e-38
0.074828997 0.078296766 0.025760889 1.4174724e-38
0.074798547 0.082199961 0.025509536 1.3346741e-38
0.074938208 0.085932598 0.02404803 1.2977617e-38
0.070893608 0.065411046 0.027545333 1.638276e-38
0.070925862 0.069259077 0.026853085 1.6107241e-38
0.07093057 0.073774904 0.026275396 1.546367e-38
0.070911117 0.078310549 0.025863051 1.4452749e-38
0.070928112 0.082168847 0.025281489 1.3529363e-38
0.07071618 0.084964931 0.024157107 1.3160932e-38
0.06699083 0.066056266 0.027458787 1.6569996e-38
0.06699124 0.069284812 0.027065754 1.6109026e-38
0.067016743 0.073784634 0.026350081 1.5187431e-38
0.066992372 0.07832475 0.025965273 1.4174708e-38
0.067026317 0.08216837 0.025273561 1.3622982e-38
0.066838592 0.086102664 0.024312913 1.2885406e-38
0.065845214 0.088510528 0.023715496 1.3159856e-38
0.064388946 0.066055954 0.027453482 1.6754768e-38
0.062437914 0.069284245 0.027056456 1.60172e-38
0.062438473 0.0738042 0.026506066 1.4635702e-38
0.062439047 0.078324184 0.025955975 1.3805951e-38
0.062452704 0.082187116 0.02540189 1.3163452e-38
0.062262602 0.085955277 0.025026619 1.2794313e-38
0.061928235 0.089817747 0.023674309 1.5279283e-38
0.058535226 0.070575193 0.026891232 1.5098842e-38
0.058003418 0.073744968 0.026504338 1.4175803e-38
0.058257438 0.078508154 0.025924921 1.353188e-38
0.0580488 0.082036465 0.025495052 1.3438588e-38
0.057886682 0.086072132 0.025003374 1.4452053e-38
0.057923175 0.089913443 0.024312019 1.601757e-38
0.057185449 0.092807874 0.023174584 1.6662567e-38
0.055284292 0.082197547 0.02546978 1.527746e-38
0.054146476 0.086233094 0.024976134 1.6663274e-38
0.053984314 0.089945912 0.024523795 1.7215385e-38
0.054154359 0.093022436 0.023142278 1.6847318e-38
0.050081082 0.086846009 0.024893165 1.6570374e-38
0.050101183 0.089928851 0.024405956 1.6385616e-38
0.050257318 0.093666717 0.023055851 1.5740955e-38
0.049608119 0.096245691 0.022740543 1.5004116e-38
0.049739577 0.11740245 0.020668983 1.3256728e-38
0.045961365 0.086501122 0.024926722 1.4544957e-38
0.046218887 0.089911789 0.024288237 1.4543508e-38
0.04636018 0.093666241 0.023047924 1.3808448e-38
0.046035789 0.096567616 0.022693932 1.307089e-38
0.045435682 0.11392979 0.020914972 1.2981175e-38
0.046675324 0.11657228 0.020931602 1.3164494e-38
0.042274967 0.083487362 0.025286019 1.2608853e-38
0.042275295 0.086070195 0.024971604 1.2610649e-38
0.042275786 0.089944452 0.024499953 1.2703911e-38
0.042400777 0.093716115 0.023369491 1.1597209e-38
0.042301118 0.097373113 0.022588253 1.0678127e-38
0.042092875 0.10158709 0.022074878 1.0861064e-38
0.041490197 0.10527137 0.021625102 1.0402267e-38
0.04227902 0.10932346 0.021259427 1.1692642e-38
0.042650014 0.1121766 0.021542311 1.2245083e-38
0.0393482 0.086392686 0.024926364 1.2335842e-38
0.039023384 0.08994405 0.024493277 1.251843e-38
0.03839457 0.093801022 0.023910522 1.2516982e-38
0.038458809 0.097621769 0.023109734 1.1968496e-38
0.038331628 0.10162522 0.022440314 1.2245443e-38
0.038459778 0.10536566 0.022167087 1.2705317e-38
0.038635418 0.10854043 0.022228658 1.3440721e-38
0.035771832 0.096400738 0.023700595 1.3347784e-38
0.035772324 0.10027499 0.023229003 1.2333335e-38
0.14640602 0.071476579 0.0078775883 1.6480691e-38
0.14668433 0.081428766 0.006408155 1.5098845e-38
0.1430262 0.079956546 0.0070809126 1.2522033e-38
0.13438115 0.10363361 0.0069044232 1.3168844e-38
0.12416106 0.070276409 0.013779819 1.4088293e-38
0.1225805 0.096359819 0.012601018 1.7311903e-38
0.10914649 0.10856964 0.01426667 1.4270517e-38
0.094343662 0.08520177 0.024750471 1.7492699e-38
0.16165105 0.035458077 0.035206139 1.8418994e-38
0.16212517 0.038044591 0.032647192 2.0913284e-38
0.15667537 0.032093693 0.035806894 1.5937627e-38
0.15800005 0.03463209 0.034605145 1.8512268e-38
0.15803643 0.037080403 0.032180429 2.0452308e-38
0.15769158 0.13023567 0.022602201 2.2466231e-38
0.15886882 0.13254854 0.023582399 2.2750369e-38
0.15380144 0.0315613 0.03566438 1.713218e-38
0.15410241 0.034565382 0.033597887 1.925269e-38
0.1540935 0.13061005 0.022801101 2.071955e-38
0.15014969 0.031535961 0.035257041 1.6945273e-38
0.15019019 0.033910282 0.033557713 1.8510787e-38
0.14991173 0.13009143 0.022855639 1.9891224e-38
0.14622146 0.031137891 0.035470188 1.6853787e-38
0.1462995 0.033867043 0.032883286 1.8419316e-38
0.14653505 0.12996821 0.022259355 1.9800089e-38
0.14556499 0.13211389 0.023607969 2.0446573e-38
0.14211126 0.031137377 0.035461724 1.6853446e-38
0.14240178 0.033845194 0.032542229 1.8326415e-38
0.14241377 0.13019672 0.02081269 1.9984495e-38
0.14204834 0.13254993 0.023144782 2.0813902e-38
0.13836811 0.031145804 0.035596907 1.6850929e-38
