# .PCD v0.7 - Point Cloud Data file format
VERSION 0.7
FIELDS x y z rgb
SIZE 4 4 4 4
TYPE F F F F
COUNT 1 1 1 1
WIDTH 981
HEIGHT 1
VIEWPOINT 0 0 0 0 1 0 0
POINTS 981
DATA ascii
0.13830313 0.018077113 0.045224965 1.4918404e-38
0.13732676 0.020897292 0.04351759 1.5839289e-38
0.13750571 0.13691804 0.041539311 1.381351e-38
0.13335645 0.020850569 0.043258309 1.4363793e-38
0.13224524 0.022923499 0.04221648 1.5744208e-38
0.13367034 0.13446434 0.040711224 1.0495207e-38
0.13353255 0.13698247 0.042042375 1.4460325e-38
0.1292326 0.020719655 0.043651521 1.2984074e-38
0.12957475 0.023535326 0.04214251 1.5193214e-38
0.12847471 0.13052168 0.039990664 7.6385494e-39
0.12958102 0.13317886 0.040983021 9.2984351e-39
0.13062823 0.13585341 0.042255044 1.3448675e-38
0.12496629 0.021680847 0.043163657 1.2427347e-38
0.12565845 0.024175435 0.041640043 1.3994318e-38
0.12456112 0.11280213 0.039675295 9.4749104e-39
0.12456487 0.1160827 0.039625227 5.8882716e-39
0.1245701 0.1206755 0.039555252 6.167385e-39
0.12472506 0.12561522 0.040260911 7.5485244e-39
0.12559356 0.12924403 0.040813148 8.0080522e-39
0.1267198 0.13255882 0.041718006 9.4838661e-39
0.12268971 0.022665255 0.042806029 1.2153623e-38
0.12183394 0.02502723 0.042135239 1.3991431e-38
0.12084384 0.027205855 0.041109979 1.4911972e-38
0.12196554 0.11279915 0.039284885 1.453914e-38
0.12197018 0.11686705 0.039223015 5.9772106e-39
0.12189543 0.1206793 0.039490104 6.6243792e-39
0.12174255 0.12528998 0.040070236 8.1917344e-39
0.1215889 0.12925325 0.040660262 1.0680275e-38
0.12021127 0.13189332 0.04074949 1.4184075e-38
0.11835518 0.026169688 0.042100191 1.4544228e-38
0.11761655 0.029010825 0.040644944 1.5373273e-38
0.118514 0.12088723 0.038641155 1.0851713e-38
0.1179249 0.12527768 0.039159179 1.2241865e-38
0.11768612 0.12924877 0.040073335 1.3346048e-38
0.1163066 0.13188882 0.040162265 1.6848735e-38
0.11381115 0.029427767 0.041113615 1.6018269e-38
0.11377761 0.032590643 0.039492249 1.6385984e-38
0.11418255 0.11607075 0.038064003 2.3123141e-38
0.114972 0.12551969 0.038037181 2.0628012e-38
0.11391822 0.1290634 0.038961768 2.1184819e-38
0.11370349 0.13188583 0.039770842 2.164039e-38
0.109799 0.033226237 0.04025501 1.6201615e-38
0.11041288 0.12999554 0.037889183 2.2097799e-38
0.10945132 0.13274649 0.038780987 2.1268758e-38
0.10708454 0.034491614 0.040276766 1.6019009e-38
0.10630669 0.037595049 0.039774895 1.564879e-38
0.10448745 0.039752766 0.039805114 1.5558749e-38
0.10657218 0.13392358 0.037048757 1.9519582e-38
0.10537875 0.13580427 0.037952781 1.8782378e-38
0.10292998 0.04113102 0.038875401 1.5465119e-38
0.100602 0.045163877 0.037451804 1.4543163e-38
0.10157779 0.13677186 0.036987007 1.7212886e-38
0.098063439 0.045035034 0.038468659 1.472754e-38
0.097882301 0.047816243 0.036664724 1.4268335e-38
0.096033722 0.13376491 0.035061777 2.323007e-38
0.098019689 0.13707645 0.035983682 1.7853547e-38
0.098419592 0.14009346 0.037345707 1.6203042e-38
0.093961209 0.048980772 0.037742674 1.5186712e-38
0.09385404 0.051707424 0.036504626 1.4176495e-38
0.094597578 0.13378239 0.035351157 2.3417677e-38
0.094541401 0.13732654 0.036299407 2.0070883e-38
0.090833127 0.050265323 0.03758961 1.6383451e-38
0.090279102 0.052922949 0.03712821 1.5738821e-38
0.08963713 0.056926042 0.036183298 1.5281782e-38
0.08920148 0.060403619 0.03516525 1.5096306e-38
0.089631453 0.13778028 0.036059737 2.1825163e-38
0.089634463 0.14041236 0.036019623 2.2566658e-38
0.086036876 0.056683198 0.036335945 1.6848378e-38
0.08543916 0.060893156 0.035041332 1.6752962e-38
0.084273502 0.063547291 0.034375548 1.6384175e-38
0.086759165 0.13443586 0.034330845 1.8581482e-38
0.086730152 0.13706771 0.034398258 2.1651936e-38
0.085843369 0.14089911 0.034430623 2.2842572e-38
0.084577918 0.14367083 0.034703195 2.3018681e-38
0.082381263 0.057493798 0.03620708 1.6755134e-38
0.081345513 0.060842849 0.035100639 1.6386341e-38
0.08156012 0.064305678 0.034360468 1.5922845e-38
0.082416669 0.14227872 0.032882631 2.0442246e-38
0.081765607 0.14495113 0.033653736 1.9799746e-38
0.081005856 0.14794096 0.034100175 1.9062541e-38
0.078477353 0.058147326 0.035609841 1.5648429e-38
0.077265084 0.061173003 0.035091877 1.5184574e-38
0.077618182 0.064816609 0.03391701 1.5001246e-38
0.077307642 0.068997078 0.033412516 1.5184919e-38
0.076495737 0.071411699 0.033084631 1.4999109e-38
0.078743607 0.14577375 0.032276332 1.611549e-38
0.077418014 0.14873023 0.033042789 1.5192102e-38
0.073926419 0.062090192 0.034864604 1.5552979e-38
0.073346466 0.064735308 0.034511805 1.5552972e-38
0.073623627 0.068732888 0.033592999 1.5461503e-38
0.073365897 0.072265193 0.032937944 1.5554769e-38
0.069609508 0.069049269 0.03396368 1.6016476e-38
0.06962575 0.072653159 0.033268392 1.5924986e-38
0.069771767 0.0764772 0.032248199 1.5555841e-38
0.0694433 0.14620045 0.030870974 1.3073074e-38
0.069779873 0.14757039 0.03191191 1.2973671e-38
0.066776127 0.069320157 0.033677757 1.6109399e-38
0.066259548 0.072872855 0.033545375 1.5741689e-38
0.065659031 0.076582149 0.03283596 1.5372531e-38
0.065841675 0.080405816 0.031722963 1.5280693e-38
0.064829871 0.083864413 0.031138182 1.5280709e-38
0.066092238 0.14577767 0.030710697 1.2603458e-38
0.061988026 0.080694839 0.032023847 1.4819747e-38
0.062162831 0.084509462 0.030951858 1.4819733e-38
0.062238038 0.087141998 0.030697823 1.4909771e-38
0.061653972 0.14427619 0.030740678 1.4450946e-38
0.058546692 0.081374332 0.032254338 1.4542796e-38
0.0579018 0.084466651 0.03143543 1.4267278e-38
0.058018267 0.088270903 0.030551553 1.4543138e-38
0.057534546 0.091060966 0.030435741 1.4633899e-38
0.057941079 0.14113998 0.029508233 1.2423041e-38
0.057506979 0.14398158 0.030880034 1.5738108e-38
0.055079386 0.084441096 0.03168565 1.4079651e-38
0.054696918 0.088662945 0.031158388 1.4356233e-38
0.054242358 0.092519738 0.030550241 1.4264777e-38
0.053683102 0.096317731 0.029269814 1.3343887e-38
0.053167 0.098941594 0.029151738 1.2885766e-38
0.054249555 0.13778472 0.028715789 1.1039747e-38
0.05440098 0.1409508 0.029026926 1.3066239e-38
0.054135099 0.14479376 0.03023392 1.5282874e-38
0.050703958 0.093658693 0.030379772 1.3438583e-38
0.05018948 0.096294649 0.029868484 1.2424442e-38
0.050196975 0.10007887 0.029319644 1.2609167e-38
0.049051106 0.10418206 0.029126227 1.279284e-38
0.04928337 0.10746659 0.028436184 1.2977249e-38
0.049300596 0.12255721 0.02820611 1.1494603e-38
0.049822986 0.12544471 0.028240263 1.103396e-38
0.050401002 0.1292877 0.028394341 1.1032546e-38
0.050239354 0.13286863 0.028188467 1.214497e-38
0.050391734 0.14096192 0.028760791 1.0676686e-38
0.050598204 0.14442649 0.029682398 1.160119e-38
0.047284305 0.09693446 0.030320644 1.2789629e-38
0.046836674 0.1004891 0.029996216 1.2791752e-38
0.046326086 0.10400981 0.029561818 1.2703515e-38
0.046914011 0.10785744 0.029691994 1.3254916e-38
0.04730159 0.11206888 0.030089974 1.2701372e-38
0.0473046 0.11470096 0.030049801 1.2609167e-38
0.046791777 0.12154375 0.029867232 1.3250259e-38
0.046168849 0.12521622 0.029267371 1.3251676e-38
0.046366036 0.12914561 0.028674662 1.2978347e-38
0.046523899 0.13307181 0.028188348 1.1135494e-38
0.046451598 0.13702135 0.028341413 9.3841553e-39
0.046368107 0.14083242 0.029000461 9.4795921e-39
0.047337621 0.14365377 0.029608488 1.0399043e-38
0.04341346 0.12654079 0.029282033 1.2701745e-38
0.042966187 0.12942904 0.028968036 1.1779084e-38
0.04245764 0.13326596 0.028528988 1.0026987e-38
0.043044612 0.13678899 0.028664112 9.2919429e-39
0.043428481 0.13970116 0.029081464 8.9253436e-39
0.1708582 0.071008131 0.020986855 1.6203029e-38
0.1692806 0.056485161 0.020973504 1.7400133e-38
0.13694146 0.072258368 0.01536113 1.5280351e-38
0.1641276 0.074062191 0.021478295 1.5743856e-38
0.12865768 0.061922181 0.017645776 1.5281077e-38
0.14660127 0.053190339 0.021683812 1.5835321e-38
0.079174727 0.12095258 0.015530646 1.1689373e-38
0.051106617 0.1139981 0.025154233 1.1312342e-38
0.12948504 0.13588232 0.043346882 2.3218184e-38
0.16834277 0.12943925 0.052071452 2.2677968e-38
0.16297042 0.010304265 0.053100049 6.9946289e-39
0.16249454 0.011766247 0.051994562 8.0966633e-39
0.16376397 0.13208129 0.051342189 2.3050342e-38
0.1590424 0.0096379295 0.052519619 5.802201e-39
0.16000009 0.01185593 0.050943851 9.0218482e-39
0.15853062 0.13472256 0.05051434 2.2305949e-38
0.15544277 0.0099646896 0.051973164 7.3666022e-39
0.15602112 0.012465306 0.050673068 8.6548663e-39
0.15722154 0.13472106 0.050317526 2.2489607e-38
0.15512151 0.13699391 0.048955202 2.2957785e-38
0.15184239 0.009629637 0.051436901 6.6279876e-39
0.15194689 0.012961507 0.050010502 8.1946169e-39
0.15311766 0.13755226 0.047836185 2.2301275e-38
0.15290233 0.14127095 0.04821831 2.2671867e-38
0.15284136 0.14392999 0.048505366 2.3318287e-38
0.14817709 0.009757787 0.05088377 6.1688493e-39
0.14811674 0.013070174 0.049812198 7.915495e-39
0.14715241 0.13859247 0.046720684 1.8425818e-38
0.14858016 0.14110723 0.048197031 2.0634942e-38
0.14806849 0.14397609 0.048798263 2.2950598e-38
0.14408188 0.012990072 0.049768448 8.1002576e-39
0.14309633 0.015842304 0.048002958 1.3080618e-38
0.14423905 0.13806997 0.046492934 1.8698805e-38
0.14399707 0.14050201 0.047632635 2.0080293e-38
0.14034143 0.013361588 0.04921633 9.2058779e-39
0.14048569 0.015839294 0.047610402 1.2892995e-38
0.14122593 0.13793671 0.046092331 1.7869387e-38
0.1408647 0.14065868 0.04776597 1.7315502e-38
0.13646549 0.013913818 0.049058259 9.6672022e-39
0.13613643 0.01692754 0.047228456 1.2985909e-38
0.13352042 0.014241338 0.04861027 9.2047821e-39
0.13265327 0.017215952 0.047169745 1.1603317e-38
0.13148853 0.13857444 0.044365168 1.7502065e-38
0.12867153 0.017908134 0.047571659 1.0683151e-38
0.12756805 0.13461038 0.043836713 1.2333398e-38
0.12854327 0.13744846 0.044698238 1.7226888e-38
0.12501587 0.018202513 0.047270238 1.0314707e-38
0.12482633 0.019780792 0.045194626 1.2058903e-38
0.12448338 0.13349168 0.04382354 1.2524914e-38
0.12485045 0.13652085 0.045016706 1.8609475e-38
0.12031831 0.021448426 0.045906842 1.1417868e-38
0.12026222 0.023735076 0.044447184 1.2889383e-38
0.12096584 0.13348548 0.043872476 1.5290795e-38
0.12056853 0.13600253 0.044785321 1.8603728e-38
0.11746392 0.021764763 0.045742333 1.1507555e-38
0.11659247 0.02471447 0.044487059 1.3994287e-38
0.11701408 0.13348572 0.043404698 1.4733663e-38
0.11631435 0.13632855 0.044140518 1.8045135e-38
0.11349088 0.026249081 0.044401467 1.5008079e-38
0.11178213 0.027684852 0.043110967 1.5835323e-38
0.11320496 0.13063434 0.041737854 2.192635e-38
0.11303143 0.13367771 0.042387247 2.1456735e-38
0.11259958 0.13692707 0.043283701 2.154714e-38
0.10911942 0.029822282 0.044194579 1.6293445e-38
0.11016323 0.13415042 0.041226268 2.1454949e-38
0.10901371 0.13727611 0.04212904 2.1272722e-38
0.10879199 0.14062175 0.04294312 2.2192864e-38
0.10604766 0.030093558 0.044234216 1.6386369e-38
0.10503788 0.032863304 0.042883813 1.6201254e-38
0.10439485 0.036035359 0.04187119 1.629164e-38
0.10545611 0.13762058 0.040898323 1.9612126e-38
0.10492362 0.14126873 0.042126477 2.0905371e-38
0.10356016 0.1445867 0.042095125 2.2014605e-38
0.10123076 0.036909781 0.043260276 1.5831736e-38
0.10035747 0.040527463 0.04200393 1.5464049e-38
0.10277067 0.13788146 0.040056884 1.8410349e-38
0.10117435 0.1412334 0.040888965 1.8784874e-38
0.10094196 0.14458369 0.041701436 2.034827e-38
0.097249776 0.041161403 0.042234719 1.5556924e-38
0.095863193 0.043411523 0.041485846 1.5281423e-38
0.097130314 0.14199631 0.039752066 1.7584176e-38
0.096919656 0.14506252 0.040836155 2.0441531e-38
0.093476743 0.045120649 0.04095608 1.5833526e-38
0.092224881 0.047460008 0.039864838 1.6016117e-38
0.092327327 0.13720952 0.038496733 2.1642919e-38
0.09354493 0.14118703 0.038955569 1.7301813e-38
0.093180463 0.14521939 0.04018712 1.9150792e-38
0.091782123 0.14788228 0.040272951 2.1083315e-38
0.089046851 0.045296013 0.04144305 1.721359e-38
0.08928521 0.048456065 0.040587366 1.6660407e-38
0.090238214 0.13667917 0.038190603 2.0623399e-38
0.090131342 0.14171435 0.038501561 2.1545306e-38
0.08928664 0.14520895 0.039489388 2.2195009e-38
0.088291734 0.14831948 0.039741218 2.3024766e-38
0.085124105 0.049262449 0.040791929 1.6939151e-38
0.085383445 0.052641973 0.039879858 1.7122806e-38
0.087112054 0.14248289 0.037631094 2.2934753e-38
0.085758001 0.14532685 0.038142204 2.237798e-38
0.084829912 0.14864516 0.038811028 2.1825149e-38
0.08142975 0.052956641 0.04003495 1.6845526e-38
0.081497505 0.055290718 0.039142191 1.6754757e-38
0.083200604 0.14643793 0.036981821 2.1731886e-38
0.08187595 0.14949659 0.037457824 2.0445116e-38
0.077929407 0.053886946 0.039638638 1.6199439e-38
0.077849686 0.05662835 0.038284063 1.592429e-38
0.077879891 0.059322089 0.037524581 1.5554796e-38
0.078487784 0.15042259 0.036717296 1.7031743e-38
0.077245563 0.15234075 0.037613392 1.6201959e-38
0.074223831 0.056971207 0.039033711 1.5646592e-38
0.073506951 0.059872497 0.038375556 1.5094155e-38
0.072762549 0.15038544 0.035351157 1.3251663e-38
0.073713988 0.15244174 0.036642551 1.3349995e-38
0.069738895 0.061885923 0.037272155 1.6475648e-38
0.069193184 0.064548731 0.036811769 1.6474947e-38
0.068751663 0.067230657 0.036029816 1.6479617e-38
0.070320845 0.14942236 0.03550446 1.3252738e-38
0.070841223 0.15182914 0.037062705 1.2238979e-38
0.065912187 0.065470278 0.037399828 1.6753322e-38
0.065366253 0.067971572 0.036318481 1.6567857e-38
0.064840198 0.071185678 0.035380661 1.5925016e-38
0.06602256 0.1482168 0.035045147 1.3159468e-38
0.062432185 0.068705045 0.036877275 1.592142e-38
0.061836362 0.072439015 0.036145747 1.5555499e-38
0.061474949 0.076445684 0.03513056 1.5187794e-38
0.061827287 0.14611107 0.034278095 1.5094894e-38
0.061673045 0.14784762 0.035745323 1.6754788e-38
0.058533385 0.073278204 0.03642261 1.5188497e-38
0.057809219 0.07638593 0.035816312 1.4726447e-38
0.057914272 0.079416312 0.034465015 1.4542793e-38
0.058007136 0.14590316 0.033605695 1.7764605e-38
0.057681128 0.14833811 0.03453052 1.8967474e-38
0.055047512 0.077686369 0.035830438 1.4266188e-38
0.05439961 0.080799751 0.035010755 1.3898503e-38
0.052772135 0.084334858 0.034374297 1.3987456e-38
0.052241668 0.088329151 0.033221602 1.4172207e-38
0.051809579 0.090968341 0.033115864 1.4080736e-38
0.053830847 0.14640412 0.032565296 1.6114082e-38
0.053827584 0.14833984 0.033401906 1.6576135e-38
0.050885186 0.084638819 0.034844339 1.389778e-38
0.049958453 0.088281102 0.034497142 1.3897073e-38
0.049325228 0.092011526 0.033130884 1.3620824e-38
0.050037399 0.1485585 0.032770693 1.4733661e-38
0.046555817 0.092898615 0.034318864 1.3343523e-38
0.045441687 0.095901474 0.032587826 1.279071e-38
0.044423297 0.10019875 0.031862795 1.2792478e-38
0.043994218 0.10547764 0.031716883 1.2979393e-38
0.044649899 0.10811808 0.031774759 1.3437511e-38
0.04546015 0.11208101 0.032341242 1.2886488e-38
0.045764744 0.11630472 0.032018542 1.306798e-38
0.044823483 0.12021942 0.031782925 1.3341715e-38
0.044036388 0.14243332 0.03115356 9.5742989e-39
0.04550454 0.14508393 0.031502008 1.0679928e-38
0.046112686 0.14875062 0.032957792 1.2801486e-38
0.04253076 0.096649669 0.03331846 1.297475e-38
0.041858256 0.099992245 0.032780588 1.3619733e-38
0.041624814 0.10414892 0.032560885 1.2703183e-38
0.042384073 0.10811574 0.032951057 1.325384e-38
0.043537229 0.11208355 0.03289485 1.3345669e-38
0.043156832 0.11638375 0.032939851 1.3436055e-38
0.041809544 0.1206829 0.032797456 1.3066937e-38
0.041506335 0.12528042 0.031374574 1.2517709e-38
0.040431321 0.12890077 0.030819952 1.2241827e-38
0.040108368 0.13187005 0.030725598 1.0951449e-38
0.040549502 0.13714993 0.030710518 9.4774103e-39
0.041805834 0.14139438 0.031238675 8.558719e-39
0.042088851 0.14531003 0.032206893 9.4831921e-39
0.042364329 0.14815632 0.032836616 1.1326363e-38
0.039361119 0.097523123 0.033165455 1.3620093e-38
0.039037228 0.10050097 0.033070862 1.3621893e-38
0.039129525 0.10381207 0.032780766 1.2794662e-38
0.038952917 0.12223084 0.032723188 1.325277e-38
0.038053125 0.12514329 0.03216362 1.3162359e-38
0.03790915 0.12924793 0.031109512 1.2978314e-38
0.037973002 0.13320561 0.030889511 1.095075e-38
0.03797771 0.13738988 0.031620443 9.7543671e-39
0.03829892 0.14117612 0.031771004 8.0973695e-39
0.038314089 0.14500153 0.032149673 8.0080494e-39
0.035466328 0.12597719 0.032141089 1.4084661e-38
0.035143197 0.12961686 0.032036424 1.3440368e-38
0.035474628 0.13325728 0.032030165 1.1688306e-38
0.035479158 0.13722825 0.031969547 9.7518756e-39
0.035486728 0.14384653 0.031868696 5.8029003e-39
0.16939424 0.062207684 0.020284355 1.7400856e-38
0.1371664 0.084280215 0.014254391 1.3531518e-38
0.15428053 0.051547378 0.021546841 1.2151818e-38
0.10594198 0.085172601 0.032244205 5.3347573e-39
0.13613643 0.01692754 0.047228456 1.2985909e-38
0.16748825 0.00069671869 0.056203067 7.5482063e-39
0.16603807 0.13082536 0.053726137 2.2678331e-38
0.16186774 0.0053011775 0.055539727 6.5343809e-39
0.16332617 0.1328316 0.053793073 2.314146e-38
0.15849233 0.005224064 0.055538893 5.4298396e-39
0.15952656 0.0082515106 0.055394948 5.5224023e-39
0.15929763 0.13483825 0.053661942 2.2679762e-38
0.15504423 0.0049561411 0.054880083 5.8911821e-39
0.15558323 0.0078324899 0.054454386 6.9982471e-39
0.15585619 0.13747963 0.052766502 2.3048547e-38
0.1513032 0.0045838654 0.05424273 4.9720928e-39
0.15145573 0.0073545724 0.053436458 6.3546755e-39
0.14731668 0.0049263313 0.05386281 5.0642856e-39
0.14718932 0.0076815337 0.052789748 5.8922695e-39
0.14635809 0.14208613 0.05059284 2.1185251e-38
0.14636037 0.14407733 0.050562501 2.2488196e-38
0.14337355 0.0058713406 0.0532552 5.1532457e-39
0.14353466 0.0086408034 0.05245012 5.428769e-39
0.14504524 0.14208463 0.050395429 2.1279219e-38
0.1450475 0.14407581 0.050365031 2.20247e-38
0.13950208 0.0085725337 0.052294135 5.6131392e-39
0.13898812 0.011322618 0.051500261 6.3506987e-39
0.13587119 0.009553656 0.051817298 6.4439775e-39
0.13544402 0.01184953 0.05095911 7.4591706e-39
0.1322028 0.0098465905 0.05151391 7.0871959e-39
0.13167444 0.012582421 0.050814331 8.1924434e-39
0.1304591 0.015295185 0.050156295 9.7630244e-39
0.12848175 0.013387285 0.050899744 8.5605155e-39
0.12752581 0.015796155 0.04990977 9.1190843e-39
0.12789989 0.14008899 0.048184633 1.9989902e-38
0.12375727 0.016535819 0.049736083 8.8374765e-39
0.12364876 0.13842048 0.047486842 2.0913273e-38
0.12446307 0.14011563 0.048341751 2.1002953e-38
0.11972186 0.01780843 0.049514174 9.945252e-39
0.11996078 0.019265495 0.048516154 1.1139482e-38
0.1199778 0.13809538 0.047192574 1.9154741e-38
0.11986147 0.14011033 0.047649741 1.9335172e-38
0.11655882 0.019861594 0.048501074 1.049772e-38
0.11642054 0.13820204 0.046150267 1.7862901e-38
0.11591724 0.1401058 0.047056615 1.8599747e-38
0.11262178 0.024506979 0.047837377 1.445706e-38
0.11287642 0.13872895 0.045609176 2.1453865e-38
0.11200237 0.14142555 0.046335042 2.2010645e-38
0.1113202 0.1440886 0.046303809 2.2749653e-38
0.10802728 0.02782274 0.047095299 1.5284325e-38
0.10828596 0.14270605 0.044857502 2.2562021e-38
0.10814804 0.14539117 0.045357168 2.2929001e-38
0.1042186 0.029867075 0.045985281 1.6478913e-38
0.10290726 0.031193025 0.045767546 1.6478216e-38
0.10468864 0.14555439 0.044417024 2.3021921e-38
0.10409364 0.14806838 0.045155704 2.3110514e-38
0.10094102 0.033845693 0.045430958 1.6291996e-38
0.098974004 0.035834625 0.045104563 1.601611e-38
0.10041337 0.14667937 0.043612182 2.2281846e-38
0.099821165 0.14839581 0.0445081 2.2374401e-38
0.097662657 0.037160575 0.044886827 1.6017552e-38
0.09591496 0.039592236 0.044586539 1.6017197e-38
0.097787663 0.14667635 0.043217421 2.0633467e-38
0.092523605 0.040824875 0.044346511 1.6936274e-38
0.091761619 0.043127358 0.043907404 1.7486574e-38
0.09238112 0.14935943 0.042940855 2.2011016e-38
0.089510128 0.041702256 0.044602156 1.7672065e-38
0.088738188 0.044096656 0.043690622 1.7489459e-38
0.087171167 0.047104467 0.04315573 1.6942395e-38
0.088992059 0.14977384 0.042015314 2.1919885e-38
0.087007359 0.15270151 0.042514622 2.2746418e-38
0.084543914 0.045773983 0.042781115 1.712211e-38
0.084546342 0.047897916 0.042748749 1.7030272e-38
0.08531931 0.14998066 0.041291237 2.2103533e-38
0.084706187 0.15236652 0.042173684 2.2013868e-38
0.080698997 0.048568793 0.042412579 1.7029205e-38
0.079954982 0.051078547 0.042009115 1.7120319e-38
0.08028841 0.15253562 0.041102111 1.9427015e-38
0.077247813 0.04922121 0.042642117 1.6568231e-38
0.076623887 0.052167617 0.041659951 1.6474228e-38
0.075364545 0.055055652 0.041257501 1.5923556e-38
0.076639652 0.15398648 0.040429831 1.6667624e-38
0.072740823 0.056822579 0.040835679 1.5462556e-38
0.071430504 0.059033506 0.040604591 1.4543499e-38
0.068819642 0.059771512 0.041009545 1.6107588e-38
0.068252921 0.15062475 0.038714707 1.3153351e-38
0.068704277 0.15243787 0.03942889 1.3070184e-38
0.065867558 0.061615553 0.040739477 1.7396528e-38
0.06454514 0.063526034 0.039702058 1.6753676e-38
0.064580694 0.15011398 0.038574815 1.574135e-38
0.061004698 0.065090612 0.039549947 1.5737732e-38
0.05987224 0.067965858 0.038981378 1.5370392e-38
0.060817122 0.14999288 0.038280487 1.8689097e-38
0.057722136 0.068564057 0.03859818 1.4911556e-38
0.056566119 0.071848527 0.03817147 1.4912985e-38
0.057175756 0.15032598 0.037811875 1.9245502e-38
0.055452809 0.1520005 0.037779808 1.8142744e-38
0.053281546 0.072695881 0.038338602 1.4175066e-38
0.052864 0.07609728 0.037675619 1.4083583e-38
0.052198499 0.07936579 0.037398696 1.3899576e-38
0.052932262 0.15064786 0.03708446 1.7222939e-38
0.054138079 0.151999 0.03758204 1.7956182e-38
0.05010432 0.073561706 0.038184583 1.2516647e-38
0.049506158 0.076227024 0.03788507 1.2607387e-38
0.049792603 0.080247998 0.037023246 1.3529373e-38
0.048313871 0.084212109 0.037245452 1.3437511e-38
0.047490776 0.087517053 0.037576437 1.3714835e-38
0.049216479 0.15060285 0.035852075 1.5102095e-38
0.046177536 0.08884491 0.037358463 1.3805573e-38
0.044600189 0.091734722 0.036570966 1.3436071e-38
0.045277908 0.15059832 0.035259843 1.3908236e-38
0.044277519 0.15198764 0.036099374 1.4368486e-38
0.041755468 0.093502983 0.036115944 1.2148239e-38
0.040283561 0.095275342 0.035698652 1.2424829e-38
0.039978743 0.10877714 0.035107553 1.3346758e-38
0.040580273 0.11209716 0.035315394 1.3897766e-38
0.04037106 0.11581741 0.035462558 1.3805207e-38
0.039990097 0.11873312 0.0349558 1.3803781e-38
0.04100576 0.15007463 0.034827709 1.1878468e-38
0.04230541 0.15198538 0.035802782 1.3542664e-38
0.037539467 0.096595258 0.035602689 1.3252392e-38
0.03641203 0.099874161 0.035112917 1.3253472e-38
0.03799732 0.10784533 0.035228491 1.3071618e-38
0.037790045 0.11236504 0.035734475 1.3530795e-38
0.037991881 0.11641984 0.035702288 1.3989261e-38
0.037068263 0.12039559 0.034869909 1.4172567e-38
0.036083356 0.14660534 0.033938527 8.5601498e-39
0.037382752 0.14891632 0.034676254 9.4824662e-39
0.034359276 0.10146029 0.035386562 1.2701732e-38
0.03438282 0.1220655 0.035072446 1.3991039e-38
0.033143789 0.12538289 0.034632742 1.3716589e-38
0.032504529 0.12909096 0.034074903 1.3256344e-38
0.032604367 0.13334489 0.034125388 1.1595393e-38
0.033101469 0.13733095 0.034138799 9.7504337e-39
0.033411205 0.1412975 0.033730924 7.9129559e-39
0.033249557 0.14530574 0.034110367 7.36591e-39
0.03309828 0.14851841 0.034471512 8.8374513e-39
0.029146999 0.14233232 0.033972621 8.3717606e-39
0.029938966 0.14505844 0.03404969 7.8225665e-39
0.029417902 0.14931181 0.033905745 9.0186126e-39
0.026525468 0.14930847 0.033470809 9.4791956e-39
0.15336667 0.079905182 0.016645968 1.4546386e-38
0.1585336 0.064067833 0.019948244 1.1138752e-38
0.14950146 0.068463132 0.021859646 1.2611015e-38
0.10742193 0.072314754 0.021202862 1.2060331e-38
0.16947973 0.13092698 0.057276309 2.3050344e-38
0.16750197 0.1309247 0.056978881 2.2678691e-38
0.16833068 0.1397261 0.06000191 1.9794622e-38
0.16389307 0.0014358312 0.058432341 6.9971723e-39
0.16274263 0.0042675138 0.058215678 7.2726634e-39
0.16453798 0.13325435 0.056497276 2.3325492e-38
0.15976703 0.0016697794 0.058212698 5.8933148e-39
0.16010636 0.0049310699 0.057808995 5.9826476e-39
0.15938658 0.13607338 0.056858957 2.2863797e-38
0.15584353 0.001311712 0.057982206 5.4312633e-39
0.15604281 0.14131029 0.055095434 2.3232186e-38
0.14809583 0.0010938793 0.056784213 5.5205652e-39
0.14419062 0.0015115365 0.055917621 5.5234561e-39
0.14362425 0.0042455047 0.055340767 5.0621262e-39
0.14292073 0.14361224 0.054097772 2.1835258e-38
0.14000228 0.0013367832 0.056414127 5.5223603e-39
0.1399816 0.0047152266 0.055190206 5.059943e-39
0.14050521 0.14330053 0.054244995 2.0538766e-38
0.13623029 0.0013912395 0.056728899 5.6152748e-39
0.13623095 0.0048049763 0.054894507 4.6944031e-39
0.13505775 0.0075685829 0.054001153 5.7064124e-39
0.13195658 0.0052547604 0.055705547 5.7053405e-39
0.13103001 0.0086273849 0.053716183 6.9028004e-39
0.12978752 0.010895461 0.05315727 7.6403389e-39
0.12882227 0.0061112046 0.055445611 6.3521378e-39
0.12829858 0.0087874681 0.053724229 6.904234e-39
0.12759051 0.01133731 0.052820027 7.7321968e-39
0.12707375 0.14159137 0.051745653 2.0816427e-38
0.12662348 0.14302532 0.053678572 2.1553987e-38
0.12448595 0.010472812 0.055400491 7.272292e-39
0.12409279 0.012638882 0.054128051 7.9144482e-39
0.12319954 0.014887407 0.05210495 8.1917694e-39
0.12458669 0.14155665 0.050697982 2.0911123e-38
0.12397516 0.14302227 0.053280294 2.1278472e-38
0.12001175 0.01457309 0.053990185 8.0070152e-39
0.11990479 0.016216792 0.051589012 8.5673566e-39
0.1205653 0.1410315 0.050370932 2.0077053e-38
0.12016095 0.1436542 0.052022696 2.0260377e-38
0.11720768 0.014481105 0.054244101 8.2907417e-39
0.11667188 0.14154755 0.049507737 1.841897e-38
0.11611806 0.14391224 0.050929129 1.9245161e-38
0.11250956 0.021354295 0.051914573 1.2062505e-38
0.11397912 0.02287586 0.050595105 1.3352865e-38
0.11411531 0.14219525 0.048776209 2.0164925e-38
0.11281861 0.14504656 0.049548507 2.2374038e-38
0.11197922 0.14730445 0.050398827 2.2744959e-38
0.11016358 0.14552364 0.048130572 2.3021921e-38
0.10874942 0.14863668 0.049025774 2.2375107e-38
0.10449755 0.028083555 0.050100148 1.4459251e-38
0.10515937 0.14919892 0.047574103 2.2653479e-38
0.10412195 0.15103276 0.050171018 2.2747104e-38
0.10133457 0.029190607 0.051630139 1.6570038e-38
0.10054095 0.032084242 0.049443424 1.6479281e-38
0.10093859 0.14951256 0.046681702 2.2556638e-38
0.10050213 0.15094711 0.048279524 2.2745697e-38
0.095381975 0.034539312 0.050652444 1.6295568e-38
0.095400363 0.036801472 0.048091948 1.6202302e-38
0.096927315 0.15171628 0.047258019 2.2193594e-38
0.092621639 0.034745276 0.048211396 1.6574333e-38
0.092531621 0.036713593 0.04850471 1.6755125e-38
0.09158273 0.038848184 0.046980679 1.7120661e-38
0.092756703 0.15261534 0.046414673 2.2008839e-38
0.088290304 0.038167432 0.048855722 1.7396523e-38
0.088335052 0.040081136 0.047484457 1.7304354e-38
0.088935554 0.15286416 0.045330584 2.2937262e-38
0.084742084 0.042137384 0.047721565 1.7212526e-38
0.084192932 0.044126764 0.046293437 1.7028492e-38
0.083514526 0.15355697 0.045010209 2.099113e-38
0.084264159 0.15502658 0.047122955 2.1639006e-38
0.079834551 0.0445631 0.048159719 1.7028479e-38
0.078406781 0.046832085 0.044875979 1.7304726e-38
0.081824794 0.15349008 0.043745756 2.0618029e-38
0.080144912 0.15553066 0.046091199 2.0076322e-38
0.076493233 0.045985572 0.046623886 1.7028131e-38
0.075471789 0.04807635 0.045426667 1.6292009e-38
0.076675788 0.15607098 0.044195771 1.8145639e-38
0.07354711 0.046564192 0.047183275 1.6474964e-38
0.072528467 0.049323872 0.045976102 1.6658263e-38
0.072692737 0.052377336 0.044537902 1.6474571e-38
0.071823359 0.054823559 0.043762684 1.6107217e-38
0.072877914 0.15556501 0.043632388 1.5006675e-38
0.069137305 0.050129496 0.046465099 1.7397986e-38
0.068463206 0.053303879 0.045640528 1.6753333e-38
0.068738684 0.05664238 0.043877542 1.6106148e-38
0.067980468 0.15347415 0.041663945 1.3714144e-38
0.068886936 0.15489748 0.043126822 1.3256027e-38
0.065611303 0.054588404 0.045866072 1.6477455e-38
0.0643702 0.056943543 0.044776261 1.6202668e-38
0.064972907 0.059881743 0.042654395 1.666364e-38
0.064890504 0.15297629 0.041813672 1.7215036e-38
0.065725952 0.15500525 0.044335246 1.6768024e-38
0.060809076 0.058299962 0.044580996 1.6018994e-38
0.060907632 0.060731135 0.04320991 1.629629e-38
0.060625181 0.062809728 0.041955471 1.6106879e-38
0.061227128 0.15283225 0.041163862 2.0167429e-38
0.059767216 0.15499839 0.043439269 2.136561e-38
0.05672507 0.061692059 0.043842196 1.4542446e-38
0.056871071 0.064634629 0.041969478 1.4630687e-38
0.05601497 0.066803947 0.041200459 1.4632108e-38
0.057268798 0.1528277 0.040568531 1.9799734e-38
0.056456804 0.15499458 0.042941391 2.0629489e-38
0.053703055 0.062608033 0.043951511 1.3532231e-38
0.052712932 0.065481469 0.043252707 1.3621905e-38
0.053213879 0.068772323 0.041254461 1.408215e-38
0.051405519 0.071464762 0.040435493 1.3714456e-38
0.052353054 0.15298782 0.040332496 1.7956917e-38
0.05380851 0.15499154 0.042543232 2.0348964e-38
0.049735174 0.066620141 0.04329294 1.2885433e-38
0.049080089 0.069778889 0.042471468 1.3067313e-38
0.048436999 0.072555244 0.04030925 1.2699246e-38
0.048522621 0.15218161 0.039768815 1.5199673e-38
0.045557201 0.074233979 0.041872978 1.2147109e-38
0.04484883 0.077154003 0.041215777 1.2792832e-38
0.045291185 0.080546267 0.039937556 1.3345332e-38
0.045209467 0.084117115 0.03947705 1.2884689e-38
0.04450199 0.087788217 0.039145529 1.3621907e-38
0.04521212 0.15303156 0.040067017 1.5289709e-38
0.041803971 0.07866101 0.041914523 1.2885465e-38
0.041807786 0.082008243 0.041863441 1.2701041e-38
0.041000128 0.085553616 0.040676057 1.270069e-38
0.040949181 0.089038327 0.039747834 1.3160213e-38
0.040983498 0.091665044 0.03889364 1.2696007e-38
0.040671706 0.15322307 0.039330542 1.4921992e-38
0.039242759 0.15497476 0.040352941 1.7132536e-38
0.03740333 0.090259656 0.041073799 1.2973295e-38
0.037231669 0.093201928 0.038980007 1.2422633e-38
0.037587807 0.094779432 0.037997901 1.2700316e-38
0.036286056 0.10944287 0.03757602 1.3164533e-38
0.036287576 0.11077605 0.037555754 1.3257093e-38
0.036292881 0.11544217 0.037484586 1.3713767e-38
0.036908835 0.15258762 0.038593888 1.4185154e-38
0.036594406 0.15497172 0.039954662 1.6949223e-38
0.033876568 0.094049111 0.040485024 1.3803037e-38
0.033802718 0.097158976 0.038403273 1.3251665e-38
0.033638358 0.1001076 0.037321746 1.2885399e-38
0.032682568 0.10490271 0.03831774 1.1784116e-38
0.033473521 0.10895724 0.037988067 1.2152895e-38
0.033037335 0.11328223 0.038292468 1.2795029e-38
0.033536077 0.11649699 0.037920713 1.362265e-38
0.033100665 0.11966567 0.037276447 1.3898141e-38
0.032345742 0.12277009 0.036778033 1.3719103e-38
0.03237617 0.14943364 0.036371589 9.2065786e-39
0.033258587 0.15217932 0.03769803 1.049698e-38
0.032651812 0.15523505 0.038346231 1.3262811e-38
0.029735804 0.12103247 0.038772106 1.3254588e-38
0.029098034 0.1243156 0.038414836 1.3348576e-38
0.028566897 0.12813614 0.037475526 1.3163093e-38
0.028693885 0.13213259 0.037095845 1.223898e-38
0.029064685 0.13609809 0.036079109 1.1040796e-38
0.029200792 0.13983113 0.036042035 9.2908821e-39
0.029736608 0.14720865 0.036008835 8.0995317e-39
0.029696971 0.15227169 0.036051154 9.8487376e-39
0.029124707 0.15601626 0.0370453 1.1140541e-38
0.025441229 0.12844887 0.038686156 1.343716e-38
0.025227636 0.13214307 0.037023842 1.2238616e-38
0.025644749 0.13610689 0.035901785 1.1411712e-38
0.02565366 0.14057848 0.03549695 1.002842e-38
0.025778264 0.14475994 0.035451353 8.8320283e-39
0.025593311 0.14771175 0.035378039 9.1104102e-39
0.025662601 0.15211371 0.035657763 9.1132913e-39
0.025353134 0.15603745 0.036857069 8.9274932e-39
0.021126688 0.13233288 0.037218869 1.1967756e-38
0.021561414 0.1361158 0.035624683 1.0953951e-38
0.02178666 0.14075948 0.034996927 9.1111375e-39
0.021822751 0.14475539 0.034856558 8.6505181e-39
0.021742493 0.14810118 0.03501761 8.2835419e-39
0.021320015 0.15182343 0.036550224 7.2668676e-39
0.022028655 0.15495495 0.037764311 7.4530609e-39
0.017393082 0.13672389 0.036943614 8.4647031e-39
0.017223597 0.14016046 0.035921335 7.1743188e-39
0.017526507 0.14412951 0.035118997 7.2686528e-39
0.017360806 0.14816067 0.035481453 6.9960442e-39
0.018051624 0.1509337 0.037228107 6.0712013e-39
0.014068455 0.14155689 0.036773622 7.0806645e-39
0.013740867 0.14456901 0.036677957 6.8083922e-39
0.013633698 0.14735824 0.036618829 6.9020465e-39
0.158838 0.081404828 0.017024279 1.399394e-38
0.13686039 0.099379927 0.015436471 1.2246519e-38
0.18020262 0.044422746 0.025468349 9.2955512e-39
0.15795457 0.079399571 0.021950901 1.1692283e-38
0.15046886 0.10259076 0.021872342 1.3442222e-38
0.093087479 0.10455121 0.016358793 1.2970793e-38
0.11217541 0.089232489 0.028573751 1.5651657e-38
0.16617198 0.13708697 0.060729384 2.3415532e-38
0.16617581 0.14043896 0.060678303 1.9060662e-38
0.16338447 0.13644503 0.061106563 2.3417689e-38
0.16317596 0.14052749 0.062248409 2.2112162e-38
0.16042605 0.13730381 0.059861898 2.3234016e-38
0.15917318 0.14018951 0.060235798 2.3322964e-38
0.15822262 0.14311139 0.05944097 2.1557175e-38
0.15689349 0.14042827 0.059282541 2.3325117e-38
0.15689658 0.14310986 0.059241533 2.2673208e-38
0.13858148 0.14453277 0.058487833 2.1369605e-38
0.13419086 0.00028916448 0.05802846 5.8915072e-39
0.13518253 0.14118297 0.058365405 1.7497369e-38
0.13501927 0.14458665 0.059074938 2.2109677e-38
0.13350011 0.14732695 0.059703231 2.2583966e-38
0.13124791 0.0014239699 0.058916867 5.6142294e-39
0.13119122 0.14117837 0.057765245 1.9254153e-38
0.13097544 0.14459346 0.058691561 2.2579655e-38
0.12762865 0.0012922958 0.060734332 5.5220226e-39
0.12659776 0.0041825995 0.05918628 5.891524e-39
0.12624301 0.0076543912 0.056719661 6.6280086e-39
0.12823479 0.1413669 0.056643426 1.9714414e-38
0.12747252 0.14468257 0.056688368 2.239167e-38
0.12661131 0.14784731 0.058456957 2.2583618e-38
0.12302756 0.0052500889 0.059913933 5.6145531e-39
0.12307258 0.0084057227 0.057676017 6.5365038e-39
0.1237478 0.14508291 0.054225862 2.2018922e-38
0.12303956 0.14840354 0.056470037 2.2755054e-38
0.1197187 0.0094161481 0.059082448 6.5350801e-39
0.11926395 0.012134336 0.057117999 7.3609129e-39
0.11977044 0.14574872 0.053617418 2.1089414e-38
0.11961664 0.14846897 0.054226458 2.2381587e-38
0.11901391 0.1524893 0.056686461 2.2936211e-38
0.11750643 0.15539902 0.057173491 2.2654941e-38
0.1150099 0.012801573 0.05899626 7.7296674e-39
0.11645535 0.1457449 0.053118825 2.0069178e-38
0.11563475 0.1484644 0.05362767 2.0997217e-38
0.11496983 0.1526649 0.056272328 2.2748206e-38
0.11617285 0.15539747 0.056972921 2.2468024e-38
0.11143976 0.017569862 0.056363106 8.8388764e-39
0.11034504 0.020373635 0.054132581 1.0957927e-38
0.11193617 0.14926092 0.052991867 2.2470526e-38
0.11097288 0.15266073 0.055671215 2.2934752e-38
0.10701884 0.02100081 0.057090163 1.0864676e-38
0.10739611 0.1525524 0.053449392 2.2192154e-38
0.10401829 0.021890692 0.057203054 9.4782203e-39
0.10317428 0.024807982 0.055120766 1.0585952e-38
0.10161728 0.027395666 0.05574578 1.4274855e-38
0.10339354 0.15322265 0.052893341 2.2374348e-38
0.10015234 0.025315277 0.056063235 1.0403331e-38
0.098650336 0.028576814 0.054992437 1.4179797e-38
0.09842369 0.031756662 0.052164197 1.6663298e-38
0.099405676 0.15321837 0.052293599 2.2936913e-38
0.097502768 0.15537599 0.054165423 2.3032336e-38
0.095092863 0.028888002 0.054867864 1.2430944e-38
0.095502019 0.032315627 0.05272752 1.6295221e-38
0.095732003 0.15380912 0.05055213 2.2473404e-38
0.094925985 0.15535074 0.053441107 2.2935108e-38
0.091358542 0.029966593 0.055174589 1.0586705e-38
0.0914125 0.032769009 0.05412823 1.5009169e-38
0.091339827 0.15591994 0.051376164 2.1918462e-38
0.087105095 0.03613846 0.052012503 1.6573237e-38
0.087676391 0.15583552 0.049646437 2.2840408e-38
0.083257407 0.037004769 0.052457154 1.6846587e-38
0.083443195 0.040095136 0.050035536 1.6936644e-38
0.083089665 0.15637106 0.050296843 2.1643308e-38
0.080032364 0.038044035 0.053346753 1.6752244e-38
0.07934159 0.041061401 0.051552951 1.6567496e-38
0.079872847 0.043802455 0.049188614 1.68448e-38
0.07967943 0.15759301 0.049680889 2.1090489e-38
0.078046665 0.15982413 0.050833642 2.2195433e-38
0.075028002 0.041293092 0.052341759 1.6292722e-38
0.075114802 0.043995798 0.049987018 1.675226e-38
0.077350855 0.15776706 0.047052443 2.016927e-38
0.075370058 0.16018136 0.048306584 2.0539842e-38
0.073508382 0.16411306 0.050422132 2.1735137e-38
0.070634976 0.04504405 0.051319838 1.6476743e-38
0.070595145 0.047814161 0.047731459 1.6571449e-38
0.071714789 0.15742537 0.046210051 1.556272e-38
0.071534067 0.16044353 0.048411906 1.9062907e-38
0.072174042 0.16343732 0.050231874 2.1644012e-38
0.067526147 0.046163835 0.050835073 1.6202315e-38
0.067141011 0.048604257 0.048379719 1.6477822e-38
0.067913413 0.15712111 0.046148777 1.4363086e-38
0.067092538 0.15999998 0.048677802 1.6574721e-38
0.063228264 0.049073659 0.049511671 1.5647693e-38
0.063568473 0.052942026 0.047354043 1.6203387e-38
0.063608691 0.15664844 0.046014309 1.8512209e-38
0.059703648 0.049734104 0.049772084 1.325604e-38
0.059640631 0.053177647 0.048312962 1.5004863e-38
0.059409678 0.056308649 0.046929657 1.5650216e-38
0.059751987 0.15690938 0.046152651 2.0535149e-38
0.060167223 0.15937826 0.048488796 1.9799728e-38
0.056376725 0.053134218 0.049354255 1.1876342e-38
0.055492401 0.057196043 0.04746455 1.3900673e-38
0.055359408 0.059863769 0.04525435 1.3902482e-38
0.05564487 0.15717763 0.045314133 2.007525e-38
0.056166485 0.15937366 0.047887146 1.8689448e-38
0.051914603 0.057187241 0.048418403 1.1506823e-38
0.051630542 0.060981616 0.045434833 1.2242562e-38
0.050722867 0.063880816 0.044495106 1.2701755e-38
0.051699504 0.15662614 0.044097185 1.8697346e-38
0.049383178 0.058234937 0.048426032 9.6654253e-39
0.047721788 0.060995068 0.0471223 1.0488719e-38
0.048400506 0.064913556 0.044736743 1.2238994e-38
0.047191858 0.068346061 0.043895304 1.2699968e-38
0.048173308 0.15371108 0.042726934 1.685667e-38
0.04796353 0.15630358 0.043793142 1.9066815e-38
0.047667041 0.1600018 0.046093404 1.8783752e-38
0.045387074 0.062275577 0.047762811 9.6593199e-39
0.044435829 0.065177605 0.04694289 1.0582705e-38
0.044134617 0.069133893 0.045277417 1.2147509e-38
0.043699995 0.072970778 0.043703258 1.2148208e-38
0.04278037 0.075938821 0.043114662 1.2333635e-38
0.044261009 0.15646602 0.043219626 1.8051266e-38
0.04433544 0.15999797 0.045592487 1.96157e-38
0.041068107 0.069314621 0.046397865 1.0489795e-38
0.040420696 0.073138759 0.045162857 1.1323487e-38
0.040242195 0.076955035 0.043930888 1.1874519e-38
0.039738551 0.081279539 0.043080568 1.2791796e-38
0.03881143 0.083979018 0.042393923 1.2329034e-38
0.040449634 0.15663898 0.042784274 1.8143828e-38
0.040279493 0.16000539 0.045151055 1.9711139e-38
0.037398696 0.073727883 0.046384811 1.0494803e-38
0.036323458 0.0772769 0.045915484 1.1136936e-38
0.036044791 0.080987066 0.045058012 1.1963111e-38
0.03647016 0.085283965 0.043033004 1.2237904e-38
0.03566362 0.088886909 0.042013466 1.3065131e-38
0.034842491 0.092019215 0.041673005 1.3341693e-38
0.036200732 0.15718962 0.042895317 1.8424715e-38
0.03643018 0.15989031 0.044910908 1.7867595e-38
0.033073425 0.081476279 0.045614898 1.1504644e-38
0.032922208 0.085200332 0.045029044 1.2053846e-38
0.03201744 0.089585401 0.044572473 1.3434611e-38
0.031894058 0.092983156 0.042984605 1.4263655e-38
0.030510426 0.098705046 0.041929841 1.2883242e-38
0.030875087 0.10140021 0.040931821 1.1965599e-38
0.030878156 0.10408179 0.040890813 1.1136951e-38
0.03239131 0.15737434 0.04181385 1.5932895e-38
0.031496137 0.16001947 0.044166863 1.4732916e-38
0.029420316 0.093944885 0.044873238 1.3714783e-38
0.02922067 0.097326361 0.044116914 1.306871e-38
0.027853072 0.1013693 0.043343186 1.1037926e-38
0.028119326 0.10558429 0.041211247 1.0491941e-38
0.027947605 0.10944343 0.041154027 1.0858938e-38
0.027952224 0.11347026 0.041092634 1.1689405e-38
0.027996421 0.1168244 0.040935278 1.2427323e-38
0.027679771 0.11972585 0.040505826 1.2793964e-38
0.026921421 0.12284836 0.040006518 1.316419e-38
0.029613286 0.1577121 0.039873898 1.2156467e-38
0.027979434 0.16043289 0.04179275 1.2246146e-38
0.029501885 0.16541082 0.043783784 1.0866107e-38
0.02817136 0.16810612 0.043542266 8.378243e-39
0.024600714 0.10180631 0.043858647 9.1976144e-39
0.024139971 0.10521129 0.042749643 9.107574e-39
0.024299711 0.10944087 0.041504502 1.0120644e-38
0.024180651 0.11347524 0.041761458 1.0948959e-38
0.024184525 0.11683675 0.041710138 1.1044751e-38
0.024061531 0.12034864 0.040626228 1.1506809e-38
0.024064392 0.12419824 0.0401178 1.2243293e-38
0.023280561 0.12787215 0.039381504 1.297761e-38
0.022983104 0.15770447 0.038876891 8.0984668e-39
0.024105966 0.16042936 0.039565563 9.207673e-39
0.024302989 0.16455758 0.040823758 9.3945263e-39
0.02424565 0.16793174 0.040931702 7.4584517e-39
0.020973384 0.1056667 0.043219984 7.7275332e-39
0.02108112 0.10944061 0.042537391 9.2015619e-39
0.020356804 0.11348123 0.042534828 9.1104313e-39
0.020360649 0.11684909 0.042483449 9.4795711e-39
0.020323426 0.12000833 0.041514099 9.9405591e-39
0.020080566 0.12440874 0.040542901 1.0767824e-38
0.020171404 0.12821293 0.039245725 1.2149668e-38
0.018974364 0.13088398 0.038687408 1.205995e-38
0.019474179 0.15371051 0.038916409 6.347428e-39
0.01988104 0.15657973 0.03918612 6.9935247e-39
0.019957542 0.16045703 0.039390743 7.7296562e-39
0.020004183 0.16447607 0.039223373 5.2450658e-39
0.020091295 0.16714269 0.038970709 4.8831034e-39
0.017441988 0.11483148 0.042749763 7.6374578e-39
0.017444283 0.11685411 0.042719007 8.1009415e-39
0.017066419 0.12048708 0.042201638 8.467587e-39
0.01655364 0.12424248 0.041315258 9.2944918e-39
0.016346097 0.12824664 0.04001838 1.0027728e-38
0.016538769 0.13242829 0.0387308 1.0584471e-38
0.015472561 0.13559234 0.038593829 8.0051669e-39
0.015931696 0.15244013 0.039583147 5.7971353e-39
0.015679508 0.15659587 0.041335225 5.9829573e-39
0.016065031 0.16056329 0.040320694 6.4453676e-39
0.016387522 0.16453384 0.039465129 4.6958591e-39
0.017689615 0.16708393 0.037936151 3.3125364e-39
0.012853891 0.12830523 0.041683614 7.8207672e-39
0.013046086 0.13205202 0.040811896 6.9957135e-39
0.012904286 0.13631861 0.039713442 6.344219e-39
0.01368013 0.13959305 0.03775692 5.6113035e-39
0.013691604 0.14964902 0.037603676 5.8893464e-39
0.013069749 0.15278828 0.040495813 5.3376103e-39
0.013880759 0.16329196 0.040455818 5.7117808e-39
0.1574674 0.077676699 0.017858922 1.4085783e-38
0.1802035 0.05634192 0.024641097 1.2336216e-38
0.16309056 0.094783768 0.024621248 1.5930402e-38
0.16785873 0.037969045 0.029135942 1.7492323e-38
0.13841876 0.14609122 0.062484801 2.2388802e-38
0.1376489 0.14814684 0.062842965 2.3047104e-38
0.13440828 0.14743882 0.061860919 2.2488902e-38
0.13032457 0.14812933 0.061573148 2.2770526e-38
0.12524956 0.00043616444 0.063086689 5.245084e-39
0.12655327 0.14984058 0.06140095 2.2492858e-38
0.12276047 0.0019864812 0.062857032 5.0628815e-39
0.12087123 0.0040877834 0.062034905 5.338346e-39
0.12371263 0.15013096 0.060210824 2.2393474e-38
0.12222436 0.1515222 0.060639739 2.257786e-38
0.11885987 0.0056213886 0.062315524 5.7993031e-39
0.11731012 0.0085910782 0.061429918 6.3514077e-39
0.11836787 0.15418147 0.05934459 2.2932263e-38
0.11836942 0.15553369 0.059323967 2.2933333e-38
0.11492273 0.0093966052 0.06173259 6.9024179e-39
0.11419377 0.012193419 0.060905695 7.5441944e-39
0.11356902 0.15623817 0.059096813 2.2370794e-38
0.11152217 0.014894798 0.060462236 8.469368e-39
0.10884903 0.016243927 0.060039401 8.3782682e-39
0.11009875 0.155591 0.059090614 2.2750375e-38
0.1060086 0.018410057 0.060252964 8.3764549e-39
0.10591511 0.15610111 0.058049023 2.2482402e-38
0.10270828 0.020907842 0.05954963 8.1903345e-39
0.10227877 0.15620273 0.057062268 2.1647601e-38
0.097538337 0.025167756 0.058875024 9.389895e-39
0.098420262 0.15636292 0.056917787 2.2843271e-38
0.094549268 0.025577024 0.058756232 7.4523659e-39
0.092813239 0.027043253 0.057461321 8.1931973e-39
0.090534687 0.028280668 0.058110833 7.6421675e-39
0.088807389 0.032447532 0.05677551 1.3262868e-38
0.090889186 0.15822417 0.055402458 2.2750369e-38
0.088528156 0.030309543 0.057777762 9.2977218e-39
0.086662292 0.033067927 0.0569489 1.3259272e-38
0.086944908 0.15820196 0.054556847 2.2102845e-38
0.083844736 0.033689462 0.05702132 1.390318e-38
0.083601549 0.15819812 0.054054081 2.2748204e-38
0.082649216 0.15962178 0.054900169 2.3025146e-38
0.078971222 0.036442012 0.055740237 1.6571086e-38
0.079447359 0.16025841 0.053903103 2.2662128e-38
0.076483607 0.037743367 0.055851758 1.6569305e-38
0.075343087 0.03916081 0.054984152 1.638419e-38
0.07394734 0.16232002 0.053549886 2.1645835e-38
0.071231157 0.041830756 0.054661632 1.6569308e-38
0.071434259 0.043245301 0.053996205 1.6568227e-38
0.067269027 0.043871477 0.053865731 1.5927876e-38
0.067455769 0.16226165 0.051900268 1.952677e-38
0.066222236 0.163587 0.051357269 2.0824299e-38
0.064096496 0.045431636 0.053533137 1.4546389e-38
0.063441843 0.16225703 0.051296651 1.8601192e-38
0.062565461 0.16366106 0.051817477 1.8974643e-38
0.059245348 0.047921289 0.052596629 1.2334811e-38
0.059374154 0.16158897 0.050863683 1.9062894e-38
0.057878137 0.16365565 0.051112592 1.8692324e-38
0.05606252 0.049988721 0.051580429 1.0218969e-38
0.05450435 0.05178988 0.051318347 9.6679463e-39
0.055305019 0.16159669 0.050420165 1.767744e-38
0.055199683 0.16365258 0.050709844 1.7586304e-38
0.05055356 0.055354211 0.051174879 9.206622e-39
0.050978273 0.16173705 0.049902141 1.6480706e-38
0.051182002 0.16364795 0.050105691 1.6575047e-38
0.047879294 0.057381369 0.050741374 9.2930695e-39
0.047748536 0.16189454 0.048857808 1.6846601e-38
0.047164351 0.16364333 0.049501538 1.6853426e-38
0.043868765 0.060758732 0.05008626 8.9238974e-39
0.042035848 0.063494787 0.049262762 7.6349635e-39
0.04348585 0.1622086 0.047959089 1.8418575e-38
0.040700823 0.065521576 0.049030781 9.9362263e-39
0.038359612 0.06888108 0.048963904 9.5714304e-39
0.038033068 0.071603507 0.048535764 1.0404769e-38
0.039357752 0.1622293 0.047675014 1.8135191e-38
0.034515768 0.07428018 0.048471153 9.6592918e-39
0.034863055 0.1619179 0.047425151 1.5928195e-38
0.032452583 0.076976247 0.048287809 8.0966661e-39
0.031356394 0.08038526 0.047396243 1.0126042e-38
0.030028284 0.088497058 0.047071457 1.3252723e-38
0.031912595 0.16139922 0.046433151 1.5471187e-38
0.030558825 0.16443668 0.046991825 1.2428039e-38
0.02975902 0.16768566 0.046821535 9.671109e-39
0.028331697 0.090498857 0.047796726 1.3530419e-38
0.026995927 0.093544096 0.04754889 1.2699576e-38
0.026414812 0.097005494 0.046801388 1.2240032e-38
0.028775066 0.16219167 0.045746922 1.2796461e-38
0.027058452 0.16470097 0.045450151 1.1233775e-38
0.024079114 0.097606413 0.046794772 9.848711e-39
0.02233997 0.10042908 0.04606837 8.3685684e-39
0.01939863 0.10233904 0.046017885 7.1714588e-39
0.018157154 0.10504582 0.045536578 6.1602089e-39
0.01801613 0.10944267 0.044942021 7.1793649e-39
0.016296417 0.10605745 0.045746922 4.0454828e-39
0.015630633 0.109442 0.045594633 5.5126563e-39
0.015182525 0.1134994 0.044886708 5.4262186e-39
0.014490157 0.1168821 0.044802666 5.7939137e-39
0.014159262 0.11992612 0.044705987 6.895602e-39
0.014019519 0.12296028 0.044132531 8.4618529e-39
0.012295753 0.12094823 0.044915676 7.9954755e-39
0.012682945 0.12363485 0.043921173 8.0923403e-39
0.012721509 0.15744042 0.043405831 5.342271e-39
0.012725383 0.16082099 0.043354273 5.2508097e-39
0.15131518 0.080165617 0.01735878 1.4453118e-38
0.15113321 0.084280536 0.017029107 1.4545674e-38
0.15341443 0.060541235 0.021558881 1.657432e-38
0.1247692 0.060092077 0.018269181 1.5833549e-38
0.10456732 0.060939427 0.023308635 1.3255974e-38
0.10461015 0.068268642 0.02283138 1.0955789e-38
0.12289332 0.037692443 0.030805826 1.6755116e-38
0.13266882 0.035396367 0.032492459 1.5928599e-38
0.13893777 0.14834559 0.06657356 2.3417682e-38
0.13405392 0.14863741 0.065076053 2.267438e-38
0.12967214 0.15033519 0.064475119 2.2862724e-38
0.12863143 0.1521866 0.064964414 2.2863081e-38
0.12556908 0.15306927 0.064153135 2.2492141e-38
0.12112175 0.00055573136 0.065413892 4.8763155e-39
0.12153742 0.15374391 0.063536465 2.2490689e-38
0.12146288 0.15580459 0.063830495 2.2579295e-38
0.11831877 0.0011572838 0.065488815 5.0610346e-39
0.1164245 0.004625082 0.064644754 5.9833497e-39
0.11699361 0.15709054 0.062127173 2.2933317e-38
0.11429021 0.0052297786 0.064820111 6.168087e-39
0.11346638 0.0083926097 0.063888967 6.6283365e-39
0.11121023 0.010289975 0.064531744 6.9953394e-39
0.10991292 0.01288972 0.063718736 7.7318212e-39
0.11050297 0.15753572 0.061144173 2.2753987e-38
