# .PCD v0.7 - Point Cloud Data file format
VERSION 0.7
FIELDS x y z rgb
SIZE 4 4 4 4
TYPE F F F F
COUNT 1 1 1 1
WIDTH 977
HEIGHT 1
VIEWPOINT 0 0 0 0 1 0 0
POINTS 977
DATA ascii
0.095625013 0.11902487 0.011411607 9.5721129e-39
0.08995039 0.055921286 0.027944446 1.8964225e-38
0.090429686 0.058737665 0.027236342 1.7678162e-38
0.090397127 0.062600523 0.026314676 1.6847684e-38
0.090363011 0.066647321 0.025349081 1.5833515e-38
0.090332001 0.070326239 0.024471223 1.4544953e-38
0.090151317 0.07385923 0.023639083 1.3900654e-38
0.089332938 0.076955974 0.022956908 1.3071969e-38
0.089873813 0.091114372 0.01953131 2.2370434e-38
0.090359896 0.093763202 0.018605113 2.2924324e-38
0.090721607 0.096921533 0.016664028 2.2842576e-38
0.091879129 0.10007229 0.01518321 2.2580345e-38
0.086870909 0.055732012 0.02821058 1.8413217e-38
0.086843774 0.05895105 0.027442455 1.7311888e-38
0.086811215 0.062813908 0.026520848 1.6386344e-38
0.086778656 0.066676766 0.025599062 1.4729696e-38
0.086746089 0.070539623 0.024677396 1.3809176e-38
0.086713538 0.074402466 0.02375567 1.3164532e-38
0.086312667 0.090628654 0.019902945 2.2744227e-38
0.086770281 0.093264252 0.018337667 2.2835358e-38
0.08796674 0.095611036 0.016530931 2.2940495e-38
0.082909226 0.055764541 0.028486907 1.7861466e-38
0.082882099 0.058983594 0.027718782 1.6758358e-38
0.082849525 0.062846437 0.026797116 1.555767e-38
0.082816973 0.066709295 0.02587539 1.3991787e-38
0.082784407 0.070572168 0.024953723 1.3440407e-38
0.083284423 0.073915631 0.024118066 1.2612807e-38
0.081362188 0.086517155 0.020726085 2.338747e-38
0.083330989 0.089636177 0.019581079 2.3116306e-38
0.083984703 0.092121273 0.018682003 2.3129901e-38
0.078420416 0.05567266 0.028830826 1.7029921e-38
0.078920431 0.059016123 0.027995169 1.6388136e-38
0.078887872 0.062878966 0.027073443 1.5189973e-38
0.078855306 0.066741824 0.026151717 1.436021e-38
0.078822739 0.070604712 0.02522999 1.3440407e-38
0.078801021 0.07317993 0.024615467 1.2797197e-38
0.077393644 0.083491713 0.022249699 1.8967844e-38
0.078741848 0.085627362 0.020955145 2.1175859e-38
0.074799553 0.055555254 0.029118538 1.7861455e-38
0.074958757 0.059048668 0.028271437 1.6846597e-38
0.07492619 0.062911525 0.02734983 1.5465828e-38
0.074893638 0.066774368 0.026428044 1.4637152e-38
0.074861072 0.070637226 0.025506377 1.4729334e-38
0.074664794 0.074340492 0.02463454 1.5282153e-38
0.0741411 0.077724546 0.023862541 1.6661849e-38
0.074571632 0.082595244 0.022666633 1.711746e-38
0.074645147 0.085310653 0.020686448 1.5919981e-38
0.073525712 0.090594381 0.018766582 8.5525842e-39
0.070863225 0.055380657 0.029442549 1.813232e-38
0.070997097 0.059081212 0.028547823 1.6387067e-38
0.07096453 0.062944055 0.027626097 1.5928958e-38
0.070931971 0.066806912 0.026704371 1.5098132e-38
0.070899412 0.07066977 0.025782704 1.5465464e-38
0.070703134 0.074373037 0.024910867 1.5927887e-38
0.070670575 0.078235894 0.023989201 1.6846608e-38
0.070830077 0.08215338 0.022697031 1.6844814e-38
0.070852354 0.085800767 0.021135867 1.6570024e-38
0.070837878 0.089585841 0.020002186 1.5375787e-38
0.070507392 0.092388451 0.019069314 1.3991054e-38
0.067062542 0.055894703 0.029592216 1.6016473e-38
0.067035407 0.059113741 0.028824091 1.5557284e-38
0.067012906 0.06294471 0.027794838 1.4821523e-38
0.067000464 0.066741899 0.026658297 1.3257091e-38
0.067016773 0.070437416 0.025200486 1.3993222e-38
0.066964969 0.074362636 0.02449429 1.500558e-38
0.06693244 0.078221813 0.023573577 1.5462987e-38
0.066928878 0.081975982 0.022332132 1.546369e-38
0.06694594 0.085654587 0.020878255 1.4818308e-38
0.066952735 0.089364529 0.019532144 1.3808109e-38
0.067589484 0.091926962 0.018873572 1.3714502e-38
0.063428298 0.05624643 0.029768646 1.4911574e-38
0.063073754 0.059146285 0.029100478 1.4452028e-38
0.063082673 0.062881112 0.027748346 1.362297e-38
0.063113652 0.066546544 0.026182055 1.2148558e-38
0.06308113 0.070403412 0.02526176 1.2150743e-38
0.06309101 0.074124873 0.023912787 1.2979788e-38
0.063047811 0.078013644 0.023100257 1.3256726e-38
0.063036531 0.081798464 0.021966457 1.3348544e-38
0.063399464 0.085404232 0.020881534 1.2335859e-38
0.06432464 0.088744223 0.019869089 1.2150746e-38
0.061890639 0.10136744 0.017281651 1.1691531e-38
0.059985198 0.060029998 0.029110432 1.3623337e-38
0.059455261 0.063222528 0.028384864 1.3251313e-38
0.059124336 0.066676646 0.026780665 1.2150351e-38
0.059158318 0.070336491 0.025215566 1.2058875e-38
0.059148088 0.07412374 0.02408123 1.2242923e-38
0.059138283 0.077908382 0.02294755 1.1507881e-38
0.059118502 0.08156547 0.021959603 1.1415689e-38
0.058562294 0.085068434 0.021161616 1.1232734e-38
0.057740852 0.088798285 0.020328283 1.1507529e-38
0.05856017 0.093768343 0.019252419 1.1968853e-38
0.058919914 0.097358167 0.018883228 1.3167029e-38
0.058959737 0.10125211 0.019176066 1.2059952e-38
0.05607298 0.067250848 0.027663767 1.1504994e-38
0.055087566 0.070700079 0.02656579 1.1875591e-38
0.055125989 0.074358851 0.025000691 1.2519486e-38
0.055105239 0.078181773 0.023973107 1.1873385e-38
0.055095837 0.081968218 0.022838891 1.123127e-38
0.055086896 0.085752636 0.02170527 1.0588063e-38
0.055078179 0.089533955 0.020572364 1.1691554e-38
0.054974988 0.093608677 0.020292163 1.2060335e-38
0.05503054 0.097551614 0.020103812 1.2797538e-38
0.055463359 0.10040972 0.01977551 1.2428301e-38
0.052400753 0.072109222 0.026764929 8.6433757e-39
0.051235922 0.074816704 0.026072085 9.1994151e-39
0.05108729 0.078386009 0.024785042 1.1137307e-38
0.051079765 0.08217597 0.02365005 1.2243275e-38
0.051072478 0.085963264 0.022515476 1.2979034e-38
0.051039971 0.089820534 0.02159512 1.2795741e-38
0.050957143 0.093825504 0.021101058 1.2520571e-38
0.051750727 0.097006798 0.020855665 1.2334034e-38
0.047454953 0.08668828 0.023460388 9.3863469e-39
0.047626853 0.09017387 0.022786021 1.3257423e-38
0.048254572 0.094031274 0.02181828 1.3899929e-38
0.16956757 0.090286121 0.016959071 1.8967116e-38
0.16952667 0.094117641 0.015898108 1.8413563e-38
0.16901395 0.097049117 0.015528262 1.758453e-38
0.16474932 0.078549892 0.020259261 2.0441521e-38
0.16586927 0.0825423 0.019095004 1.9887617e-38
0.16597505 0.0860852 0.017681658 1.8967813e-38
0.16608943 0.089851379 0.016429007 1.8230255e-38
0.16606507 0.093605012 0.015661716 1.7677086e-38
0.16605023 0.097928941 0.015014887 1.6664374e-38
0.16519906 0.10170807 0.014343739 1.6111908e-38
0.16452041 0.10570659 0.013779461 1.6021872e-38
0.16122268 0.075460017 0.0209077 2.0902132e-38
0.1620761 0.078434482 0.020020485 2.0072734e-38
0.16202167 0.082172096 0.018672168 1.896782e-38
0.16236341 0.085823834 0.017659664 1.8233128e-38
0.16262388 0.088588595 0.016979575 1.7677094e-38
0.1620246 0.10154885 0.014051199 1.5468342e-38
0.16169202 0.10548154 0.013778389 1.5099201e-38
0.1605144 0.10897222 0.013285577 1.436307e-38
0.1583429 0.074520588 0.020995319 2.0349673e-38
0.1594055 0.07763955 0.019829512 1.9795426e-38
0.15935652 0.083450526 0.018442988 1.8325661e-38
0.15934564 0.084741861 0.018134832 1.8049791e-38
0.15919325 0.10282038 0.013821185 1.4732219e-38
0.15784712 0.10541388 0.01329726 1.4270882e-38
0.15768677 0.10943642 0.013248444 1.3810978e-38
0.15419377 0.072171181 0.022542179 2.0258196e-38
0.15417127 0.073364019 0.02191478 1.9706462e-38
0.15386316 0.10673785 0.013266325 1.380991e-38
0.15387383 0.10963427 0.013488829 1.3901737e-38
0.15319273 0.11226507 0.013022959 1.3810625e-38
0.14892145 0.068335205 0.023837805 2.0626634e-38
0.14995226 0.071111649 0.022893548 2.0258556e-38
0.15149745 0.073185205 0.021462202 1.943203e-38
0.14989009 0.10677049 0.013543487 1.5835684e-38
0.14989924 0.10900086 0.013868213 1.5005565e-38
0.1456385 0.064482927 0.024994791 2.1366003e-38
0.14610024 0.067080259 0.02382493 2.071954e-38
0.14711197 0.069777936 0.02259177 2.0166717e-38
0.14590354 0.10950401 0.013518989 1.6760505e-38
0.14589287 0.1129716 0.013377547 1.5746336e-38
0.1420584 0.063937426 0.025175869 2.1366708e-38
0.1425571 0.066085726 0.024007738 2.0996847e-38
0.14279783 0.11027202 0.013214529 1.6851973e-38
0.14173514 0.11331177 0.013078928 1.5838539e-38
0.13815467 0.063456297 0.025188029 1.9151501e-38
0.13898137 0.065540597 0.024188459 2.0074172e-38
0.13775457 0.1136229 0.013161004 1.5098833e-38
0.13923433 0.11625898 0.013068616 1.482296e-38
0.13307177 0.060706884 0.026799262 1.8139825e-38
0.13456377 0.062747419 0.025615156 1.7313293e-38
0.1339418 0.11418352 0.013429284 1.519067e-38
0.13108239 0.060723215 0.026938021 1.6570354e-38
0.13040158 0.062525243 0.026040375 1.6204463e-38
0.12996587 0.11421618 0.013706625 1.4547835e-38
0.12995054 0.11633524 0.013716161 1.4457086e-38
0.12773949 0.063983381 0.026397884 1.3724557e-38
0.1261254 0.066737562 0.025030196 1.2061066e-38
0.12598996 0.11424881 0.013983905 1.3630181e-38
0.1266349 0.11636248 0.013947368 1.3719511e-38
0.12372256 0.068542182 0.025595427 9.0157483e-39
0.12264867 0.070441812 0.024599612 9.2941093e-39
0.12088487 0.091513932 0.019273102 7.8236651e-39
0.12138623 0.094483227 0.018939197 8.9299987e-39
0.12135386 0.097976744 0.01851809 9.3891691e-39
0.12132747 0.10164994 0.017022848 9.4777845e-39
0.12076513 0.10571846 0.015883803 9.3884881e-39
0.12106085 0.10991256 0.014859319 1.0036729e-38
0.12201487 0.11397031 0.014679253 1.1509334e-38
0.11872229 0.0720644 0.024853706 9.0160762e-39
0.11799845 0.074610159 0.023670971 8.2813951e-39
0.11734486 0.07903108 0.022770762 5.703516e-39
0.11777595 0.082626492 0.022034347 3.7749565e-39
0.1189394 0.086418569 0.020803273 4.9702739e-39
0.11889966 0.090456158 0.020355642 6.0722901e-39
0.11953124 0.093791798 0.019856036 7.5456349e-39
0.1187711 0.1059086 0.016496658 9.9423667e-39
0.11807165 0.10988913 0.015881002 1.0312942e-38
0.11830781 0.11306885 0.01533246 1.0680295e-38
0.11571052 0.075073421 0.024607718 8.3725187e-39
0.11568326 0.078306362 0.023836255 6.5268209e-39
0.11541075 0.11063579 0.016122222 1.1048332e-38
0.11272554 0.11453709 0.015381575 1.2157199e-38
0.10923184 0.057023436 0.029390037 1.7766054e-38
0.10965575 0.059175104 0.028845012 1.6845177e-38
0.10966547 0.11046749 0.016574621 1.6204065e-38
0.11008795 0.11379266 0.015405297 1.6574281e-38
0.10918782 0.11669463 0.014432013 1.3802259e-38
0.10620974 0.055939913 0.02986604 1.7767847e-38
0.10656296 0.058984995 0.029112279 1.6475315e-38
0.10486066 0.10361046 0.018559396 2.2656306e-38
0.10573073 0.10650435 0.017461121 2.0251312e-38
0.10682462 0.10914886 0.016320646 1.9701018e-38
0.10745624 0.11357519 0.014958858 2.2287146e-38
0.10741816 0.11809483 0.013880432 1.1117868e-38
0.10740183 0.1200318 0.013418198 5.801108e-39
0.10237236 0.052683294 0.030920208 1.8687292e-38
0.10261145 0.055784717 0.030161142 1.7857532e-38
0.10277133 0.059293225 0.029310465 1.6569288e-38
0.1012307 0.062261492 0.028710902 1.5830658e-38
0.1009542 0.099425033 0.018810034 2.3300654e-38
0.10224271 0.1023261 0.018367231 2.2931155e-38
0.1028972 0.10457399 0.017438948 2.2744579e-38
0.098658845 0.052713782 0.031179309 1.9424129e-38
0.098632693 0.055817395 0.030438662 1.8499661e-38
0.098605432 0.059050351 0.029667318 1.7397254e-38
0.09804114 0.063063547 0.028747737 1.6570008e-38
0.098370157 0.0672957 0.027711809 1.5464758e-38
0.09850733 0.070688933 0.026890278 1.4822607e-38
0.096968517 0.095916748 0.020965755 2.3213154e-38
0.09852986 0.098209471 0.019446433 2.3025164e-38
0.094945334 0.052744284 0.031438231 1.9241905e-38
0.094665125 0.055788606 0.030501068 1.859615e-38
0.094643459 0.059604824 0.029360712 1.7675997e-38
0.094610557 0.063482076 0.028435528 1.6844434e-38
0.094594128 0.067261279 0.027189136 1.5832445e-38
0.094377443 0.071096659 0.026702285 1.5098125e-38
0.094120264 0.07502301 0.026020885 1.4547101e-38
0.093800038 0.078486115 0.02536267 1.4085055e-38
0.093374915 0.091015399 0.022138238 2.2380509e-38
0.094362199 0.094408512 0.020777285 2.2936561e-38
0.095678546 0.09688589 0.019795716 2.2845809e-38
0.090271488 0.052392602 0.031685889 1.9147913e-38
0.091165774 0.055218622 0.030258477 1.9056781e-38
0.092015691 0.060115814 0.028854311 1.7861469e-38
0.091983035 0.063989773 0.027929902 1.684588e-38
0.091955818 0.06721808 0.027159572 1.592536e-38
0.091917723 0.071737707 0.026081204 1.4822613e-38
0.091222897 0.075617135 0.025203049 1.4084325e-38
0.090677693 0.079127282 0.024788916 1.3255279e-38
0.090076923 0.082813174 0.024447322 1.4449891e-38
0.089878678 0.08744061 0.023501813 2.0997202e-38
0.090620294 0.090148568 0.021917403 2.2280398e-38
0.091738127 0.093044549 0.020997226 2.2469096e-38
0.086584397 0.052096903 0.031806231 1.8781278e-38
0.086767226 0.054348379 0.030610323 1.8780939e-38
0.086546823 0.07895261 0.024969518 1.2795008e-38
0.086467467 0.083072156 0.024791479 1.6015774e-38
0.086434752 0.086951673 0.023865759 2.2285068e-38
0.086801723 0.089534193 0.022190928 2.311374e-38
0.082607768 0.052129567 0.032083511 1.8689419e-38
0.082794167 0.054380998 0.030887365 1.8505398e-38
0.081952393 0.07569328 0.02584964 1.2703918e-38
0.082550496 0.079088509 0.025567234 1.2335122e-38
0.082111321 0.082923204 0.02513957 1.7213605e-38
0.082855605 0.086704969 0.023886979 2.2743911e-38
0.083824649 0.089235842 0.022475839 2.3386762e-38
0.078988455 0.052352563 0.032234609 1.7307217e-38
0.079477832 0.05505386 0.030964315 1.7398691e-38
0.078641504 0.075720489 0.026080608 1.3532236e-38
0.078582637 0.07908681 0.025737584 1.4451309e-38
0.078694761 0.082895324 0.025133491 1.79519e-38
0.079884231 0.085394531 0.023677289 2.1734078e-38
0.074825823 0.052644461 0.032389641 1.7307555e-38
0.075510204 0.054440826 0.031395495 1.7399399e-38
0.075987346 0.076387882 0.026111245 1.4731866e-38
0.075166598 0.079493582 0.025427222 1.6385986e-38
0.075281627 0.081558615 0.024924934 1.730292e-38
0.070667788 0.052261591 0.033037126 1.915111e-38
0.072199307 0.054468021 0.031626463 1.8968528e-38
0.072014272 0.076420531 0.026388407 1.6478174e-38
0.071981609 0.08029449 0.025463998 1.7489099e-38
0.067033924 0.052528352 0.033344388 1.7766761e-38
0.066901878 0.054511547 0.031995952 1.6567473e-38
0.062845558 0.05352518 0.033553541 1.5739523e-38
0.062621534 0.055172563 0.03255707 1.5190309e-38
0.059046373 0.056200489 0.032799423 1.4085757e-38
0.058457397 0.059361905 0.031612992 1.3622979e-38
0.057560638 0.062981293 0.030639827 1.4265815e-38
0.057879947 0.10365255 0.020887792 1.1230585e-38
0.05618155 0.057459176 0.033090293 1.3163087e-38
0.055647835 0.060251802 0.032254457 1.2888297e-38
0.055516139 0.063786268 0.031109214 1.1872714e-38
0.054038346 0.0673877 0.030250609 9.8394119e-39
0.053277358 0.09981662 0.022135496 1.2518777e-38
0.054342136 0.10290663 0.021761715 1.1784786e-38
0.054451987 0.10531762 0.021766126 1.1049397e-38
0.052104689 0.06913045 0.030590832 6.5318879e-39
0.050835967 0.071514294 0.029375315 7.9929658e-39
0.049521968 0.0740228 0.028575003 6.1551853e-39
0.050137907 0.099150419 0.023035407 1.2244711e-38
0.050996013 0.10215843 0.022254348 1.1600771e-38
0.051799476 0.10533939 0.021951139 1.0131039e-38
0.047584862 0.075770035 0.028914392 9.4702245e-39
0.047139287 0.079568386 0.028008342 8.7384145e-39
0.046770558 0.083153665 0.026817143 7.3566152e-39
0.045888759 0.086104169 0.025945544 6.8012427e-39
0.045407385 0.09084262 0.024846554 1.0586252e-38
0.04631155 0.094551533 0.02440989 1.3808423e-38
0.047575258 0.098501712 0.02363199 1.4083927e-38
0.044027232 0.083420753 0.027751744 1.0023437e-38
0.043999992 0.086653709 0.02698034 8.6422827e-39
0.043956392 0.091826379 0.025746047 8.0030509e-39
0.13016658 0.085970238 0.012775838 8.0076991e-39
0.12899473 0.08701767 0.013430178 1.0775006e-38
0.12688504 0.080467224 0.014982045 1.1785544e-38
0.12705885 0.091737956 0.012249053 8.4675968e-39
0.094538704 0.084932491 0.022135675 1.3716986e-38
0.098450974 0.073003232 0.023940444 1.1321693e-38
0.10649798 0.088453501 0.019155025 1.1231666e-38
0.1059187 0.088899493 0.019285798 1.3348202e-38
0.10257594 0.090756685 0.018985927 1.1784112e-38
0.095823877 0.089047253 0.019440174 1.3716599e-38
0.083165839 0.082918108 0.023290038 1.6017539e-38
0.10682462 0.10914886 0.016320646 1.9701018e-38
0.12938836 0.086190954 0.02271384 1.8416063e-38
0.12852739 0.08620283 0.022515059 1.6751912e-38
0.15291294 0.08715944 0.016928017 1.5468e-38
0.13256074 0.087545067 0.018922448 1.4269439e-38
0.13819833 0.092410356 0.018454731 1.537399e-38
0.15793473 0.1007807 0.017796814 1.8321023e-38
0.16365996 0.10682184 0.015699446 1.7494495e-38
0.16707802 0.072259724 0.026750505 2.2935111e-38
0.16671318 0.075253755 0.024720609 2.2377621e-38
0.16770309 0.078084409 0.022477865 2.1363457e-38
0.16793825 0.081302255 0.021433592 2.0531911e-38
0.16878852 0.085617915 0.020340264 1.9978744e-38
0.16812313 0.10144423 0.016602159 1.6755483e-38
0.16714549 0.10522737 0.015767276 1.6754404e-38
0.16659665 0.10897818 0.014909387 1.6571829e-38
0.16659196 0.11304696 0.014451742 1.6572902e-38
0.16700405 0.11709785 0.014277756 1.6759091e-38
0.16661856 0.12008438 0.014312446 1.6480356e-38
0.16275388 0.067265466 0.027739882 2.210285e-38
0.16336185 0.070894182 0.025511324 2.2193961e-38
0.16358942 0.0744638 0.023896635 2.1823733e-38
0.16273731 0.10926923 0.015116632 1.4917318e-38
0.1625737 0.11290158 0.014259398 1.4549266e-38
0.16306946 0.11717713 0.013845205 1.4822646e-38
0.16313159 0.12143561 0.014754653 1.5376173e-38
0.15979722 0.064505428 0.029127538 2.2191453e-38
0.15973625 0.066851526 0.027654529 2.2009211e-38
0.15961492 0.070853591 0.024787605 2.1732972e-38
0.16024153 0.074016958 0.023728311 2.1179438e-38
0.15941344 0.11308962 0.014441013 1.3719858e-38
0.15923542 0.11698103 0.013980985 1.3443287e-38
0.15924698 0.12124145 0.013991773 1.3720611e-38
0.15929222 0.12441766 0.01483202 1.4550723e-38
0.1557654 0.064347625 0.028767288 2.2560227e-38
0.15569061 0.066563711 0.026868343 2.2286144e-38
0.15511197 0.070413455 0.025116801 2.1181589e-38
0.15502942 0.11382806 0.014578819 1.3442918e-38
0.15457626 0.11700907 0.014279783 1.2982645e-38
0.1552397 0.12119263 0.014061809 1.3443644e-38
0.15528494 0.12445056 0.015111506 1.4091169e-38
0.15102294 0.059628576 0.030923426 2.2929724e-38
0.15175739 0.062951759 0.028930604 2.2747492e-38
0.15168071 0.066467509 0.026720762 2.2192155e-38
0.15109912 0.06994234 0.025358617 2.0719539e-38
0.15060318 0.1129999 0.01509434 1.4269447e-38
0.15059134 0.11713254 0.014793754 1.3349274e-38
0.15123495 0.12114337 0.014131725 1.3442544e-38
0.15127493 0.12480909 0.015313387 1.427125e-38
0.14781366 0.059332043 0.030995429 2.2007775e-38
0.14771977 0.062606171 0.027928531 2.2104627e-38
0.1484718 0.066073537 0.026472509 2.1733692e-38
0.14860809 0.11301629 0.015233457 1.5008428e-38
0.14725456 0.117039 0.014711857 1.4269806e-38
0.14723909 0.12117618 0.014410436 1.4363431e-38
0.1472704 0.1245164 0.015670598 1.4918399e-38
0.14383401 0.056822449 0.032110214 2.256058e-38
0.14377832 0.058992833 0.029991746 2.2838605e-38
0.14388748 0.062388748 0.027940392 2.1918809e-38
0.14341997 0.11711138 0.014625967 1.5100261e-38
0.14324321 0.12120903 0.014689147 1.5376123e-38
0.14290649 0.12450624 0.014955282 1.5563045e-38
0.13982673 0.056855381 0.0323897 2.0537678e-38
0.1397768 0.058964133 0.030056536 2.1458201e-38
0.13973247 0.061913028 0.028266251 2.0629882e-38
0.13925579 0.11806414 0.014696658 1.4732195e-38
0.13924597 0.12140417 0.014929116 1.5283571e-38
0.13904417 0.12519568 0.015214562 1.5469064e-38
0.1354789 0.056290224 0.031806052 1.961069e-38
0.13577694 0.058935404 0.030121207 1.9336236e-38
0.13574478 0.061250269 0.028539002 1.8968153e-38
0.13526925 0.11766464 0.015078127 1.4732577e-38
0.13525146 0.12127465 0.01524657 1.510065e-38
0.13550298 0.12483674 0.015613317 1.5655239e-38
0.13207929 0.056177855 0.032282889 1.8138049e-38
0.13178107 0.058968231 0.030399919 1.7309709e-38
0.1290945 0.061304897 0.029002845 1.4913741e-38
0.13110738 0.1183472 0.01521337 1.4549278e-38
0.13106219 0.12168011 0.01545006 1.4825508e-38
0.13156965 0.12478513 0.016216874 1.5377572e-38
0.12847281 0.056948632 0.033181667 1.5652749e-38
0.12778287 0.059372172 0.031964183 1.4362729e-38
0.12695621 0.062529862 0.02948159 1.2336594e-38
0.12551124 0.06565696 0.028218806 1.104187e-38
0.12562361 0.11806804 0.015673399 1.3259616e-38
0.12725846 0.12150463 0.016222894 1.4181576e-38
0.12689735 0.12500933 0.017013729 1.4643266e-38
0.1237691 0.060373366 0.032699704 1.5004819e-38
0.12375302 0.063055724 0.030455947 1.2151437e-38
0.12306289 0.066637665 0.028503299 1.0124244e-38
0.12237862 0.069140792 0.027610064 9.0153882e-39
0.12263136 0.11785948 0.016195536 1.2429496e-38
0.12325376 0.12186497 0.017340004 1.3075955e-38
0.11890352 0.05659312 0.033953011 1.9706816e-38
0.11960144 0.059626192 0.033177376 1.7310069e-38
0.11975308 0.063151807 0.030948818 1.4087185e-38
0.11973056 0.066794187 0.029162943 1.2981534e-38
0.11952069 0.070090592 0.02758795 1.0397899e-38
0.11817528 0.094462797 0.021854222 6.7191112e-39
0.11880555 0.097866863 0.021510124 8.3764956e-39
0.11844668 0.10135327 0.020444155 1.0219276e-38
0.1180933 0.10418938 0.019533336 1.0863935e-38
0.11931257 0.1171878 0.01645118 1.1418209e-38
0.11925277 0.12170452 0.017579496 1.1693725e-38
0.11582702 0.051843092 0.035309851 2.0445099e-38
0.11582681 0.055263683 0.032659352 1.9892641e-38
0.11580428 0.059006438 0.031192899 1.7954743e-38
0.11577754 0.062805921 0.029942453 1.528431e-38
0.11574432 0.066698223 0.029013753 1.3718051e-38
0.11559252 0.070964873 0.02766031 1.2152142e-38
0.11434363 0.075690746 0.026619434 8.6537705e-39
0.1143163 0.078932971 0.025845885 7.35908e-39
0.11522897 0.082487121 0.025372028 5.3379564e-39
0.11578224 0.086476833 0.025310516 4.6972828e-39
0.11653978 0.089854434 0.023846924 4.9692019e-39
0.11649439 0.093996078 0.023632407 5.338339e-39
0.11643925 0.098880023 0.023498714 7.6392697e-39
0.11559161 0.1022884 0.021713614 9.2036849e-39
0.11541558 0.10562301 0.019726098 1.0218568e-38
0.11494976 0.10897012 0.018615186 1.0771396e-38
0.11490966 0.11372536 0.017480552 1.141712e-38
0.11531757 0.11730152 0.016939461 1.1417832e-38
0.11577969 0.121503 0.018237531 1.0399051e-38
0.11184177 0.051637739 0.034728646 2.0073792e-38
0.11184027 0.055175126 0.032508254 1.9520256e-38
0.11199323 0.058689684 0.030854881 1.8044069e-38
0.11179282 0.062743798 0.029899478 1.5560518e-38
0.11176002 0.066634446 0.028971136 1.4179753e-38
0.11172176 0.071173534 0.02788806 1.2890434e-38
0.1116766 0.075215161 0.027439833 1.0494803e-38
0.11163749 0.078613341 0.027145207 9.1125752e-39
0.11158852 0.082719117 0.026853681 7.2740492e-39
0.11086643 0.085744932 0.027555943 6.720186e-39
0.11073907 0.10363689 0.022254348 9.5710451e-39
0.11141577 0.10577086 0.020321071 1.1690086e-38
0.11156692 0.10926804 0.01878655 1.2698869e-38
0.11270201 0.11266282 0.017893076 1.1783042e-38
0.11158368 0.11813453 0.017076671 1.2060689e-38
0.10720248 0.048393905 0.035722792 1.9793636e-38
0.10787829 0.05131276 0.033716381 1.9426283e-38
0.10824981 0.054806903 0.032052279 1.8505396e-38
0.10780265 0.062776566 0.030177772 1.5282499e-38
0.10776985 0.066667229 0.029249489 1.3995352e-38
0.1077316 0.071206301 0.028166354 1.2799691e-38
0.10767956 0.075298548 0.027878404 1.1970657e-38
0.10764162 0.078646153 0.027423859 1.0496961e-38
0.10760256 0.082612246 0.026707053 9.0203992e-39
0.1073659 0.086755231 0.027049839 8.0962919e-39
0.10726117 0.10235634 0.02229476 1.4176488e-38
0.10760599 0.10545319 0.020111918 1.8046503e-38
0.1087501 0.10815652 0.019254446 1.6105682e-38
0.10375599 0.048626751 0.035192788 1.9883677e-38
0.10417249 0.051653981 0.033098817 1.8963881e-38
0.10521905 0.053720251 0.032529473 1.8596891e-38
0.10381112 0.062971458 0.030417383 1.5188879e-38
0.10377969 0.066699982 0.029527843 1.3992492e-38
0.10374141 0.071239084 0.028444648 1.2796468e-38
0.1035112 0.075452536 0.027600586 1.2794671e-38
0.10381088 0.078839988 0.027652264 1.1966702e-38
0.10361291 0.082575202 0.026772916 1.2338363e-38
0.10355714 0.086684316 0.026481152 1.3164514e-38
0.10309576 0.090832114 0.026896238 1.4272253e-38
0.10244383 0.094604954 0.026040435 1.7032741e-38
0.10305853 0.098730832 0.024126112 1.8507142e-38
0.10365316 0.10158579 0.021928012 2.1645417e-38
0.099903584 0.048211262 0.035345018 2.0159898e-38
0.099585444 0.051497146 0.033465266 1.9331937e-38
0.099822305 0.062842116 0.03073442 1.620087e-38
0.1003259 0.066209644 0.029892743 1.5095959e-38
0.10024866 0.071429878 0.028649569 1.4178317e-38
0.099548101 0.075650185 0.027690232 1.4454531e-38
0.099855259 0.078949168 0.027468026 1.4454898e-38
0.099617034 0.082608014 0.027051687 1.4731496e-38
0.099584199 0.086504221 0.026121974 1.5465111e-38
0.099556178 0.090364248 0.025086045 1.7862534e-38
0.099532954 0.094186842 0.023944259 2.0534423e-38
0.099974155 0.097421989 0.022451639 2.2383715e-38
0.095337197 0.044614792 0.03809613 1.9884749e-38
0.095923409 0.048156679 0.035299957 1.9885117e-38
0.095930524 0.051202968 0.033797741 1.9518494e-38
0.097173125 0.061567083 0.031229377 1.7398688e-38
0.096635029 0.072810352 0.02857852 1.5281783e-38
0.096518666 0.076096535 0.027800798 1.4820465e-38
0.09636052 0.079080462 0.027098298 1.4727559e-38
0.095658138 0.082397819 0.026584208 1.4453116e-38
0.095620319 0.086324856 0.025762022 1.6111195e-38
0.09559755 0.0901452 0.024620652 2.0995778e-38
0.096369997 0.09373413 0.023592293 2.293656e-38
0.091208823 0.040975332 0.039675057 1.9148989e-38
0.091908559 0.043939799 0.037770569 1.9887626e-38
0.091937177 0.048146486 0.035416603 1.9979816e-38
0.092201985 0.051752299 0.033933759 1.970359e-38
0.09267281 0.082676947 0.02650243 1.4267996e-38
0.091810077 0.086412281 0.025670826 1.8416459e-38
0.092953391 0.088834375 0.025009394 2.1087659e-38
0.087900221 0.040239289 0.039630353 1.9242974e-38
0.087957852 0.043744445 0.037184477 1.9887626e-38
0.087972492 0.048048019 0.035208881 1.9242602e-38
0.087950185 0.051268518 0.034354448 1.8964949e-38
0.08369185 0.040686235 0.039988756 1.8782359e-38
0.083961971 0.043777287 0.037463129 1.8966743e-38
0.083318442 0.048080832 0.035513401 1.841358e-38
0.083960004 0.051301301 0.034632742 1.8690153e-38
0.083686709 0.083723322 0.026896536 1.7126074e-38
0.083675779 0.085020214 0.026587129 2.0168164e-38
0.080043778 0.040515393 0.040328085 1.6751524e-38
0.079966091 0.043810099 0.03774184 1.7674929e-38
0.079332143 0.048097312 0.035731018 1.7675647e-38
0.078639776 0.051344991 0.035003781 1.6752264e-38
0.075919345 0.040225238 0.040034771 1.6664393e-38
0.075970225 0.043842912 0.038020551 1.7125355e-38
0.075468741 0.048276097 0.036033988 1.6843016e-38
0.075314626 0.051372305 0.035235763 1.5644826e-38
0.072056025 0.040781289 0.040800512 1.6758724e-38
0.071956001 0.043932527 0.038516104 1.5924661e-38
0.071530208 0.048090383 0.036864817 1.6106878e-38
0.071989492 0.051399618 0.035467684 1.7575556e-38
0.068495452 0.041813076 0.041103601 1.4819e-38
0.067805611 0.044423446 0.040528595 1.528106e-38
0.066669263 0.051443309 0.035838723 1.9423073e-38
0.065128617 0.045096606 0.04055953 1.5831363e-38
0.063990384 0.04835403 0.037285209 1.758344e-38
0.063738756 0.051986098 0.035919011 1.8501423e-38
0.063987285 0.054058909 0.035405397 1.5740972e-38
0.061115861 0.045780748 0.040683687 1.6014336e-38
0.060094498 0.048102379 0.038037062 1.7767849e-38
0.059826627 0.051728114 0.036519051 1.6845511e-38
0.059997104 0.054091692 0.035683692 1.59232e-38
0.055911586 0.04801935 0.038918138 1.8135533e-38
0.055959284 0.051709443 0.037230253 1.6570361e-38
0.055831112 0.055260614 0.035702884 1.399104e-38
0.054638632 0.058674484 0.034971714 1.2888293e-38
0.055558741 0.10729662 0.023274779 1.1967773e-38
0.055280238 0.11003773 0.023540914 1.390354e-38
0.051773891 0.049025297 0.04023391 1.6659327e-38
0.051904589 0.051891565 0.038050175 1.4452387e-38
0.051932514 0.055636585 0.036579549 1.343928e-38
0.051935934 0.05943805 0.035326421 1.242696e-38
0.05187881 0.063393801 0.034613371 1.1595776e-38
0.051497169 0.067026824 0.033493638 1.0486927e-38
0.050555527 0.069730759 0.032619774 8.8256131e-39
0.050975978 0.10676472 0.024349153 1.1049041e-38
0.052194044 0.11014983 0.024276495 1.2706797e-38
0.049061105 0.049786806 0.040589929 1.5556219e-38
0.0477034 0.052402645 0.040061533 1.3163449e-38
0.047670461 0.056309968 0.039129198 1.2796442e-38
0.048973277 0.060206324 0.038103759 1.2424788e-38
0.047593586 0.065427065 0.036953747 1.2241127e-38
0.047596812 0.067966834 0.036116898 1.1594697e-38
0.047534332 0.071648002 0.033099353 1.1131562e-38
0.045515902 0.075931907 0.031497777 1.2607359e-38
0.045153335 0.079501063 0.030669987 1.0762758e-38
0.045016676 0.095712095 0.026802003 1.1511437e-38
0.045438163 0.098302215 0.026152134 1.3257042e-38
0.047283784 0.10264085 0.025600314 1.2520191e-38
0.048368931 0.10553882 0.025241613 1.132201e-38
0.045026392 0.05307582 0.040092468 1.2061406e-38
0.045004427 0.055680692 0.039470911 1.2150737e-38
0.043591663 0.06799975 0.036396325 1.3436809e-38
0.043773353 0.071378902 0.033742607 1.3897777e-38
0.043436415 0.075363964 0.032555878 1.4541341e-38
0.042954735 0.079314157 0.031490922 1.3529355e-38
0.042801119 0.082438171 0.030136108 1.1868418e-38
0.042433076 0.086655781 0.029153585 1.0391154e-38
0.0429345 0.090282664 0.028250039 8.921773e-39
0.04287269 0.094758451 0.027389944 9.1040287e-39
0.043178678 0.098793328 0.027080238 1.0670578e-38
0.044609211 0.10256854 0.028283179 1.2338678e-38
0.039669648 0.067837745 0.03602916 1.4725356e-38
0.039777502 0.071411729 0.034021318 1.3993226e-38
0.039744653 0.075307935 0.033091664 1.4269446e-38
0.03972587 0.07916972 0.032054663 1.4359474e-38
0.039805748 0.082786947 0.030267477 1.3252047e-38
0.039730698 0.086784542 0.029660165 1.2331174e-38
0.03971155 0.090640187 0.028624773 1.2146783e-38
0.039551817 0.0948627 0.02865684 1.2516284e-38
0.039712548 0.099071771 0.029176295 1.2329753e-38
0.039934039 0.10260694 0.028609216 1.2702126e-38
0.036907539 0.065514833 0.037699163 1.5284279e-38
0.03561464 0.068146974 0.036646903 1.463678e-38
0.035752207 0.071510077 0.03451556 1.3532601e-38
0.035748757 0.075340748 0.033370376 1.2519506e-38
0.035715938 0.079236954 0.032440722 1.0860357e-38
0.035712317 0.083063096 0.03129667 9.6632449e-39
0.035664946 0.086994112 0.030474246 9.9380395e-39
0.035617404 0.090925574 0.029651761 1.1412456e-38
0.035661466 0.09450233 0.030854344 1.362443e-38
0.031531572 0.069466025 0.037139535 1.4086111e-38
0.031693719 0.071673974 0.035225451 1.3257072e-38
0.031752892 0.075373575 0.033649087 1.1783021e-38
0.031720072 0.079269767 0.032719433 1.0028799e-38
0.03168723 0.083165973 0.03178978 8.9267645e-39
0.031623222 0.087133482 0.031074405 9.2937505e-39
0.031538904 0.09123382 0.031931877 9.8458453e-39
0.02886004 0.069487959 0.037325859 1.3349649e-38
0.028572351 0.072271883 0.036165178 1.2614577e-38
0.027692273 0.075540394 0.034358501 1.1043672e-38
0.027724206 0.079302594 0.032998145 9.4785047e-39
0.027691349 0.083198801 0.032068491 8.9278253e-39
0.027594931 0.087237626 0.031567395 9.8479795e-39
0.027340814 0.091268301 0.032224715 1.0677037e-38
0.024119042 0.07734102 0.035787344 1.0308623e-38
0.023661397 0.079471469 0.033707201 8.6516195e-39
0.023695491 0.083231628 0.032347143 8.1924042e-39
0.023643918 0.087363929 0.032650828 9.5732073e-39
0.019370072 0.07991606 0.034738839 8.0970038e-39
0.019492529 0.083683804 0.033914745 7.1782565e-39
0.01969824 0.086819351 0.03383702 8.0101583e-39
0.015312202 0.072366744 0.037608802 1.1320601e-38
0.016794324 0.074796468 0.036921263 1.0586273e-38
0.016413733 0.080334574 0.035623789 8.0977045e-39
0.016279563 0.08304894 0.034984171 6.809111e-39
0.0087907463 0.07355985 0.037791073 1.0033797e-38
0.0087797865 0.074862301 0.037480354 9.9419365e-39
0.066590607 0.10064569 0.0096446276 1.3161654e-38
0.1380617 0.084265918 0.013514459 1.2707155e-38
0.13519618 0.079994038 0.014465153 1.2612441e-38
0.13411871 0.084109604 0.013223886 9.8508844e-39
0.13159473 0.080128759 0.01481539 1.3167026e-38
0.13021484 0.08019948 0.014095545 1.040117e-38
0.094686188 0.10633793 0.010906279 2.267076e-38
0.092213526 0.10752627 0.01120013 2.0906074e-38
0.090751931 0.10418743 0.010706544 2.2767995e-38
0.089518718 0.10647877 0.01086539 2.0718436e-38
0.085324347 0.094134212 0.014022589 2.2389866e-38
0.083116919 0.092200696 0.014945984 2.3318639e-38
0.12773949 0.063983381 0.026397884 1.3724557e-38
0.11181222 0.076019272 0.02211988 1.5284313e-38
0.11043961 0.081360102 0.020575464 1.2887591e-38
0.13481712 0.082708925 0.016257346 1.2798265e-38
0.12494957 0.081827119 0.017175913 1.1694102e-38
0.12489004 0.088888645 0.015491009 1.0128157e-38
0.096280999 0.093107492 0.018049002 1.2242559e-38
0.095961086 0.084955782 0.020733297 1.2429124e-38
0.094134137 0.081558704 0.021543324 1.3258164e-38
0.089825101 0.084206223 0.021965146 1.4823685e-38
0.098632693 0.055817395 0.030438662 1.8499661e-38
0.087836958 0.0806382 0.026871502 1.3717706e-38
0.085813515 0.078042775 0.02832967 1.3530796e-38
0.084718935 0.078601673 0.027362764 1.2242213e-38
0.047139287 0.079568386 0.028008342 8.7384145e-39
0.13819833 0.092410356 0.018454731 1.537399e-38
0.12440012 0.083799332 0.02382803 1.6755127e-38
0.11007957 0.085661739 0.025463343 1.5467984e-38
0.1090917 0.068682432 0.030098379 1.528358e-38
0.09756206 0.075943053 0.029961407 1.1690828e-38
0.14697669 0.072676361 0.025517702 1.9062547e-38
0.15602107 0.072158292 0.024448991 1.8790266e-38
0.14081596 0.082352176 0.021270633 2.0540904e-38
0.090135321 0.10533307 0.010785878 2.1743036e-38
0.16760358 0.12269625 0.016267478 1.7034237e-38
0.16743086 0.12656686 0.016253769 1.7033524e-38
0.16406654 0.060468808 0.034253478 2.2286874e-38
0.16390483 0.063674748 0.03086406 2.2195049e-38
0.16463743 0.067099631 0.0291906 2.2106439e-38
0.1651483 0.069964677 0.028468609 2.2201142e-38
0.16469756 0.12344065 0.015708804 1.6113719e-38
0.16335985 0.12622643 0.01559639 1.6205564e-38
0.16339812 0.13068947 0.016014874 1.7495937e-38
0.16319722 0.13456133 0.017072856 1.8233145e-38
0.15917833 0.057543799 0.035647273 2.311232e-38
0.15997997 0.060161173 0.033360183 2.2650981e-38
0.15988037 0.062976182 0.031033516 2.2283283e-38
0.15931943 0.12674534 0.015304029 1.5746738e-38
0.15932609 0.13030097 0.015254617 1.6666171e-38
0.15939038 0.13507301 0.016398907 1.7495581e-38
0.15583317 0.056927696 0.035494685 2.3114113e-38
0.15590325 0.059823751 0.032359123 2.2927926e-38
0.15585195 0.062915027 0.030993462 2.2378706e-38
0.15530646 0.1267783 0.015583932 1.4733305e-38
0.15531249 0.13037583 0.015639067 1.5560193e-38
0.15535504 0.13506344 0.016576171 1.6297749e-38
0.15070206 0.054207504 0.037396729 2.283717e-38
0.15195221 0.056211442 0.034537256 2.2836095e-38
0.15286568 0.059305891 0.031899154 2.2929368e-38
0.15129238 0.12694168 0.015832663 1.4640389e-38
0.1512976 0.13045156 0.016023397 1.5099575e-38
0.1513437 0.13530919 0.017377615 1.5836409e-38
0.14755249 0.053179488 0.037181377 2.2744244e-38
0.14791061 0.056062385 0.034175575 2.2741746e-38
0.14728938 0.12696928 0.016456723 1.5561617e-38
0.14729726 0.13073751 0.01692903 1.6575403e-38
0.14732683 0.1348356 0.018179715 1.7129297e-38
0.14397694 0.052831486 0.037750125 2.2653849e-38
0.1438864 0.055322349 0.034183204 2.2745685e-38
0.14354649 0.1272305 0.016937554 1.5838207e-38
0.14327477 0.13077056 0.017209589 1.6575765e-38
0.14356594 0.13479912 0.018629968 1.7588832e-38
0.13994034 0.052805126 0.037816882 2.1916267e-38
0.13986726 0.055309787 0.034302652 2.0903939e-38
0.13991791 0.1275568 0.016501307 1.5377241e-38
0.13925083 0.13076165 0.017385662 1.601867e-38
0.13892315 0.13454482 0.018766105 1.6852705e-38
0.13589956 0.052598968 0.037239671 2.0901765e-38
0.1361149 0.055074394 0.034112632 1.9612495e-38
0.13490444 0.12727195 0.01692903 1.6022929e-38
0.13522691 0.13071012 0.017457664 1.6573598e-38
0.13521953 0.13480747 0.018711209 1.7588801e-38
0.13187182 0.052632064 0.037520707 2.0075246e-38
0.13150163 0.054916665 0.034481227 1.8140221e-38
0.13095999 0.12710869 0.017250836 1.5747065e-38
0.13120611 0.13078502 0.01784265 1.6391729e-38
0.1311866 0.13484061 0.018992484 1.8233474e-38
0.12722638 0.046530664 0.040916681 2.256455e-38
0.12787786 0.048944116 0.039490998 2.1362764e-38
0.1278463 0.052516922 0.037264228 1.9424498e-38
0.12762588 0.055670679 0.03502053 1.7034233e-38
0.12748209 0.12713727 0.017493486 1.519499e-38
0.12718534 0.13073343 0.017914176 1.6024034e-38
0.12715369 0.13487378 0.019273877 1.7036405e-38
0.12255114 0.042634219 0.042183995 2.3306032e-38
0.1238782 0.045103312 0.040925562 2.2653156e-38
0.12385309 0.048744008 0.038911223 2.099178e-38
0.123828 0.052342236 0.036792576 1.9427365e-38
0.12379928 0.056079179 0.03521359 1.8043696e-38
0.12377711 0.058892712 0.034084082 1.6662181e-38
0.12320543 0.12651473 0.018292665 1.3997535e-38
0.1231637 0.13085109 0.01840353 1.4918071e-38
0.12312076 0.13490686 0.019555092 1.629883e-38
0.11986063 0.042656347 0.04237175 2.2837522e-38
0.11985675 0.044907928 0.040344596 2.2191077e-38
0.12109356 0.059892908 0.034037292 1.7675259e-38
0.11921719 0.12381423 0.018881142 1.2064661e-38
0.11918633 0.12667245 0.018886685 1.2985166e-38
0.1191285 0.13126343 0.019624949 1.408936e-38
0.11942023 0.13480073 0.020361185 1.538008e-38
0.11564599 0.041681796 0.042612612 2.265096e-38
0.11582921 0.044940993 0.040625453 2.1178716e-38
0.11582823 0.048402131 0.037965298 2.1270545e-38
0.1141689 0.087990135 0.02781266 5.4323227e-39
0.11465788 0.091767341 0.027698696 4.9681047e-39
0.11460433 0.096012682 0.02771759 5.3383278e-39
0.11460448 0.098944873 0.025573254 6.9009914e-39
0.11405347 0.10168523 0.024545014 8.0069648e-39
0.11454089 0.12320054 0.019363284 9.2962981e-39
0.11516511 0.12678808 0.019376457 9.0222069e-39
0.11508974 0.13154846 0.020533621 9.5761108e-39
0.11572353 0.13450316 0.020697534 1.2618181e-38
0.11047699 0.038798571 0.043967426 2.283824e-38
0.11181635 0.041242942 0.042599618 2.1638981e-38
0.1118118 0.044859469 0.040474951 2.0254966e-38
0.11181855 0.048347235 0.037922382 2.0347896e-38
0.11168384 0.08777675 0.028189182 6.3510448e-39
0.11142062 0.091885343 0.029024839 5.7971395e-39
0.1113601 0.096173301 0.029148757 5.7038551e-39
0.11134908 0.099804014 0.027364731 6.7155127e-39
0.1115579 0.1026856 0.024631858 8.1884778e-39
0.11118119 0.12321225 0.020337641 9.0186014e-39
0.1112725 0.12730491 0.021321416 8.5604889e-39
0.11185117 0.131574 0.021469772 8.0026404e-39
0.10780667 0.038655519 0.043506086 2.2373676e-38
0.10780723 0.041080073 0.042124271 2.0808862e-38
0.10781685 0.04463616 0.039784193 1.979542e-38
0.10834988 0.047790185 0.038052499 2.0163132e-38
0.10881278 0.088686228 0.028030276 6.9042242e-39
0.10742731 0.091594338 0.028350234 7.3569403e-39
0.1073776 0.095693797 0.027945697 8.3707054e-39
0.10736711 0.099354118 0.026269197 9.3823238e-39
0.10870284 0.10172917 0.024918139 8.8266305e-39
0.10841946 0.12632191 0.022147775 8.4701037e-39
0.10332718 0.037859157 0.044189572 2.1910186e-38
0.10381045 0.040889233 0.041540444 2.1268411e-38
0.10381663 0.044526398 0.039524674 2.0992873e-38
0.10448278 0.046987325 0.038315654 2.0805259e-38
0.10477231 0.091979921 0.02753216 1.2422252e-38
0.10420757 0.095505893 0.026729226 1.389451e-38
0.10471734 0.098501384 0.025976062 1.351784e-38
0.099075481 0.034957379 0.045704007 2.0534095e-38
0.099748835 0.037438005 0.044489741 2.1912348e-38
0.099815153 0.040755838 0.041171789 2.1269848e-38
0.099809349 0.044502258 0.039588809 2.0716292e-38
0.09528707 0.034033448 0.045853078 2.0623399e-38
0.095778361 0.037142485 0.0434708 2.0716306e-38
0.095817789 0.040676832 0.041019201 1.97e-38
0.096484333 0.043792516 0.03965354 1.9978017e-38
0.091705777 0.033779547 0.046127796 1.9519213e-38
0.091787897 0.037011117 0.043101311 1.9885827e-38
0.092369452 0.040044129 0.040845335 1.896351e-38
0.087677538 0.033632085 0.046380341 1.9331931e-38
0.087812074 0.036853343 0.042622447 1.9240454e-38
0.083822519 0.033784255 0.046434224 1.9239019e-38
0.083815858 0.036804706 0.042577147 1.8321013e-38
0.084483877 0.0393264 0.041582525 1.8780559e-38
0.080002613 0.033851832 0.046747327 1.8870607e-38
0.079785392 0.036892414 0.04307425 1.7767136e-38
0.078464419 0.039375827 0.04200238 1.5463694e-38
0.075582832 0.034480572 0.046884477 1.7582739e-38
0.075736172 0.037033588 0.04378897 1.7123202e-38
0.071550786 0.035022184 0.046975315 1.7212498e-38
0.071681656 0.037176281 0.044503748 1.7213944e-38
0.071107298 0.039436251 0.042515516 1.8046561e-38
0.067461923 0.035217077 0.047909141 1.6938073e-38
0.067621648 0.037319183 0.045218706 1.6292711e-38
0.067538992 0.040468648 0.042818964 1.5187046e-38
0.064098775 0.035244673 0.048143625 1.6658615e-38
0.063495651 0.037626415 0.046586514 1.5918916e-38
0.06365712 0.041024715 0.043586016 1.5648423e-38
0.063325599 0.04453069 0.041854978 1.6107972e-38
0.060735628 0.0352723 0.04837817 1.7488032e-38
0.059877843 0.038175106 0.047058225 1.6289145e-38
0.059627809 0.041085124 0.043975115 1.7027033e-38
0.059527412 0.044585168 0.042114377 1.5738465e-38
0.056704216 0.038720548 0.047498882 1.7672764e-38
0.055659428 0.041563198 0.045304835 1.7119581e-38
0.05563426 0.044893652 0.042777777 1.6292709e-38
0.052438557 0.041772291 0.046902955 1.665933e-38
0.051557414 0.045069546 0.043600678 1.7307936e-38
0.051645294 0.047421336 0.042001188 1.8870937e-38
0.049779937 0.11003835 0.027156234 1.1599001e-38
0.048561975 0.043241978 0.047344863 1.8870228e-38
0.047386155 0.04544571 0.045184076 1.7581632e-38
0.047412388 0.048694938 0.042386472 1.5279281e-38
0.046853587 0.060502723 0.039215565 1.2609518e-38
0.047494918 0.063757956 0.038390934 1.2424424e-38
0.045810953 0.10485414 0.028680921 1.2335075e-38
0.046560414 0.10823834 0.02884841 1.1691175e-38
0.048135713 0.11142072 0.029691994 1.1599364e-38
0.045871444 0.043264061 0.047532439 1.9610271e-38
0.043911241 0.045731619 0.0463956 1.4176177e-38
0.043554507 0.048908144 0.042683721 1.2427684e-38
0.043194763 0.052521259 0.04138726 1.1324928e-38
0.043123573 0.056885451 0.040642858 1.1966349e-38
0.04348214 0.060592189 0.039664984 1.3070152e-38
0.043476425 0.064443052 0.03851521 1.3993176e-38
0.042903461 0.10363084 0.029353917 1.1684363e-38
0.043669686 0.10844889 0.031839669 1.1968835e-38
0.045290977 0.11212847 0.031100929 1.1875237e-38
0.04116305 0.043302745 0.047860801 1.4270864e-38
0.040564865 0.045730785 0.046521306 1.3071234e-38
0.039635085 0.049249709 0.04345572 1.187522e-38
0.039435983 0.053006262 0.042571366 1.1139818e-38
0.039402962 0.056924701 0.041636467 1.2152164e-38
0.039369933 0.06084314 0.040701449 1.3533654e-38
0.03946346 0.064476013 0.038795054 1.527963e-38
0.037759013 0.10052378 0.030809581 1.4268354e-38
0.039553136 0.10428339 0.031327665 1.3438239e-38
0.041293904 0.10757066 0.032477856 1.2336177e-38
0.036677308 0.04622674 0.047041416 1.2054946e-38
0.035810091 0.049291506 0.044407189 1.1412825e-38
0.035417311 0.053039268 0.042851746 1.1138023e-38
0.035384282 0.056957722 0.041916788 1.233585e-38
0.035351239 0.060876161 0.04098177 1.3719492e-38
0.035251364 0.064418256 0.039368629 1.5652367e-38
0.035428494 0.067117557 0.038452625 1.5006987e-38
0.034859061 0.096729562 0.031822145 1.3993581e-38
0.035251603 0.10018115 0.033304632 1.4269426e-38
0.032758281 0.046914071 0.047342122 1.0769587e-38
0.03211695 0.04948464 0.046000123 1.0677058e-38
0.031930581 0.053335756 0.044061542 1.1415682e-38
0.031989433 0.057076126 0.042475522 1.3071965e-38
0.031332582 0.060909152 0.04126209 1.4641091e-38
0.031314693 0.064795643 0.040219188 1.5745275e-38
0.031410038 0.067802697 0.038576961 1.4544228e-38
0.030526824 0.09324187 0.032554865 1.0494029e-38
0.031152517 0.096135855 0.033235013 1.2706069e-38
0.029022589 0.047337294 0.047766387 9.7579755e-39
0.028453454 0.049731866 0.046318352 1.0215012e-38
0.028436266 0.053632319 0.045271933 1.1874512e-38
0.028466105 0.057439417 0.043900907 1.3624786e-38
0.027983695 0.060936674 0.041495681 1.4549985e-38
0.027448304 0.064859211 0.04059571 1.5653464e-38
0.027153164 0.068471521 0.03923744 1.3717005e-38
0.026499927 0.072264761 0.038273871 1.2429837e-38
0.027182668 0.093269348 0.032788098 1.104687e-38
0.027896345 0.096751034 0.03465265 1.2430201e-38
0.024335288 0.050566763 0.046986461 9.6632631e-39
0.024406195 0.053665429 0.045553088 1.1320625e-38
0.024192877 0.057562262 0.044017673 1.2978718e-38
0.023818232 0.061249852 0.042750239 1.4179757e-38
0.023500994 0.064948559 0.041063547 1.5558386e-38
0.023262791 0.068747103 0.039736867 1.41758e-38
0.023279585 0.072565138 0.038478732 1.2152541e-38
0.023124658 0.075975418 0.037216067 1.1232001e-38
0.021865025 0.089400411 0.03409493 1.0771043e-38
0.023236759 0.092077792 0.034129143 1.2152545e-38
0.024312049 0.096069977 0.035931408 1.2982652e-38
0.020245224 0.051344246 0.047437429 8.8374359e-39
0.020324484 0.053788245 0.046159983 1.0676314e-38
0.020176478 0.057465732 0.044947326 1.196277e-38
0.019525379 0.061430782 0.042867541 1.3348919e-38
0.019243531 0.064926609 0.041168034 1.3900658e-38
0.019296885 0.06868279 0.039693058 1.2887937e-38
0.019315593 0.072499573 0.038435161 1.2153951e-38
0.019282639 0.076413065 0.037501395 1.049695e-38
0.020615339 0.078977048 0.036677957 8.8417561e-39
0.018923327 0.089331061 0.036126256 9.7579208e-39
0.02039098 0.093207449 0.037069142 1.2800049e-38
0.017199062 0.053664565 0.047100782 9.1115201e-39
0.016419932 0.057926103 0.045493126 1.0862525e-38
0.016113289 0.061428383 0.044290841 1.2151821e-38
0.015224852 0.064959615 0.041448355 1.1228417e-38
0.015299037 0.068683177 0.039865196 1.169083e-38
0.016668342 0.071184248 0.038825154 1.2151433e-38
0.015118107 0.076576829 0.037646353 9.573566e-39
0.014453307 0.080071032 0.036858201 8.6505139e-39
0.014744021 0.08472921 0.035894871 7.4545001e-39
0.015457265 0.088945821 0.037240028 8.7441599e-39
0.013007857 0.058836162 0.046164274 8.5601231e-39
0.012194484 0.061716884 0.044846416 8.5554652e-39
0.01120618 0.064992636 0.041728675 8.0995233e-39
0.011265658 0.068748534 0.040253282 1.0127082e-38
0.011306681 0.072532505 0.038887143 1.0125324e-38
0.011273697 0.076445371 0.037953496 9.573545e-39
0.011240713 0.080358267 0.037019908 8.4686464e-39
0.01120773 0.084271133 0.036086202 8.1902896e-39
0.011516146 0.088814333 0.037496746 8.1913714e-39
0.0087189376 0.062232167 0.044834912 6.0687126e-39
0.0073730052 0.0655348 0.04305172 6.9013249e-39
0.0071544945 0.068944067 0.041073918 7.1782523e-39
0.0070195198 0.072589234 0.039825201 7.5488383e-39
0.0070268214 0.076756239 0.038570225 7.6388675e-39
0.0071696714 0.080493942 0.037622929 7.0864322e-39
0.0077205598 0.084560364 0.037126064 8.0066102e-39
0.0078785643 0.088954628 0.037609577 8.0995303e-39
0.0040960759 0.062485173 0.045415103 8.8327219e-39
0.00398992 0.06545724 0.044196486 6.7169168e-39
0.0034516603 0.069554657 0.043254912 5.0588542e-39
0.0034772307 0.073384568 0.04199338 4.8741252e-39
0.003502816 0.077212602 0.040732205 4.9666936e-39
0.003410995 0.08124122 0.040118814 5.0603172e-39
0.0039314926 0.085371926 0.039780319 6.533264e-39
0.0041272938 0.08860001 0.03926903 7.1778935e-39
0 0.059380203 0.04696691 1.3348196e-38
0.00058607757 0.062148616 0.045850515 1.0036314e-38
0.00079806149 0.065647185 0.04437989 5.8907645e-39
0.00076493621 0.06957674 0.043442249 4.4145638e-39
0.00073182583 0.073506281 0.042504668 4.2308928e-39
0.00054782629 0.077688396 0.042376459 4.6011075e-39
0.00048466027 0.081673652 0.041599452 4.7862134e-39
0.00045149028 0.085608751 0.040660441 5.8929071e-39
0.0011020154 0.088226601 0.039987564 6.6261659e-39
0.073491246 0.094787955 0.0090049505 8.3599827e-39
0.069794789 0.097896427 0.0096859932 1.629843e-38
0.07768099 0.085958421 0.017172635 1.8037618e-38
0.075778089 0.087434813 0.016452074 1.2235028e-38
0.11739171 0.07878913 0.02256757 1.6110827e-38
0.096389279 0.083874315 0.020691037 1.150607e-38
0.091874823 0.083314031 0.021728218 1.2243289e-38
0.091810077 0.086412281 0.025670826 1.8416459e-38
0.092582852 0.084609449 0.026144564 1.5652385e-38
0.090756536 0.05910857 0.03234297 1.4175458e-38
0.16876665 0.088211671 0.019721389 1.9336609e-38
0.099724352 0.090232313 0.025094211 1.279322e-38
0.052027471 0.066380471 0.037502885 1.3717329e-38
0.047548093 0.055114821 0.04219383 1.4360184e-38
0.1642445 0.058015138 0.0379197 2.2473418e-38
0.16491678 0.13617986 0.018829942 1.9154742e-38
0.16357572 0.138358 0.018920481 1.9524576e-38
0.15890159 0.054949299 0.039723337 2.2934388e-38
0.16047528 0.057142854 0.038467348 2.2839324e-38
0.15952678 0.13911361 0.019201815 1.8600138e-38
0.15586472 0.054644942 0.040014029 2.29326e-38
0.15686405 0.056283206 0.039550424 2.293403e-38
0.15546446 0.13901758 0.019172609 1.6393892e-38
0.15082915 0.051064089 0.041231692 2.2930799e-38
0.15231572 0.053420663 0.040174782 2.29308e-38
0.15114225 0.13960582 0.019410551 1.5927887e-38
0.14785635 0.050508797 0.041371584 2.2744966e-38
0.14898431 0.052568853 0.039973319 2.2746041e-38
