# .PCD v0.7 - Point Cloud Data file format
VERSION 0.7
FIELDS x y z rgb
SIZE 4 4 4 4
TYPE F F F F
COUNT 1 1 1 1
WIDTH 973
HEIGHT 1
VIEWPOINT 0 0 0 0 1 0 0
POINTS 973
DATA ascii
0.096110567 0.1004167 0.0012416244 2.1004749e-38
0.096572042 0.10304834 0.00082242489 2.2671494e-38
0.092572615 0.089775257 0.0032622218 1.9786462e-38
0.091994971 0.092791826 0.0016906261 1.8040478e-38
0.092162251 0.096465215 0.00086253881 1.5741341e-38
0.092014149 0.10004729 0.00096547604 1.5650601e-38
0.09235023 0.10363662 0.0013993979 1.8046653e-38
0.089188479 0.090167329 0.0038717985 1.6110506e-38
0.08775162 0.092617445 0.00230515 1.5834645e-38
0.087049067 0.096805945 0.0014044642 1.6477836e-38
0.087761238 0.10032979 0.0014405847 1.6205198e-38
0.088265531 0.10335122 0.0024012923 1.4355924e-38
0.084858313 0.093336836 0.0040613413 1.2424139e-38
0.083897509 0.096704952 0.0033990145 1.6940966e-38
0.083867945 0.1003717 0.0026036501 1.4725733e-38
0.084353872 0.10382842 0.0029317737 8.9160459e-39
0.081497267 0.097502686 0.0044506788 1.6208798e-38
0.080796145 0.10044539 0.0031923652 1.3065872e-38
0.081410497 0.10291412 0.0027637482 1.1218371e-38
0.10301015 0.094746314 0.0057405829 2.2770881e-38
0.10297063 0.097193629 0.005099833 2.3234019e-38
0.10277303 0.10065102 0.0029947758 2.3414076e-38
0.099665985 0.090593576 0.0065691471 2.3049988e-38
0.10026139 0.09354277 0.0053998232 2.2753609e-38
0.10030188 0.096962392 0.0039375424 2.3043508e-38
0.10020526 0.099935934 0.0027287602 2.341769e-38
0.096190453 0.087391414 0.0079885125 2.2843982e-38
0.096653506 0.089645587 0.006133616 2.3221773e-38
0.096931279 0.092764653 0.0044347048 2.2098166e-38
0.097717136 0.096846864 0.0034285784 2.1455687e-38
0.097717136 0.099341683 0.0031163096 2.3402199e-38
0.095919788 0.10509352 0.00325948 2.3214612e-38
0.092801526 0.086906508 0.0082982779 2.1544964e-38
0.092814967 0.088287354 0.0057962537 2.0713439e-38
0.093396977 0.10568235 0.0031635761 2.1091263e-38
0.092223823 0.10830562 0.0049111247 2.2477756e-38
0.089321762 0.08684843 0.008880198 1.69406e-38
0.088888735 0.088924304 0.006754458 1.528395e-38
0.088868767 0.10536832 0.0044948459 1.5188191e-38
0.08980795 0.10823004 0.0060066581 1.9800849e-38
0.086270899 0.087629348 0.0098894238 3.6749487e-39
0.085496143 0.089876078 0.0080484152 5.8825725e-39
0.08356709 0.093529493 0.0071111321 1.1867346e-38
0.086702369 0.10603368 0.005448997 1.2043439e-38
0.086890876 0.10766375 0.007261157 1.5282506e-38
0.083171047 0.09146294 0.010012984 9.927925e-39
0.08184433 0.093827933 0.0089487433 1.2703204e-38
0.080605142 0.097613126 0.0087162256 1.5102448e-38
0.10473181 0.090987757 0.0099816322 2.2678331e-38
0.10527523 0.094011433 0.0088130832 2.3048546e-38
0.10527521 0.097790197 0.0083400607 2.3325854e-38
0.1047318 0.1017032 0.0086404085 2.3315768e-38
0.10188356 0.089771919 0.0097643137 2.2948807e-38
0.10283271 0.093003295 0.0080461502 2.2676168e-38
0.097170062 0.085922152 0.011354387 2.2738842e-38
0.099062853 0.087890923 0.010959387 2.3118433e-38
0.093549974 0.085018948 0.011585355 2.2927545e-38
0.089615718 0.084810138 0.012157321 2.0068423e-38
0.088992946 0.10998164 0.0091279149 2.0441919e-38
0.088992938 0.11186835 0.0088917613 2.2099285e-38
0.085396715 0.083257377 0.014712512 1.452696e-38
0.085876517 0.085519761 0.012739241 7.8125542e-39
0.084591977 0.087994419 0.012223363 3.306445e-39
0.085989006 0.11028175 0.010872543 1.9336606e-38
0.085989013 0.11217177 0.010635972 2.0808517e-38
0.083525576 0.082041614 0.015228868 1.471817e-38
0.082872316 0.085786 0.014545202 7.5316485e-39
0.082319304 0.090151131 0.013308108 1.0119903e-38
0.08094582 0.093908653 0.013219178 1.325493e-38
0.07915958 0.092231452 0.014803231 1.2428388e-38
0.078671053 0.09487883 0.01431036 1.2703918e-38
0.078453638 0.098014414 0.013190329 1.3167409e-38
0.076041013 0.095457852 0.015006363 1.2336571e-38
0.068556465 0.09122514 0.016992927 1.1878102e-38
0.069180176 0.094992101 0.016400039 1.1232741e-38
0.069803894 0.097498417 0.015964925 1.1418928e-38
0.065905683 0.091446303 0.017481208 1.0773903e-38
0.066217534 0.095063165 0.016967773 1.0131053e-38
0.062319338 0.091217168 0.018207908 1.1968503e-38
0.063150965 0.09555693 0.017502844 1.0957229e-38
0.059824482 0.091434583 0.018666267 1.25242e-38
0.10922921 0.094211601 0.012808442 2.2769808e-38
0.10929196 0.098521978 0.012256742 2.34173e-38
0.10897823 0.1010659 0.011999369 2.3394588e-38
0.10521351 0.087206006 0.014466941 2.3019014e-38
0.10638188 0.089597046 0.013207138 2.2847256e-38
0.10732409 0.093546063 0.01203084 2.2863083e-38
0.10759915 0.098385051 0.011576951 2.3417331e-38
0.10668227 0.10124028 0.010713696 2.3315729e-38
0.10224457 0.086759523 0.013817608 2.2833185e-38
0.10309592 0.088200189 0.01270175 2.320811e-38
0.098827899 0.085298717 0.014922082 2.2369351e-38
0.090174511 0.082446642 0.016735256 2.2647035e-38
0.085985236 0.079592273 0.018136084 2.172541e-38
0.086397372 0.08193896 0.01688236 1.914572e-38
0.082829058 0.079630673 0.018488824 1.849715e-38
0.082019113 0.082506001 0.018337905 1.3795855e-38
0.081342004 0.086457521 0.018864751 1.203736e-38
0.081242941 0.089437768 0.01731348 1.2331171e-38
0.07903976 0.086927965 0.019596159 1.3800922e-38
0.078743063 0.090139389 0.017769217 1.2979767e-38
0.07744702 0.093240872 0.017063022 1.2335108e-38
0.07744702 0.10019518 0.016192615 1.3350007e-38
0.078778096 0.10224214 0.016703844 1.3625488e-38
0.075058617 0.08721526 0.019821823 1.6109362e-38
0.07498686 0.090229481 0.018489063 1.334712e-38
0.074694447 0.094318449 0.017463982 1.2152178e-38
0.074978061 0.099069528 0.017270267 1.2705007e-38
0.074782021 0.10220318 0.018512845 1.3720569e-38
0.070982821 0.083827995 0.021039069 1.6934482e-38
0.071222469 0.086505547 0.019573867 1.5278541e-38
0.071198948 0.09024775 0.018767893 1.3348559e-38
0.071608238 0.094434619 0.018050134 1.1782329e-38
0.071365304 0.099279568 0.017747581 1.2248327e-38
0.071122341 0.10280181 0.018710375 1.3075922e-38
0.070076123 0.10580361 0.018978119 1.4180099e-38
0.067315333 0.079998553 0.022745371 1.6662195e-38
0.067271255 0.083062105 0.021652043 1.4822618e-38
0.066817619 0.086554602 0.02005446 1.3073414e-38
0.067229159 0.08948198 0.019522369 1.2061064e-38
0.066812105 0.094128177 0.019021928 1.0866468e-38
0.066988409 0.099083006 0.01846087 1.022074e-38
0.067516297 0.10318696 0.019005597 1.1143431e-38
0.067566313 0.10586381 0.019459069 1.3075568e-38
0.063801587 0.07678552 0.023831487 1.4271584e-38
0.063324779 0.079394579 0.023224473 1.3531871e-38
0.062925346 0.082823157 0.021846712 1.2518804e-38
0.062433012 0.086646706 0.020810723 1.2520963e-38
0.062433019 0.089175537 0.020494163 1.2427691e-38
0.06207554 0.094964325 0.019839227 1.2243658e-38
0.062869646 0.09934023 0.019479036 1.1136965e-38
0.063935995 0.10318774 0.020115733 1.205819e-38
0.065056503 0.10592401 0.019940078 1.3904936e-38
0.059409432 0.076256767 0.024752498 1.3070904e-38
0.058971487 0.079133645 0.02324599 1.343969e-38
0.058679514 0.082943477 0.022004843 1.2797554e-38
0.058679521 0.086736739 0.021530032 1.2796845e-38
0.058523126 0.090375692 0.021104991 1.1318447e-38
0.058679514 0.094955459 0.020501316 1.0946467e-38
0.058986865 0.099696793 0.020977139 1.1505001e-38
0.059785895 0.10249947 0.021394551 1.2238974e-38
0.056272164 0.076966114 0.025274336 1.3531168e-38
0.055156559 0.079632103 0.024772942 1.0953649e-38
0.054950759 0.083117671 0.023278952 9.2866011e-39
0.054970823 0.086984523 0.023247302 9.1904174e-39
0.054961085 0.090746753 0.022550166 8.549001e-39
0.05495628 0.095159173 0.021884799 8.5464941e-39
0.054996781 0.099746034 0.022215128 8.6394254e-39
0.051879987 0.080876067 0.025639832 1.1312685e-38
0.051879995 0.083412468 0.025322378 1.3252388e-38
0.05200547 0.087214053 0.024822116 1.4447024e-38
0.051248297 0.091018349 0.024379253 1.5088422e-38
0.051212542 0.095305465 0.022937238 1.287894e-38
0.051234975 0.09983626 0.022936046 1.1963115e-38
0.047487818 0.088590614 0.025529087 1.3623317e-38
0.04747998 0.091090277 0.024989665 1.2333676e-38
0.047456138 0.095410056 0.023740888 8.9224471e-39
0.047627024 0.099754266 0.023591518 8.0026796e-39
0.043723091 0.088680916 0.026250541 1.2062467e-38
0.044081651 0.091208726 0.025864422 1.0495525e-38
0.043971024 0.095379442 0.025261283 8.833843e-39
0.044664279 0.099755093 0.02468127 8.1910015e-39
0.11418341 0.091099694 0.016082823 2.2750383e-38
0.11381266 0.093907282 0.015375853 2.2487463e-38
0.11403779 0.098594569 0.014859438 2.1099466e-38
0.10948239 0.087745659 0.017674208 2.301903e-38
0.11038029 0.090166718 0.01552844 2.2752907e-38
0.11111511 0.093321398 0.013579249 2.2395269e-38
0.11111628 0.097981229 0.013288975 2.2860178e-38
0.11036104 0.10121404 0.012738168 2.1085374e-38
0.10660729 0.086666353 0.017547667 2.2925038e-38
0.10784748 0.088573433 0.014809549 2.3295287e-38
0.1028487 0.083474666 0.018884063 2.2464057e-38
0.10316584 0.085508868 0.016925454 2.2646656e-38
0.0992603 0.082716405 0.01915288 2.209419e-38
0.10030682 0.08494404 0.016731501 2.2463341e-38
0.095700204 0.08199399 0.019639611 2.2461899e-38
0.092390217 0.081701301 0.021244228 2.3294555e-38
0.087897398 0.07956133 0.021531284 2.3385635e-38
0.083424397 0.078587301 0.023276508 1.9700365e-38
0.081455179 0.082856037 0.020662069 1.3434918e-38
0.079354927 0.08015465 0.023461878 1.9791469e-38
0.07903935 0.083100289 0.022356212 1.6195772e-38
0.078313239 0.085471578 0.020946264 1.4996967e-38
0.078514248 0.1049808 0.021031201 1.3167038e-38
0.077922717 0.10636329 0.021486521 1.5014537e-38
0.074135549 0.077111654 0.025884986 2.2647377e-38
0.074878246 0.080125831 0.025157869 2.1729368e-38
0.075314619 0.08329159 0.023741484 2.016023e-38
0.075171322 0.085546948 0.02154839 1.7672752e-38
0.075453639 0.10415751 0.019574523 1.3811698e-38
0.075356171 0.10759632 0.021261513 1.722149e-38
0.070348389 0.072737336 0.027169585 2.0256788e-38
0.071400985 0.076204762 0.02609086 2.0624115e-38
0.071503021 0.07949616 0.024502218 2.0070216e-38
0.07165233 0.082329109 0.022635996 1.8687264e-38
0.072029352 0.10467365 0.019765854 1.3624817e-38
0.071610518 0.10752569 0.020260155 1.6483915e-38
0.071610779 0.11034197 0.022217095 1.6851992e-38
0.06656123 0.069638774 0.028294563 1.6940591e-38
0.067634098 0.072255582 0.027244985 1.8229898e-38
0.067688644 0.075690731 0.025150716 1.7766385e-38
0.067944832 0.078417256 0.023847282 1.7768163e-38
0.067630634 0.10795438 0.020211399 1.464072e-38
0.067791432 0.11097513 0.022367954 1.4549595e-38
0.063887104 0.068119526 0.028594673 1.5924995e-38
0.063952044 0.072055668 0.027017176 1.5096337e-38
0.063860305 0.075022481 0.025067151 1.4270158e-38
0.062603541 0.10489973 0.021572173 1.4456347e-38
0.063703224 0.1075723 0.021023571 1.5192117e-38
0.063822821 0.11132967 0.023022771 1.5009842e-38
0.060046449 0.06372761 0.029862583 1.7125689e-38
0.060170226 0.067683324 0.028243542 1.47297e-38
0.060089983 0.071937688 0.026187062 1.2886503e-38
0.06008999 0.074477881 0.02586925 1.2978001e-38
0.05983863 0.10445802 0.022165596 1.113157e-38
0.060113177 0.10758443 0.022176981 1.1595787e-38
0.060399033 0.11141181 0.023678958 1.2983393e-38
0.056628644 0.063827127 0.030662 1.5835673e-38
0.056390867 0.067773663 0.028967798 1.3992491e-38
0.056350052 0.072118014 0.027576685 1.2520973e-38
0.055377074 0.075702235 0.026633143 1.1228812e-38
0.053806096 0.078438871 0.026596487 7.9004339e-39
0.055709891 0.10386902 0.023453414 9.653199e-39
0.056408741 0.10794587 0.024335325 1.0395395e-38
0.056882933 0.11112049 0.024986267 8.7301777e-39
0.053937361 0.064838529 0.03135246 1.4267641e-38
0.053086035 0.068090066 0.030883074 1.3071612e-38
0.053010926 0.07261961 0.029972315 1.0855705e-38
0.051765233 0.076135606 0.028650463 1.0022709e-38
0.051113009 0.079410672 0.026998997 1.1590385e-38
0.050035782 0.08360967 0.026683152 1.5371846e-38
0.050349966 0.087412395 0.026145995 1.5828866e-38
0.051576659 0.1041692 0.024630904 1.2790737e-38
0.052290894 0.10741802 0.025756955 1.5553739e-38
0.048506923 0.07618691 0.030402482 1.3529346e-38
0.047574878 0.080087095 0.029199541 1.5097392e-38
0.047544301 0.083770543 0.02783215 1.5096686e-38
0.047522202 0.086845174 0.026767373 1.4359841e-38
0.046265438 0.10148136 0.025179982 7.8207897e-39
0.047552362 0.10415475 0.025507212 8.6491392e-39
0.048239432 0.10761969 0.026593626 1.1691927e-38
0.04452686 0.076662086 0.031704307 1.5745631e-38
0.043809466 0.080243297 0.030369163 1.5188156e-38
0.043802656 0.084030658 0.029668331 1.4083974e-38
0.043751888 0.087411888 0.027430177 1.3074123e-38
0.042495109 0.091411069 0.027174294 1.0770673e-38
0.042495109 0.096491434 0.026538432 8.8334716e-39
0.04291404 0.10007997 0.026007712 8.559082e-39
0.043798834 0.10438664 0.027007103 9.2026269e-39
0.043838263 0.10718085 0.028018355 1.0404399e-38
0.040892698 0.077483773 0.032308698 1.5278218e-38
0.040035211 0.080382496 0.031428397 1.4635692e-38
0.040027909 0.084155604 0.030615449 1.3992478e-38
0.039981551 0.087661088 0.028132856 1.2981199e-38
0.039986275 0.091508165 0.027878463 1.1416743e-38
0.040000901 0.095432654 0.028068721 9.3863007e-39
0.040011197 0.099961661 0.027956009 8.0073137e-39
0.040199742 0.10448891 0.028678536 9.2069569e-39
0.037105531 0.081401892 0.032555401 1.5006284e-38
0.036258072 0.084347375 0.032009482 1.4820439e-38
0.036246374 0.088067919 0.030861795 1.3440027e-38
0.036237709 0.091817133 0.029937923 1.1690459e-38
0.036253557 0.095786713 0.030350447 9.2948295e-39
0.036262318 0.10033141 0.030264676 7.8232924e-39
0.035001554 0.10356552 0.030190706 8.0062641e-39
0.033739164 0.085735165 0.032668173 1.6204817e-38
0.033420101 0.087935738 0.032198191 1.5834959e-38
0.032629371 0.092238426 0.031685233 1.316124e-38
0.032897577 0.09553618 0.031605303 1.0307161e-38
0.033107974 0.10042155 0.030952871 7.8218378e-39
0.032729253 0.10438548 0.030530393 8.4661479e-39
0.028184667 0.088675067 0.033381343 1.5184219e-38
0.028530702 0.092357054 0.032596529 1.4732934e-38
0.028327011 0.095815971 0.032019913 1.0951822e-38
0.028574452 0.10068846 0.031708539 8.8381366e-39
0.028688401 0.10495158 0.031017959 9.205145e-39
0.028058432 0.10755934 0.031042218 1.0684197e-38
0.024902225 0.088445142 0.033706844 1.426799e-38
0.024902031 0.092179693 0.032669306 1.3347483e-38
0.024273321 0.095857002 0.031361878 1.0584125e-38
0.024708599 0.10025963 0.031344533 9.4817193e-39
0.024902299 0.10494082 0.031185925 9.5742975e-39
0.021116912 0.088535942 0.034432232 1.1782647e-38
0.021120146 0.092252351 0.033282161 1.1136559e-38
0.02003023 0.095918939 0.030982494 9.2962617e-39
0.020642579 0.10030639 0.031261563 9.2991385e-39
0.021120146 0.10499104 0.031687737 9.4835298e-39
0.021117657 0.10891828 0.031766891 1.0866096e-38
0.017333359 0.089237809 0.034909725 8.5565358e-39
0.016708329 0.092358164 0.034127533 8.0083717e-39
0.016338944 0.095925294 0.032931924 7.6392318e-39
0.016709074 0.10062429 0.033007324 7.4559364e-39
0.017330989 0.10520408 0.033082843 8.0084025e-39
0.017487004 0.10890582 0.032802999 9.1143675e-39
0.014172152 0.09003178 0.035938859 6.8070021e-39
0.012442663 0.09272217 0.035553813 6.0708523e-39
0.012289926 0.096342415 0.034830987 5.334732e-39
0.013540968 0.10046563 0.034755766 5.8889722e-39
0.014803365 0.10468788 0.033981562 7.0892993e-39
0.012278587 0.10985146 0.033826649 6.9945981e-39
0.14254189 0.062051058 0.019587815 1.8691235e-38
0.14245105 0.066276066 0.019076645 1.7584536e-38
0.14241472 0.071307614 0.018453956 1.7494137e-38
0.14275384 0.074683867 0.017965376 1.8323185e-38
0.14190602 0.077488825 0.017779291 1.8877093e-38
0.14063428 0.059526391 0.020275116 1.8416447e-38
0.13952151 0.062284149 0.02014643 1.8322808e-38
0.13920772 0.066510946 0.018737614 1.6756214e-38
0.13923147 0.071021408 0.018311024 1.6758002e-38
0.1393066 0.07493376 0.018262863 1.6387779e-38
0.13936253 0.07883504 0.018105805 1.6204112e-38
0.13427559 0.055823281 0.021976233 1.473975e-38
0.13427559 0.058393702 0.021654487 1.4457088e-38
0.13528667 0.06230855 0.020326138 1.5563062e-38
0.13527557 0.066508047 0.018733621 1.464075e-38
0.13531187 0.071024798 0.018389225 1.3722006e-38
0.13538387 0.074933231 0.018342137 1.3261387e-38
0.13549285 0.078879394 0.018511295 1.280041e-38
0.13491146 0.081512228 0.018637121 1.1785553e-38
0.13088429 0.051620595 0.023162365 1.1874899e-38
0.13166259 0.054551035 0.022187829 1.1784488e-38
0.13160977 0.058366396 0.021378398 1.0588456e-38
0.1315394 0.062164553 0.020460546 1.0311117e-38
0.13141647 0.066557497 0.019136429 9.7575593e-39
0.13148682 0.071101852 0.019010007 9.5746562e-39
0.13157427 0.075024605 0.019072175 9.2048059e-39
0.13166176 0.07895492 0.019133449 9.6657729e-39
0.13257994 0.081996553 0.019030273 1.0403716e-38
0.12791689 0.050834954 0.023838162 1.1596494e-38
0.12779829 0.054606386 0.022590876 1.0952902e-38
0.12776467 0.058432825 0.021890402 9.4802956e-39
0.12773064 0.062255912 0.021190405 8.5633685e-39
0.12770063 0.066722296 0.020437658 9.0214432e-39
0.12781478 0.071310133 0.020610988 9.4813606e-39
0.12798002 0.075003505 0.020159364 9.9398332e-39
0.12887071 0.0787654 0.020156622 1.0123479e-38
0.12696311 0.090699345 0.019034207 1.7118172e-38
0.1239427 0.051090933 0.024579644 1.3441465e-38
0.12406868 0.054757923 0.023868024 1.2244724e-38
0.12401982 0.058574252 0.023057818 1.1233425e-38
0.12400332 0.062413916 0.022466362 1.0496952e-38
0.12430222 0.066415869 0.022021353 9.943768e-39
0.12537342 0.07017412 0.021912694 9.9455673e-39
0.12378375 0.087883882 0.020005405 1.8690864e-38
0.12314789 0.094325185 0.019322932 2.3233255e-38
0.12155821 0.053557903 0.024735034 1.2890479e-38
0.12155821 0.058698744 0.024091601 1.1325289e-38
0.12155821 0.062554374 0.023608983 1.0405157e-38
0.12155821 0.065124787 0.023287296 9.7604754e-39
0.11901474 0.084463947 0.021361709 1.5094891e-38
0.12009248 0.087129034 0.020561695 2.127562e-38
0.12008323 0.090626642 0.018899739 2.2936564e-38
0.12008385 0.094474286 0.018418133 2.313715e-38
0.12009972 0.098341063 0.018045068 2.0078453e-38
0.12000698 0.10078906 0.017072499 9.8267582e-39
0.11647126 0.084524959 0.021849155 1.8786669e-38
0.11635132 0.08695662 0.020655692 2.2285823e-38
0.11590753 0.089991122 0.01819545 2.284076e-38
0.1166991 0.094291292 0.017503142 2.2580385e-38
0.11665334 0.098071828 0.016696692 2.3402518e-38
0.11719397 0.10049771 0.015603602 1.1939033e-38
0.11199917 0.084178016 0.022591949 2.2101389e-38
0.11198293 0.086825766 0.020755112 2.25613e-38
0.11213695 0.089120157 0.018011928 2.3209557e-38
0.1075691 0.080882855 0.024037659 2.1272005e-38
0.10767779 0.083266176 0.022486508 2.2559152e-38
0.10800552 0.085916668 0.019901335 2.2834648e-38
0.10345323 0.080407821 0.024487674 2.2463348e-38
0.10386714 0.08231286 0.022782981 2.2281108e-38
0.099654719 0.079781018 0.024561226 2.2096725e-38
0.094799913 0.076619148 0.026543438 2.163503e-38
0.095948502 0.079629645 0.024745643 2.2277874e-38
0.091545194 0.072527774 0.028202295 1.7672425e-38
0.092230983 0.075999558 0.026835918 1.9520652e-38
0.092075855 0.079624556 0.024815738 2.274388e-38
0.088069096 0.067927271 0.029454648 1.7215385e-38
0.088419922 0.072239548 0.028048337 1.6568212e-38
0.088388503 0.076044522 0.027235985 1.8506491e-38
0.088480175 0.078580856 0.024448812 2.2196083e-38
0.084151752 0.06008628 0.030993342 1.868872e-38
0.084629178 0.06337177 0.030124128 1.7675638e-38
0.084596701 0.067820378 0.029202998 1.6477088e-38
0.084579319 0.072286561 0.028447747 1.5740238e-38
0.083406068 0.10845183 0.025289953 1.2057826e-38
0.083943374 0.11143266 0.023657501 1.9802224e-38
0.080337673 0.056323268 0.032206714 1.9793282e-38
0.080788985 0.059572384 0.031004965 1.7948286e-38
0.080734067 0.063342482 0.029859543 1.6293786e-38
0.080738381 0.06783773 0.029353142 1.6479217e-38
0.080751881 0.072347738 0.028957009 1.6662595e-38
0.080696531 0.076103359 0.027813435 1.9886899e-38
0.079519108 0.078659214 0.025669932 2.0625199e-38
0.080477089 0.10783567 0.024294853 1.5189619e-38
0.081065997 0.11096205 0.024815381 2.2024677e-38
0.076710559 0.053000219 0.033277214 1.9980177e-38
0.076987587 0.055825345 0.03232789 1.970288e-38
0.076944567 0.059612371 0.031292081 1.7768197e-38
0.076892555 0.063380301 0.03014636 1.7492693e-38
0.076937877 0.067939892 0.030165553 1.7399391e-38
0.076918773 0.072394788 0.029355049 1.9796495e-38
0.076376878 0.075987153 0.027922332 2.1453503e-38
0.07610561 0.079124384 0.026276052 2.2101033e-38
0.078160554 0.10948136 0.024129272 1.8604467e-38
0.0769706 0.11098398 0.025199234 1.9341674e-38
0.073009722 0.052457951 0.033735454 1.9335534e-38
0.07316035 0.055892609 0.032836318 1.8228114e-38
0.072877854 0.059830293 0.031987965 1.7951871e-38
0.072454579 0.063486762 0.030996859 1.7675643e-38
0.072446071 0.067955457 0.030310929 1.9429516e-38
0.072779045 0.072211713 0.029020548 2.0718101e-38
0.072312839 0.074743584 0.027562618 2.0900702e-38
0.072243534 0.11197351 0.024968922 1.7957996e-38
0.071960427 0.11515242 0.026679039 2.0080265e-38
0.069394581 0.052845433 0.034635067 1.832031e-38
0.068894826 0.056121543 0.033731222 1.767458e-38
0.068519101 0.059694156 0.032890677 1.8228456e-38
0.068016574 0.063593201 0.031847298 1.9611399e-38
0.068037957 0.067713819 0.029834449 1.924117e-38
0.069152199 0.070986442 0.028648078 1.9886907e-38
0.068604209 0.11340755 0.024728 1.5102424e-38
0.068329178 0.11617692 0.026128411 1.5930755e-38
0.065389782 0.05319155 0.035713315 1.6935943e-38
0.064554967 0.056025609 0.035007775 1.8780917e-38
0.064219512 0.059851944 0.033168674 1.8965655e-38
0.064121678 0.063494906 0.031021059 1.8876341e-38
0.064727291 0.065981984 0.030135691 1.7495552e-38
0.064727291 0.11325502 0.024218678 1.4548491e-38
0.064251713 0.11635686 0.026660085 1.4824378e-38
0.061786532 0.053706378 0.036350191 1.8230988e-38
0.060646974 0.05640839 0.035720587 1.9239008e-38
0.060373805 0.059852533 0.033118844 1.7952926e-38
0.060934521 0.062240005 0.031342268 1.7493398e-38
0.059670262 0.11337633 0.02518779 1.2984823e-38
0.060435139 0.1162543 0.027244687 1.3997513e-38
0.056583084 0.059970304 0.034069955 1.758271e-38
0.055877492 0.062361307 0.03231138 1.7122448e-38
0.056369193 0.11289774 0.027429819 1.1037936e-38
0.057498664 0.11572878 0.028395295 9.5642796e-39
0.052863419 0.057076812 0.037151933 1.8962056e-38
0.052809693 0.060139254 0.035467505 1.721071e-38
0.052579768 0.063618764 0.033309042 1.4820814e-38
0.051452585 0.068003923 0.032466352 1.2059617e-38
0.051452592 0.072049811 0.031959951 1.0579117e-38
0.052771442 0.10996318 0.028326273 1.7400144e-38
0.052814126 0.11271828 0.028999507 1.7859669e-38
0.049056754 0.057186991 0.038050115 1.8411038e-38
0.049012519 0.060256131 0.036419988 1.7118146e-38
0.048988119 0.06402193 0.035269082 1.3437515e-38
0.048971489 0.068448491 0.034262121 1.1873413e-38
0.048955485 0.072868526 0.033255875 1.168795e-38
0.048924081 0.10980113 0.027726889 1.3902082e-38
0.048992783 0.11272453 0.029286325 1.5933648e-38
0.045233496 0.060450815 0.038043559 1.6294486e-38
0.045212626 0.064221561 0.036891341 1.3716264e-38
0.045195021 0.068636306 0.035743475 1.3162008e-38
0.045185812 0.073080212 0.034875453 1.3900662e-38
0.043867052 0.075425886 0.033013761 1.6205889e-38
0.045209229 0.11294352 0.030679643 1.4734754e-38
0.046525672 0.1157625 0.031553149 1.7039274e-38
0.041858152 0.061019011 0.039142609 1.4819031e-38
0.041416235 0.064367369 0.038068175 1.3992491e-38
0.041390561 0.06872756 0.036472559 1.4635692e-38
0.041377068 0.073140934 0.035381019 1.5740603e-38
0.039821416 0.076545045 0.033661127 1.5463675e-38
0.038810022 0.10621078 0.030144811 9.7629837e-39
0.041199289 0.10901155 0.030099034 1.1605468e-38
0.041411102 0.11309966 0.0317415 1.4640382e-38
0.038259372 0.061981961 0.039893627 1.4270504e-38
0.037770078 0.064647354 0.039013624 1.3625825e-38
0.037597284 0.06889344 0.037788868 1.5006999e-38
0.037586577 0.073308006 0.036668122 1.5281091e-38
0.037222348 0.076963082 0.036167562 1.4820103e-38
0.036035679 0.080526963 0.034310162 1.5561263e-38
0.036281511 0.10478084 0.030815959 9.2098184e-39
0.037592404 0.1086082 0.03254509 1.1971709e-38
0.038043857 0.11272082 0.033413708 1.5011293e-38
0.033808291 0.065301754 0.040344417 1.3164522e-38
0.03379906 0.0690706 0.039190173 1.4085028e-38
0.033794448 0.073519997 0.038291991 1.5004866e-38
0.033531986 0.077419244 0.037239194 1.6295247e-38
0.032763451 0.080939397 0.036332309 1.7405884e-38
0.0323392 0.084600002 0.034879029 1.7861826e-38
0.031730168 0.088749036 0.033708453 1.7494107e-38
0.031224482 0.091060929 0.03351748 1.5742378e-38
0.031645887 0.09701319 0.032690465 9.4795683e-39
0.031224482 0.10000448 0.032398105 8.0073053e-39
0.031983025 0.10509688 0.031613052 9.0193385e-39
0.033789538 0.10874911 0.033541381 1.4367749e-38
0.031264819 0.066005364 0.040751398 1.2887927e-38
0.030273639 0.069569789 0.04027003 1.3438585e-38
0.029986456 0.073641136 0.039246142 1.4363459e-38
0.029346742 0.077405274 0.038158178 1.6391746e-38
0.028708644 0.081194632 0.037294924 1.7403732e-38
0.02870442 0.084935807 0.036143243 1.7584883e-38
0.029328093 0.088231705 0.034240723 1.6571446e-38
0.029960215 0.091091253 0.033759773 1.5467266e-38
0.029960215 0.09684068 0.033040166 9.8480047e-39
0.029960215 0.098757155 0.032800257 9.2951827e-39
0.029471315 0.10885485 0.033684313 1.2064303e-38
0.028721333 0.11104871 0.03560853 1.4458547e-38
0.026177868 0.070754141 0.041147113 1.2611362e-38
0.025713742 0.073854864 0.040009499 1.362623e-38
0.025158986 0.077377386 0.038976789 1.4454563e-38
0.024904653 0.081285879 0.038023889 1.5929318e-38
0.02490449 0.084925398 0.036199868 1.5925369e-38
0.026171908 0.11053762 0.033089519 1.353941e-38
0.024907395 0.11210434 0.034508109 1.4732547e-38
0.022998512 0.07134448 0.041692019 1.1507518e-38
0.022000149 0.073716141 0.041296303 1.1506461e-38
0.021095768 0.077674553 0.040243626 1.1963465e-38
0.021099165 0.081409678 0.038977146 1.3349624e-38
0.021107584 0.085016467 0.036927402 1.298047e-38
0.021352679 0.11348595 0.035095394 1.2341196e-38
0.021726772 0.11635733 0.036305487 1.2341946e-38
0.018971324 0.074439898 0.042088449 1.067598e-38
0.01728341 0.077797256 0.041198432 1.058557e-38
0.017287135 0.081599295 0.040379643 1.1690457e-38
0.017296657 0.08531265 0.03900069 1.0771337e-38
0.017302409 0.087770887 0.038007557 9.3855706e-39
0.016053393 0.11058958 0.034026027 8.6537523e-39
0.017298162 0.1134619 0.035248995 1.0126737e-38
0.017427698 0.11726028 0.036002815 1.0038151e-38
0.016651258 0.12013072 0.035794675 8.7488654e-39
0.014308289 0.078835785 0.042445838 8.2846573e-39
0.013465419 0.081805304 0.041895986 7.9129867e-39
0.013474569 0.085574277 0.040852308 7.8189694e-39
0.013322771 0.088772036 0.038608134 6.8080629e-39
0.012892738 0.10172184 0.035751164 5.7020642e-39
0.013204306 0.10495427 0.035542488 6.6240135e-39
0.013691694 0.10898289 0.035566628 7.3619401e-39
0.01347658 0.12020688 0.03640306 7.9205537e-39
0.010916993 0.085771576 0.042237759 6.2505801e-39
0.0098450184 0.089883089 0.041051984 5.7917585e-39
0.0093444586 0.092868097 0.038722992 5.9790014e-39
0.0090763867 0.096872739 0.038127303 5.4269137e-39
0.0096940696 0.10081363 0.038198113 5.4269123e-39
0.0096751451 0.10481848 0.038612843 5.7949899e-39
0.009656474 0.10883214 0.039026439 6.2592051e-39
0.0066863596 0.09053199 0.042123258 1.1041098e-38
0.0058476329 0.093494907 0.041573465 1.1135818e-38
0.0058476329 0.097346753 0.041091323 1.0951076e-38
0.0064786375 0.10121274 0.040655673 7.3594065e-39
0.0071017742 0.10449864 0.040636361 5.5212603e-39
0.0065930784 0.10875203 0.040202975 5.8940029e-39
0.0028626472 0.094532833 0.042708814 1.4359837e-38
0.0028626472 0.098388463 0.042226195 1.4180125e-38
0.002650708 0.10074977 0.041971922 1.0767412e-38
0.15051429 0.059215911 0.021470249 1.9979827e-38
0.15059943 0.0624841 0.021044612 2.0256073e-38
0.15072717 0.064804621 0.020729303 2.0166714e-38
0.14749396 0.058401346 0.021932006 1.9429536e-38
0.14741425 0.062220521 0.021013319 1.9613184e-38
0.14724246 0.066541053 0.020985007 1.9151857e-38
0.1468654 0.071328685 0.020493269 1.9060387e-38
0.14730723 0.07532195 0.019693673 1.9799022e-38
0.14653119 0.078745879 0.019544423 1.9798308e-38
0.14625645 0.082338735 0.019404769 1.9613207e-38
0.14358532 0.058442876 0.0222314 1.8692687e-38
0.14454749 0.067146547 0.020612597 1.7952962e-38
0.14448372 0.07095059 0.020148814 1.7862574e-38
0.14437741 0.075572021 0.019591093 1.9060036e-38
0.1437525 0.079241149 0.019638419 2.0167447e-38
0.14368255 0.083029136 0.019705296 1.9340567e-38
0.1424244 0.086303286 0.019654393 1.7497034e-38
0.13923103 0.056044206 0.024063349 1.8507216e-38
0.13960463 0.058382034 0.023056567 1.8232781e-38
0.13842519 0.061106242 0.022560239 1.8139144e-38
0.13971967 0.083005227 0.019681334 1.6665802e-38
0.13971004 0.086852476 0.020114005 1.528467e-38
0.13923103 0.089607082 0.019862413 1.3347508e-38
0.13476032 0.047760725 0.02597034 2.0445487e-38
0.13580902 0.051301129 0.025029898 1.7864022e-38
0.13611609 0.054611243 0.024335861 1.6944197e-38
0.13653952 0.058592685 0.023412943 1.66687e-38
0.13714971 0.061136834 0.022804618 1.731227e-38
0.13605644 0.083444178 0.020225346 1.3075931e-38
0.13603766 0.087101921 0.020797551 1.3719867e-38
0.13571833 0.090014055 0.020495176 1.4273039e-38
0.13092828 0.044625439 0.02710861 1.8234588e-38
0.13217096 0.047154956 0.026322067 1.7496642e-38
0.13249958 0.050524093 0.025209188 1.4637141e-38
0.13162264 0.083611906 0.021067321 1.0677793e-38
0.13210082 0.08709082 0.020880938 1.1969962e-38
0.1321359 0.090995558 0.020613432 1.5102063e-38
0.13220562 0.09364824 0.020723999 1.4823304e-38
0.1281181 0.044176489 0.027711809 1.5651634e-38
0.1282721 0.0472036 0.026618719 1.315628e-38
0.12694588 0.076849461 0.022823989 1.0862866e-38
0.12748614 0.079702124 0.022567093 1.0861421e-38
0.12825477 0.083297007 0.021990359 1.0861801e-38
0.12822136 0.0871308 0.021288931 1.2612062e-38
0.12901747 0.091011904 0.02085346 1.4821898e-38
0.12834851 0.094358191 0.021214843 1.7402974e-38
0.12428606 0.044268407 0.028446138 1.4727888e-38
0.1244438 0.047295429 0.027352333 1.4176522e-38
0.1256704 0.049811266 0.026456535 1.334676e-38
0.12359284 0.068810336 0.024824917 9.1151032e-39
0.12465607 0.071793742 0.024244666 9.2065814e-39
0.12524855 0.075428352 0.023948073 1.0217139e-38
0.12530793 0.079872184 0.023790836 1.1322405e-38
0.12446009 0.083421387 0.02294147 1.1410272e-38
0.12465002 0.086443067 0.02207011 1.4633505e-38
0.1251899 0.095229611 0.02107054 2.2486617e-38
0.12354732 0.098653272 0.021526098 1.6757572e-38
0.12326418 0.10160799 0.021468043 6.7962149e-39
0.12086914 0.047609836 0.028692961 1.4913004e-38
0.12058395 0.051234215 0.027382493 1.353546e-38
0.12042645 0.055268295 0.026922464 1.2061423e-38
0.11993074 0.058971874 0.02642709 1.1050127e-38
0.1200238 0.06291873 0.026599228 9.9462918e-39
0.12108764 0.066978477 0.025884032 8.7466738e-39
0.12104096 0.083701551 0.023457825 1.1671774e-38
0.12184396 0.085994765 0.022672296 1.6383472e-38
0.11815478 0.048159018 0.029152513 1.3903179e-38
0.11724239 0.051592521 0.028900385 1.2336218e-38
0.11686218 0.055277497 0.02839911 1.0954002e-38
0.11677172 0.059073441 0.027257323 8.4708128e-39
0.11678718 0.062955774 0.02688241 6.5379317e-39
0.11687744 0.065616541 0.027216077 5.2471929e-39
0.1167962 0.083082691 0.024429917 1.2786769e-38
0.11355633 0.059758157 0.028595746 6.0741412e-39
0.11304539 0.063126698 0.028273582 4.4142485e-39
0.11240672 0.065723777 0.028072774 4.5986103e-39
0.11176804 0.081229657 0.026256263 1.657402e-38
0.11326739 0.082693525 0.02501142 1.7406248e-38
0.10874678 0.079962157 0.02666086 1.9704294e-38
0.11036466 0.082403138 0.025356174 2.1548948e-38
0.10558897 0.079253554 0.027295768 2.1361668e-38
0.10048479 0.077197365 0.028957129 2.1362757e-38
0.10218792 0.07887768 0.028415322 2.2284334e-38
0.095162503 0.064846516 0.031538963 1.8875255e-38
0.096120521 0.068696178 0.030870616 1.8319927e-38
0.096416831 0.072531298 0.030104876 1.8502169e-38
0.096729502 0.076141298 0.029087186 2.01617e-38
0.09196914 0.056532398 0.033201158 2.0071643e-38
0.092242852 0.05993744 0.032721639 1.9426292e-38
0.092596918 0.063603334 0.032079875 1.9058576e-38
0.092541397 0.068049595 0.030963957 1.8137335e-38
0.093464568 0.07217434 0.029925823 1.8131605e-38
0.08813709 0.052751668 0.034420192 2.0990365e-38
0.088775761 0.055963553 0.033893883 2.0348227e-38
0.08874435 0.059797302 0.033078015 1.9425583e-38
0.088681519 0.063588396 0.03193152 1.8873823e-38
0.089956999 0.067854427 0.031149209 1.7861111e-38
0.084943712 0.052344188 0.035092771 2.071667e-38
0.084914587 0.056018628 0.034296393 2.0348964e-38
0.08549282 0.059153408 0.033107221 1.9243334e-38
0.08079233 0.049377926 0.036272049 2.1083288e-38
0.081093423 0.052251279 0.035625696 2.071631e-38
0.081666395 0.055378214 0.034324467 2.0163508e-38
0.080431476 0.11286515 0.027882576 2.2767992e-38
0.077271231 0.048482895 0.036955357 2.0162788e-38
0.077473164 0.051503696 0.035830915 2.0255696e-38
0.07727962 0.11303802 0.028987646 2.1184546e-38
0.073599301 0.048907451 0.03729111 1.9519561e-38
0.074013516 0.051050313 0.036355734 1.9613183e-38
0.074651256 0.11290653 0.028489292 1.906368e-38
0.073375776 0.11422612 0.028572381 1.9808726e-38
0.06958244 0.049273133 0.037953854 1.8968885e-38
0.069549337 0.051157393 0.03721118 1.8875262e-38
0.070824824 0.11686529 0.028738558 1.9070096e-38
0.070041306 0.11966603 0.029566884 2.0266143e-38
0.065783486 0.049415201 0.039188623 1.7484053e-38
0.065404035 0.051579073 0.037965238 1.6008596e-38
0.065763906 0.11970064 0.03005296 1.4732577e-38
0.062590115 0.0494918 0.039800584 1.7123179e-38
0.061737828 0.05230996 0.039027274 1.6380974e-38
0.060620993 0.11839902 0.030532598 1.3999997e-38
0.062590115 0.11984476 0.030994773 1.4824388e-38
0.05836498 0.053573348 0.0399068 1.7772891e-38
0.058070034 0.055299707 0.038927019 1.9424128e-38
0.057456039 0.11793055 0.0317204 9.5711109e-39
0.059396744 0.11992136 0.031606734 1.2796122e-38
0.054606684 0.05387865 0.040805399 1.8232782e-38
0.053616323 0.055433899 0.040033638 1.9703931e-38
0.055123702 0.11651541 0.032522619 1.3621183e-38
0.049816623 0.054316267 0.041682899 1.7953662e-38
0.049141683 0.055513859 0.04063797 1.887416e-38
0.04786621 0.11612698 0.033299506 1.7407332e-38
0.045345895 0.054423504 0.042539656 1.7492308e-38
0.045146175 0.056577332 0.041722476 1.8135532e-38
0.04533568 0.11675018 0.034398317 1.6114457e-38
0.04279121 0.054484777 0.043029249 1.6937345e-38
0.041688919 0.057429448 0.042581975 1.7027389e-38
0.04064621 0.060052648 0.042065501 1.5464032e-38
0.041497782 0.11634584 0.034853756 1.5561983e-38
0.037681811 0.058479972 0.04352361 1.5554075e-38
0.037488505 0.060630411 0.042705655 1.4267999e-38
0.036386907 0.063553736 0.042114198 1.2704612e-38
0.036395676 0.1132769 0.036401987 1.7039589e-38
0.037662379 0.11508274 0.035416245 1.7038169e-38
0.034007475 0.061296366 0.043757975 1.2979056e-38
0.033835955 0.063614927 0.042603076 1.2980141e-38
0.033840567 0.11266129 0.036805391 1.9345217e-38
0.030337065 0.062206067 0.044486821 1.2152172e-38
0.029851899 0.064868562 0.043478251 1.288902e-38
0.029159181 0.068453401 0.042907715 1.3530752e-38
0.031284995 0.11007975 0.037283719 1.437245e-38
0.03044045 0.11259189 0.037817955 1.8514778e-38
0.02660954 0.065568276 0.044278324 1.1509671e-38
0.026183069 0.068586171 0.043470383 1.169228e-38
0.026503697 0.11383642 0.038257301 1.5470849e-38
0.022992298 0.066577598 0.045369208 9.4796033e-39
0.022354767 0.06954705 0.044665456 1.0034194e-38
0.023630992 0.11561571 0.039106965 1.5193885e-38
0.018706247 0.070884116 0.045371175 8.6509021e-39
0.017679885 0.073455043 0.044515967 9.4802928e-39
0.015117377 0.07491909 0.045686781 7.7246662e-39
0.013848081 0.077460498 0.045102596 7.3659366e-39
0.011047944 0.078789622 0.045725644 5.6077372e-39
0.010232374 0.082275726 0.045203626 5.9751016e-39
0.0096018612 0.086109042 0.044504344 5.7917431e-39
0.0096018612 0.088687018 0.044181705 5.700286e-39
0.0083027929 0.079193301 0.046649218 7.1682064e-39
0.0083027929 0.082420498 0.046245277 6.1562321e-39
0.007989347 0.086584672 0.045528531 6.6196919e-39
0.0062695891 0.089634754 0.045327544 1.2149591e-38
0.0044999272 0.10169929 0.043546021 7.7328722e-39
0.003832072 0.090918452 0.0460518 1.5282455e-38
0.0025547296 0.092885412 0.046054244 1.4912984e-38
0.0023521781 0.09713719 0.045219362 1.4365235e-38
0.0032244623 0.10301888 0.04362911 8.4019053e-40
0.0032244623 0.10430786 0.04346776 2.7673178e-39
0 0.098110206 0.045897484 1.4458162e-38
0.16033229 0.058847696 0.023711145 1.9425936e-38
0.15981837 0.062495649 0.02335459 1.8784866e-38
0.15596387 0.051551364 0.025474668 2.0902508e-38
0.15682691 0.054744676 0.024613738 2.0164221e-38
0.1571634 0.058612004 0.023901343 1.9427372e-38
0.15707767 0.062451676 0.022981167 1.9244028e-38
0.15708834 0.066998526 0.022467017 1.9519201e-38
0.15705596 0.071515881 0.021736741 2.0166734e-38
0.15718488 0.075496018 0.021897912 2.0811358e-38
0.15647781 0.079195812 0.021914482 2.0166706e-38
0.15210938 0.04839772 0.026619613 2.0720975e-38
0.152509 0.051064275 0.025834858 2.0718824e-38
0.1523791 0.054659761 0.023730457 1.9979842e-38
0.1527731 0.058182925 0.022642493 1.9795073e-38
0.15325062 0.062135428 0.021891952 2.0163848e-38
0.15240116 0.067125753 0.02128607 2.1086519e-38
0.15225455 0.071403958 0.020974517 2.209852e-38
0.15228617 0.075306691 0.020651042 2.2195742e-38
0.15251991 0.079367265 0.021380305 2.0442962e-38
0.15265934 0.08336594 0.021622539 1.9797229e-38
0.15146697 0.087366328 0.021867096 1.9613572e-38
0.15125284 0.090401158 0.0215289 2.0260706e-38
0.1482549 0.047840953 0.027439535 2.0998282e-38
0.14813471 0.051018834 0.026380837 2.0258931e-38
0.14775455 0.054684579 0.023829043 1.9428806e-38
0.14899328 0.068204626 0.0216676 1.9704678e-38
0.14899328 0.071436547 0.021263063 2.0258562e-38
0.14899328 0.074022084 0.020939469 2.0630565e-38
0.14848161 0.079463996 0.020357907 1.9798662e-38
0.14818314 0.083364084 0.020514488 1.9613568e-38
0.14799534 0.087220892 0.021078408 1.9613208e-38
0.14802715 0.091120705 0.021681726 2.0167083e-38
0.14697006 0.094615608 0.02183497 2.0812088e-38
0.14440042 0.047933407 0.028178155 2.0995062e-38
0.14416753 0.051042274 0.026465833 2.0072739e-38
0.1438764 0.054753274 0.024347186 1.8967479e-38
0.14424191 0.087248445 0.020208836 1.7955492e-38
0.14412975 0.091183126 0.021220803 1.7864362e-38
0.14395927 0.095078722 0.021923184 1.8327147e-38
0.14354385 0.098376706 0.022031069 1.7865088e-38
0.14047122 0.047333568 0.02856195 2.1179448e-38
0.14015228 0.051033914 0.026221871 1.9891209e-38
0.14022152 0.054471582 0.025093913 1.8874917e-38
0.14131798 0.088426657 0.020630419 1.5560534e-38
0.14027034 0.091454178 0.020748675 1.4732593e-38
0.14037687 0.095253006 0.022011995 1.5376889e-38
0.14048958 0.099257678 0.022173166 1.5744589e-38
0.13620819 0.044462942 0.029180646 2.1551093e-38
0.13661382 0.047014222 0.027022779 2.1273436e-38
0.1368407 0.049750954 0.02634275 1.9615007e-38
0.13645694 0.091904461 0.021141231 1.5657009e-38
0.1362011 0.095013246 0.020801902 1.4274136e-38
0.13656473 0.099273354 0.022478998 1.2249068e-38
0.13643447 0.10252912 0.022895098 1.2340847e-38
0.13256638 0.043509331 0.029275656 2.1000816e-38
0.13236344 0.09575168 0.02145642 1.1873083e-38
0.13264361 0.099289536 0.022783875 9.8501627e-39
0.13279159 0.10297332 0.023255289 9.7586761e-39
0.12834004 0.041177213 0.032149732 1.7953336e-38
0.12911247 0.042664729 0.030530214 1.7862565e-38
0.12852579 0.096490115 0.022110939 1.4904295e-38
0.12876301 0.099344008 0.023304284 1.1136559e-38
0.12893173 0.1021299 0.02406323 1.0403655e-38
0.12478305 0.040688816 0.032287419 1.6016815e-38
0.12508218 0.042645805 0.030033946 1.5188153e-38
0.12340891 0.072696604 0.026085019 7.7221523e-39
0.12394583 0.076451264 0.027050257 8.2785602e-39
0.12380109 0.079546936 0.025664508 1.0399042e-38
0.12557372 0.099547043 0.023124158 1.2418275e-38
0.12594359 0.10305438 0.023844838 8.6487314e-39
0.12120299 0.040653892 0.033091187 1.5096327e-38
0.12091273 0.043710247 0.030655146 1.4729348e-38
0.11957125 0.046286866 0.030137599 1.4728996e-38
0.12022282 0.068639055 0.028239489 7.2697487e-39
0.12167311 0.071872696 0.028784215 6.4371658e-39
0.12255831 0.076373771 0.028869689 7.4477444e-39
0.12135524 0.080562651 0.027846336 8.6484246e-39
0.12035187 0.082616776 0.02646482 8.9131284e-39
0.11802709 0.040752716 0.033953547 1.4270871e-38
0.11725247 0.043923862 0.032709479 1.3532957e-38
0.11668547 0.047492221 0.030841708 1.2520959e-38
0.11573359 0.050903618 0.030306637 1.1689059e-38
0.11739321 0.068367727 0.029465795 4.8780601e-39
0.11741899 0.081690803 0.029204428 8.7323399e-39
0.11701281 0.082545795 0.026097119 1.0291411e-38
0.11484933 0.045396119 0.034247458 9.6625106e-39
0.11428276 0.047966585 0.033625424 8.4686408e-39
0.11356124 0.051949389 0.032394886 9.1155054e-39
0.1133177 0.055609375 0.03132844 8.7488752e-39
0.11253555 0.058736943 0.029948652 6.9928591e-39
0.11445437 0.066447534 0.028610051 3.7727943e-39
0.11312509 0.08054658 0.028746367 1.2232883e-38
0.11099484 0.053279221 0.034011006 8.7416838e-39
0.11099484 0.055876099 0.033685923 8.0077215e-39
0.10980356 0.060086846 0.032657683 7.0839645e-39
0.11007269 0.063023351 0.031739116 5.8879352e-39
0.11099484 0.066263616 0.032385767 5.9786819e-39
0.10842519 0.073466673 0.031984329 8.2677576e-39
0.10915913 0.076985426 0.030374646 1.3988867e-38
0.11004013 0.079553813 0.028342009 1.666326e-38
0.10457069 0.057328627 0.034754515 1.6300236e-38
0.10585552 0.06054391 0.034101963 1.242515e-38
0.10581663 0.063750044 0.033366203 1.1226983e-38
0.10570691 0.068125531 0.032902002 1.0767426e-38
0.10560672 0.072944224 0.031828582 1.371552e-38
0.10549985 0.076358095 0.029112458 1.8234899e-38
0.1007162 0.052227318 0.036143243 1.8138767e-38
0.1014871 0.056623526 0.035442948 1.6571805e-38
0.10200105 0.05998715 0.034921944 1.4913361e-38
0.10191341 0.063788712 0.033664882 1.4175098e-38
0.10185106 0.068257533 0.032547355 1.6295584e-38
0.10173831 0.072659798 0.030991793 1.7580933e-38
0.10191803 0.07566835 0.029895961 1.9151868e-38
0.097798973 0.045456424 0.037301958 1.9603856e-38
0.097564802 0.048415996 0.036114037 1.8319217e-38
0.097284086 0.052088633 0.034690201 1.7674914e-38
0.09727563 0.055964336 0.034121215 1.7306868e-38
0.097302288 0.059875354 0.033883095 1.721432e-38
0.097379223 0.063529633 0.032485425 1.850503e-38
0.098144338 0.067485139 0.031654716 1.8321706e-38
0.099103749 0.072633207 0.030823588 1.8225586e-38
0.099103749 0.075218745 0.030499995 1.8510445e-38
0.094207272 0.045161806 0.037439108 1.8964228e-38
0.093201891 0.048277572 0.035705149 1.868729e-38
0.092707664 0.052102305 0.034638286 1.8963506e-38
0.09321934 0.055451229 0.034119546 1.9425196e-38
0.093986869 0.059181854 0.033503175 1.9150073e-38
0.089736469 0.045289569 0.038507164 2.0529758e-38
0.089164674 0.048218958 0.036224604 2.0620866e-38
0.089381687 0.051664971 0.035340369 2.0807759e-38
0.085026883 0.045088284 0.039064169 2.1819414e-38
0.085032344 0.048408091 0.03659457 2.0716286e-38
0.085032344 0.050993636 0.036270976 2.0717009e-38
0.081443764 0.042302072 0.041136682 2.1547126e-38
0.0813054 0.044743732 0.039147258 2.1173702e-38
0.081450529 0.047718346 0.037378073 2.0715228e-38
0.081388414 0.11488511 0.031378269 2.3316832e-38
0.078874104 0.042363711 0.041629076 2.1264465e-38
0.077425435 0.044794872 0.039439857 2.0715963e-38
0.077357031 0.11323069 0.029974878 2.1004821e-38
0.077171311 0.11519627 0.031561375 2.2764765e-38
0.072879761 0.047406815 0.039085269 1.9518843e-38
0.073833428 0.11631872 0.031095445 2.1280623e-38
0.072854936 0.11948149 0.032805979 2.2752541e-38
0.069799185 0.045061663 0.041803181 1.9334804e-38
0.069681719 0.047483519 0.039698064 1.9152568e-38
0.069747917 0.12072931 0.031543791 1.9802664e-38
0.068595469 0.12311353 0.033522546 1.9342395e-38
0.066025808 0.042671889 0.044091284 1.8138381e-38
0.065931357 0.045122787 0.042206287 1.8230253e-38
0.065844059 0.047575578 0.040433526 1.8416062e-38
0.065926105 0.121536 0.032528937 1.5283279e-38
0.066006243 0.12310638 0.033685267 1.5837519e-38
0.062079079 0.045204476 0.042831719 1.7679248e-38
0.061494723 0.048455559 0.041169882 1.7031709e-38
0.061753929 0.12129572 0.033285439 1.408936e-38
0.062813729 0.12325221 0.034630537 1.4270875e-38
0.05872041 0.045828678 0.044604778 1.6299185e-38
0.058200829 0.049117528 0.04241246 1.5926099e-38
0.057848945 0.05196885 0.041439772 1.6753693e-38
0.058020756 0.12086718 0.035040796 1.0857176e-38
0.054710194 0.046300001 0.04563427 1.463677e-38
0.054423042 0.049352415 0.044600964 1.5924295e-38
0.054075249 0.052253284 0.042138636 1.71214e-38
0.053549327 0.11758281 0.035774767 1.6481377e-38
0.055104755 0.11954179 0.036595404 1.3533661e-38
0.05060786 0.046937026 0.046558321 1.5188485e-38
0.050578818 0.049455754 0.045450449 1.6845155e-38
0.050506771 0.052502759 0.043144107 1.7119609e-38
0.050578088 0.11741422 0.03692162 1.804981e-38
0.046709061 0.050141066 0.045547605 1.6843355e-38
0.046676859 0.052629232 0.044215977 1.6750823e-38
0.046655782 0.1178454 0.035372853 1.7219355e-38
0.04672084 0.1195408 0.037200928 1.7773952e-38
0.042880319 0.050949752 0.046875894 1.7578411e-38
0.042381935 0.053317949 0.045949399 1.6843362e-38
0.040899299 0.055930525 0.044242918 1.6478537e-38
0.042818122 0.11793746 0.036108255 1.5837842e-38
0.04288093 0.12034918 0.038189292 1.6113699e-38
0.038770758 0.054146454 0.047138751 1.6383137e-38
0.037701249 0.056653611 0.04477483 1.6293804e-38
0.038507119 0.11736588 0.03886646 1.6761958e-38
0.040329225 0.1198962 0.039426863 1.5928205e-38
0.036457174 0.054959491 0.047281981 1.6203052e-38
0.034088336 0.057909451 0.046176314 1.4542807e-38
0.032584362 0.060008273 0.045350909 1.2885759e-38
0.03452675 0.11649464 0.03944236 2.007848e-38
0.031587973 0.057995521 0.04846555 1.3623356e-38
0.030025944 0.060716026 0.045760274 1.1875538e-38
0.029386342 0.11438131 0.039167702 1.8330734e-38
0.031067088 0.11676565 0.040389776 1.9985923e-38
0.028765753 0.059146889 0.049281299 1.1782656e-38
0.026620209 0.06162449 0.04790616 1.0953978e-38
0.025335461 0.064491376 0.046200633 1.0862507e-38
0.02690503 0.11688213 0.04082036 1.6206262e-38
0.023413554 0.061773352 0.049139023 9.3873853e-39
0.022348017 0.065290615 0.04736644 9.1100936e-39
0.021071404 0.068041041 0.046586275 9.1179731e-39
0.023626432 0.11769997 0.042952716 1.5100268e-38
0.021056771 0.063227117 0.050271034 8.1917162e-39
0.019562602 0.065776765 0.049558461 7.0857372e-39
0.020424485 0.11877489 0.041901767 1.0956477e-38
0.018934697 0.12104882 0.041222811 9.3916915e-39
0.014780089 0.070725307 0.049117208 6.5285949e-39
0.013822466 0.073816918 0.047274232 6.7105059e-39
0.010970175 0.07157404 0.05074966 7.8204099e-39
0.010832801 0.074780263 0.047963679 6.8938041e-39
0.010198042 0.077351242 0.047537327 6.8905503e-39
0.0082084835 0.071975157 0.05167681 1.0677743e-38
0.0077439398 0.075217932 0.049308479 9.846553e-39
0.0073197782 0.078389861 0.047967553 1.0124882e-38
0.0063512772 0.082664318 0.047963142 1.2978255e-38
0.0062324405 0.086237192 0.047196984 1.3255925e-38
0.0044220984 0.082760327 0.048668861 1.5191373e-38
0.0044220984 0.086639896 0.048183262 1.5283944e-38
0.0044415593 0.089124247 0.047184169 1.5375788e-38
0.043517046 0.10388248 0.027011037 9.3884629e-39
0.040318601 0.080673955 0.031450868 1.4635343e-38
0.075872004 0.09137737 0.022136211 1.712893e-38
0.038652636 0.092945397 0.030616999 1.2060703e-38
0.01728341 0.077797256 0.041198432 1.058557e-38
0.069158688 0.084284082 0.0298208 1.3348179e-38
0.067202933 0.077284314 0.030539095 1.2981563e-38
0.064127013 0.085771576 0.030021489 1.2612792e-38
0.062336288 0.08149045 0.031532824 1.2150739e-38
0.020232275 0.10081819 0.036011934 8.650165e-39
0.11957125 0.046286866 0.030137599 1.4728996e-38
0.083769567 0.072429366 0.033667743 1.0032763e-38
0.085269079 0.068737313 0.033608973 9.5717836e-39
0.082399294 0.067483276 0.03384167 1.0765652e-38
0.080989867 0.072094299 0.034044564 8.2781707e-39
0.078683168 0.071331836 0.034665704 8.1913518e-39
0.076230466 0.077416919 0.03413707 1.030863e-38
0.12421128 0.069644459 0.027793646 1.5742061e-38
0.12090172 0.06853611 0.028347492 1.8137687e-38
0.11979102 0.064878672 0.029022336 1.7122839e-38
0.14260072 0.047814682 0.031318545 2.1825161e-38
0.1227994 0.068825826 0.030413747 1.9243693e-38
0.10149553 0.080089197 0.032766461 1.7585964e-38
0.091071174 0.078385338 0.03486371 1.7401935e-38
0.11199111 0.07663393 0.031355739 1.749484e-38
0.11691012 0.07953719 0.030982137 1.7585602e-38
0.11577594 0.082816243 0.030821621 1.7496283e-38
0.1149077 0.086369142 0.031008482 1.7681403e-38
0.12089113 0.08373341 0.031107843 1.7954407e-38
0.15772159 0.047208562 0.028185189 2.1918819e-38
0.15800361 0.050878592 0.027214766 2.1268786e-38
0.158924 0.054949202 0.026526034 2.0165652e-38
