# .PCD v0.7 - Point Cloud Data file format
VERSION 0.7
FIELDS x y z rgb
SIZE 4 4 4 4
TYPE F F F F
COUNT 1 1 1 1
WIDTH 979
HEIGHT 1
VIEWPOINT 0 0 0 0 1 0 0
POINTS 979
DATA ascii
0.021690764 0.12005936 0.042867661 1.4637482e-38
0.022146046 0.12412447 0.044532418 1.4084318e-38
0.022655152 0.12752973 0.045699358 1.3625161e-38
0.023078173 0.12995167 0.047819316 1.3441105e-38
0.019613683 0.080301642 0.037357628 1.5188507e-38
0.018671885 0.083745718 0.036092162 1.4079979e-38
0.017400257 0.11630851 0.042769134 1.6199424e-38
0.018899776 0.11908554 0.04414469 1.5187788e-38
0.019214027 0.12348996 0.046740174 1.3900282e-38
0.020277113 0.12730013 0.047712564 1.325601e-38
0.021138966 0.1298894 0.048116744 1.30734e-38
0.017260581 0.081094593 0.038520813 1.5278916e-38
0.01492355 0.084274232 0.038231075 1.3435689e-38
0.014182366 0.086875498 0.037121475 1.2149632e-38
0.01353877 0.1123589 0.042560279 1.3997886e-38
0.014547631 0.1156231 0.043495893 1.4270151e-38
0.015662968 0.11842406 0.046204865 1.4363061e-38
0.017260581 0.12272048 0.047236502 1.3807745e-38
0.012089372 0.084770918 0.040118337 1.4810354e-38
0.011327915 0.088192359 0.039060712 1.2514471e-38
0.010282345 0.091687277 0.039442837 8.8331339e-39
0.0096773282 0.095657259 0.039681375 7.4523393e-39
0.0096773282 0.099482864 0.040482402 6.8116502e-39
0.0096773282 0.10394609 0.041416943 9.7601293e-39
0.010516137 0.10751259 0.042374074 1.2246171e-38
0.010913484 0.11080672 0.04357475 1.2985163e-38
0.010857955 0.11442555 0.045375705 1.2891175e-38
0.011442989 0.11677009 0.046921909 1.261459e-38
0.0066108555 0.08817932 0.041450441 1.1871578e-38
0.0070208684 0.091418803 0.040598035 9.0171496e-39
0.0070888996 0.095521405 0.040297091 7.6377927e-39
0.0070196167 0.099086136 0.042203665 6.8120187e-39
0.0070208833 0.10292049 0.043006301 9.6664889e-39
0.0069729537 0.10657804 0.044584155 1.1417495e-38
0.0075645745 0.10992137 0.046108723 1.2155771e-38
0.0082109869 0.11282392 0.046613038 1.2616386e-38
0.0027502179 0.08811745 0.041797042 1.1506392e-38
0.0031369328 0.091240108 0.041412175 9.8465418e-39
0.0031369328 0.095076069 0.042215347 8.6501566e-39
0.0031070337 0.098804817 0.043460488 8.2849852e-39
0.0032270104 0.10305111 0.042491913 9.4831767e-39
0.0031518862 0.10662933 0.044402242 1.0124254e-38
0.002716586 0.1091253 0.046718121 1.0675623e-38
0.00027443469 0.091602847 0.041371882 9.6632281e-39
0 0.09526743 0.041493595 8.9277958e-39
0.00052520633 0.098721892 0.043856502 8.3768011e-39
2.3670495e-05 0.1029985 0.042763889 8.8363443e-39
9.5568597e-05 0.10639423 0.044290781 9.6643197e-39
0.05018916 0.093705758 0.0095193386 1.60197e-38
0.10642538 0.11546764 0.008520782 1.426837e-38
0.13157481 0.11876602 0.0074260831 1.5650213e-38
0.13099954 0.11838485 0.0074383616 1.5832817e-38
0.10738611 0.12180041 0.011205792 8.1913771e-39
0.10697362 0.12452522 0.012570143 9.2040758e-39
0.10420066 0.11745013 0.011475205 8.8356436e-39
0.12457881 0.11494978 0.011304438 1.6480331e-38
0.127542 0.11628187 0.01307708 1.6481787e-38
0.12609577 0.1231845 0.012836397 1.5284664e-38
0.10421003 0.11627278 0.015145481 1.5835326e-38
0.13795429 0.113032 0.011926174 1.56513e-38
0.10081269 0.11737746 0.022561789 1.4640744e-38
0.090939894 0.10654207 0.021251261 1.4270152e-38
0.028303199 0.10410766 0.028989315 1.011382e-38
0.082467757 0.12853639 0.033379138 1.4737261e-38
0.097371846 0.10907957 0.0055645108 1.5923574e-38
0.010913484 0.11080672 0.04357475 1.2985163e-38
0.15815973 0.069121271 0.017595232 2.2584699e-38
0.15887335 0.071732908 0.017381489 2.2771606e-38
0.15978934 0.074875742 0.016470909 2.2957436e-38
0.15903163 0.15095779 0.033211946 2.276656e-38
0.15750957 0.15283692 0.035227954 2.2665365e-38
0.1539588 0.068290532 0.017946064 2.2570661e-38
0.15446346 0.071139246 0.017058253 2.2572823e-38
0.15589964 0.15182237 0.033204913 2.2576046e-38
0.15410726 0.15417534 0.035018682 2.2753256e-38
0.15230826 0.15653467 0.036834836 2.2014954e-38
0.14840728 0.064943358 0.018281639 2.3025506e-38
0.14951441 0.067291021 0.0172171 2.3113744e-38
0.14948954 0.1547493 0.035360992 2.2478093e-38
0.14905745 0.15643029 0.037333369 2.1829123e-38
0.14571378 0.064404786 0.0179106 2.3113755e-38
0.14552715 0.066710621 0.017044365 2.320307e-38
0.14648533 0.15484072 0.036033392 2.2108593e-38
0.14544708 0.15667525 0.037703991 2.1279189e-38
0.14172718 0.064469129 0.01787281 2.3111945e-38
0.14198439 0.15774903 0.038095355 2.0536234e-38
0.13781202 0.064391345 0.018310964 2.2927552e-38
0.13783373 0.15820582 0.038122952 1.9432745e-38
0.13865484 0.15996101 0.03973788 1.7963733e-38
0.13345355 0.060598433 0.019765675 2.292577e-38
0.13400075 0.063218385 0.019364834 2.2835006e-38
0.13401207 0.1583162 0.03936106 1.8972497e-38
0.12984881 0.060233921 0.020007789 2.3020468e-38
0.13004681 0.062807992 0.019394755 2.2745319e-38
0.13000809 0.15864763 0.039123416 1.8234559e-38
0.12890241 0.15964787 0.04123348 1.7956537e-38
0.12628284 0.059772909 0.020568311 2.2928641e-38
0.12615307 0.062040687 0.019857466 2.2835001e-38
0.12611526 0.15852264 0.039720416 1.7865423e-38
0.12630175 0.15956435 0.041632354 1.8048717e-38
0.12218501 0.059400186 0.021023154 2.2928638e-38
0.12283731 0.062128469 0.019717157 2.2469096e-38
0.12225256 0.15784438 0.040472567 1.814309e-38
0.12240077 0.15943909 0.042230606 1.8418597e-38
0.11829966 0.059094563 0.021488726 2.2102839e-38
0.11834946 0.15760575 0.04094404 1.7775734e-38
0.11849979 0.15931383 0.042828798 1.8236345e-38
0.11472587 0.058979809 0.022036791 1.8509743e-38
0.1144724 0.157456 0.041705608 1.8051261e-38
0.1106597 0.059071973 0.022651672 1.3531861e-38
0.11041044 0.15702119 0.042461872 1.9250863e-38
0.1067552 0.059243605 0.023238778 1.4637852e-38
0.10671356 0.15651348 0.043095052 1.8328548e-38
0.10284348 0.059810996 0.0238114 1.5560548e-38
0.10233366 0.062229618 0.023365378 1.4361252e-38
0.10144402 0.06657964 0.02407378 1.2886142e-38
0.10144402 0.074286789 0.025687516 1.0580152e-38
0.10276584 0.15391743 0.042493939 1.501455e-38
0.10285705 0.15566853 0.044052482 1.7316914e-38
0.10029522 0.063398466 0.025659978 1.2611692e-38
0.099138968 0.06616962 0.026166737 1.1135508e-38
0.098970257 0.069889963 0.026886463 1.0029529e-38
0.098954052 0.073812932 0.027480721 7.0882427e-39
0.098733127 0.077725559 0.027487814 4.0461554e-39
0.098580763 0.15339646 0.043485761 1.4458881e-38
0.098958895 0.15554336 0.044650316 1.6855963e-38
0.096394241 0.067137957 0.027067423 9.757265e-39
0.096394241 0.069714457 0.027606964 9.2969861e-39
0.096394241 0.072290987 0.028146386 8.102368e-39
0.096394241 0.077444002 0.02922529 2.8508562e-39
0.096394241 0.080020517 0.029764771 2.6646657e-39
0.094312936 0.14984481 0.042649627 1.2153296e-38
0.094831854 0.15251206 0.043642163 1.4179396e-38
0.095082529 0.15536714 0.045578599 1.7498077e-38
0.091071531 0.14909846 0.043012261 1.5192463e-38
0.091111988 0.15220571 0.044345856 1.6572879e-38
0.091192938 0.15457222 0.046207309 1.7493778e-38
0.087505981 0.14930511 0.043626249 1.7775373e-38
0.087218553 0.15208068 0.044942915 1.8234574e-38
0.087291956 0.15444696 0.046805561 1.8325696e-38
0.082090646 0.077628836 0.031553745 2.2004151e-38
0.082090646 0.080205351 0.032093227 2.2556993e-38
0.082643874 0.14947012 0.044439137 1.7035319e-38
0.083329968 0.15193817 0.045650482 1.7589212e-38
0.084041134 0.15434259 0.047304034 1.8142028e-38
0.078839839 0.074303821 0.031377912 2.2371856e-38
0.079451717 0.077136353 0.030953765 2.2002719e-38
0.079251803 0.081055149 0.030915797 2.2837161e-38
0.079402454 0.14936604 0.04493624 1.6204494e-38
0.079644233 0.15137117 0.046647072 1.69442e-38
0.075245351 0.074001744 0.031372964 2.273956e-38
0.07480517 0.077052593 0.030875742 2.2187117e-38
0.074648395 0.080277175 0.031231284 2.2836134e-38
0.074994162 0.14896756 0.045558572 1.5562343e-38
0.075381741 0.15121162 0.047443688 1.62974e-38
0.071671791 0.073564947 0.031853557 2.2094206e-38
0.07142292 0.076614022 0.031497717 2.1541406e-38
0.070002384 0.14874306 0.046310544 1.4175803e-38
0.071671791 0.15080521 0.048026323 1.4361664e-38
0.067778111 0.072750658 0.03247869 2.0618696e-38
0.067760229 0.07614845 0.032503664 2.1173711e-38
0.06669616 0.14818731 0.046723545 1.4727194e-38
0.06777364 0.15068004 0.048624158 1.4082195e-38
0.063886076 0.069958881 0.032861948 2.0064093e-38
0.063881151 0.072595432 0.033184946 1.9790736e-38
0.064128444 0.075849414 0.033229172 2.1638976e-38
0.06254714 0.14497122 0.046714246 1.5468341e-38
0.062990479 0.14746371 0.047739685 1.5744203e-38
0.063886084 0.14983064 0.04958576 1.6113003e-38
0.060310185 0.072742641 0.034017265 2.0251718e-38
0.059725039 0.075493589 0.034686923 2.0714044e-38
0.058225289 0.14397609 0.047197759 1.4822973e-38
0.059324466 0.14723203 0.04899621 1.6114425e-38
0.060635261 0.14972627 0.050084233 1.6482482e-38
0.057384454 0.07361488 0.034668267 2.2560912e-38
0.055430897 0.076261744 0.035018086 2.3024388e-38
0.054953001 0.14380985 0.047686815 1.5005573e-38
0.05542995 0.14674377 0.049775958 1.574528e-38
0.050556906 0.072633505 0.034780085 2.3210268e-38
0.052178897 0.075648129 0.034893155 2.3115197e-38
0.0508781 0.14395425 0.048369348 1.5377226e-38
0.050881155 0.1463311 0.050072968 1.5193197e-38
0.046116672 0.069051042 0.035171628 2.1272728e-38
0.046986841 0.071070552 0.034421086 2.2005262e-38
0.046772316 0.14360833 0.048954189 1.4918043e-38
0.046986669 0.14570062 0.049702644 1.4825156e-38
0.043093391 0.069016889 0.034614325 1.749484e-38
0.044395268 0.071170419 0.034167409 1.9424129e-38
0.042450428 0.14047235 0.048989356 1.4178678e-38
0.043093547 0.14296812 0.049983561 1.4456337e-38
0.043086179 0.14540896 0.051300108 1.4364866e-38
0.039179884 0.066589043 0.036111414 1.5652344e-38
0.039209031 0.13972598 0.04935199 1.408396e-38
0.039191008 0.14272916 0.051247656 1.3625123e-38
0.040480211 0.14521432 0.052365959 1.3903166e-38
0.035291038 0.067919016 0.036391854 1.3253492e-38
0.034022771 0.070837349 0.035758078 1.1499602e-38
0.034671046 0.13636896 0.049375474 1.5282506e-38
0.035149693 0.13904874 0.050247788 1.445346e-38
0.035470158 0.14215803 0.052232504 1.3529347e-38
0.032028086 0.068935916 0.037747622 1.1867294e-38
0.030979276 0.071413234 0.037055254 1.1866883e-38
0.030133091 0.074566036 0.037161469 1.3442431e-38
0.031240471 0.13531563 0.049851954 1.4454552e-38
0.031574748 0.13819513 0.051878631 1.4268692e-38
0.028777272 0.072052166 0.038920462 1.5742694e-38
0.027331688 0.07520172 0.038481772 1.8503567e-38
0.026675574 0.13183048 0.049705148 1.4544576e-38
0.027518533 0.13473469 0.050867736 1.445311e-38
0.027476944 0.13706724 0.052741706 1.4267994e-38
0.023782149 0.075632319 0.039878726 1.8412116e-38
0.023643769 0.13148817 0.050291121 1.3624063e-38
0.023761503 0.13432446 0.052115738 1.3993215e-38
0.024226114 0.13696286 0.05324018 1.4087227e-38
0.020975307 0.07631053 0.041061044 1.5466177e-38
0.019046232 0.077668548 0.041137099 1.5372906e-38
0.018788151 0.12718841 0.04999578 1.2979785e-38
0.019565709 0.1307669 0.051396132 1.2704269e-38
0.020541869 0.1334092 0.053085983 1.2887591e-38
0.01582244 0.079625815 0.041545928 1.5924975e-38
0.014574327 0.081773579 0.041161239 1.5474022e-38
0.015006505 0.11989506 0.049074054 1.3719134e-38
0.015500449 0.12309162 0.049664319 1.3347844e-38
0.015843786 0.12666638 0.050932407 1.2796492e-38
0.01597999 0.12996939 0.052652717 1.2153974e-38
0.013173372 0.079924777 0.04306674 1.813189e-38
0.011656247 0.082399637 0.04300046 1.7674856e-38
0.010628685 0.085248262 0.043554604 1.5462216e-38
0.011962794 0.11887345 0.049692154 1.2614954e-38
0.011956558 0.12270649 0.050610602 1.2521672e-38
0.011926711 0.12645483 0.051974773 1.1600463e-38
0.012523189 0.12885755 0.053416491 1.1139472e-38
0.0082556307 0.083217949 0.044129789 1.758023e-38
0.0080812648 0.086018875 0.043261886 1.4452377e-38
0.0067949519 0.10978335 0.048271298 1.1971382e-38
0.0072889477 0.11382559 0.049452245 1.1969586e-38
0.0080412775 0.11800301 0.050654709 1.2245799e-38
0.0081714615 0.12223959 0.052081048 1.19696e-38
0.0086222142 0.12551166 0.053340375 1.1140192e-38
0.0040710792 0.083497241 0.045271933 1.5375062e-38
0.0039298162 0.085748732 0.043904424 1.3438222e-38
0.0042018369 0.11034234 0.048803508 1.1417127e-38
0.004158251 0.11341208 0.050142646 1.1322766e-38
0.004224956 0.11757791 0.051819026 1.1597913e-38
0.0053714067 0.1208984 0.052894831 1.2520588e-38
0.00089034438 0.083649173 0.044778705 1.1877742e-38
0.00096041709 0.085190028 0.044055879 1.159901e-38
0.00074432045 0.11044541 0.049378514 1.058305e-38
0.00091368705 0.11330789 0.050640225 1.0581604e-38
0.0011976659 0.11673266 0.051915109 1.0399704e-38
0.054649837 0.099874198 0.0098382235 1.4635004e-38
0.093492359 0.10597882 0.010672629 1.6114047e-38
0.08527834 0.096985966 0.0098516941 1.823025e-38
0.083386756 0.093748197 0.0084079504 2.3304248e-38
0.14285401 0.10319868 0.0064975619 1.6938428e-38
0.1256381 0.10176656 0.009231329 1.6294517e-38
0.12693135 0.11777399 0.013293326 1.5837475e-38
0.13122763 0.11875005 0.013651371 1.6574331e-38
0.11881278 0.13018784 0.01392889 1.4824781e-38
0.10377225 0.11291179 0.0207147 1.4271598e-38
0.10585079 0.094189078 0.0098085999 1.6481051e-38
0.081935249 0.11464764 0.020003438 1.547014e-38
0.084658653 0.11335918 0.030033171 1.538083e-38
0.069256753 0.13195463 0.035675704 1.6575405e-38
0.070272915 0.10505982 0.03193301 9.9416493e-39
0.1587902 0.064126328 0.02058512 2.2580739e-38
0.15935889 0.066852987 0.019292116 2.267654e-38
0.15942948 0.15389222 0.038114786 2.2659592e-38
0.1587902 0.15612185 0.039847374 2.0445766e-38
0.15458134 0.063255191 0.020616829 2.2572102e-38
0.15495393 0.066387147 0.019604266 2.2482784e-38
0.15586679 0.15504649 0.038021863 2.2757901e-38
0.15447798 0.1570195 0.039986908 2.0723483e-38
0.14996219 0.059631795 0.021057189 2.2660343e-38
0.15032519 0.062649429 0.020726025 2.2842568e-38
0.15028907 0.15771197 0.040211558 2.0816038e-38
0.14665715 0.059598982 0.021320879 2.2749659e-38
0.14613271 0.061614037 0.020361662 2.2932604e-38
0.14634693 0.15809995 0.040185094 2.0446891e-38
0.14614971 0.16079298 0.042461038 1.7867917e-38
0.1421272 0.05930315 0.02182889 2.2931878e-38
0.14221917 0.06148836 0.020961821 2.3205222e-38
0.14229324 0.1609402 0.042348027 1.823779e-38
0.14113419 0.16332918 0.044182837 1.6577889e-38
0.13843316 0.059133127 0.022108972 2.3112672e-38
0.1383044 0.061362654 0.021562219 2.3201992e-38
0.1381484 0.16122295 0.042742312 1.7775741e-38
0.13917241 0.16326618 0.044483662 1.676371e-38
0.13447243 0.058241427 0.022211611 2.3022269e-38
0.13565341 0.061374664 0.021644354 2.311016e-38
0.13447212 0.16067286 0.043658972 1.7958695e-38
0.12936351 0.054759294 0.023334444 2.2931509e-38
0.1307689 0.057680503 0.022273242 2.311338e-38
0.13070302 0.16073176 0.044145226 1.8051958e-38
0.13067135 0.16299322 0.045787394 1.7867936e-38
0.12674779 0.055323154 0.023871183 2.3205215e-38
0.12652478 0.057205588 0.022232711 2.3114804e-38
0.12658054 0.16113904 0.044502735 1.7864315e-38
0.12655666 0.16403086 0.046404779 1.7864323e-38
0.12609386 0.16673337 0.047303259 1.7958675e-38
0.12278958 0.055295661 0.024154365 2.2931871e-38
0.12326454 0.057100907 0.022732675 2.3113378e-38
0.12264778 0.16103709 0.044938505 1.823385e-38
0.12277717 0.16409928 0.046822965 1.8418242e-38
0.12347817 0.16664937 0.047704399 1.8418584e-38
0.11886727 0.055169716 0.024755895 2.2931867e-38
0.12000432 0.056996226 0.023232698 2.2840382e-38
0.11880023 0.16033106 0.046096146 1.832712e-38
0.12020852 0.16265725 0.047391891 1.8696271e-38
0.11488254 0.054917514 0.024651468 2.0353633e-38
0.11348387 0.05678685 0.024232626 1.7310466e-38
0.11506918 0.15985087 0.046851277 1.8602984e-38
0.11099365 0.055016488 0.025639534 1.4083271e-38
0.11087569 0.056703091 0.024632633 1.3989638e-38
0.1109788 0.15924601 0.047293246 1.9064305e-38
0.10778392 0.054714233 0.026779473 1.482224e-38
0.10704671 0.056283221 0.026191771 1.5097756e-38
0.10708836 0.15907151 0.04822433 1.9062505e-38
0.10386036 0.054588228 0.027381182 1.6575037e-38
0.10338924 0.056941688 0.026915252 1.6573953e-38
0.10310228 0.15712714 0.047593415 1.8790252e-38
0.10351352 0.15859538 0.048955441 1.952314e-38
0.099210575 0.06142199 0.028522253 1.1596136e-38
0.097834788 0.06403625 0.028255641 1.0675256e-38
0.099210873 0.1569517 0.04852438 1.8790245e-38
0.098628946 0.1580772 0.049887419 2.0076304e-38
0.096013241 0.062110543 0.030212343 1.0584145e-38
0.09511219 0.064865932 0.029640794 1.0123165e-38
0.094574563 0.069099486 0.029837668 9.3845028e-39
0.095088005 0.073051631 0.030970752 6.9913667e-39
0.094900325 0.076671049 0.032109559 4.8730294e-39
0.094606802 0.079304695 0.032486439 4.2276656e-39
0.095292956 0.1568259 0.049125195 1.9433096e-38
0.095336571 0.15802136 0.050058007 2.0626608e-38
0.092743598 0.065244824 0.031392038 1.094998e-38
0.091421843 0.06850329 0.032056153 1.0026611e-38
0.092089675 0.072350249 0.032984436 8.3685404e-39
0.092089675 0.076237381 0.033798337 7.2629229e-39
0.092089675 0.078828812 0.034340978 6.4374629e-39
0.091344692 0.15612887 0.04909426 1.8507941e-38
0.091435753 0.15784623 0.050990522 2.0447272e-38
0.088820048 0.069653839 0.032943308 1.3161975e-38
0.086640276 0.07303907 0.034001052 1.3715478e-38
0.087342069 0.076280057 0.034438074 1.3710447e-38
0.087503336 0.079373285 0.035016835 1.8043294e-38
0.087447636 0.15595323 0.050026 1.8877786e-38
0.088820048 0.15776223 0.051391661 1.9615718e-38
0.083374366 0.072595641 0.033840001 1.9148217e-38
0.083891436 0.076170355 0.033619285 2.053511e-38
0.08414185 0.079100356 0.033601761 2.1728262e-38
0.083339058 0.15556221 0.050478756 1.8232427e-38
0.082280777 0.15755226 0.052394509 1.8046612e-38
0.079814136 0.071819067 0.033951879 2.2556962e-38
0.07892549 0.15257588 0.049821317 1.7681033e-38
0.079601415 0.15509677 0.050815403 1.7035684e-38
0.079338111 0.15778169 0.052913606 1.7589199e-38
0.074433662 0.069191888 0.035149515 2.3112671e-38
0.076020345 0.071527749 0.03409189 2.3108711e-38
0.076317303 0.15249214 0.050221264 1.7310823e-38
0.075699359 0.15492117 0.051747978 1.6113339e-38
0.075741507 0.15799013 0.053533018 1.6850925e-38
0.071382008 0.068230093 0.03543669 2.3018331e-38
0.071752988 0.070950642 0.033878565 2.2740312e-38
0.071752988 0.15234557 0.050921261 1.5742075e-38
0.071952537 0.15460262 0.052525163 1.5927887e-38
0.072471872 0.15723729 0.053898752 1.6480321e-38
0.067894392 0.065094769 0.035338461 2.2926475e-38
0.067870751 0.067931771 0.035017014 2.2004155e-38
0.06784904 0.15216784 0.051853716 1.5189972e-38
0.068207473 0.15361476 0.053305864 1.5924654e-38
0.063970819 0.064968795 0.03594017 2.0619071e-38
0.063952275 0.067640245 0.035597503 2.0344271e-38
0.063949011 0.15129159 0.05298394 1.7129307e-38
0.061355114 0.064884797 0.03634131 1.9976172e-38
0.060034774 0.06764923 0.036327183 2.0160246e-38
0.059755363 0.071598992 0.035934865 2.0158095e-38
0.059599005 0.15069441 0.053727686 1.675835e-38
0.056119971 0.067400277 0.037361264 2.0802386e-38
0.055321462 0.075332567 0.037426412 2.3119136e-38
0.05545187 0.14794619 0.052609563 1.5561973e-38
0.052199416 0.067243665 0.038070977 2.237511e-38
0.052379765 0.071133733 0.0374614 2.3118437e-38
0.053495735 0.074240357 0.03749001 2.3118808e-38
0.052191652 0.14784151 0.053109527 1.5101349e-38
0.052197322 0.15021431 0.054984331 1.5100279e-38
0.048276581 0.064464837 0.038347006 2.2284698e-38
0.048440941 0.067072809 0.038220406 2.2835009e-38
0.048017912 0.14715815 0.053841472 1.4823671e-38
0.048277527 0.15008846 0.055585444 1.5008069e-38
0.044353023 0.064338848 0.038948715 1.9425224e-38
0.044358358 0.065821499 0.038568854 1.8785957e-38
0.04436443 0.14688995 0.054507971 1.4454204e-38
0.044542357 0.14956036 0.056319118 1.4548194e-38
0.039775543 0.064191878 0.039650679 1.7399745e-38
0.041758932 0.066111594 0.037666798 1.7587386e-38
0.040439978 0.14597544 0.055840969 1.390281e-38
0.041737318 0.14847612 0.056984305 1.4087926e-38
0.035851985 0.064065889 0.040252388 1.5368972e-38
0.035198055 0.065340593 0.040623963 1.3901394e-38
0.035218269 0.14325225 0.055899858 1.2796105e-38
0.036836982 0.14479718 0.056739867 1.3718049e-38
0.033890203 0.064002886 0.040553212 1.463322e-38
0.032615572 0.066492528 0.039899647 1.2514508e-38
0.031326219 0.13941962 0.054686308 1.399141e-38
0.032388359 0.14186782 0.056063116 1.3348565e-38
0.033890203 0.14433701 0.057373822 1.2981587e-38
0.029326573 0.067881703 0.041578829 1.1866589e-38
0.027395025 0.070653915 0.041537762 1.6203357e-38
0.028438687 0.1387054 0.055619478 1.3899212e-38
0.028931826 0.14087777 0.057029545 1.3715542e-38
0.025071003 0.0705899 0.043085694 1.8229169e-38
0.023501664 0.073277235 0.04208976 1.9701414e-38
0.022197574 0.13525054 0.055274665 1.3719846e-38
0.024392582 0.13807459 0.056696534 1.3625513e-38
0.025389142 0.14017691 0.057863593 1.3533329e-38
0.019894734 0.074157432 0.043368459 1.6476022e-38
0.019557312 0.13406169 0.056223989 1.2704992e-38
0.021261245 0.13708024 0.057531297 1.3257428e-38
0.016899742 0.074213251 0.045152426 1.7304682e-38
0.015645467 0.077155992 0.044848979 1.7305384e-38
0.015025079 0.13114429 0.055563092 1.1598651e-38
0.016926885 0.13336274 0.056929588 1.1785909e-38
0.014272399 0.075034365 0.046003461 1.9705688e-38
0.012546629 0.077225015 0.046393692 1.9978696e-38
0.010460764 0.080610394 0.045712829 2.1817549e-38
0.01200442 0.12993966 0.056208074 1.0678135e-38
0.013836436 0.13246357 0.058097899 1.095651e-38
0.0090988427 0.079015046 0.046630919 2.1541375e-38
0.008445859 0.080287918 0.047001958 2.0805979e-38
0.006548509 0.1231202 0.055239916 1.1599376e-38
0.008504644 0.12705897 0.055751443 1.0402619e-38
0.009069927 0.12916534 0.057653308 9.7558077e-39
0.0054443851 0.078314096 0.048103392 1.8684772e-38
0.0045206994 0.080776095 0.047861814 1.7213235e-38
0.0026362389 0.11911863 0.055028319 1.1415342e-38
0.0039029717 0.12163059 0.055942416 1.1601154e-38
0.0051381588 0.12533841 0.057653725 1.0404745e-38
0.0064252838 0.12790658 0.058330119 9.3859574e-39
0.0018477961 0.078522548 0.048722744 1.6665082e-38
0.0012975782 0.080833256 0.04774344 1.5005189e-38
0.001332134 0.11907676 0.055228293 1.0771784e-38
0.0025017038 0.1245413 0.058253586 1.0125266e-38
0.058425389 0.10635427 0.0099443793 8.8263572e-39
0.083440386 0.10036516 0.0097274184 1.4817934e-38
0.12414718 0.11428267 0.012907982 1.8601196e-38
0.13718921 0.11046386 0.011453509 1.6667261e-38
0.09727338 0.10440248 0.01971966 1.4179408e-38
0.082838118 0.10202432 0.018711567 1.4549987e-38
0.060310185 0.072742641 0.034017265 2.0251718e-38
0.12371317 0.15865819 0.047544777 1.5282512e-38
0.15480921 0.058944598 0.02272284 2.2570307e-38
0.15582639 0.060857072 0.022443295 2.2570672e-38
0.15532255 0.16009937 0.04433769 1.2701371e-38
0.1494118 0.055154562 0.023310244 2.2575337e-38
0.15090078 0.057201594 0.022880018 2.2572453e-38
0.15051717 0.1602453 0.044989824 1.6115427e-38
0.14646658 0.056999832 0.023754418 2.2752529e-38
0.14795668 0.16196072 0.044872403 1.473541e-38
0.14678481 0.16307847 0.046328247 1.2796737e-38
0.14313868 0.056653529 0.024369717 2.2842558e-38
0.14275429 0.16347887 0.046367764 1.5379336e-38
0.13824707 0.05479607 0.025022447 2.2749635e-38
0.1388188 0.056313664 0.0245592 2.293223e-38
0.13854378 0.16382585 0.047545314 1.6115828e-38
0.13492301 0.054788917 0.025208294 2.302263e-38
0.13615213 0.056327015 0.024644256 2.3114823e-38
0.13490191 0.1634196 0.047784746 1.7407301e-38
0.1314216 0.05424273 0.025654435 2.2930075e-38
0.13090566 0.16401209 0.048031449 1.7775356e-38
0.12828243 0.16522729 0.048705816 1.7588445e-38
0.12828243 0.16652673 0.048977911 1.7496614e-38
0.12445533 0.053051889 0.026865065 2.311375e-38
0.11920133 0.052883178 0.027670801 2.2564172e-38
0.11915121 0.1633473 0.050290942 1.9155807e-38
0.11556602 0.052190974 0.027849138 2.1367424e-38
0.11385464 0.16086569 0.050102174 1.8878849e-38
0.11556509 0.16243735 0.050933003 1.8970685e-38
0.11100428 0.05227986 0.028236151 1.5836405e-38
0.11126041 0.16073376 0.050834537 1.897212e-38
0.11132035 0.1619397 0.051766992 1.924728e-38
0.10803659 0.049922079 0.028838038 1.7587034e-38
0.10732432 0.052485362 0.028799295 1.5743487e-38
0.10737985 0.16051187 0.052098811 1.9155419e-38
0.10338821 0.15961468 0.051860392 1.9615693e-38
0.098806098 0.058880493 0.031674266 1.0580532e-38
0.099450536 0.15927167 0.052418947 2.0261049e-38
0.095492005 0.060652316 0.032058775 1.1410297e-38
0.095180213 0.159255 0.053012848 2.1183727e-38
0.092274614 0.061127692 0.03370744 1.5828061e-38
0.091182418 0.063793451 0.033406377 1.4263272e-38
0.091032505 0.071770936 0.035100698 9.0138944e-39
0.091032505 0.075669259 0.035916924 8.0001152e-39
0.090245537 0.078242868 0.036581755 1.0208808e-38
0.091855898 0.15929173 0.053914607 2.072314e-38
0.08797726 0.064709783 0.034628332 1.8318051e-38
0.08747188 0.067525819 0.035040259 1.583385e-38
0.0880595 0.071242318 0.035465896 1.3065825e-38
0.088933915 0.074302435 0.035966635 1.1124317e-38
0.087393008 0.15810813 0.054381251 2.0257846e-38
0.083736867 0.064757451 0.035834253 1.8871651e-38
0.08370392 0.067543924 0.035733461 1.7672031e-38
0.084343262 0.07025671 0.035854459 1.7017987e-38
0.08397942 0.15799853 0.054904699 1.9244053e-38
0.079767182 0.067417502 0.036337137 2.1819411e-38
0.079763539 0.15908483 0.055445075 1.8419658e-38
0.07519912 0.064483315 0.037143528 2.3301379e-38
0.075995997 0.06712231 0.036922157 2.3206654e-38
0.075817749 0.069982946 0.037161887 2.3204141e-38
0.075817741 0.15964432 0.055935383 1.7586334e-38
0.071899123 0.063867718 0.037025809 2.3293129e-38
0.072757304 0.066419497 0.036905646 2.3111972e-38
0.070571281 0.15557754 0.05592376 1.6018267e-38
0.071893722 0.1583865 0.056644857 1.6202306e-38
0.067954749 0.06283696 0.037182808 2.3109798e-38
0.067965299 0.15669355 0.057263911 1.6939857e-38
0.064239159 0.062802136 0.037856519 2.1173337e-38
0.064464822 0.15354663 0.057165384 1.7403363e-38
0.058780387 0.060052186 0.038844049 2.2005583e-38
0.059920214 0.062705696 0.038570762 2.0620122e-38
0.06138996 0.15138441 0.056515515 1.7315094e-38
0.059831187 0.15299909 0.058137298 1.6943111e-38
0.057466894 0.060010016 0.039045453 2.1821545e-38
0.056146786 0.062758863 0.039142847 2.0989268e-38
0.056150399 0.15306276 0.058395028 1.6115863e-38
0.050899394 0.059799135 0.040052652 2.1078603e-38
0.052210741 0.06260094 0.039854765 2.0895641e-38
0.052210763 0.15296215 0.058832288 1.5008794e-38
0.048272401 0.059714764 0.04045558 2.099145e-38
0.048273794 0.061951578 0.039889455 2.163752e-38
0.048601814 0.15255973 0.059067249 1.4640008e-38
0.044988655 0.059609339 0.04095906 2.0901415e-38
0.044337459 0.061777562 0.040655494 2.0162056e-38
0.043683134 0.15081583 0.059230983 1.4178688e-38
0.044988655 0.15200196 0.060304463 1.4454197e-38
0.040926576 0.062308237 0.041347086 1.8779105e-38
0.039748281 0.14679116 0.059018195 1.3811332e-38
0.040658794 0.14906402 0.05996877 1.3627307e-38
0.03698656 0.062124938 0.042146266 1.7030989e-38
0.036199205 0.14609234 0.059853613 1.3808098e-38
0.0377644 0.14786607 0.060594976 1.3442904e-38
0.031865634 0.064533249 0.043573678 1.2329409e-38
0.031222761 0.14261909 0.059509397 1.3532573e-38
0.032782316 0.14490943 0.060359716 1.3440753e-38
0.028913103 0.06573835 0.044298649 1.2604898e-38
0.028256811 0.14211485 0.060395658 1.353257e-38
0.028569914 0.14366691 0.061187625 1.3347794e-38
0.024215095 0.069101363 0.045582533 1.8598686e-38
0.024643503 0.14100668 0.060845435 1.344149e-38
0.020715557 0.070722207 0.046482086 1.7861109e-38
0.020380996 0.13731065 0.060650468 1.2613141e-38
0.022002414 0.13955212 0.061377347 1.3163808e-38
0.018061936 0.07045646 0.047540724 1.7213569e-38
0.015904404 0.072300941 0.047582805 1.7399759e-38
0.016114943 0.1342476 0.060692012 1.1049786e-38
0.017654501 0.13606077 0.060652852 1.1138396e-38
0.012842722 0.073285788 0.048279166 1.9612095e-38
0.012577303 0.13311239 0.060917258 1.0310775e-38
0.0088674352 0.074065119 0.049768209 2.0346812e-38
0.008925274 0.076281369 0.049188793 2.1452786e-38
0.008269459 0.13018709 0.06058073 9.3884349e-39
0.0091532841 0.13192549 0.061423719 9.5731905e-39
0.0049269423 0.073938593 0.050372541 1.8691965e-38
0.0047281086 0.076016665 0.049805284 1.8322078e-38
0.0047865361 0.1288221 0.061498702 8.0977059e-39
0.0022999495 0.073854253 0.050775349 1.6483216e-38
0.002333574 0.075938046 0.050689161 1.7406225e-38
0.0023671985 0.12609924 0.060669601 8.5561631e-39
0.002322346 0.12857269 0.061884046 7.9075861e-39
0.10346143 0.11981452 0.011111796 1.5285401e-38
0.058265299 0.10410796 0.00919801 1.0024196e-38
0.11897474 0.13738632 0.017018855 1.445959e-38
0.1166104 0.12533385 0.016884565 1.2706425e-38
0.14553723 0.13315168 0.012339652 1.5009187e-38
0.10774356 0.088990852 0.010177255 1.1230596e-38
0.11648855 0.11321528 0.012844205 1.4085771e-38
0.086837694 0.11557767 0.025592446 1.4090081e-38
0.085466079 0.13008229 0.029611468 1.3996442e-38
0.095897019 0.10487641 0.025568962 1.76807e-38
0.01761172 0.10080177 0.034777224 8.651974e-39
0.022198513 0.11414398 0.042527616 1.0955071e-38
0.15495393 0.066387147 0.019604266 2.2482784e-38
0.020715557 0.070722207 0.046482086 1.7861109e-38
0.0022999495 0.073854253 0.050775349 1.6483216e-38
0.079385802 0.066517815 0.038191915 1.9987732e-38
0.15633608 0.16304968 0.047206163 8.2856985e-39
0.15653999 0.16678917 0.04933548 6.2595582e-39
0.15740532 0.1692524 0.051091492 4.3292191e-39
0.15116146 0.054314345 0.02595669 2.2576778e-38
0.15233335 0.16296853 0.047485232 9.113999e-39
0.15257879 0.16666201 0.049942911 7.4563189e-39
0.15277514 0.16910371 0.051801562 6.7183966e-39
0.1478636 0.054208457 0.026462436 2.2663936e-38
0.14816201 0.16413961 0.048398197 9.8548024e-39
0.14859399 0.16672017 0.050420582 8.9310931e-39
0.14880641 0.16930392 0.05247879 8.1034862e-39
0.14430299 0.05361709 0.027425647 2.2752526e-38
0.14377114 0.16399863 0.04907155 1.3629423e-38
0.14471725 0.16634803 0.05159533 1.0403685e-38
0.13928917 0.051319331 0.027230084 2.2843633e-38
0.14092463 0.053080499 0.027750731 2.2842554e-38
0.14047799 0.16519792 0.049849868 1.3625811e-38
0.14078209 0.16684496 0.052559078 1.1417476e-38
0.13660994 0.052640438 0.027590871 2.2931872e-38
0.13586757 0.16504988 0.050556898 1.5562634e-38
0.13677555 0.16676247 0.052838385 1.3258151e-38
0.13557732 0.16855149 0.054438949 1.2063926e-38
0.13335302 0.052435622 0.028414071 2.3023346e-38
0.13191578 0.16492298 0.051162899 1.7218574e-38
0.13310012 0.1664857 0.053575695 1.5194597e-38
0.12741688 0.0509381 0.029050767 2.3111943e-38
0.12802067 0.052414745 0.028746188 2.3021556e-38
0.12993988 0.16485953 0.051465929 1.7587368e-38
0.12477858 0.050853372 0.029455423 2.3021195e-38
0.12467083 0.052457482 0.028774381 2.3021918e-38
0.12078772 0.050391093 0.029652715 2.247198e-38
0.12071904 0.051895589 0.029289305 2.2472345e-38
0.11940178 0.16452116 0.053082049 1.9247997e-38
0.12095728 0.16555306 0.055462122 1.9064308e-38
0.11813369 0.050138772 0.02985239 2.2011722e-38
0.11808451 0.052246004 0.029784441 2.24709e-38
0.11544999 0.16308923 0.053414822 1.906288e-38
0.11728995 0.16450037 0.055483997 1.9340895e-38
0.11018094 0.04938215 0.030449986 1.7225066e-38
0.11281547 0.050771773 0.030319214 1.7776469e-38
0.11215683 0.16298349 0.053919852 1.9339113e-38
0.11296808 0.16408071 0.055743337 1.9156159e-38
0.10820505 0.048013657 0.030479729 1.9432752e-38
0.1078269 0.16203301 0.054620802 1.9616406e-38
0.10900563 0.16395348 0.056350946 1.9524939e-38
0.10515045 0.049618125 0.034407079 1.6668695e-38
0.10453875 0.16174975 0.0557428 1.970789e-38
0.10515045 0.1636426 0.058281839 1.9892292e-38
0.10162149 0.052745223 0.03438586 1.5188888e-38
0.10008192 0.05558303 0.033365011 1.2149663e-38
0.10119012 0.16136456 0.056241393 1.9985191e-38
0.10118172 0.16351515 0.058890462 2.0167438e-38
0.097874455 0.05331637 0.036346197 1.8041872e-38
0.097086981 0.055795759 0.035095513 1.5461462e-38
0.096349686 0.058073252 0.03448385 1.0490877e-38
0.096928477 0.16117416 0.057271481 2.1363798e-38
0.09853591 0.1634302 0.059296191 2.0537296e-38
0.093642898 0.056432813 0.036986768 1.8689389e-38
0.093097612 0.059080899 0.035904825 1.6382634e-38
0.093433768 0.16134222 0.058434844 2.1270157e-38
0.090157501 0.056563556 0.038261414 2.2288245e-38
0.089185283 0.05966793 0.037442029 2.0716976e-38
0.087787479 0.062365934 0.036753297 2.0163806e-38
0.088989668 0.16064632 0.058044016 2.1090101e-38
0.085225515 0.05992274 0.038099706 2.163935e-38
0.085416406 0.062420309 0.037144244 2.0440445e-38
0.085192636 0.16070163 0.058562875 2.1179445e-38
0.081104279 0.059924811 0.038863242 2.1081847e-38
0.080955602 0.063207537 0.03843689 2.0163113e-38
0.08162345 0.16055503 0.059333324 2.0167447e-38
0.077316061 0.059591562 0.039572358 2.1909108e-38
0.07751283 0.063210547 0.038574934 2.2646296e-38
0.077300847 0.16036716 0.060330689 1.8327109e-38
0.073514491 0.05935438 0.039958775 2.320056e-38
0.07329759 0.06190066 0.038975418 2.3392851e-38
0.073094852 0.16068913 0.061553955 1.7589191e-38
0.069038033 0.059263915 0.039880872 2.3383519e-38
0.070004441 0.061142415 0.039343834 2.3382436e-38
0.068687178 0.15767257 0.059766412 1.6847667e-38
0.06939026 0.16008258 0.06176722 1.6850901e-38
0.065027542 0.058994204 0.040133953 2.3016891e-38
0.06473539 0.060973212 0.040151894 2.2002736e-38
0.062759496 0.15356714 0.059855759 1.7772853e-38
0.064408705 0.15637483 0.060308814 1.7955811e-38
0.065625302 0.15954393 0.062569022 1.7312224e-38
0.061163768 0.055741787 0.042730689 2.2653476e-38
0.061182626 0.058713198 0.040454268 2.2372216e-38
0.061442234 0.15352483 0.060057759 1.7405137e-38
0.061078057 0.15620354 0.061415732 1.7034202e-38
0.061825216 0.15864718 0.064171374 1.5928595e-38
0.057785645 0.055553243 0.042818367 2.2007401e-38
0.056392722 0.058530271 0.040975869 2.1176551e-38
0.05701571 0.15582024 0.061622977 1.5833529e-38
0.057525769 0.15818147 0.064762115 1.4548537e-38
0.054218501 0.055846438 0.043864369 2.0162778e-38
0.052882612 0.058490336 0.042046428 2.0438286e-38
0.05316937 0.15586516 0.063201725 1.4731842e-38
0.054879956 0.15809652 0.065167904 1.4364853e-38
0.048927784 0.057566106 0.043003082 2.0348972e-38
0.048269607 0.15310186 0.06207788 1.4363067e-38
0.049850807 0.15482967 0.06322062 1.4547811e-38
0.045635074 0.057749823 0.04253453 2.0348269e-38
0.045631006 0.1529149 0.063150525 1.4270176e-38
0.046949066 0.15421298 0.063556015 1.4270539e-38
0.041928709 0.057952195 0.044824839 1.9426643e-38
0.040366031 0.060190707 0.043889105 1.896313e-38
0.041336358 0.15101461 0.064301908 1.3350723e-38
0.037701905 0.057758182 0.045667708 1.8872755e-38
0.037731506 0.060106114 0.044293106 1.8227024e-38
0.03740219 0.14851154 0.062856376 1.2889023e-38
0.038028389 0.15017641 0.06517303 1.2338727e-38
0.033713408 0.055188 0.047008991 1.8509725e-38
0.033728167 0.058000207 0.046906114 1.7859688e-38
0.032901533 0.061691061 0.045398116 1.5092036e-38
0.033569179 0.14762305 0.06431812 1.3347116e-38
0.03503634 0.14959559 0.0665645 1.2336576e-38
0.0297447 0.055060565 0.047617614 1.7037836e-38
0.030122682 0.057881206 0.048147678 1.7678877e-38
0.02979032 0.06143111 0.047220707 1.4721422e-38
0.028510667 0.063725129 0.046526909 1.2971869e-38
0.029169299 0.14465834 0.063367486 1.3164864e-38
0.029964857 0.1466224 0.065572023 1.3899559e-38
0.026678935 0.062575758 0.048992574 1.4537722e-38
0.025571488 0.065124243 0.048531353 1.5000515e-38
0.025072046 0.14341693 0.064177155 1.3807378e-38
0.021833271 0.065256745 0.050329626 1.703206e-38
0.021924369 0.06808126 0.048493385 1.8231692e-38
0.021032542 0.13999026 0.064037323 1.3074117e-38
0.022305824 0.14244859 0.065554738 1.3073041e-38
0.018542781 0.06677106 0.050828636 1.8043688e-38
0.017620452 0.068785489 0.049846888 1.7675983e-38
0.017972566 0.13712113 0.063581705 1.1601152e-38
0.017897472 0.13857177 0.065621078 1.2429456e-38
0.019161448 0.14122207 0.067352474 1.2528822e-38
0.013969526 0.068858474 0.0509637 1.6939511e-38
0.012703516 0.071047753 0.050590575 1.9147882e-38
0.014003694 0.13563009 0.064249575 1.0034913e-38
0.014531255 0.13714153 0.067239285 1.0496582e-38
0.010232821 0.069436535 0.052510202 1.777107e-38
0.01006899 0.071833193 0.051176786 1.9426642e-38
0.0099999458 0.13469175 0.065613329 8.5587162e-39
0.0063237697 0.069977343 0.053456008 1.5840386e-38
0.0061172023 0.072141305 0.051873863 1.7772923e-38
0.0058537349 0.13164236 0.064374566 7.5452762e-39
0.0063536316 0.13354298 0.066243649 9.1064964e-39
0.0032865405 0.069938511 0.054968178 1.1965713e-38
0.0028072149 0.13136871 0.065063477 1.0209931e-38
0.0032865405 0.13415919 0.068414867 1.3161316e-38
0.098704979 0.10473287 0.010852695 1.9064706e-38
0.097300656 0.10211399 0.009871304 1.500414e-38
0.096099548 0.11317834 0.011934996 1.6028357e-38
0.092909075 0.11504893 0.014210522 1.2703908e-38
0.083960332 0.10487968 0.012670815 1.5556204e-38
0.13373011 0.11797246 0.01311934 1.6111922e-38
0.12365439 0.11765745 0.014783144 1.5283238e-38
0.12069611 0.10967608 0.01342696 1.5836412e-38
0.1332078 0.10957193 0.013502359 1.7126776e-38
0.12675864 0.11233287 0.014543235 1.5375778e-38
0.088561065 0.11333269 0.025125325 1.3349651e-38
0.076433644 0.12076208 0.028073013 1.3626233e-38
0.079914108 0.12164922 0.029419661 1.1413534e-38
0.07301493 0.10807963 0.028760195 1.2789645e-38
0.096207954 0.11078113 0.026928008 7.0814408e-39
0.097768754 0.11606084 0.03092438 1.5662815e-38
0.09544082 0.12641817 0.021785915 1.4361633e-38
0.053272858 0.11317174 0.027878463 1.3994283e-38
0.083486684 0.11503077 0.023561358 1.5467632e-38
0.081984811 0.10939623 0.030827343 1.9705743e-38
0.095750988 0.12038586 0.031953573 1.795403e-38
0.075741507 0.15799013 0.053533018 1.6850925e-38
0.15299605 0.1708793 0.053689241 5.6156517e-39
0.15343782 0.17313574 0.057193339 6.1695486e-39
0.14762324 0.05199188 0.02913928 2.2755415e-38
0.14906096 0.17084453 0.054622114 7.8279727e-39
0.14946666 0.17232671 0.057832003 7.5510383e-39
0.14437926 0.050423965 0.029847383 2.2751455e-38
0.14563605 0.051928073 0.029444039 2.275325e-38
0.14506432 0.16994591 0.054935813 8.84031e-39
0.14132899 0.048618615 0.030733228 2.2935482e-38
0.14108619 0.16981818 0.055545926 9.8512333e-39
0.14018831 0.17198575 0.059590638 9.4856682e-39
0.13725311 0.16988137 0.056000352 1.1049041e-38
0.13691705 0.17274903 0.059653699 9.7611789e-39
0.13172577 0.16698059 0.055760741 1.5561946e-38
0.13315573 0.16953485 0.056985855 1.2062135e-38
0.13332707 0.17263907 0.059102237 1.012745e-38
0.12943527 0.16654477 0.056294739 1.6485347e-38
0.12976381 0.16899523 0.059303641 1.2801477e-38
0.12952976 0.1716435 0.061225176 9.4806936e-39
0.12675551 0.16641121 0.059539616 1.6851989e-38
0.12675551 0.16772929 0.059815586 1.5564435e-38
0.11320962 0.048598513 0.034282506 1.9524938e-38
0.11357231 0.16541858 0.059787512 1.8235981e-38
0.10966469 0.16508201 0.060445964 1.8600078e-38
0.10589238 0.048026919 0.034989357 1.8689804e-38
0.10513847 0.16503774 0.061885238 1.9247989e-38
0.10147566 0.04763037 0.03871578 2.0165261e-38
0.10039641 0.050812677 0.036797225 1.69406e-38
0.10142767 0.16503182 0.062615871 1.9338746e-38
0.098886475 0.047904372 0.040221751 2.1357352e-38
0.097372845 0.051071495 0.038369596 2.0716631e-38
0.097277209 0.16439997 0.063191056 1.9983023e-38
0.093399495 0.051771581 0.039324522 2.2843609e-38
0.092423677 0.054594368 0.038520575 2.2374353e-38
0.091982074 0.16176693 0.061031282 2.0445449e-38
0.093459643 0.1641032 0.063811839 2.0533331e-38
0.089878634 0.051319212 0.042120218 2.3032692e-38
0.088956065 0.054576606 0.040278435 2.3120557e-38
0.090657294 0.16172439 0.061234474 2.0722409e-38
0.089434355 0.16406539 0.06375885 2.0534432e-38
0.08922717 0.16671951 0.066645861 1.906252e-38
0.085563324 0.051436394 0.043094099 2.3298135e-38
0.085449316 0.054722324 0.041502237 2.3297777e-38
0.084695742 0.057846218 0.040438473 2.2468383e-38
0.085426509 0.16399868 0.063926816 2.0994321e-38
0.081566356 0.050978079 0.043637931 2.1449565e-38
0.081444621 0.054724053 0.041684091 2.1357001e-38
0.082708552 0.057782397 0.040743232 2.1732253e-38
0.08005897 0.16138408 0.062859774 1.9983758e-38
0.081469163 0.16379488 0.065092266 1.9890137e-38
0.07756941 0.050519735 0.044181883 2.2281109e-38
0.077462718 0.054596186 0.042294681 2.1632872e-38
0.077435441 0.16120504 0.063931704 1.8788433e-38
0.073572457 0.051051363 0.044933021 2.3108706e-38
0.073500119 0.054306269 0.043442845 2.311015e-38
0.074759811 0.16121392 0.063672423 1.8417144e-38
0.073518731 0.16308807 0.066775024 1.6851633e-38
0.069523834 0.054080635 0.04437685 2.3385313e-38
0.070123047 0.057378277 0.04267329 2.3384234e-38
0.06951391 0.16276006 0.06673193 1.5101733e-38
0.065528125 0.054082632 0.044557273 2.3109805e-38
0.06483449 0.16082412 0.065696776 1.6205885e-38
0.065825425 0.16231848 0.068643212 1.3996093e-38
0.061581619 0.050666332 0.046771884 2.2375448e-38
0.061795048 0.053403318 0.044208288 2.2559842e-38
0.061270587 0.16005673 0.067037284 1.4182636e-38
0.062247761 0.16156337 0.069885075 1.3073054e-38
0.057584673 0.050538003 0.047384858 2.1729375e-38
0.057220139 0.052985787 0.045111835 2.1821932e-38
0.058455288 0.15943374 0.068667471 1.3537624e-38
0.054920018 0.050452456 0.047793448 2.1362746e-38
0.053388886 0.053084105 0.047112226 2.0256396e-38
0.052913763 0.15818265 0.069120169 1.3165605e-38
0.049755678 0.05363892 0.04734832 1.9329414e-38
0.050913602 0.056761459 0.04561919 2.015919e-38
0.049256355 0.15579644 0.068947554 1.3438929e-38
0.045864686 0.053884864 0.048927546 1.9518485e-38
0.045223057 0.15467535 0.069395423 1.3809526e-38
0.042263009 0.054005861 0.050563574 1.961355e-38
0.040315278 0.056421146 0.047244549 1.9332279e-38
0.041632243 0.15217298 0.067771971 1.3811331e-38
0.038932212 0.053898916 0.051074386 1.9701428e-38
0.037665702 0.05633606 0.047650874 1.9058946e-38
0.037633747 0.1511834 0.069583654 1.3073763e-38
0.028392173 0.056694537 0.049210429 1.7864343e-38
0.026498154 0.057207331 0.050862014 1.6662923e-38
0.025463514 0.060819268 0.050956547 1.5462928e-38
0.024276733 0.057388172 0.054150999 1.5650251e-38
0.022354685 0.060528502 0.053047955 1.4912657e-38
0.020443432 0.063657999 0.051940918 1.6208776e-38
0.020871393 0.1432413 0.068880558 1.2520938e-38
0.018796995 0.059792399 0.055143833 1.2981221e-38
0.017749183 0.06438756 0.053559065 1.694131e-38
0.017131455 0.13967611 0.068387926 1.2058542e-38
0.017600082 0.14237688 0.069524705 1.1506807e-38
0.014971264 0.060226455 0.055791736 1.3071274e-38
0.014402226 0.06432569 0.05472827 1.4728996e-38
0.013630241 0.13862617 0.068728626 1.0307865e-38
0.011859179 0.060602695 0.056467175 1.2055331e-38
0.011015087 0.063877434 0.056450784 1.3350367e-38
0.0089239851 0.06748125 0.055274963 1.5743885e-38
0.0098138079 0.1380337 0.069790006 1.0673109e-38
0.0073041692 0.064501509 0.058098912 1.0863261e-38
0.0058404356 0.067646459 0.055630744 1.2711113e-38
0.0042919815 0.064666152 0.058874071 1.0306071e-38
0.0035338923 0.066944614 0.05740422 1.0215386e-38
0.0032211766 0.13660446 0.069971561 1.4545323e-38
0.10643329 0.11335543 0.0079191923 1.8505049e-38
0.11107937 0.10588562 0.01007843 1.5283228e-38
0.08826004 0.10727385 0.019192696 1.1508947e-38
0.12280198 0.10875139 0.010353088 1.2798943e-38
0.089331321 0.10590707 0.024147511 1.5100286e-38
0.10012195 0.14354095 0.02816236 1.2154339e-38
0.095725134 0.11952242 0.030726612 1.6490043e-38
0.083960332 0.10487968 0.012670815 1.5556204e-38
0.15390354 0.17473161 0.060727775 6.9982149e-39
0.15023799 0.17360978 0.061165869 7.3662897e-39
0.14585751 0.1725077 0.061377764 8.0116339e-39
0.14271607 0.17220744 0.061645508 8.7481087e-39
0.13789773 0.17285031 0.063240826 9.5771463e-39
0.12847623 0.16930038 0.063488603 1.1051545e-38
0.13120791 0.17197272 0.064127982 9.6647219e-39
0.12518707 0.16581446 0.063802361 1.694131e-38
0.12558848 0.16874355 0.06435138 1.2433391e-38
0.12174007 0.16584037 0.063325405 1.7125706e-38
0.12201846 0.16800433 0.064620376 1.3628732e-38
0.11906791 0.16575457 0.063735247 1.7130359e-38
0.11781254 0.16758841 0.06518203 1.3900613e-38
0.1123875 0.16554005 0.064759731 1.6666866e-38
0.11404528 0.16736636 0.06549722 1.3252018e-38
0.10904731 0.16543281 0.065271974 1.7309329e-38
0.1097573 0.16737439 0.066081882 1.3439981e-38
0.10704318 0.16536845 0.065579295 1.7681046e-38
0.10577367 0.16720186 0.067028165 1.408576e-38
0.1020104 0.16697991 0.067342877 1.5281032e-38
0.097056702 0.16630411 0.067890882 1.7771376e-38
0.093702607 0.048356354 0.043559313 2.3028757e-38
0.093363538 0.16655059 0.068275213 1.805046e-38
0.089441076 0.048668802 0.044582665 2.2756485e-38
0.090342179 0.16747953 0.06869483 1.8235252e-38
0.085691541 0.048710823 0.045088232 2.293367e-38
0.081703305 0.046445042 0.045769393 2.2007046e-38
0.081657656 0.048599243 0.045193553 2.1821223e-38
0.077676699 0.045754135 0.045924544 2.2741374e-38
0.077649415 0.047941074 0.045697391 2.2465513e-38
0.075013496 0.046230227 0.046795249 2.3109802e-38
0.073915258 0.048555255 0.046630561 2.3108003e-38
0.069912009 0.049690992 0.047716141 2.311124e-38
0.063306332 0.048836783 0.049215138 2.2559878e-38
0.054603562 0.048780978 0.049821019 2.0902847e-38
0.050928995 0.048919201 0.050696671 1.9425206e-38
0.048254251 0.049347609 0.051731646 1.9149733e-38
0.046916746 0.050728559 0.051890135 1.8596178e-38
0.042904742 0.051924676 0.052782834 1.8510089e-38
0.039226167 0.052444428 0.053566694 1.88724e-38
0.025542282 0.054209948 0.055351317 1.4823363e-38
0.022595465 0.05591096 0.056385994 1.4821904e-38
0.018840455 0.055836469 0.057281733 1.5648042e-38
0.01482939 0.055707678 0.057896852 1.8413534e-38
0.014853634 0.057837784 0.057821929 1.242483e-38
0.012181468 0.056428283 0.057954609 1.7398316e-38
0.010566965 0.058702677 0.058896065 1.2877895e-38
0.0095093176 0.061637193 0.059472978 1.1322392e-38
0.0081153885 0.059988618 0.060385108 1.0215307e-38
0.0065456778 0.061960191 0.060428739 9.5660228e-39
0.0041332468 0.061987281 0.060923934 1.2148188e-38
0.14650917 0.11860479 0.0070700049 1.5465827e-38
0.11519984 0.10440381 0.011668086 1.3902449e-38
0.12388989 0.11412893 0.015664935 1.6389588e-38
0.15954384 0.1401839 0.020360172 2.2580385e-38
0.064397492 0.11789761 0.028856575 1.5278953e-38
0.097086981 0.055795759 0.035095513 1.5461462e-38
0.096349686 0.058073252 0.03448385 1.0490877e-38
0.14962164 0.1742388 0.064240158 7.3659338e-39
0.14969245 0.1755095 0.065011978 7.1815383e-39
0.14633343 0.17407049 0.06524843 7.5510131e-39
0.14633343 0.17540163 0.065527081 7.1825767e-39
0.14221634 0.17313573 0.06502229 8.5655111e-39
0.14364621 0.17531535 0.065939188 7.4605929e-39
0.13948882 0.17264685 0.065011859 9.2130315e-39
0.12886652 0.17084737 0.06736964 9.3899329e-39
0.12607157 0.16822821 0.066234469 1.2894345e-38
0.12617931 0.17076109 0.067781746 9.5732227e-39
0.12137552 0.1694067 0.067232966 1.0590937e-38
0.12214849 0.17063165 0.068399966 9.4820626e-39
0.11802121 0.16929899 0.067747414 1.0680606e-38
0.11811767 0.17050223 0.069018006 9.4842276e-39
0.11370554 0.16876259 0.068843067 9.9469784e-39
0.10999987 0.16899776 0.069313049 9.0232551e-39
0.096553594 0.047646135 0.045711935 2.2474484e-38
0.089901902 0.045800745 0.047424495 2.2753958e-38
0.085871078 0.043009043 0.047485232 2.3023726e-38
0.087197274 0.045149177 0.047376275 2.2840393e-38
0.084527478 0.042965919 0.047691286 2.2839684e-38
0.083144553 0.044284731 0.047326982 2.2285787e-38
0.079446584 0.043441325 0.04756999 2.3020837e-38
0.071060799 0.046827555 0.049621403 2.3204148e-38
0.067308582 0.047178656 0.050502419 2.3019405e-38
0.061686143 0.04489474 0.051751554 2.2929707e-38
0.063023299 0.046369016 0.051501453 2.2651345e-38
0.058992088 0.046954334 0.052096963 2.1913765e-38
0.054960094 0.046310544 0.052090585 2.0995757e-38
0.049593672 0.044506446 0.053606033 1.7955122e-38
0.050937124 0.045980915 0.053355098 1.8870961e-38
0.046907842 0.047209978 0.054158807 1.8787025e-38
0.043211535 0.047962129 0.055351257 1.7397974e-38
0.042884558 0.049910605 0.054777443 1.7491262e-38
0.038854517 0.050125927 0.055812299 1.7399078e-38
0.036157601 0.051396251 0.057199478 1.8599764e-38
0.022405125 0.051433563 0.058891714 1.3721576e-38
0.022758663 0.053252161 0.058698833 1.5097395e-38
0.019600078 0.051184148 0.059460998 1.6860212e-38
0.018733472 0.053122908 0.059316158 1.8695897e-38
0.017347097 0.051457807 0.060223579 2.1098702e-38
0.016050041 0.053036749 0.059727669 2.0174627e-38
0.0077197626 0.057763726 0.062257707 1.3713728e-38
0.0048484281 0.058786318 0.063069344 1.491299e-38
0.11072596 0.097683132 0.0056253076 1.9988456e-38
0.11066186 0.10457806 0.0066369176 1.850827e-38
0.070877813 0.10321766 0.0079404712 2.1274134e-38
0.11128969 0.13736781 0.016981304 8.562326e-39
0.10008039 0.095413998 0.011714756 1.9801138e-38
0.11305466 0.10823014 0.014688611 1.4362362e-38
0.1228535 0.10637198 0.013157427 1.7033858e-38
0.092954054 0.13515961 0.028416693 6.0730075e-39
