# .PCD v0.7 - Point Cloud Data file format
VERSION 0.7
FIELDS x y z rgb
SIZE 4 4 4 4
TYPE F F F F
COUNT 1 1 1 1
WIDTH 990
HEIGHT 1
VIEWPOINT 0 0 0 0 1 0 0
POINTS 990
DATA ascii
0.11968796 0.11650656 0.010675609 1.3352529e-38
0.11969359 0.12022297 0.011483967 1.2800441e-38
0.11962114 0.12424076 0.013204038 1.2432746e-38
0.11913639 0.12739047 0.01458776 1.1603008e-38
0.1162927 0.10579504 0.010843337 1.6020048e-38
0.1159194 0.10889442 0.0099849105 1.3901743e-38
0.11591545 0.11265464 0.010575294 1.288976e-38
0.11591107 0.11641361 0.01116544 1.132529e-38
0.11589795 0.1202139 0.011537075 9.8498012e-39
0.11591108 0.12451194 0.012680829 8.4704779e-39
0.11596097 0.12790112 0.014605165 8.1924631e-39
0.11471288 0.13105351 0.015734315 8.6491028e-39
0.11215852 0.10868655 0.011019945 1.0770335e-38
0.11215498 0.11245115 0.011610985 9.5728584e-39
0.11214706 0.11623539 0.01209265 8.6508698e-39
0.11213583 0.120038 0.012464464 8.2828314e-39
0.11226223 0.12416829 0.013585687 8.0988059e-39
0.11343715 0.128591 0.015065551 8.3739817e-39
0.11344902 0.1310297 0.015861571 9.4767251e-39
0.1091519 0.10847028 0.012088239 1.0585211e-38
0.10965744 0.1122262 0.012738347 9.4781502e-39
0.10965744 0.11597262 0.013439357 8.5594183e-39
0.10965744 0.11971903 0.014140368 9.3916607e-39
0.10965744 0.12221663 0.014607728 9.6692873e-39
0.090699546 0.089390501 0.010441542 2.3210997e-38
0.090698041 0.092117921 0.0099292994 2.3303536e-38
0.091710024 0.096117541 0.011185765 1.7672778e-38
0.090699039 0.1007026 0.012217343 1.2885094e-38
0.087671839 0.088960126 0.0090402961 2.3028035e-38
0.088176362 0.092274681 0.0093124509 2.3210987e-38
0.088428386 0.09688963 0.010138392 1.6197268e-38
0.088173307 0.10070315 0.012253463 1.2702479e-38
0.085152239 0.088259041 0.0087626576 2.2846151e-38
0.085236244 0.091414765 0.009344399 2.3034505e-38
0.085236244 0.09805508 0.010586917 1.3065473e-38
0.084392644 0.10084884 0.011652112 1.1967791e-38
0.08396554 0.10355806 0.013112664 1.2246171e-38
0.080610864 0.10110375 0.012022972 1.3340625e-38
0.079845153 0.10338515 0.013168871 1.2152512e-38
0.075909764 0.10371383 0.013932765 1.315948e-38
0.072408535 0.10431385 0.013776958 1.5827743e-38
0.070918292 0.10705547 0.015127122 1.3344634e-38
0.067730658 0.10839434 0.015368938 1.6387046e-38
0.067318149 0.11017953 0.016768754 1.62941e-38
0.064235076 0.10927986 0.014876366 1.7036024e-38
0.064208284 0.11038992 0.015768647 1.7123524e-38
0.059194803 0.10171452 0.013986111 1.1234122e-38
0.060166918 0.10430309 0.015187383 9.2933764e-39
0.060454868 0.1067185 0.014791131 1.0492329e-38
0.054574549 0.096647218 0.013519645 1.215003e-38
0.056361541 0.099656865 0.015123725 9.9402073e-39
0.052783765 0.092422396 0.014961123 1.5100622e-38
0.053113088 0.095605731 0.015266716 1.2793963e-38
0.054047622 0.098690227 0.016002178 1.0301835e-38
0.16038039 0.10911627 0.010959864 1.7770005e-38
0.15999895 0.11237544 0.011609435 1.7493422e-38
0.15978706 0.11530279 0.012179315 1.749271e-38
0.15936324 0.11990121 0.013083935 1.8137698e-38
0.15554893 0.10601012 0.010882258 1.666723e-38
0.15609422 0.10872039 0.010395169 1.6111212e-38
0.15607738 0.11251804 0.010937095 1.5926826e-38
0.15597592 0.11602527 0.01233989 1.5376168e-38
0.15564722 0.11977543 0.012993217 1.7124988e-38
0.15451252 0.1238669 0.014127076 1.6387418e-38
0.15198889 0.10544051 0.011146784 1.6110473e-38
0.15164216 0.10865331 0.010761499 1.5283238e-38
0.15159079 0.11252788 0.010923684 1.5099578e-38
0.15160149 0.11626622 0.011735618 1.5559114e-38
0.15157068 0.12008969 0.012113392 1.6476749e-38
0.15163493 0.12435115 0.013614357 1.4821556e-38
0.15046316 0.12852752 0.015625775 1.4637522e-38
0.14792028 0.10555229 0.011591792 1.528359e-38
0.14784296 0.10855909 0.011253476 1.5282864e-38
0.1477564 0.11252204 0.010981381 1.5651283e-38
0.14775661 0.1162803 0.011684597 1.5834971e-38
0.14774677 0.12005955 0.012279153 1.546583e-38
0.14781183 0.12430976 0.013834655 1.3718419e-38
0.14792028 0.1284796 0.015881896 1.4455272e-38
0.14792028 0.13224848 0.016587138 1.501277e-38
0.14410597 0.10202561 0.011329472 1.7310069e-38
0.14410597 0.10516633 0.011917174 1.574637e-38
0.14399828 0.10857797 0.011203229 1.6757639e-38
0.14394382 0.11247259 0.01125592 1.6665455e-38
0.14394382 0.11623023 0.011959016 1.6020427e-38
0.14394382 0.11998788 0.012662172 1.4730776e-38
0.143971 0.1243124 0.013809383 1.4084693e-38
0.1440165 0.12860148 0.015175283 1.4177255e-38
0.14410597 0.13181764 0.016904175 1.4365606e-38
0.13902022 0.094392017 0.01043123 1.9333374e-38
0.13965593 0.096916586 0.010837376 1.8689081e-38
0.14013273 0.10085148 0.011523962 1.7768554e-38
0.14027469 0.10451248 0.011966944 1.657146e-38
0.140166 0.10857466 0.011261225 1.6847331e-38
0.14014086 0.11240093 0.011638939 1.6478548e-38
0.14014086 0.11600201 0.01231271 1.5558743e-38
0.13887322 0.11863978 0.01293838 1.5007722e-38
0.1410916 0.12525746 0.013945401 1.4361639e-38
0.140166 0.12862664 0.015013278 1.4271963e-38
0.14012355 0.13196598 0.017219126 1.4642905e-38
0.13965593 0.13460532 0.017889559 1.4733329e-38
0.13520589 0.09369199 0.010697842 1.9242251e-38
0.13584162 0.097158775 0.011280298 1.8412856e-38
0.13631842 0.10077959 0.011908114 1.7124971e-38
0.13644615 0.10448703 0.012134016 1.6203751e-38
0.13676047 0.10816208 0.011198103 1.6479256e-38
0.13760556 0.11235316 0.011894166 1.6294163e-38
0.13760556 0.1161108 0.012597322 1.5649151e-38
0.13633791 0.12610729 0.014599979 1.3902459e-38
0.13633792 0.12861237 0.015068769 1.3445449e-38
0.13641536 0.13218291 0.016865075 1.4642546e-38
0.13679519 0.13486549 0.018236458 1.4641474e-38
0.13393447 0.093668029 0.010825872 1.8966746e-38
0.13317159 0.09629187 0.011396408 1.8230264e-38
0.13266303 0.10055368 0.012246847 1.6844444e-38
0.13260591 0.10450889 0.012083948 1.7307236e-38
0.13253498 0.12854071 0.015451789 1.326106e-38
0.13259208 0.13214861 0.017029881 1.3812078e-38
0.13266303 0.13478762 0.018652618 1.3997905e-38
0.12784769 0.096743256 0.011808574 1.7953296e-38
0.12816611 0.10064889 0.011881232 1.7216828e-38
0.12812784 0.10455373 0.011934102 1.8137335e-38
0.12809819 0.12595201 0.015429795 1.3351097e-38
0.1280982 0.1284571 0.015898585 1.3351797e-38
0.1281269 0.13213095 0.017094374 1.3628384e-38
0.12800108 0.13522321 0.019220054 1.3630923e-38
0.12757728 0.13814658 0.019811273 1.4365261e-38
0.12249151 0.094080538 0.012095869 1.7677069e-38
0.12370697 0.09686242 0.011353433 1.7584878e-38
0.12366143 0.10081746 0.011189222 1.7216822e-38
0.12381989 0.10442151 0.011847079 1.7954379e-38
0.12366142 0.12586841 0.015876651 1.4730768e-38
0.12366143 0.12837349 0.016345441 1.5100999e-38
0.1237009 0.13200015 0.017815292 1.4920232e-38
0.12375167 0.13559882 0.019506097 1.4550363e-38
0.12376295 0.1380747 0.020195425 1.4457797e-38
0.12122007 0.086518839 0.010813475 1.8597581e-38
0.1193914 0.092830673 0.011892974 1.6203385e-38
0.11988373 0.096864492 0.011411428 1.6848387e-38
0.11985849 0.1007458 0.011572242 1.675547e-38
0.11985847 0.10325089 0.012040913 1.712712e-38
0.12112612 0.12582062 0.016131997 1.4090785e-38
0.12003957 0.12866311 0.016777158 1.2432743e-38
0.11986892 0.13202211 0.017650723 1.1972488e-38
0.1199092 0.13563594 0.019231737 1.2156145e-38
0.11994863 0.13800281 0.020579576 1.3812794e-38
0.1154986 0.088923588 0.011859834 1.4544926e-38
0.11611463 0.092189431 0.011895418 1.500305e-38
0.11608137 0.096768335 0.011903465 1.6571075e-38
0.1160597 0.10065012 0.01206398 1.5281797e-38
0.115802 0.10367545 0.012543261 1.5377199e-38
0.11605553 0.12916958 0.017287135 8.1920889e-39
0.11621399 0.13214734 0.017827928 8.0055298e-39
0.11609012 0.13560069 0.019395947 8.3782935e-39
0.11677004 0.13794291 0.020899653 9.0229538e-39
0.11232 0.088863686 0.012179971 1.1967436e-38
0.11242333 0.092260048 0.012432873 1.3812075e-38
0.11228628 0.096623138 0.01261276 1.5558725e-38
0.1122786 0.10043399 0.013099372 1.14139e-38
0.11225966 0.10431312 0.013259053 1.1506811e-38
0.11098494 0.12562951 0.017153323 9.5735772e-39
0.11164558 0.12800142 0.018380523 9.6672092e-39
0.11213484 0.13185833 0.019477367 1.0772111e-38
0.11306863 0.13517541 0.020358622 1.0766348e-38
0.11359144 0.13788301 0.02121979 1.0671286e-38
0.10977712 0.088815778 0.012436092 1.1497835e-38
0.10868305 0.092955247 0.013178647 1.5467963e-38
0.10848659 0.096476987 0.013322413 1.4083603e-38
0.10848057 0.1002906 0.013809323 1.0768148e-38
0.10848346 0.10403086 0.01462245 1.0679558e-38
0.10749889 0.10802817 0.014223158 1.1140167e-38
0.10782017 0.11175886 0.015058279 1.0218205e-38
0.10782888 0.11545317 0.016089499 8.6555726e-39
0.10783758 0.11915028 0.017121255 8.9313972e-39
0.10902949 0.12374908 0.018320203 1.0404013e-38
0.10926855 0.12749997 0.019727588 1.1416041e-38
0.10977712 0.13090153 0.020311058 1.1783031e-38
0.10469137 0.093745098 0.013888538 2.0441832e-38
0.1046891 0.096282125 0.014249861 1.675472e-38
0.10468166 0.1001233 0.01462853 1.2427669e-38
0.10532708 0.10349333 0.015646338 1.1602603e-38
0.10562678 0.10742196 0.015583277 1.1050847e-38
0.1059507 0.11145777 0.016560316 8.8402903e-39
0.10593857 0.11406538 0.016538143 7.9201179e-39
0.10002482 0.093104362 0.013914227 2.2480228e-38
0.10023442 0.096284851 0.014317095 1.923648e-38
0.100236 0.099778205 0.015072882 1.3989952e-38
0.094512679 0.088761672 0.012994409 2.136242e-38
0.096147329 0.091895029 0.013556421 2.2934384e-38
0.095778823 0.096411064 0.013839245 1.7945406e-38
0.095779821 0.10014756 0.014651954 1.3711955e-38
0.096152246 0.10297747 0.016214013 1.2427319e-38
0.09222576 0.088059351 0.012692392 2.2382287e-38
0.092604905 0.091426075 0.012839615 2.3302823e-38
0.09323784 0.097112775 0.013667226 1.5735238e-38
0.092604011 0.10023218 0.014317095 1.3070181e-38
0.091974787 0.10310479 0.016113281 1.2796452e-38
0.088006839 0.10358924 0.016191483 1.2705335e-38
0.084568933 0.10408156 0.016727149 1.2154335e-38
0.08080668 0.10439351 0.016938984 1.2246488e-38
0.080538586 0.10592197 0.018343806 1.2065007e-38
0.076752596 0.10487391 0.017178833 1.2153966e-38
0.076726802 0.10585013 0.01872772 1.2061783e-38
0.074223101 0.10489599 0.017105699 1.0491219e-38
0.072723642 0.10699284 0.018506587 1.1319917e-38
0.069152504 0.10855807 0.018319488 1.5183129e-38
0.069091082 0.10940599 0.020529866 1.4078214e-38
0.062814258 0.10843863 0.018957794 1.6570057e-38
0.064005323 0.11056645 0.02127713 1.5189209e-38
0.058919571 0.10418916 0.020613968 9.4759894e-39
0.06004107 0.1072291 0.020335555 1.2057485e-38
0.060826734 0.10925026 0.021362185 1.4725377e-38
0.056442276 0.10066004 0.0188483 9.2980567e-39
0.057060182 0.10185449 0.019348264 9.5760729e-39
0.051926658 0.087725595 0.018262267 1.6110117e-38
0.05181843 0.090865895 0.01698631 1.5282495e-38
0.051722333 0.096017271 0.017789781 1.2151808e-38
0.052479543 0.099497631 0.019001305 9.384877e-39
0.051290937 0.1015328 0.020912111 9.2026311e-39
0.048907518 0.091146156 0.018473327 1.3900294e-38
0.048822224 0.095476776 0.018786371 1.2795008e-38
0.048809096 0.099190161 0.019709826 1.030541e-38
0.048252068 0.1022719 0.021162629 9.7565209e-39
0.048010372 0.10632746 0.021742225 9.2983972e-39
0.047476627 0.10899867 0.022706747 9.1151186e-39
0.045696601 0.091628313 0.019641995 1.1598676e-38
0.044955358 0.095206067 0.020047843 1.1874156e-38
0.045000456 0.099118397 0.020093381 1.1412808e-38
0.044971235 0.10278769 0.021237612 1.0310052e-38
0.044971026 0.10655364 0.021942317 9.4824606e-39
0.044298023 0.10893877 0.023026824 9.2044542e-39
0.041755147 0.096327946 0.020932198 1.2701018e-38
0.041314088 0.099097133 0.020985007 1.2794982e-38
0.041143149 0.10266864 0.021841586 1.1780851e-38
0.041167066 0.10650416 0.022215903 1.0861771e-38
0.040865131 0.10937659 0.023466587 1.0861069e-38
0.038576543 0.10506208 0.02289784 1.435945e-38
0.16830531 0.10077973 0.012664616 1.952028e-38
0.16809215 0.1041458 0.013316691 1.9243327e-38
0.16851602 0.10836466 0.013769746 1.8690858e-38
0.16794121 0.11151323 0.014506459 1.9150773e-38
0.16745263 0.11487588 0.015391111 1.9522429e-38
0.16745263 0.1205629 0.016455233 2.1277754e-38
0.16404192 0.097329304 0.012463391 2.0348961e-38
0.16483334 0.10041325 0.012389719 1.9979447e-38
0.16480838 0.10424811 0.012882769 1.90593e-38
0.1646976 0.10823743 0.012618005 1.887456e-38
0.16463593 0.11212972 0.0127846 1.9243333e-38
0.16473538 0.11573736 0.014358401 1.9336604e-38
0.16474795 0.11949967 0.015174627 2.0075253e-38
0.16482097 0.12379415 0.016652405 2.1181614e-38
0.16449788 0.12795979 0.017855108 2.2012466e-38
0.16361558 0.13123272 0.018851697 2.2380532e-38
0.15977854 0.090087548 0.011552691 2.2373678e-38
0.16029014 0.092624754 0.011974096 2.0715247e-38
0.16104601 0.096455038 0.012498438 1.9612128e-38
0.16092876 0.10048392 0.012128234 1.9150419e-38
0.16081087 0.10449991 0.011755645 1.8322804e-38
0.16105872 0.10779196 0.011664093 1.8138064e-38
0.16201374 0.11221352 0.012391925 1.8415008e-38
0.16116485 0.11639141 0.013262153 1.841285e-38
0.16092646 0.11969534 0.014160872 1.8783089e-38
0.16089959 0.12387308 0.016223669 1.9154734e-38
0.16095182 0.12819859 0.017539024 1.9707546e-38
0.16087148 0.13169786 0.018969178 2.0261105e-38
0.16073778 0.1346539 0.019791842 2.1275636e-38
0.15615463 0.089597985 0.011838913 2.1270912e-38
0.15656495 0.092592373 0.01218605 2.0254253e-38
0.15650722 0.096511245 0.012328684 1.9520623e-38
0.15643187 0.10045888 0.012308121 1.8507208e-38
0.15649594 0.10414119 0.01145649 1.749411e-38
0.15819374 0.11717419 0.013718307 1.6481076e-38
0.15776929 0.12010191 0.01431042 1.7493422e-38
0.15703616 0.12424386 0.015161753 1.7862197e-38
0.15630072 0.12843306 0.016192794 1.712646e-38
0.15647434 0.13191459 0.018615723 1.8140246e-38
0.15632442 0.13517094 0.019894183 1.9523532e-38
0.15210442 0.08867915 0.012089133 2.0532267e-38
0.15202202 0.092671365 0.011935592 1.9609956e-38
0.15199143 0.096531034 0.012320161 1.832065e-38
0.15192978 0.10045841 0.012379646 1.7216471e-38
0.15150872 0.10352296 0.011860728 1.647855e-38
0.15246373 0.12838969 0.016414225 1.5560565e-38
0.151869 0.13207787 0.017620802 1.5930052e-38
0.15201259 0.13560241 0.019856215 1.7589216e-38
0.15125173 0.13837177 0.021476388 1.8237111e-38
0.14762786 0.084803447 0.011830509 2.0070218e-38
0.14823845 0.088051781 0.01203388 1.9886178e-38
0.14818059 0.0926245 0.012213707 1.9056779e-38
0.14818059 0.09641023 0.012922108 1.7398705e-38
0.14810388 0.1003859 0.012764871 1.6755477e-38
0.14800707 0.1036457 0.012248755 1.6020439e-38
0.14800705 0.13208021 0.017569244 1.4827663e-38
0.14814225 0.13560334 0.019805312 1.5749611e-38
0.14794761 0.1382042 0.021789372 1.6762339e-38
0.14506982 0.084755257 0.01208812 1.9886904e-38
0.14441004 0.087960169 0.012501001 1.9978724e-38
0.14433162 0.092602223 0.012383342 1.9330844e-38
0.14429475 0.096484378 0.012659311 1.7952227e-38
0.14426814 0.099707976 0.012924314 1.7769621e-38
0.14418706 0.10307044 0.012539327 1.6848029e-38
0.14418706 0.13326636 0.01818943 1.4549269e-38
0.14429516 0.13556695 0.019972146 1.4916613e-38
0.14424002 0.13898438 0.021938384 1.5656346e-38
0.1437908 0.14160126 0.022858322 1.676017e-38
0.14123276 0.084682941 0.012474597 1.9611754e-38
0.14057441 0.087887898 0.012887299 2.0163853e-38
0.1406021 0.092550963 0.011967182 1.9702506e-38
0.14164039 0.096731618 0.011618674 1.8874536e-38
0.14164039 0.099247962 0.012089491 1.8324232e-38
0.14164039 0.13321838 0.018445909 1.4642545e-38
0.14061359 0.13593562 0.019937932 1.4733663e-38
0.14055157 0.13910142 0.022160113 1.5288269e-38
0.1402735 0.14185092 0.02327168 1.5747097e-38
0.1367562 0.084598556 0.012925446 2.0533344e-38
0.13682811 0.087735683 0.012854159 2.0348601e-38
0.13675946 0.092221469 0.01205045 1.9517763e-38
0.13705638 0.096393615 0.012033224 1.8688717e-38
0.13782039 0.099175975 0.012474179 1.8227739e-38
0.1362924 0.13638882 0.019596636 1.4365606e-38
0.13667056 0.1391339 0.021888793 1.4735823e-38
0.13673297 0.14215177 0.023356199 1.574782e-38
0.13259938 0.084204301 0.013284922 2.0072736e-38
0.13300203 0.087472022 0.013138592 1.9796149e-38
0.13230261 0.092082202 0.011721909 1.8873821e-38
0.13209039 0.097180754 0.012698174 1.7585616e-38
0.13272706 0.13632163 0.019955695 1.4274136e-38
0.13276973 0.13923751 0.021178603 1.4828019e-38
0.13288379 0.14274515 0.023641169 1.6209517e-38
0.12822941 0.080225274 0.012995958 2.0067683e-38
0.12904988 0.083323061 0.012921929 1.8873112e-38
0.12899739 0.08731918 0.012766004 1.8966381e-38
0.12890705 0.092088103 0.012077034 1.8689422e-38
0.1293315 0.096499667 0.012858331 1.8044774e-38
0.12890705 0.1367529 0.020434678 1.4183041e-38
0.12906621 0.13942952 0.020918787 1.5288997e-38
0.128979 0.14285947 0.022819638 1.6947074e-38
0.12822941 0.1455206 0.025213838 1.7776832e-38
0.12332651 0.07676281 0.012859106 2.0530113e-38
0.12453833 0.079472601 0.013053894 1.979398e-38
0.12451181 0.083545372 0.012129724 1.9058577e-38
0.12467098 0.08779709 0.012446105 1.8874547e-38
0.1244344 0.092008144 0.013157547 1.8136609e-38
0.12457771 0.1394393 0.021388471 1.4734737e-38
0.12450147 0.14280891 0.023049653 1.6577942e-38
0.12458649 0.14571857 0.025247097 1.8234929e-38
0.12011874 0.07928431 0.013438106 1.9057146e-38
0.12005298 0.083420962 0.012741685 1.832209e-38
0.11983454 0.087670848 0.012196124 1.7308645e-38
0.12075772 0.091053814 0.012732983 1.7027402e-38
0.1200045 0.13921955 0.022079706 1.2988082e-38
0.12008388 0.14257134 0.024488389 1.4829111e-38
0.11995194 0.14610492 0.025802493 1.7868297e-38
0.11644687 0.079349294 0.013932467 1.6208772e-38
0.11625668 0.083162561 0.013884425 1.537508e-38
0.11635561 0.087088525 0.012449861 1.5192099e-38
0.11602558 0.13925157 0.023121417 9.7587182e-39
0.11626083 0.1424655 0.02509433 1.1513302e-38
0.11628753 0.14615446 0.026463628 1.4092622e-38
0.11629191 0.14866571 0.02704668 1.6950651e-38
0.11229052 0.079270974 0.01435101 9.568562e-39
0.11242841 0.083063617 0.014378667 9.937004e-39
0.11237556 0.086585701 0.01345247 1.1138033e-38
0.11108038 0.08986491 0.013519287 1.2063232e-38
0.11139871 0.13547935 0.022021353 1.2153585e-38
0.1122362 0.13891542 0.023855269 1.2429471e-38
0.11259764 0.14219646 0.025709987 1.2611016e-38
0.11322226 0.14582756 0.026835561 1.3261066e-38
0.10886762 0.079825118 0.014734805 9.2008276e-39
0.10897468 0.083060399 0.015241385 9.292289e-39
0.10839556 0.086962745 0.014023066 1.049014e-38
0.10827905 0.090315387 0.013895571 1.3443624e-38
0.10726038 0.12313426 0.020142734 1.077136e-38
0.10757871 0.12785837 0.020993531 1.1783391e-38
0.10816991 0.13150921 0.021615028 1.2151812e-38
0.1085337 0.13511083 0.02225095 1.2523116e-38
0.10858313 0.13860457 0.024717689 1.3352862e-38
0.10860815 0.14162177 0.026188731 1.4090084e-38
0.10605976 0.084020108 0.016016901 7.817896e-39
0.10475963 0.087369308 0.015841722 9.38597e-39
0.10471371 0.091632172 0.014513612 2.0634109e-38
0.10421255 0.10374324 0.017241061 1.169481e-38
0.10408726 0.10724469 0.01801157 1.0684202e-38
0.1053839 0.11021465 0.019454896 8.3804052e-39
0.10604764 0.11507869 0.021318436 7.6438939e-39
0.10495335 0.11856268 0.022157609 7.6392542e-39
0.10475202 0.12276768 0.022125185 8.5605001e-39
0.10474762 0.12721786 0.022759616 8.931449e-39
0.1047584 0.13092536 0.023906708 9.1136823e-39
0.10475302 0.13474749 0.024395168 1.012784e-38
0.10492873 0.13826296 0.025773287 1.1327086e-38
0.10542025 0.14087817 0.02672267 1.271e-38
0.10170405 0.088074788 0.01682055 1.2430973e-38
0.1011558 0.091095775 0.015193105 2.2116842e-38
0.10025704 0.10098442 0.016728103 1.2980145e-38
0.10092312 0.10313927 0.01887995 1.2153251e-38
0.10178399 0.10640393 0.019969285 1.0402944e-38
0.10222271 0.11933365 0.023024619 6.9921122e-39
0.10221343 0.12258303 0.023122311 7.8243896e-39
0.10157391 0.12699187 0.024013937 8.3793556e-39
0.1015801 0.13072419 0.025052547 7.0907734e-39
0.10110125 0.13434044 0.025821865 6.7216139e-39
0.10222271 0.13702658 0.026335299 8.3797158e-39
0.095818534 0.087852016 0.016778827 1.9244476e-38
0.098347045 0.089624956 0.014801681 2.2383759e-38
0.097102359 0.10372089 0.020296156 1.2151788e-38
0.092620641 0.10451038 0.018695235 1.233511e-38
0.092625223 0.10594831 0.02015692 1.1598271e-38
0.089433707 0.10455495 0.018524408 1.2609555e-38
0.088315092 0.1062731 0.02126354 1.2151822e-38
0.084325053 0.10656551 0.021478534 1.2062498e-38
0.080511272 0.10739647 0.02066797 1.1972096e-38
0.079843782 0.109484 0.023258746 1.2429128e-38
0.07669393 0.1073924 0.020724297 1.1970669e-38
0.076651774 0.10994796 0.023422599 1.2154714e-38
0.072880372 0.10801749 0.020897865 1.1321728e-38
0.072824337 0.11008884 0.023563802 1.1601543e-38
0.069184959 0.11045437 0.023638248 1.2425882e-38
0.067689218 0.11236396 0.025320232 1.1784128e-38
0.065481238 0.11107008 0.022649348 1.3810245e-38
0.065143615 0.11301327 0.025366187 1.1506839e-38
0.061007909 0.11044276 0.023757935 1.2057822e-38
0.061623916 0.11261465 0.025743663 1.1415358e-38
0.056087822 0.10278715 0.022838295 8.8352975e-39
0.056145124 0.10680343 0.022415102 8.9278491e-39
0.056719206 0.1100543 0.024451077 1.0216801e-38
0.057457067 0.11217113 0.026350737 1.0862524e-38
0.052406833 0.085179687 0.020633519 1.6387412e-38
0.052596532 0.10249741 0.023257554 8.3757543e-39
0.052507021 0.10637541 0.022714198 8.6523412e-39
0.052470975 0.11001681 0.024081111 1.0404777e-38
0.052864052 0.11237657 0.026663363 1.1508611e-38
0.049782962 0.082959563 0.021684706 1.7676708e-38
0.048571333 0.085724428 0.021192074 1.5835675e-38
0.047413692 0.088665113 0.019931257 1.4267264e-38
0.0493237 0.10316999 0.022446275 9.111862e-39
0.049642041 0.10663594 0.023061633 9.0207313e-39
0.048846193 0.11023818 0.023818552 9.8505313e-39
0.049013242 0.11353213 0.026741743 1.1232741e-38
0.049143456 0.11580582 0.027897418 1.1878837e-38
0.044586979 0.085976005 0.022232831 1.4083949e-38
0.044357687 0.090368956 0.020568609 1.1690128e-38
0.045048915 0.11036882 0.024238884 9.2980805e-39
0.044771716 0.11349908 0.02633065 1.0032403e-38
0.044263095 0.11661987 0.028217554 1.1231669e-38
0.043387875 0.11948869 0.029186487 1.1143425e-38
0.041012548 0.086946711 0.023344994 1.3808094e-38
0.04092595 0.090678245 0.022688627 1.1965611e-38
0.040822662 0.09434469 0.022265315 1.2425154e-38
0.039773688 0.09732829 0.022348642 1.4269006e-38
0.041365355 0.11088355 0.024719179 1.0490496e-38
0.040998757 0.11357926 0.025943518 1.1598284e-38
0.040886343 0.11706112 0.028197587 1.2058906e-38
0.040510073 0.11975041 0.029535413 1.2059586e-38
0.037248582 0.087272972 0.023798287 1.1774045e-38
0.037061982 0.090504959 0.023513436 1.1959525e-38
0.037070863 0.094316363 0.024112165 1.3250973e-38
0.037173703 0.098392993 0.023500621 1.1963821e-38
0.037173703 0.10217123 0.024207592 1.0771039e-38
0.037027866 0.10613869 0.024794757 1.1509697e-38
0.03714747 0.10966119 0.025952816 1.2430561e-38
0.037044212 0.11317973 0.027985513 1.1598651e-38
0.037027068 0.11692551 0.028915465 1.1412821e-38
0.037632287 0.11938022 0.029766142 1.2522346e-38
0.033521153 0.090416327 0.024775088 1.3702192e-38
0.033164829 0.094044924 0.025377572 1.1214765e-38
0.033192307 0.097908393 0.025756776 9.0028017e-39
0.033182994 0.10167381 0.026575923 8.6390148e-39
0.033356778 0.10534306 0.027074039 8.4593249e-39
0.034434743 0.10794595 0.027959883 9.2865955e-39
0.030597702 0.095235839 0.025981605 1.415818e-38
0.030277938 0.098073319 0.026545823 1.167826e-38
0.03017135 0.10070416 0.027049303 1.0854262e-38
0.14775661 0.1162803 0.011684597 1.5834971e-38
0.11325658 0.11198957 0.0094746351 1.537649e-38
0.1142883 0.10749516 0.0086432695 1.5926448e-38
0.11938927 0.10885626 0.0087829232 1.8142023e-38
0.11693971 0.11029676 0.0089989901 1.7585616e-38
0.11439385 0.10602295 0.0090171695 1.8138065e-38
0.11245312 0.10480838 0.008506 1.7309021e-38
0.11010636 0.10654701 0.0087454319 1.6478538e-38
0.11468914 0.11509152 0.010553658 1.4360561e-38
0.11336344 0.10158516 0.016536832 1.6480685e-38
0.10904525 0.098139539 0.015513837 1.7124268e-38
0.10598623 0.10970679 0.017656624 1.4547824e-38
0.10334076 0.10912153 0.018442214 1.5467998e-38
0.098858088 0.10242605 0.017457008 1.4914804e-38
0.090022989 0.11143719 0.020266891 1.2520606e-38
0.085707903 0.10155997 0.018454373 1.5096686e-38
0.16854398 0.088075742 0.015375972 2.2767279e-38
0.16922665 0.09183009 0.015211821 2.2662822e-38
0.16901892 0.096036062 0.014202535 2.1270197e-38
0.16970268 0.099324316 0.013269305 2.0072729e-38
0.17012966 0.10397309 0.014094651 1.9058937e-38
0.1694892 0.10649233 0.014632821 1.8783063e-38
0.16980943 0.11187738 0.015607059 1.8782001e-38
0.16924872 0.1154732 0.01663065 1.9890501e-38
0.16900885 0.1189816 0.017019868 2.1273077e-38
0.16890824 0.12347649 0.018382788 2.2202966e-38
0.16905814 0.12768909 0.020462096 2.285949e-38
0.16857652 0.13125077 0.022599161 2.3141465e-38
0.16861524 0.13373865 0.023401499 2.3234019e-38
0.16459259 0.084775999 0.015170455 2.2483158e-38
0.16531608 0.08804515 0.014456749 2.2758658e-38
0.16518012 0.092134371 0.01398623 2.2195023e-38
0.16547075 0.095794752 0.013390958 2.0626627e-38
0.16628692 0.1285809 0.019099772 2.2853016e-38
0.16556485 0.13162202 0.021497309 2.2759392e-38
0.1651251 0.13495141 0.022969544 2.2947368e-38
0.16410837 0.13810691 0.024688661 2.2488182e-38
0.1615276 0.084001735 0.014776886 2.2751116e-38
0.16140361 0.088286504 0.012836039 2.2561307e-38
0.16212395 0.092431352 0.01276952 2.108511e-38
0.16244417 0.13293827 0.020315707 2.1828441e-38
0.1614625 0.1361455 0.021427333 2.2194345e-38
0.16144559 0.13882542 0.024248481 2.2661429e-38
0.16094187 0.14114982 0.026099503 2.2668985e-38
0.15624808 0.080314323 0.015205383 2.2654572e-38
0.15700231 0.083963141 0.015042424 2.2376192e-38
0.157141 0.087618247 0.012729168 2.163898e-38
0.15732053 0.13663867 0.021542192 2.0444419e-38
0.15684661 0.13889754 0.023718655 2.026182e-38
0.1570521 0.14175183 0.026361883 2.1646924e-38
0.15192243 0.077322766 0.015096545 2.1730077e-38
0.15250587 0.080042839 0.014862835 2.1269833e-38
0.15237235 0.084200621 0.01417768 2.0439002e-38
0.15268612 0.13939999 0.023223758 1.8512616e-38
0.15245409 0.14245112 0.02597779 2.0448358e-38
0.15118763 0.14493474 0.026801825 2.2013869e-38
0.14895889 0.076503024 0.015252054 2.1086159e-38
0.1485602 0.07956785 0.014205217 1.9703219e-38
0.14838369 0.083021551 0.012781978 1.9977299e-38
0.14861032 0.13976523 0.023035109 1.7772914e-38
0.14845097 0.14263098 0.024724305 1.9250538e-38
0.14844346 0.14601453 0.027162015 2.137032e-38
0.1474127 0.1485337 0.028891385 2.1830223e-38
0.14451359 0.075591713 0.015544891 2.0804558e-38
0.1447141 0.079464301 0.014714658 1.9978738e-38
0.14423075 0.083430484 0.013461769 1.9611396e-38
0.14579231 0.14021838 0.023413658 1.7682126e-38
0.14469439 0.14309061 0.024065554 1.8326438e-38
0.1446566 0.14626396 0.02648139 1.9895545e-38
0.14478166 0.14857991 0.02849257 2.0910397e-38
0.14079055 0.074788451 0.01552695 2.1449551e-38
0.14086956 0.079351038 0.01526463 2.0346788e-38
0.14042288 0.083238184 0.014334083 1.988689e-38
0.14092484 0.14341736 0.024519622 1.6943142e-38
0.14071892 0.14635399 0.025772393 1.9248019e-38
0.14093255 0.14912 0.029165268 2.0444406e-38
0.13710476 0.071950957 0.015635908 2.2743535e-38
0.1370742 0.074608386 0.015681744 2.2190702e-38
0.13698906 0.079360127 0.015329957 2.1363091e-38
0.13682592 0.083095044 0.013659537 2.0624826e-38
0.13682592 0.14384636 0.025027156 1.6760875e-38
0.1368724 0.14628151 0.026159763 1.8328939e-38
0.13680525 0.14892927 0.029457569 1.925016e-38
0.1332393 0.071878105 0.016025245 2.3111246e-38
0.13319661 0.07459116 0.015855551 2.2742818e-38
0.13308361 0.078843445 0.014844894 2.2099945e-38
0.13323936 0.082268059 0.013878644 2.0627339e-38
0.13302585 0.14620902 0.026547194 1.7498092e-38
0.13319692 0.14899786 0.029778361 1.8326058e-38
0.129355 0.07189025 0.016091526 2.2652039e-38
0.12927072 0.074797064 0.015166998 2.2465134e-38
0.12958747 0.078656957 0.013924479 2.1820123e-38
0.12960693 0.14656648 0.026970446 1.7959792e-38
0.12932822 0.14957739 0.030176342 1.8605152e-38
0.12548514 0.070572644 0.01613462 2.2099943e-38
0.12549731 0.074938819 0.01408124 2.1453138e-38
0.1252977 0.07781519 0.013873279 2.0342864e-38
0.1252977 0.14742608 0.026898682 1.8510804e-38
0.12565479 0.14913517 0.03054148 1.8788823e-38
0.1216049 0.071354434 0.016321838 2.1175849e-38
0.1210689 0.074979112 0.014692485 2.0071301e-38
0.12209542 0.14736573 0.027221203 1.87881e-38
0.12113071 0.14872624 0.02979219 1.9158686e-38
0.11739181 0.071143568 0.017101407 1.7955109e-38
0.11686958 0.074549928 0.016000211 1.6759085e-38
0.1150504 0.077622071 0.014905274 1.4369551e-38
0.11647014 0.14929464 0.031747818 1.8515477e-38
0.11296774 0.070951983 0.017234564 1.1044789e-38
0.11255266 0.074565709 0.016525447 9.5685592e-39
0.11376949 0.077597931 0.015034318 1.1593328e-38
0.11120765 0.1433636 0.027607262 1.3440778e-38
0.11154379 0.14614487 0.028603971 1.3903903e-38
0.11242792 0.14913189 0.031627357 1.4826586e-38
0.1093947 0.070856199 0.018063843 1.0123161e-38
0.10872325 0.074270114 0.017778337 1.0214598e-38
0.1083256 0.077811763 0.015641749 9.7525483e-39
0.10736491 0.081907034 0.016508222 9.2962266e-39
0.10866325 0.14321485 0.028526425 1.4365225e-38
0.10870124 0.14555362 0.030323625 1.4548178e-38
0.10907258 0.1481654 0.032563329 1.4549973e-38
0.10618095 0.075187624 0.01946497 1.1592484e-38
0.10614459 0.078737453 0.018599033 9.1118746e-39
0.10480309 0.083124399 0.017003059 6.3424268e-39
0.10352218 0.10778049 0.021750152 9.1136907e-39
0.10405907 0.11033522 0.023399413 6.7184078e-39
0.10418371 0.11392573 0.023853719 6.5289592e-39
0.10416263 0.11665213 0.023343384 6.9913737e-39
0.10352218 0.13942181 0.027670801 1.0496982e-38
0.10464802 0.14214101 0.029377162 1.2431255e-38
0.10503581 0.14514074 0.031906784 1.3626926e-38
0.10618095 0.1477567 0.033043921 1.4364139e-38
0.10055003 0.10646616 0.022836685 9.0211139e-39
0.10120045 0.1092193 0.025767744 6.7176875e-39
0.10144411 0.11363398 0.026471019 5.7038593e-39
0.10084184 0.1172009 0.0264768 5.7957144e-39
0.10033466 0.12209335 0.025783241 7.273385e-39
0.099679433 0.12669286 0.025689542 8.5666238e-39
0.099679433 0.13048983 0.02640003 6.2603037e-39
0.09967944 0.13555244 0.027347326 4.1405329e-39
0.10081732 0.13808559 0.028853238 5.8900904e-39
0.10100535 0.14148177 0.031159401 8.1928176e-39
0.10167123 0.14385229 0.032783449 1.0129985e-38
0.098398522 0.10388698 0.021555662 1.1877348e-38
0.097141199 0.10596184 0.024233997 9.387744e-39
0.09844999 0.11832875 0.02834332 5.9800804e-39
0.09726961 0.12179472 0.028371096 7.0868288e-39
0.097135842 0.12633227 0.027705252 8.0102256e-39
0.097136699 0.13013944 0.028417587 7.1783083e-39
0.097134627 0.13396627 0.02902019 6.7183713e-39
0.09731178 0.13738459 0.031132817 6.9034871e-39
0.09844999 0.14060873 0.032512307 6.9957303e-39
0.093608417 0.1068182 0.02490449 1.0765289e-38
0.092865959 0.10892077 0.026994526 9.8465586e-39
0.094155014 0.12249162 0.029569924 7.3619555e-39
0.093293034 0.12594822 0.029852033 7.6388969e-39
0.093291655 0.1298033 0.030346274 7.8240253e-39
0.09329363 0.13229153 0.031152606 8.2867676e-39
0.089432858 0.10724351 0.024481833 1.1598312e-38
0.089431323 0.10953592 0.026160836 1.0862171e-38
0.089270391 0.11300142 0.027791977 9.7579587e-39
0.088787049 0.1169367 0.028749228 8.838145e-39
0.089269474 0.12086118 0.02977407 8.8385177e-39
0.089860037 0.12623011 0.030717194 9.3913454e-39
0.090719037 0.12964134 0.031265974 9.0189839e-39
0.084943481 0.10976245 0.025080264 1.1876302e-38
0.085573591 0.11325295 0.027372122 1.0864294e-38
0.085569113 0.11693926 0.028744102 1.0037057e-38
0.085682184 0.12121314 0.030213833 9.4831879e-39
0.085565053 0.12572479 0.031070292 1.04055e-38
0.084276579 0.12888336 0.031795681 1.1691923e-38
0.080978103 0.11039321 0.024588943 1.1968867e-38
0.081467137 0.11317845 0.027104497 1.1232378e-38
0.081711352 0.1169288 0.028803408 1.0955808e-38
0.081444435 0.12122812 0.030453861 1.0496255e-38
0.081515521 0.12528472 0.031410098 1.0496271e-38
0.081184193 0.12946165 0.032226205 1.1140557e-38
0.076623 0.11107053 0.025169671 1.2154349e-38
0.077057816 0.11340791 0.02723521 1.132567e-38
0.07760372 0.11681914 0.028699756 1.086362e-38
0.077844612 0.12123007 0.03043741 1.0864317e-38
0.077838399 0.1256184 0.031628549 1.0955452e-38
0.077836253 0.12941724 0.032453179 1.132352e-38
0.077834114 0.13321796 0.033278227 1.1968528e-38
0.076545618 0.13637652 0.034003615 1.2336579e-38
0.072758429 0.1133576 0.02690953 1.1416053e-38
0.073193498 0.11703819 0.028875113 1.114019e-38
0.073348463 0.12122066 0.030478239 1.114018e-38
0.07334847 0.12567009 0.031310856 1.1508255e-38
0.073515497 0.12931022 0.032346368 1.2060354e-38
0.073968634 0.13250853 0.033548474 1.2428789e-38
0.074612886 0.13570353 0.034079134 1.2613518e-38
0.069074601 0.11347352 0.027173162 1.1417139e-38
0.068876088 0.11687554 0.029108763 1.1508232e-38
0.068853058 0.12118216 0.030683994 1.1784825e-38
0.068845361 0.12558523 0.031764328 1.2520961e-38
0.069087721 0.12944654 0.032972932 1.307413e-38
0.071391657 0.13245997 0.033807993 1.2797212e-38
0.065071784 0.11452156 0.027701318 1.114163e-38
0.065038577 0.11688749 0.029056489 1.1509656e-38
0.06501624 0.12121566 0.030493736 1.2337638e-38
0.065006435 0.1256106 0.031601131 1.3074147e-38
0.064981744 0.12930757 0.032977223 1.3809537e-38
0.064090192 0.13211018 0.034503639 1.3350361e-38
0.060995854 0.11406673 0.027359247 1.1325289e-38
0.061167888 0.11673029 0.029885054 1.1325639e-38
0.061167888 0.12117317 0.030716479 1.1969585e-38
0.061135143 0.12547936 0.032320976 1.2612802e-38
0.061116233 0.12921521 0.033476532 1.2890107e-38
0.06109041 0.13229352 0.034680188 1.3441475e-38
0.055979408 0.082119614 0.02497232 1.9694256e-38
0.057409309 0.11387259 0.027696788 1.1048342e-38
0.057323962 0.11669977 0.030052841 1.0956499e-38
0.057313785 0.12110054 0.031104624 1.1417502e-38
0.057271086 0.12538683 0.032820046 1.2613515e-38
0.057233721 0.12906675 0.034307957 1.3442561e-38
0.058077224 0.13199687 0.035109222 1.3902813e-38
0.053116828 0.078868106 0.025275946 2.1819054e-38
0.053659536 0.082020462 0.02388072 1.9054257e-38
0.053822741 0.11393157 0.028081656 1.1599719e-38
0.053496554 0.11671148 0.029999375 1.1600044e-38
0.053450905 0.12099787 0.03165853 1.196923e-38
0.053406201 0.12529428 0.033319235 1.2522047e-38
0.053567648 0.12867481 0.034373403 1.3258904e-38
0.049506985 0.078656569 0.02568078 1.9795783e-38
0.049664691 0.081211448 0.023415267 1.8503224e-38
0.049664691 0.11733684 0.030174971 1.2246917e-38
0.049590752 0.1209102 0.032129645 1.2890826e-38
0.049546398 0.12522155 0.033707976 1.3350005e-38
0.049536243 0.12837121 0.034468889 1.3350367e-38
0.045654215 0.078624457 0.025905967 1.6481383e-38
0.045496047 0.082028285 0.023272276 1.5836026e-38
0.046137266 0.11758369 0.029566169 1.1786635e-38
0.045594849 0.12094409 0.031667471 1.1970315e-38
0.045694031 0.12516867 0.033985972 1.2521323e-38
0.045654215 0.12824142 0.035190165 1.2980509e-38
0.042027749 0.078610554 0.026588142 1.4544951e-38
0.041309275 0.082260311 0.024738133 1.4268373e-38
0.040116973 0.085069522 0.024109781 1.4270161e-38
0.041341856 0.12190588 0.031692982 1.1968144e-38
0.041612938 0.12505135 0.033889472 1.2427662e-38
0.041756332 0.12808207 0.036077976 1.3072331e-38
0.03917934 0.07901755 0.027165771 1.4277686e-38
0.037853591 0.08176744 0.026156664 1.3618684e-38
0.036554463 0.0852011 0.025017023 1.1125099e-38
0.036977679 0.12101372 0.03244108 1.1782671e-38
0.037796222 0.12513754 0.035044968 1.3071249e-38
0.037903227 0.12803808 0.036300957 1.3809185e-38
0.034911022 0.082411245 0.027904809 1.1030404e-38
0.033271201 0.085918516 0.027027547 1.6291921e-38
0.031791039 0.089342415 0.025777161 1.6101822e-38
0.031791039 0.10642873 0.028974295 9.6557241e-39
0.032869004 0.10903908 0.029861748 9.2837284e-39
0.03299623 0.11260661 0.03091377 9.8386623e-39
0.03334219 0.1161868 0.031807303 1.0396488e-38
0.034107238 0.12020925 0.034379542 1.1319561e-38
0.034991741 0.12477174 0.036163688 1.2793952e-38
0.029937588 0.085811034 0.028991222 1.6193342e-38
0.029254675 0.089743733 0.027650595 1.3799476e-38
0.029023431 0.093450204 0.027345657 1.2876436e-38
0.028424121 0.097165883 0.028001189 1.2325055e-38
0.028741352 0.10159041 0.029068649 1.2881496e-38
0.029109076 0.1048394 0.030320048 1.2700692e-38
0.02904015 0.10848647 0.031805098 1.3255289e-38
0.029121682 0.11196505 0.033356488 1.3346747e-38
0.030470133 0.11563382 0.034311593 1.2519882e-38
0.031448387 0.11833926 0.035329401 1.2152533e-38
0.026294418 0.086413577 0.029892802 1.168832e-38
0.026079677 0.08895582 0.030390859 1.0948963e-38
0.025428168 0.093071073 0.030644536 9.0164364e-39
0.025132343 0.096865371 0.030606031 9.2919597e-39
0.025153279 0.10072522 0.031098843 1.0219674e-38
0.025196217 0.10462783 0.031370103 1.3164891e-38
0.025121778 0.10827939 0.032856524 1.408397e-38
0.025709152 0.11198728 0.034099817 1.435983e-38
0.026294418 0.11442269 0.035133779 1.4175071e-38
0.022643663 0.092710495 0.031451583 9.0164224e-39
0.021536864 0.096752584 0.032031119 8.4668555e-39
0.021173418 0.10039201 0.032701254 8.8349458e-39
0.021263257 0.10439411 0.032531738 1.0864671e-38
0.021195799 0.10807218 0.033908725 1.3900291e-38
0.022119418 0.11166312 0.034924746 1.4731841e-38
0.022428937 0.11434986 0.035523057 1.5280714e-38
0.017274968 0.097701892 0.032945216 7.9165474e-39
0.017704464 0.10046846 0.033418119 8.3764578e-39
0.017345555 0.10420634 0.033473134 1.0679189e-38
0.018241338 0.10758695 0.034694135 1.3074511e-38
0.018563457 0.11045758 0.035197675 1.408826e-38
0.014697976 0.10274589 0.034157634 8.8377806e-39
0.10423157 0.10448159 0.011854768 1.2242918e-38
0.084070928 0.097723693 0.0073534846 1.564949e-38
0.063551173 0.097772658 0.0020564198 1.6111209e-38
0.10882998 0.11977012 0.012299061 1.3163477e-38
0.13027194 0.098799691 0.010804355 1.8137694e-38
0.12681691 0.10553382 0.013915956 1.3535463e-38
0.079405412 0.11389861 0.02227217 1.3625154e-38
0.049642041 0.10663594 0.023061633 9.0207313e-39
0.054863535 0.11411929 0.03014034 1.0306468e-38
0.079405412 0.11389861 0.02227217 1.3625154e-38
0.16513872 0.080662459 0.017411888 2.2861639e-38
0.16614294 0.082972392 0.017057717 2.2489987e-38
0.16696668 0.13584593 0.026524425 2.3417686e-38
0.16597818 0.13806185 0.027451217 2.3046754e-38
0.16449162 0.14075191 0.028723121 2.2952767e-38
0.16167566 0.079630569 0.016940594 2.2579304e-38
0.16185042 0.14227086 0.028771341 2.2674382e-38
0.15845802 0.078942493 0.01696831 2.2752171e-38
0.15727457 0.14332461 0.028934121 2.2202257e-38
0.15736163 0.14511186 0.030154288 2.2482781e-38
0.15145931 0.072986275 0.01637876 2.3014712e-38
0.15297636 0.075095937 0.017053723 2.264773e-38
0.15294826 0.14590162 0.030250788 2.2200428e-38
0.15154985 0.14818057 0.031462193 2.2754328e-38
0.14887473 0.072937563 0.016639054 2.2646656e-38
0.14887473 0.074214444 0.016878009 2.2003813e-38
0.15016702 0.14702132 0.030366719 2.2657104e-38
0.14866833 0.14920639 0.031545401 2.2106087e-38
0.14502491 0.072780296 0.017351806 2.2279316e-38
0.14564402 0.074153572 0.017203391 2.1635038e-38
0.14503843 0.15004691 0.031978846 2.1369228e-38
0.14443189 0.15188271 0.032896876 2.1641516e-38
0.14117131 0.071131378 0.017785907 2.2187847e-38
0.14114681 0.15063535 0.032324076 2.0627703e-38
0.14115827 0.15220976 0.032787919 2.0352536e-38
0.13601974 0.068604887 0.01819098 2.3109441e-38
0.1372913 0.06999357 0.017977417 2.2835368e-38
0.13758469 0.15026066 0.032540083 1.9710409e-38
0.13763745 0.15207437 0.033640981 1.9895166e-38
0.13343138 0.0685561 0.018451691 2.3201995e-38
0.13341066 0.069920436 0.018368244 2.3202717e-38
0.13336734 0.15053539 0.032775402 1.8048756e-38
0.13310783 0.15198901 0.034097135 1.7957278e-38
0.12953003 0.067291036 0.018280745 2.2926843e-38
0.12949051 0.069380045 0.017994046 2.283716e-38
0.12952971 0.15228727 0.034185052 1.805019e-38
0.12499289 0.067249149 0.01857537 2.2008478e-38
0.12496752 0.15037709 0.033621371 1.8508293e-38
0.12598985 0.15185487 0.034814 1.8051622e-38
0.12178378 0.067057848 0.019385457 2.1548214e-38
0.12173681 0.068914711 0.018715143 2.1547855e-38
0.12174855 0.14996223 0.034134924 1.8970683e-38
0.12178378 0.15145591 0.035177767 1.8785945e-38
0.11790125 0.067304373 0.019836307 1.8694461e-38
0.11785996 0.068522438 0.01904583 1.8509711e-38
0.11788474 0.1496489 0.034837008 1.952892e-38
0.11854834 0.15139493 0.035503626 2.0172108e-38
0.11401872 0.066911519 0.02016747 1.2063601e-38
0.11398311 0.068449378 0.0194363 1.2339138e-38
0.11464801 0.15011266 0.035158873 1.7318388e-38
0.11335478 0.15136611 0.035528243 1.7406628e-38
0.11078328 0.068129301 0.020732641 9.5721409e-39
0.10882099 0.1493994 0.035377204 1.5010231e-38
0.11078328 0.1512486 0.036285698 1.6665432e-38
0.10622942 0.073410809 0.021172881 1.1410977e-38
0.10364486 0.14614461 0.035052061 1.3719114e-38
0.10532606 0.14860877 0.03621453 1.4181191e-38
0.10041416 0.11033092 0.028687477 6.0730145e-39
0.10019878 0.11245501 0.029107332 5.5191079e-39
0.10106553 0.1449831 0.035444498 1.1416045e-38
0.10172404 0.14724161 0.036480188 1.289077e-38
0.097185686 0.10894918 0.028992712 7.6374746e-39
0.097191557 0.11267288 0.030256987 6.2570373e-39
0.097026929 0.11639713 0.030686975 5.9793826e-39
0.09589117 0.11918388 0.030815482 6.6254653e-39
0.09589117 0.13833718 0.03439939 8.4686604e-39
0.096971408 0.14086059 0.035099864 8.7431271e-39
0.098488599 0.14334436 0.036088228 9.756563e-39
0.094168119 0.10978758 0.029236853 8.0980758e-39
0.093308367 0.11268602 0.03020978 7.6378165e-39
0.093307786 0.1165393 0.030817211 6.9938932e-39
0.093019441 0.1206904 0.031396747 7.4545015e-39
0.093310289 0.13688844 0.035192728 9.019693e-39
0.093311891 0.13941053 0.035891771 9.8494691e-39
0.090722032 0.11397894 0.030380368 8.560147e-39
0.090722032 0.1165327 0.030858219 7.9140783e-39
0.089752823 0.12194121 0.031971276 8.8370828e-39
0.088568226 0.12457906 0.032588303 9.6707937e-39
0.088783234 0.12923703 0.03360796 1.0314368e-38
0.089429066 0.13299873 0.034755886 1.003526e-38
0.089105807 0.13709344 0.035896599 1.086468e-38
0.088135175 0.14059174 0.036652386 1.2526039e-38
0.08426062 0.12151849 0.032464623 9.8526949e-39
0.085922129 0.12939352 0.033765078 1.1140914e-38
0.085549951 0.1329439 0.035036325 1.1326016e-38
0.085546829 0.13670668 0.036195219 1.1970651e-38
0.085385054 0.14038007 0.036899447 1.3261422e-38
0.082968339 0.12085569 0.032475352 1.0037443e-38
0.082322203 0.12658951 0.033615589 1.0773564e-38
0.082322203 0.12914327 0.03409344 1.1140911e-38
0.081676058 0.13296175 0.034875333 1.169408e-38
0.081668429 0.13668689 0.036254942 1.2614957e-38
0.081664294 0.14046979 0.037304103 1.3628765e-38
0.078166217 0.13688627 0.036121666 1.2705727e-38
0.077945955 0.14025924 0.037524402 1.3444024e-38
0.073922366 0.13409252 0.035895109 1.2613893e-38
0.073737748 0.13700762 0.036459863 1.2798259e-38
0.074063666 0.14018607 0.037915409 1.3350362e-38
0.075193413 0.14290537 0.038434327 1.3995744e-38
0.069671914 0.13289472 0.036260247 1.2799009e-38
0.07003551 0.13652056 0.037095547 1.3165629e-38
0.070275545 0.13948792 0.038307488 1.3812059e-38
0.066326134 0.13281178 0.036575139 1.3166331e-38
0.066145681 0.13639459 0.037818313 1.3534403e-38
0.06613417 0.13889837 0.038628876 1.399574e-38
0.062291823 0.13387334 0.03706646 1.3811698e-38
0.06244199 0.13592884 0.038312018 1.4087934e-38
0.057330124 0.1329015 0.037572265 1.4087216e-38
0.058627941 0.13543215 0.038762689 1.4456367e-38
0.051898226 0.075970933 0.028337955 2.2831405e-38
0.052599721 0.12986004 0.03732574 1.3532599e-38
0.053461738 0.13242687 0.038534343 1.3717718e-38
0.055780761 0.13486698 0.038953722 1.4456355e-38
0.049309865 0.075922146 0.028598666 2.0902122e-38
0.049369007 0.12979916 0.037651122 1.3625513e-38
0.049324177 0.13206926 0.038847625 1.3535114e-38
0.050604045 0.13476944 0.039475083 1.3625883e-38
0.045427337 0.075848982 0.028989673 1.6388829e-38
0.045492165 0.1297261 0.038041592 1.3535478e-38
0.045456365 0.13218854 0.039074242 1.3995373e-38
0.042838991 0.074521452 0.029011071 1.4544927e-38
0.04154481 0.076415196 0.029500306 1.4358403e-38
0.041615307 0.12965304 0.038432002 1.3350727e-38
0.041729689 0.13167933 0.039821923 1.3351444e-38
0.037053287 0.078370154 0.029822946 1.3250624e-38
0.03771244 0.12952349 0.039155483 1.3534043e-38
0.03793636 0.13123918 0.039930463 1.353404e-38
0.033456206 0.080738425 0.031152427 1.5731267e-38
0.033000097 0.12140374 0.037786484 1.2148232e-38
0.033086263 0.12438476 0.038335383 1.270139e-38
0.033825032 0.12815446 0.039418161 1.3162378e-38
0.035073929 0.13064049 0.04032135 1.3809892e-38
0.029897213 0.081950113 0.031750143 1.7851416e-38
0.029984772 0.083465949 0.031001985 1.7115657e-38
0.029123247 0.11622314 0.037221193 1.3255992e-38
0.029819198 0.11992975 0.038400114 1.2888646e-38
0.029916257 0.1241883 0.03942436 1.307195e-38
0.03005898 0.12782863 0.040317953 1.3532949e-38
0.026661769 0.081889138 0.032076001 1.5741657e-38
0.026061319 0.083912745 0.032005906 1.3437139e-38
0.024815649 0.087199211 0.032239318 1.1877009e-38
0.02609206 0.11592206 0.03765136 1.4545639e-38
0.026877478 0.11919034 0.039033175 1.3995704e-38
0.027308881 0.12410036 0.039906979 1.3626214e-38
0.023027286 0.085307896 0.032753646 1.1874501e-38
0.022186495 0.088325024 0.033178568 1.0861778e-38
0.020938799 0.091595247 0.033466041 9.3834364e-39
0.020938799 0.11266387 0.037408352 1.5007719e-38
0.022450343 0.11568218 0.038224638 1.6015758e-38
0.019543812 0.089427561 0.034228504 1.03036e-38
0.01826103 0.09198539 0.034727216 8.8331227e-39
0.01835423 0.095377192 0.0344432 8.28173e-39
0.017061949 0.09854506 0.035170555 8.1016645e-39
0.017061949 0.10812171 0.036962509 1.3075583e-38
0.018124238 0.11161605 0.037943959 1.4271939e-38
0.018528998 0.11425444 0.038775265 1.4639284e-38
0.015661269 0.089354381 0.03461951 1.0763117e-38
0.015165284 0.092202395 0.034999609 8.5583071e-39
0.014655702 0.095873699 0.035262465 7.5477467e-39
0.014994301 0.099782974 0.035617828 7.3655512e-39
0.014009237 0.10352597 0.036761701 1.0127812e-38
0.015165284 0.10703225 0.037774503 1.2062147e-38
0.015661269 0.10981452 0.038447976 1.3260315e-38
0.10958289 0.10693891 0.010180175 1.5745285e-38
0.062880427 0.085537389 0.00034815073 1.8954113e-38
0.059918396 0.087388024 0.0020258427 1.8681453e-38
0.12830248 0.11432876 0.011765003 1.4547836e-38
0.13760556 0.1161108 0.012597322 1.5649151e-38
0.11967503 0.11241047 0.018376052 1.4086483e-38
0.12146117 0.1024864 0.015605628 1.472969e-38
0.081364244 0.10888988 0.019678831 1.3902819e-38
0.099608563 0.11405443 0.025000155 1.3445096e-38
0.095486686 0.11398441 0.024754226 1.5192476e-38
0.088428728 0.10479926 0.025711 1.4637863e-38
0.13375774 0.092631206 0.014702559 1.8520166e-38
0.11252563 0.10312155 0.019759238 1.5013117e-38
0.16492964 0.14464229 0.033496082 2.3416971e-38
0.16102438 0.071895704 0.02029103 2.2492857e-38
0.16196638 0.075114891 0.018877685 2.2491425e-38
0.16330504 0.077823713 0.01809454 2.2771962e-38
0.16352028 0.14283755 0.03228265 2.2956713e-38
0.16201971 0.14527372 0.032511413 2.2861644e-38
0.16102438 0.14778432 0.034491122 2.2767258e-38
0.15742345 0.07131049 0.019193351 2.2844373e-38
0.1585528 0.074746013 0.018014014 2.2662143e-38
0.15747273 0.14686787 0.031621814 2.2668955e-38
0.15745848 0.14908122 0.033710897 2.2480974e-38
0.15646823 0.15155721 0.035672009 2.2845446e-38
0.15312138 0.068147823 0.019390881 2.3108727e-38
0.15316878 0.070876494 0.018618166 2.3110504e-38
0.15316878 0.14940266 0.033311784 2.2753606e-38
0.15315284 0.15158679 0.035341322 2.2847228e-38
0.14893976 0.06761755 0.020238876 2.2744955e-38
0.14912264 0.070566326 0.019091487 2.2649882e-38
0.14991231 0.1501404 0.033022225 2.247522e-38
0.14870186 0.15232068 0.035601735 2.2289758e-38
0.14535725 0.066971675 0.020418465 2.2465138e-38
0.14518708 0.070352837 0.018926024 2.209672e-38
0.14542764 0.15327504 0.03509897 2.164439e-38
0.14019628 0.063785717 0.020944595 2.3019037e-38
0.14136462 0.066843957 0.019576967 2.2742809e-38
0.1425679 0.069749132 0.018745244 2.2099602e-38
0.14127183 0.15373409 0.03459537 2.0353248e-38
0.14132084 0.15543957 0.035591245 2.0075966e-38
0.1373049 0.063322887 0.020750403 2.3110866e-38
0.13759792 0.066736504 0.019466579 2.2926127e-38
0.1371244 0.15365593 0.03501308 1.9711152e-38
0.13784802 0.15551862 0.037331522 1.9711143e-38
0.13365549 0.06315203 0.020996511 2.2834981e-38
0.13355944 0.066114277 0.020026743 2.3109795e-38
0.13375461 0.15359244 0.035352409 1.8417522e-38
0.1334741 0.15595816 0.038454115 1.8234925e-38
0.12975305 0.063078493 0.021389544 2.246838e-38
0.12960719 0.06566301 0.019331634 2.2743168e-38
0.12960719 0.15402652 0.035865963 1.8325327e-38
0.13018698 0.15584441 0.038702428 1.8050166e-38
0.12584186 0.063049331 0.021621346 2.2099601e-38
0.12604299 0.065915987 0.019750476 2.2100318e-38
0.1255331 0.15324941 0.037577033 1.7683917e-38
0.12586331 0.15519388 0.039287031 1.7867573e-38
