# .PCD v0.7 - Point Cloud Data file format
VERSION 0.7
FIELDS x y z rgb
SIZE 4 4 4 4
TYPE F F F F
COUNT 1 1 1 1
WIDTH 985
HEIGHT 1
VIEWPOINT 0 0 0 0 1 0 0
POINTS 985
DATA ascii
0.10889819 0.12961966 0.012120664 2.0249138e-38
0.10497247 0.1152267 0.011926115 2.2585771e-38
0.10596057 0.11848628 0.010970175 2.258541e-38
0.10701402 0.12239716 0.0098978877 2.3048907e-38
0.10654885 0.12678102 0.0097488165 2.332079e-38
0.10624185 0.12969825 0.0096216202 2.144122e-38
0.10140435 0.11030196 0.011609674 2.2580736e-38
0.10234425 0.11426806 0.01080215 2.2583259e-38
0.103663 0.1181842 0.0097661018 2.2485304e-38
0.10401801 0.12802041 0.0090990067 2.3403283e-38
0.10401801 0.12997451 0.0091254115 2.0803067e-38
0.09712103 0.10345063 0.011767209 2.2019281e-38
0.09816318 0.10641666 0.010473907 2.2577843e-38
0.099538781 0.10954887 0.0092493296 2.2951315e-38
0.10010944 0.11369029 0.0089052916 2.2863793e-38
0.097503722 0.13388273 0.0091786385 1.4452002e-38
0.09450388 0.10345063 0.011767387 1.6289873e-38
0.094599277 0.10555535 0.009652853 1.0674587e-38
0.095332295 0.13540259 0.0091993809 1.390031e-38
0.096200876 0.13713956 0.0092228055 1.4269082e-38
0.090963319 0.10612474 0.010178745 6.5246264e-39
0.090245336 0.10982828 0.0095204711 8.3627895e-39
0.087961033 0.10999288 0.011856258 1.3704003e-38
0.087062716 0.11379747 0.010336339 1.4454183e-38
0.082726754 0.11522669 0.011927366 1.6199794e-38
0.082422398 0.11790383 0.010713577 1.4268332e-38
0.15978792 0.11290614 0.015892088 1.6393177e-38
0.15320697 0.097771332 0.015687644 1.3720218e-38
0.15583935 0.11159007 0.015874445 1.5743866e-38
0.1499165 0.091190979 0.015598774 1.1135888e-38
0.15020588 0.094662115 0.01550287 1.0309695e-38
0.15060271 0.098399639 0.015140593 1.1049791e-38
0.15022056 0.10216434 0.015318692 1.151182e-38
0.14994219 0.1062935 0.015303075 1.2895519e-38
0.14927553 0.1102512 0.015523314 1.381277e-38
0.14958745 0.11389318 0.015905976 1.3903892e-38
0.1492584 0.11685434 0.015946031 1.5288617e-38
0.14662601 0.091190979 0.015599012 1.307017e-38
0.14663193 0.094475672 0.015532315 1.0493701e-38
0.14667486 0.098381922 0.014807284 7.9155006e-39
0.1466812 0.10231873 0.014749467 8.6563027e-39
0.1466812 0.10626123 0.014802754 9.9456304e-39
0.14664505 0.11025056 0.015523493 1.197248e-38
0.14665097 0.11418886 0.015465677 1.2709322e-38
0.14662603 0.11817041 0.015963972 1.3903906e-38
0.14662603 0.12080256 0.015999556 1.3811013e-38
0.14333554 0.091849007 0.015608072 1.3534018e-38
0.1428968 0.094919845 0.015649676 1.2428387e-38
0.142684 0.09842325 0.015585899 1.0680243e-38
0.14272439 0.1023318 0.014972031 8.6537635e-39
0.14273834 0.10626122 0.014802992 8.2824755e-39
0.14273834 0.11020371 0.014856279 8.5612372e-39
0.14273137 0.11415488 0.015020907 1.0037081e-38
0.14269796 0.11814339 0.015630484 1.1419289e-38
0.14267746 0.12080256 0.015999854 1.2339096e-38
0.14004508 0.10303561 0.015759647 1.0128887e-38
0.13938698 0.10632578 0.015804231 9.3906083e-39
0.13938698 0.11027399 0.015857637 9.0193132e-39
0.14004508 0.11356416 0.015902102 7.8226029e-39
0.11766984 0.12343469 0.016036868 2.2828548e-38
0.11766984 0.1273829 0.016090274 2.3302806e-38
0.11372127 0.11948647 0.015983641 2.284401e-38
0.1149241 0.12223917 0.015520811 2.2839346e-38
0.11504887 0.1260567 0.015961349 2.3031985e-38
0.11503746 0.12869896 0.016108274 2.2658841e-38
0.1097727 0.11422219 0.015912771 2.2389871e-38
0.11100503 0.11827292 0.015217364 2.2486023e-38
0.11140024 0.12183414 0.01464045 2.2392738e-38
0.1118704 0.12595849 0.014904559 2.2760439e-38
0.11069263 0.12936999 0.014917493 2.0070893e-38
0.10630093 0.1111273 0.01553762 2.2659978e-38
0.10725328 0.11414556 0.014911711 2.2486027e-38
0.10813031 0.11776051 0.014160395 2.249106e-38
0.10187554 0.10764183 0.015824139 2.2937256e-38
0.10348976 0.11003041 0.014731169 2.2846166e-38
0.10426403 0.11322007 0.014232576 2.2484221e-38
0.098350257 0.10266244 0.01500684 2.3214228e-38
0.099655285 0.10598585 0.014601707 2.2945913e-38
0.095083505 0.09919697 0.015310168 2.25559e-38
0.094865441 0.1016182 0.013992727 2.0437948e-38
0.091047749 0.099149935 0.015138328 1.7761012e-38
0.090288557 0.10226619 0.013862908 1.3610041e-38
0.08899162 0.10488439 0.01378721 1.1866511e-38
0.087397441 0.099306718 0.015712202 1.6937015e-38
0.086833589 0.10233832 0.015086472 1.6387433e-38
0.086441427 0.10640079 0.014433026 1.6203677e-38
0.085638322 0.11016856 0.014358997 1.4917631e-38
0.085054487 0.11275795 0.013893962 1.6208384e-38
0.081474587 0.081320427 0.015469134 1.4179762e-38
0.08125522 0.0870234 0.015546322 1.4915533e-38
0.080816485 0.09382309 0.015638292 1.5373964e-38
0.08125522 0.098868027 0.015706599 1.482117e-38
0.082803153 0.10237247 0.015670538 1.5373994e-38
0.082499877 0.10614859 0.01510489 1.3808796e-38
0.082364127 0.11016445 0.014303625 1.2981916e-38
0.082429715 0.11341408 0.013903081 1.519067e-38
0.078184105 0.079064302 0.015438795 1.3991421e-38
0.078218594 0.082630187 0.01526475 1.2702852e-38
0.078184113 0.08658471 0.01554054 1.2703509e-38
0.078184113 0.090532914 0.015593946 1.3163459e-38
0.078218594 0.094471015 0.015424967 1.3350697e-38
0.077874966 0.098406568 0.015271902 1.3163422e-38
0.078304477 0.10233156 0.014975727 1.2427679e-38
0.078389958 0.10623947 0.014473021 1.1783753e-38
0.078475222 0.11014144 0.013970137 1.1877036e-38
0.078440532 0.11409554 0.014245868 1.3166675e-38
0.07855951 0.11789402 0.014588952 1.1598996e-38
0.074400067 0.078852795 0.015436113 1.3438939e-38
0.07439547 0.082606226 0.01448679 1.261133e-38
0.07439547 0.086548716 0.014540136 1.2519484e-38
0.074377917 0.090496056 0.014704645 1.2152523e-38
0.07439547 0.09443371 0.014646828 1.1508585e-38
0.07439547 0.0983762 0.014700115 1.1140184e-38
0.074448787 0.10229845 0.014419854 1.1415326e-38
0.07451947 0.10621098 0.014028251 1.1324575e-38
0.074466147 0.11017288 0.014415264 1.2245451e-38
0.074341752 0.11417194 0.015247285 1.2982651e-38
0.071603157 0.080004349 0.015451849 1.3438919e-38
0.070945054 0.08263649 0.015487552 1.2429103e-38
0.070533842 0.086730741 0.015042841 1.3441436e-38
0.070378356 0.090509951 0.015038431 1.2887909e-38
0.070452623 0.09443371 0.014647067 1.1872689e-38
0.070452608 0.0983762 0.014700353 1.1043998e-38
0.07047081 0.10231195 0.014642537 1.0493374e-38
0.070525609 0.1062325 0.014362216 1.1416049e-38
0.070733197 0.11005583 0.015429914 1.2062129e-38
0.071603172 0.11356413 0.015905917 1.2614955e-38
0.067367911 0.094469272 0.015397727 1.3164497e-38
0.067081228 0.098402768 0.015200973 1.3715154e-38
0.06705299 0.10235792 0.015421152 1.2887582e-38
0.066787079 0.10629809 0.01537931 1.2428749e-38
0.1742053 0.10658403 0.019806027 1.7124275e-38
0.1742053 0.11055508 0.019859791 1.6389224e-38
0.17401619 0.11414796 0.019908428 1.5835689e-38
0.16957197 0.092023455 0.019609272 1.9796504e-38
0.17006838 0.094670832 0.019645095 1.9244766e-38
0.17007124 0.09880048 0.019576013 1.8416086e-38
0.17024378 0.1025866 0.019307733 1.7771423e-38
0.17024843 0.10654099 0.019138873 1.6940573e-38
0.17023894 0.11053968 0.019637525 1.6021141e-38
0.17023388 0.11452615 0.019913793 1.5559093e-38
0.16609696 0.090865225 0.019593835 1.952207e-38
0.16626856 0.094659872 0.019422829 1.8876698e-38
0.16627744 0.098611742 0.019142926 1.8323886e-38
0.16628905 0.10255411 0.01875186 1.7494484e-38
0.16629539 0.1065049 0.018583059 1.6754378e-38
0.16628906 0.11048481 0.018859148 1.6202309e-38
0.1662863 0.11445881 0.019023955 1.6386707e-38
0.16626245 0.11849723 0.019967675 1.6111894e-38
0.16560054 0.1211446 0.020003498 1.5834598e-38
0.1609672 0.084081322 0.019502282 2.1180894e-38
0.16191277 0.086917795 0.019540668 2.0350046e-38
0.16229101 0.090699762 0.019591808 1.8876702e-38
0.16230178 0.094654381 0.019311845 1.832316e-38
0.16231996 0.098594449 0.018809617 1.7585602e-38
0.16232333 0.10255411 0.018752098 1.694132e-38
0.16235228 0.10646187 0.017915964 1.6572891e-38
0.16235566 0.11041455 0.017858267 1.648141e-38
0.16234553 0.11439951 0.018245578 1.6850199e-38
0.16231659 0.11843388 0.019189239 1.7585957e-38
0.16185546 0.12201279 0.019848824 1.8140584e-38
0.15798862 0.083750397 0.019497931 2.0907185e-38
0.15833268 0.086716279 0.019204676 2.0074895e-38
0.1583536 0.090662479 0.018702447 1.860047e-38
0.15835762 0.094623409 0.018645048 1.7588127e-38
0.15835762 0.098588765 0.018698692 1.629738e-38
0.15836629 0.10254061 0.018529892 1.5654177e-38
0.15839165 0.10646187 0.017916203 1.6113346e-38
0.15839566 0.11041453 0.017858446 1.6205906e-38
0.15823066 0.11453916 0.017914295 1.6020115e-38
0.15837476 0.11837962 0.018522024 1.657219e-38
0.15834537 0.12241043 0.019354284 1.7403365e-38
0.15798864 0.12544657 0.020062149 1.7129622e-38
0.15434815 0.083419472 0.019493759 1.860409e-38
0.15438704 0.086696491 0.018649042 1.8140582e-38
0.15440691 0.090643942 0.018258035 1.6391388e-38
0.15442637 0.094586313 0.01786685 1.4548907e-38
0.1548128 0.098724186 0.017700553 1.5009504e-38
0.15443566 0.10249526 0.017751515 1.4640396e-38
0.15443566 0.10645489 0.017805159 1.5469807e-38
0.15427066 0.11024955 0.017856479 1.5653817e-38
0.15443566 0.11437418 0.017912328 1.4916634e-38
0.15442637 0.11835217 0.018188417 1.5101745e-38
0.15440185 0.12236186 0.018798351 1.6114431e-38
0.15417182 0.12603509 0.019784689 1.6115141e-38
0.1490529 0.080110252 0.019449234 1.6205184e-38
0.1503877 0.082750477 0.019262671 1.5923247e-38
0.15043169 0.086688489 0.018426955 1.3716284e-38
0.15100366 0.090088397 0.017583966 1.2609221e-38
0.15179566 0.093916044 0.017635703 1.18774e-38
0.15179566 0.1031552 0.017760694 1.2895153e-38
0.15179566 0.10645489 0.017805338 1.43674e-38
0.15113565 0.11041453 0.017858982 1.491588e-38
0.15126766 0.11463815 0.017916083 1.4363086e-38
0.15064067 0.11849879 0.017968357 1.4731159e-38
0.1504596 0.122323 0.018353581 1.5009902e-38
0.15041542 0.12636733 0.019297183 1.5653818e-38
0.14642368 0.082746901 0.019151688 1.6574324e-38
0.14646047 0.086692698 0.018538356 1.5283913e-38
0.14651565 0.089296475 0.017573476 1.4543851e-38
0.14649451 0.12249169 0.018397689 1.4087588e-38
0.14646049 0.12634622 0.019074917 1.5101351e-38
0.14640531 0.12908673 0.020112097 1.5101347e-38
0.14260671 0.082919061 0.019362628 1.574528e-38
0.14249475 0.086692698 0.018538594 1.5193167e-38
0.14236708 0.090239242 0.01758647 1.4088261e-38
0.14211565 0.093696065 0.017633259 1.2613138e-38
0.14251539 0.12301262 0.018696606 1.3443633e-38
0.14246792 0.12638824 0.019520164 1.3905323e-38
0.14243388 0.12908673 0.020112336 1.3906402e-38
0.13978624 0.083419465 0.019494534 1.1967438e-38
0.13849182 0.086712055 0.019094646 1.1049404e-38
0.13854343 0.090648562 0.018370152 1.1047261e-38
0.13856541 0.09459684 0.018090189 1.1231997e-38
0.13857281 0.09855333 0.01803267 1.1141225e-38
0.13816957 0.10234901 0.018464983 1.0588082e-38
0.13720715 0.10651946 0.018807113 9.9437666e-39
0.13720715 0.1104848 0.018860757 9.9437821e-39
0.13818915 0.11459529 0.018344939 8.7438011e-39
0.13857283 0.11836103 0.018300533 8.928226e-39
0.13854365 0.12236187 0.018799186 1.012929e-38
0.13848466 0.12640893 0.019742906 1.151256e-38
0.13978626 0.12908672 0.020112455 1.2891531e-38
0.13581482 0.087390527 0.019548476 9.3034447e-39
0.13550147 0.091019765 0.019347548 8.0970024e-39
0.13453054 0.094644256 0.01909107 4.6025648e-39
0.13489969 0.098430559 0.019269347 5.0646514e-39
0.13581482 0.10261295 0.019754469 7.6471954e-39
0.13581482 0.10526033 0.019790232 7.6460702e-39
0.13581482 0.11055508 0.019861877 8.9318134e-39
0.13581482 0.11452614 0.01991564 9.3895363e-39
0.13550147 0.11880723 0.019723594 9.6646995e-39
0.13489942 0.12243082 0.019594133 9.3020154e-39
0.13581482 0.12643933 0.020076811 1.0406569e-38
0.12522435 0.12379196 0.020041645 1.6847318e-38
0.12575388 0.12670407 0.020081043 1.6944835e-38
0.12522435 0.1290867 0.020113289 1.7958909e-38
0.12178245 0.11876194 0.019973814 2.2472668e-38
0.12246789 0.12257887 0.019400239 2.0622632e-38
0.12263702 0.12637722 0.019409955 2.2657421e-38
0.12263702 0.1303445 0.019463658 1.92436e-38
0.12196051 0.13432917 0.019684374 8.2724099e-39
0.12196051 0.13697465 0.019720078 7.3662785e-39
0.11818021 0.1149544 0.019755781 2.294123e-38
0.1186586 0.1184514 0.019414186 2.3120945e-38
0.1189019 0.12218284 0.018645108 2.246046e-38
0.1189257 0.12612301 0.018448472 2.2935109e-38
0.11876459 0.13024566 0.018462479 2.044435e-38
0.11888933 0.13389926 0.019178569 8.6426316e-39
0.1141926 0.11099629 0.019869208 2.2941609e-38
0.11473519 0.11444972 0.018915832 2.2753631e-38
0.11497591 0.118189 0.018216193 2.2843656e-38
0.11615567 0.12097356 0.018003821 2.3201279e-38
0.11483568 0.13087264 0.018137813 1.8131549e-38
0.11509968 0.13338041 0.018171787 6.8920371e-39
0.11049695 0.078952 0.019435763 1.6662937e-38
0.11047331 0.082379416 0.019482136 1.6109404e-38
0.10933863 0.10724585 0.019818604 2.3032019e-38
0.11072209 0.11051559 0.019307137 2.2666454e-38
0.11148299 0.11441152 0.018415391 2.2481338e-38
0.11219567 0.11701392 0.017950475 2.2669314e-38
0.11150949 0.13089783 0.01838845 1.7386052e-38
0.11148331 0.13290378 0.018665552 6.7069045e-39
0.10536719 0.075477324 0.019388974 1.7953663e-38
0.106691 0.078786545 0.019433737 1.6938435e-38
0.106691 0.082757615 0.0194875 1.6109048e-38
0.10801481 0.085404992 0.019523203 1.5743501e-38
0.10653981 0.10674115 0.019686997 2.2745695e-38
0.1072811 0.11002046 0.018522799 2.2658897e-38
0.10205767 0.072168097 0.019344389 1.8598316e-38
0.10271958 0.074815474 0.019380271 1.7953666e-38
0.10271958 0.078786545 0.019433975 1.6570025e-38
0.10274623 0.082751095 0.019265413 1.528072e-38
0.10227829 0.086508065 0.019538522 1.4453109e-38
0.10205767 0.089376047 0.019577265 1.3992126e-38
0.10205767 0.095332652 0.01965785 1.3804899e-38
0.10205767 0.098641872 0.019702673 1.9985233e-38
0.10274623 0.10260008 0.019533992 2.2838957e-38
0.1030181 0.10634567 0.018681586 2.2924675e-38
0.097755276 0.067204267 0.019277513 1.9149691e-38
0.098762088 0.070842743 0.019215584 1.8506481e-38
0.098817535 0.07480479 0.018824697 1.7400149e-38
0.098871902 0.07876198 0.018433809 1.5003795e-38
0.098871902 0.082727328 0.018487453 1.4726111e-38
0.09878961 0.086717099 0.019208133 1.408397e-38
0.098582663 0.09053427 0.019593179 1.2979793e-38
0.098582678 0.094836265 0.019651413 1.445134e-38
0.09883108 0.098605603 0.019035518 2.1919534e-38
0.099714547 0.10226658 0.018351674 2.3117001e-38
0.10031566 0.10513501 0.017790437 2.2842208e-38
0.09494219 0.067038804 0.019275486 1.9150403e-38
0.09480527 0.070841067 0.01910466 1.7491977e-38
0.094906181 0.074796624 0.018380284 1.6662577e-38
0.094906181 0.07876198 0.018433928 1.5465098e-38
0.094906181 0.082727328 0.018487692 1.5373954e-38
0.094819881 0.086717308 0.019208312 1.4175436e-38
0.09477672 0.090699732 0.019595623 1.3716972e-38
0.09477672 0.094670802 0.019649386 1.6387065e-38
0.095333762 0.097558498 0.017938256 2.0904296e-38
0.09080527 0.066873342 0.01927346 1.7949367e-38
0.090895399 0.070835017 0.018660247 1.7859325e-38
0.090940468 0.074796624 0.018380523 1.6936647e-38
0.090940461 0.07876198 0.018434167 1.5835682e-38
0.090940468 0.082727328 0.018487811 1.5279642e-38
0.090850338 0.086717308 0.01920855 1.5651639e-38
0.090805277 0.090699732 0.019595861 1.6296297e-38
0.090820514 0.094665326 0.019538403 1.7125693e-38
0.091075659 0.09721572 0.017683744 1.8042256e-38
0.08683385 0.066873342 0.019273698 1.9337671e-38
0.086896047 0.070838146 0.018882751 1.8504697e-38
0.086958893 0.074798509 0.018491805 1.7677425e-38
0.086974762 0.078761972 0.018434405 1.712534e-38
0.086974762 0.082727328 0.01848805 1.6759092e-38
0.086943872 0.086700886 0.018764079 1.6849112e-38
0.086881466 0.09068583 0.019262493 1.7126774e-38
0.086959533 0.094628006 0.018760145 1.7678159e-38
0.086851656 0.097743675 0.017691135 1.7580583e-38
0.083051533 0.067251533 0.019279003 1.9333381e-38
0.082943656 0.070836686 0.018771827 1.8319591e-38
0.082992963 0.074798509 0.018492043 1.7401941e-38
0.083025545 0.07875903 0.018323541 1.6388492e-38
0.083248064 0.082877412 0.017990232 1.5741709e-38
0.083229743 0.086513959 0.018164456 1.629344e-38
0.083042055 0.090648755 0.018373132 1.6571096e-38
0.083091132 0.094597027 0.018093348 1.6662186e-38
0.083284251 0.098548412 0.017952263 1.638671e-38
0.078890987 0.067535184 0.019283116 1.8133762e-38
0.078941777 0.07083939 0.018994451 1.693774e-38
0.079094514 0.074789912 0.018047869 1.6202673e-38
0.080148041 0.078413099 0.017679989 1.5190297e-38
0.080515653 0.083356984 0.017496824 1.3810985e-38
0.080515653 0.086656682 0.017541528 1.4271971e-38
0.080515653 0.090616331 0.017595053 1.5099914e-38
0.08051566 0.095895842 0.017666519 1.48208e-38
0.07963565 0.098095641 0.017696321 1.4176149e-38
0.074919559 0.067535177 0.019283295 1.7121747e-38
0.075077608 0.070831269 0.018327832 1.6661824e-38
0.075182967 0.074783422 0.0177145 1.4911553e-38
0.076555654 0.07741753 0.017416716 1.4633906e-38
0.074716002 0.11881523 0.018477082 1.0860341e-38
0.074919581 0.1218064 0.020017624 1.1045418e-38
0.071279086 0.067866102 0.019287944 1.6567849e-38
0.071057305 0.070835009 0.01866138 1.4912282e-38
0.071184248 0.074787818 0.017937005 1.3900294e-38
0.070835643 0.078297451 0.017428935 1.3166289e-38
0.070202827 0.11474258 0.018422127 1.2244005e-38
0.071075305 0.11843449 0.019194305 1.1322744e-38
0.067163125 0.071007982 0.019205689 1.3622626e-38
0.067070231 0.074804783 0.018826425 1.2334428e-38
0.067108102 0.07876721 0.018657863 1.1411382e-38
0.067220666 0.082714282 0.018044591 9.751168e-39
0.066816375 0.086493284 0.018254459 9.7547483e-39
0.066569969 0.090637162 0.018096209 1.1142004e-38
0.065995656 0.094575956 0.017649472 1.3623686e-38
0.067129247 0.11058851 0.017991006 1.178337e-38
0.067089289 0.11447588 0.019252121 1.1967058e-38
0.06777101 0.11823244 0.019969702 1.1509636e-38
0.064329088 0.072168082 0.019346535 1.3162034e-38
0.06399814 0.075146385 0.019386888 1.224296e-38
0.063667186 0.07878653 0.01943624 1.2150757e-38
0.063336238 0.081764825 0.019476473 1.1781606e-38
0.06321916 0.087101445 0.019405842 9.5631361e-39
0.063082725 0.090681188 0.019152582 8.7312637e-39
0.063218988 0.094612628 0.018428028 7.7221621e-39
0.063257702 0.0985649 0.018259346 8.9206828e-39
0.063316301 0.1025081 0.017979145 1.1411044e-38
0.063168526 0.1064627 0.017935395 1.3165952e-38
0.063180052 0.11048563 0.018864989 1.3532219e-38
0.063799582 0.11426137 0.019916177 1.3624755e-38
0.057710052 0.084081277 0.019508123 1.574278e-38
0.058868393 0.086894117 0.019546151 1.5004852e-38
0.059033856 0.090699717 0.01959765 1.398994e-38
0.059053764 0.094665311 0.019540191 1.2054161e-38
0.05909355 0.09862414 0.01937139 9.9268866e-39
0.059113652 0.10258676 0.019313991 8.5493752e-39
0.05909355 0.10656247 0.019478917 9.3805778e-39
0.059916399 0.10967259 0.019854248 9.8375875e-39
0.054621145 0.083198816 0.019496441 1.5097413e-38
0.055062428 0.086728655 0.019544125 1.4637507e-38
0.055062428 0.090699717 0.019597888 1.399287e-38
0.055062443 0.094670787 0.019651651 1.3165198e-38
0.055062443 0.09864185 0.019705355 1.205811e-38
0.055062428 0.1018187 0.01974833 1.1686154e-38
0.051885277 0.083022326 0.019494176 1.4821893e-38
0.051090986 0.086728655 0.019544363 1.3809534e-38
0.051090986 0.090699717 0.019598126 1.2518088e-38
0.051091 0.094670787 0.01965189 1.0031314e-38
0.051091 0.09864185 0.019705594 8.557989e-39
0.05175291 0.10128923 0.019741297 8.8353059e-39
0.047308668 0.091077916 0.019603491 1.1600771e-38
0.047560841 0.097759396 0.019693792 8.5561631e-39
0.14420548 0.10879607 0.019337595 2.0446564e-38
0.11497591 0.118189 0.018216193 2.2843656e-38
0.11202331 0.098237284 0.019029856 1.3160236e-38
0.11959861 0.11517071 0.017180622 1.9804424e-38
0.11884488 0.096454032 0.016605258 1.694023e-38
0.14328261 0.10488644 0.017931163 1.749485e-38
0.1395968 0.096013725 0.018155217 1.4821894e-38
0.13796571 0.093227014 0.018128991 1.574565e-38
0.13217972 0.094993517 0.019484878 1.6017932e-38
0.13536909 0.097389951 0.021227181 1.6110116e-38
0.13451515 0.096910372 0.021233082 1.6940954e-38
0.11461868 0.097376078 0.020684958 1.602007e-38
0.11064725 0.1053382 0.020792961 1.2518803e-38
0.13776863 0.11323315 0.020523071 1.6390656e-38
0.15534396 0.1182207 0.02058655 1.5008435e-38
0.16256498 0.12013403 0.021776795 1.4454553e-38
0.16950642 0.088166066 0.022557259 2.0992899e-38
0.17037901 0.090409577 0.021730363 2.0165285e-38
0.1715197 0.094765663 0.02164638 1.9336962e-38
0.1715197 0.097420663 0.021682262 1.8692306e-38
0.17018279 0.1226826 0.022468686 1.4639993e-38
0.16998126 0.1263389 0.023073852 1.3903888e-38
0.16551784 0.084177867 0.022503614 2.1640063e-38
0.16619147 0.086824037 0.022205889 2.062878e-38
0.16753684 0.089455679 0.021574736 2.0164573e-38
0.16639155 0.12304793 0.022315145 1.5282869e-38
0.1661858 0.1267086 0.022967875 1.500734e-38
0.1648531 0.12937754 0.023115218 1.4546378e-38
0.16220789 0.082834937 0.022056997 2.1182336e-38
0.16355398 0.08613693 0.021530032 2.0811018e-38
0.16311145 0.12352811 0.022036076 1.722042e-38
0.16220884 0.12667754 0.022634327 1.6391317e-38
0.16152929 0.13037458 0.023128867 1.5374331e-38
0.15787308 0.079857305 0.02244556 2.2012087e-38
0.15849419 0.082033031 0.021874905 2.1366004e-38
0.15850905 0.12742209 0.022089005 1.6394566e-38
0.15821847 0.13000992 0.02279073 1.5561603e-38
0.15423147 0.078851424 0.02209872 2.1002985e-38
0.15426064 0.081490681 0.021467745 1.9527465e-38
0.15492447 0.1279531 0.022096395 1.5931085e-38
0.15423879 0.12999377 0.022624075 1.4826894e-38
0.14956355 0.076201439 0.022396564 1.8599404e-38
0.15041924 0.07868132 0.021929979 1.7585975e-38
0.15025581 0.13065267 0.022577643 1.5101708e-38
0.14626405 0.07884869 0.021988034 1.7217167e-38
0.14628574 0.13128863 0.022308648 1.5008788e-38
0.14590739 0.13369808 0.023174763 1.4640014e-38
0.14243235 0.0790198 0.022185028 1.5194272e-38
0.14098445 0.081490681 0.02146852 1.3629451e-38
0.14231208 0.13127184 0.022141993 1.3722729e-38
0.14225119 0.13403043 0.023179471 1.3904974e-38
0.13959213 0.080189645 0.022451043 1.076385e-38
0.13793059 0.082636639 0.021769941 9.6614667e-39
0.13813829 0.13081181 0.022511005 1.2062505e-38
0.13852853 0.13389748 0.023177862 1.2708245e-38
0.13560356 0.084177852 0.022505283 9.0206865e-39
0.13430971 0.087151006 0.022045493 8.7524275e-39
0.1335201 0.090533957 0.021991313 8.2853776e-39
0.13301875 0.09941189 0.021711469 4.0483008e-39
0.13395974 0.10244289 0.022502482 4.7866071e-39
0.13567398 0.10737687 0.021819055 7.9201445e-39
0.13360928 0.11541879 0.022928119 9.7579657e-39
0.13350564 0.11844336 0.022569001 1.031113e-38
0.13301876 0.1226431 0.022025764 9.9448428e-39
0.13368256 0.1266256 0.022079587 1.0312552e-38
0.13431381 0.13065222 0.022578537 1.1326002e-38
0.13427405 0.13416335 0.023181677 1.1694798e-38
0.13161498 0.092154257 0.022613406 6.8073594e-39
0.13169113 0.094765648 0.021648645 4.325622e-39
0.13164037 0.098784201 0.022369683 4.1430104e-39
0.131615 0.10146007 0.022739291 4.9695354e-39
0.13061786 0.11973936 0.02298677 1.0863212e-38
0.13034596 0.1226621 0.022248387 1.0771386e-38
0.13036351 0.1266256 0.022079825 1.1232724e-38
0.13029435 0.13069615 0.023023784 1.1785524e-38
0.131615 0.13336572 0.023171067 1.1049056e-38
0.12563214 0.12007169 0.022991538 1.5645146e-38
0.12652591 0.12249854 0.022274196 1.3805912e-38
0.12737638 0.12629372 0.022075474 1.3348542e-38
0.12653638 0.13078661 0.022261322 1.4178601e-38
0.12629691 0.13336572 0.023171425 1.1595018e-38
0.12097879 0.084177844 0.022506118 1.2982295e-38
0.12145244 0.1156144 0.022598028 1.9245456e-38
0.12322386 0.11871444 0.022639871 1.9338732e-38
0.12372542 0.12131559 0.0220083 1.9228894e-38
0.12366705 0.13466091 0.02285558 8.3735851e-39
0.11752203 0.078860238 0.022434354 1.4543162e-38
0.11793988 0.08303836 0.022490919 1.3348567e-38
0.11831976 0.085839599 0.022528768 1.26128e-38
0.11734689 0.1110802 0.022620261 2.1184783e-38
0.11926893 0.11381781 0.02224046 2.0911812e-38
0.11399879 0.07188087 0.022340059 1.739619e-38
0.11438764 0.074861132 0.021824777 1.6750832e-38
0.11443208 0.078835674 0.021434069 1.592464e-38
0.11441007 0.082825109 0.021710277 1.5187093e-38
0.11434799 0.08616627 0.022366643 1.5371822e-38
0.11369212 0.10742576 0.022571027 2.2193593e-38
0.11531715 0.10981062 0.021853149 2.2478439e-38
0.10989942 0.071326956 0.022332907 1.8410699e-38
0.11044922 0.074853174 0.021380424 1.7493045e-38
0.11177683 0.077508174 0.021416247 1.6756563e-38
0.11111303 0.084145658 0.021506071 1.6017556e-38
0.11039616 0.086653188 0.022040069 1.5742771e-38
0.10967785 0.090824842 0.022596776 1.5098472e-38
0.10901309 0.093483657 0.022632718 1.4728275e-38
0.10901309 0.099465966 0.022713661 1.7586335e-38
0.1095449 0.10305534 0.022762179 2.2195766e-38
0.11078339 0.1065506 0.022237897 2.2938698e-38
0.10582221 0.066895612 0.022273064 1.9793645e-38
0.10637941 0.070880689 0.022104681 1.9148266e-38
0.10684567 0.074663535 0.0213781 1.7953663e-38
0.10627256 0.086976066 0.021794677 1.537435e-38
0.10642892 0.090797678 0.021929741 1.4729328e-38
0.10641707 0.094786927 0.022094846 1.4359121e-38
0.10642935 0.098766051 0.022037566 1.7954764e-38
0.10646635 0.10273062 0.021757841 2.2563814e-38
0.10779398 0.10538562 0.021793723 2.3206659e-38
0.10103593 0.060248598 0.022183418 2.0072035e-38
0.10237877 0.062907003 0.022108197 1.9886562e-38
0.10245769 0.066889837 0.021495342 1.9609963e-38
0.10267314 0.070491396 0.021321893 1.9149702e-38
0.10336858 0.087243155 0.02154845 1.47297e-38
0.10267316 0.091162428 0.021601617 1.3898494e-38
0.10301454 0.094234638 0.021643043 1.3620845e-38
0.10381112 0.098748133 0.021704078 1.8875981e-38
0.098376885 0.060248598 0.022183657 1.9515987e-38
0.09845937 0.062905632 0.021552801 1.9425933e-38
0.099297203 0.066622689 0.021269679 1.93348e-38
0.099828266 0.092110641 0.021614552 1.3070548e-38
0.099828266 0.093438134 0.021632493 1.2703209e-38
0.094055928 0.059916247 0.022179365 1.905929e-38
0.094474606 0.062905625 0.02155298 1.9241523e-38
0.093190156 0.065560691 0.021255612 1.869193e-38
0.091064498 0.060248595 0.022184014 1.813664e-38
0.090459593 0.062906004 0.021775484 1.7209615e-38
0.086458132 0.062906191 0.021886826 1.7304333e-38
0.082471155 0.063570894 0.021896064 1.9704665e-38
0.081905395 0.065560684 0.021256328 1.9702523e-38
0.078485109 0.063570894 0.021896303 1.9890128e-38
0.07858634 0.065560684 0.021256447 1.9239728e-38
0.07471136 0.063705035 0.022231698 1.9977654e-38
0.074603491 0.065560684 0.021256685 1.8500003e-38
0.073195927 0.12202303 0.02252084 1.2517317e-38
0.070456877 0.06423679 0.022239208 1.9240097e-38
0.07035511 0.066091679 0.021264136 1.7857895e-38
0.070123211 0.12223004 0.022357106 1.2428742e-38
0.066697575 0.067058511 0.021902442 1.6111548e-38
0.06531015 0.069543168 0.021311104 1.41758e-38
0.065599248 0.11901335 0.022230506 1.1414927e-38
0.067410529 0.12181572 0.022684991 1.0866111e-38
0.062579833 0.070875749 0.021757901 1.380917e-38
0.061858356 0.074587658 0.02137959 1.3348567e-38
0.061327316 0.078835651 0.021437049 1.3440392e-38
0.062389404 0.08361464 0.02150166 1.1778033e-38
0.061991125 0.085473135 0.021526814 1.1593263e-38
0.061659232 0.11500996 0.021926522 1.3718754e-38
0.062733062 0.11853573 0.022474229 1.2149601e-38
0.059820697 0.071548499 0.022338629 1.482151e-38
0.058964163 0.075311683 0.022223055 1.5282135e-38
0.058591023 0.078846358 0.021881878 1.5281069e-38
0.05883801 0.082652211 0.021488905 1.4914806e-38
0.059999689 0.085473135 0.021526933 1.4269439e-38
0.058138445 0.11117386 0.022374868 9.197962e-39
0.055167362 0.076201409 0.022401929 1.6203367e-38
0.054564804 0.078851387 0.022104383 1.6108311e-38
0.055574283 0.081933141 0.021479309 1.5465837e-38
0.054689229 0.10372622 0.021774232 1.2786397e-38
0.054798901 0.10636176 0.022238553 1.1866598e-38
0.050728053 0.07901977 0.022190213 1.5651274e-38
0.049710631 0.082486272 0.021487117 1.4821884e-38
0.050641939 0.10297179 0.022097647 9.3874021e-39
0.050894037 0.10576493 0.022552073 1.0951117e-38
0.047190204 0.080189615 0.022456288 1.4917314e-38
0.046591043 0.082837895 0.022158802 1.3993563e-38
0.046701282 0.08680442 0.021656871 1.3072674e-38
0.046059683 0.089455627 0.02158165 1.215536e-38
0.047005892 0.099093735 0.021962047 8.7412942e-39
0.04785499 0.10146004 0.02274406 8.2846433e-39
0.042536885 0.088166021 0.02256453 1.1511475e-38
0.042581737 0.09081535 0.022378027 1.0491945e-38
0.042604178 0.097454756 0.022356808 8.0037278e-39
0.039877832 0.08949542 0.02258265 1.1414265e-38
0.029241651 0.083513111 0.022502303 1.1133358e-38
0.030413061 0.087211028 0.022409439 1.1229475e-38
0.030191302 0.090634897 0.022598684 1.0124939e-38
0.029906422 0.094148323 0.022646189 8.834566e-39
0.026582584 0.083513111 0.022502482 9.9423359e-39
0.026582599 0.086836614 0.022547483 1.003202e-38
0.026633158 0.090815976 0.022378981 9.5735478e-39
0.026914984 0.093815975 0.022641897 8.9278309e-39
0.023480371 0.083734669 0.022505701 7.8218575e-39
0.023923546 0.086836606 0.022547662 8.6551662e-39
0.023591161 0.090492465 0.022597075 8.1931007e-39
0.023923561 0.093483627 0.022637486 7.9147397e-39
0.078617834 0.10105801 0.014069438 1.6486795e-38
0.10345304 0.1128394 0.013381898 1.8516199e-38
0.13488455 0.11004415 0.014779627 1.832821e-38
0.13256165 0.11058625 0.01443392 1.5190332e-38
0.15372194 0.10978065 0.016887188 1.5561972e-38
0.15449402 0.10057986 0.016744077 1.3532947e-38
0.15442084 0.11227945 0.017059863 1.3812428e-38
0.099977367 0.10913537 0.020946681 1.7774655e-38
0.11227681 0.099638969 0.020716965 1.8414644e-38
0.10322366 0.099338844 0.020533085 1.6479973e-38
0.11615567 0.12097356 0.018003821 2.3201279e-38
0.11483568 0.13087264 0.018137813 1.8131549e-38
0.12267014 0.10176416 0.018816829 1.8694123e-38
0.12359102 0.094554201 0.020811021 1.7861834e-38
0.11328954 0.084728181 0.020578444 1.6387426e-38
0.094055928 0.059916247 0.022179365 1.905929e-38
0.1700667 0.078983068 0.027433515 2.3024449e-38
0.15577656 0.079262048 0.025222838 2.1459985e-38
0.16864769 0.084678128 0.024765372 2.1641868e-38
0.17146271 0.08824186 0.024558425 2.163826e-38
0.17107934 0.129776 0.025263369 1.3443263e-38
0.1668735 0.078160062 0.026622415 2.2934763e-38
0.16744667 0.081594288 0.025135517 2.2381231e-38
0.16846272 0.08524213 0.024518013 2.1272366e-38
0.16746274 0.13023803 0.025126874 1.3534726e-38
0.16744098 0.13366249 0.02606225 1.3442169e-38
0.16738862 0.13655683 0.028212667 1.3718073e-38
0.16247876 0.074519977 0.027373552 2.3118794e-38
0.16294813 0.077719159 0.025416613 2.2749652e-38
0.16345865 0.081008211 0.024603963 2.1736583e-38
0.1631294 0.13057131 0.025131643 1.4547451e-38
0.1629587 0.1337579 0.025811434 1.4455625e-38
0.16305289 0.13683835 0.027716637 1.4824044e-38
0.15924184 0.074769221 0.025876999 2.2564193e-38
0.15918919 0.077846959 0.024618447 2.228652e-38
0.1587837 0.1336059 0.025506318 1.5285736e-38
0.15938604 0.13780069 0.027341008 1.5744925e-38
0.16069338 0.14057361 0.028267384 1.6206266e-38
0.15540691 0.074932963 0.025712788 2.2474514e-38
0.15679605 0.07757616 0.024414957 2.2381585e-38
0.15546273 0.13357103 0.025172651 1.5102797e-38
0.15538877 0.1377648 0.027007401 1.5563048e-38
0.15489084 0.14101993 0.028273702 1.5748163e-38
0.15140507 0.074262895 0.025570512 2.0073469e-38
0.1516532 0.13395196 0.025178075 1.5010224e-38
0.15139996 0.13771622 0.026562512 1.5654522e-38
0.15132006 0.14110918 0.028275132 1.6115514e-38
0.14730288 0.07094951 0.027326107 1.9060739e-38
0.14728338 0.074078254 0.02545917 1.8507916e-38
0.14746273 0.13490424 0.025191188 1.5100632e-38
0.14743313 0.13763151 0.025783777 1.5747069e-38
0.14734858 0.14143384 0.027422607 1.6206631e-38
0.14395526 0.07094951 0.027326226 1.7126057e-38
0.14338358 0.074264608 0.025704443 1.5748532e-38
0.14342976 0.13763151 0.025783956 1.5104233e-38
0.14334476 0.14113089 0.027275801 1.5656674e-38
0.13950475 0.074569449 0.026661217 1.3623005e-38
0.13905348 0.077585325 0.024844706 1.1315575e-38
0.13746271 0.080242574 0.02445209 1.1037532e-38
0.13679607 0.13490424 0.025191784 1.280152e-38
0.13894865 0.13749924 0.025681376 1.3721667e-38
0.1391983 0.14157549 0.026782095 1.454962e-38
0.1339124 0.070949502 0.027326822 1.8784847e-38
0.13506016 0.074009903 0.027368188 1.5926774e-38
0.13539229 0.07759881 0.025416672 1.41783e-38
0.134784 0.081580199 0.024637043 1.2056356e-38
0.13332938 0.085308783 0.024520874 9.2937085e-39
0.13279605 0.10357378 0.024768054 4.8780601e-39
0.13368495 0.106018 0.024801075 5.3394264e-39
0.13412939 0.10957323 0.024849176 7.1826061e-39
0.13368495 0.11312845 0.024897277 8.9299973e-39
0.13412941 0.13490424 0.025191963 1.1695164e-38
0.13461202 0.13776489 0.025480628 1.2432366e-38
0.13536145 0.14173594 0.026728928 1.3999326e-38
0.13525148 0.14459038 0.028323174 1.446175e-38
0.13056478 0.066932723 0.027272701 2.1455661e-38
0.13116352 0.069763429 0.026060879 1.9981968e-38
0.13135359 0.073600568 0.025807261 1.6850543e-38
0.13138658 0.07759881 0.025416851 1.4916236e-38
0.13138658 0.08160416 0.025471032 1.4086086e-38
0.13073166 0.085603513 0.025358498 1.1413151e-38
0.13078305 0.089581378 0.024745524 8.3772074e-39
0.13012938 0.093574688 0.024632931 6.0733719e-39
0.13012938 0.098240927 0.024696052 4.6021865e-39
0.13049644 0.10252097 0.025754154 4.7851582e-39
0.13132492 0.10595416 0.026600599 5.3372614e-39
0.13197808 0.10970996 0.026851356 6.99641e-39
0.13097139 0.11348714 0.026331007 8.3746837e-39
0.13066272 0.11730585 0.024954021 1.0402252e-38
0.13057384 0.13445982 0.025186121 1.0858583e-38
0.13102685 0.13783908 0.0259462 1.0129275e-38
0.13151209 0.14140123 0.02713728 1.1235632e-38
0.1325734 0.14459038 0.028323293 1.2984844e-38
0.12654763 0.062915951 0.02721858 2.1272351e-38
0.12729034 0.065587625 0.026365638 2.1273782e-38
0.12739927 0.069585197 0.025086403 1.9980544e-38
0.12731224 0.074067652 0.024732769 1.7585944e-38
0.12761892 0.077966779 0.024850547 1.4915527e-38
0.12739016 0.081601217 0.025360107 1.4361978e-38
0.12738088 0.085609511 0.02552551 1.2519143e-38
0.12738088 0.089614838 0.025579691 9.1115327e-39
0.12738088 0.093620196 0.025633872 7.0878741e-39
0.12727048 0.097693846 0.027022362 5.9822314e-39
0.12855622 0.10174478 0.027743816 4.6926038e-39
0.12721717 0.11513405 0.027925014 7.5417057e-39
0.12743545 0.11759845 0.025291562 1.0487983e-38
0.12746273 0.12023892 0.024993837 1.2608787e-38
0.12779607 0.13457094 0.02518779 1.0950769e-38
0.12747756 0.1374214 0.02736944 9.1104537e-39
0.12855625 0.14057361 0.028269172 8.1027533e-39
0.12286801 0.061767321 0.026631773 2.0625177e-38
0.12339438 0.065581113 0.025032461 2.0071993e-38
0.12346271 0.069576882 0.024308562 1.9057141e-38
0.12346271 0.074243121 0.024371684 1.6386699e-38
0.12346271 0.078242756 0.024425864 1.4917678e-38
0.12346272 0.081575789 0.024470925 1.4271952e-38
0.12346272 0.085575424 0.024525046 1.3443971e-38
0.1234532 0.089579687 0.02469027 1.1599719e-38
0.12340455 0.093605459 0.025300503 9.663598e-39
0.12307692 0.097535968 0.027187169 7.9144048e-39
0.12186099 0.11044779 0.027861953 9.3744065e-39
0.12293194 0.11389031 0.026622713 1.0484741e-38
0.12424559 0.11732143 0.025154591 1.4077499e-38
0.12479606 0.13490424 0.02519244 9.6621687e-39
0.12453909 0.13722628 0.028224111 8.9281896e-39
0.11784383 0.058899172 0.027164698 2.1633955e-38
0.11926621 0.061575927 0.026311815 2.071487e-38
0.11940031 0.065580502 0.024921536 1.9334814e-38
0.1194627 0.069576882 0.024308801 1.8318502e-38
0.11946271 0.074243121 0.024371862 1.6108332e-38
0.11972938 0.078376077 0.024427831 1.4452408e-38
0.12012938 0.081575781 0.024471104 1.3626233e-38
0.1203516 0.086464226 0.024537265 1.2521672e-38
0.11946271 0.089575052 0.024579406 1.1874501e-38
0.11941088 0.093600601 0.025189519 1.0953259e-38
0.11932883 0.097648732 0.026133299 1.0858906e-38
0.11880031 0.1015535 0.02774179 1.2704232e-38
0.11913353 0.10585012 0.026549816 1.3714032e-38
0.1193703 0.10964096 0.025851071 1.4998672e-38
0.12035161 0.11268405 0.024892032 1.5831352e-38
0.11483098 0.058564439 0.027160287 2.1636113e-38
0.11531422 0.061842814 0.025704622 2.0619098e-38
0.11543795 0.065744802 0.024507225 1.960672e-38
0.1154627 0.069576882 0.024309039 1.8594009e-38
0.11679605 0.07357651 0.024363101 1.6661154e-38
0.11679605 0.086908624 0.024543464 1.3437892e-38
0.11546271 0.089575052 0.024579644 1.4636752e-38
0.11539672 0.09360566 0.02530098 1.5192435e-38
0.11536372 0.097625539 0.025688767 1.574312e-38
0.11525037 0.10188596 0.025546372 1.7031709e-38
0.11580178 0.1055999 0.025225163 1.915503e-38
0.11612939 0.10824001 0.024832189 2.0441838e-38
0.10980955 0.054882392 0.027110815 2.0988598e-38
0.11119554 0.057562023 0.026702404 2.1452439e-38
0.11124683 0.062061887 0.025116861 2.0713802e-38
0.11163849 0.065958679 0.024403214 2.0070216e-38
0.1114627 0.069195963 0.024304152 1.9147543e-38
0.11190715 0.089575052 0.024579823 1.5374317e-38
0.1115775 0.093764566 0.02513659 1.5189605e-38
0.11142813 0.098257676 0.025030673 1.6200887e-38
0.11184368 0.10271671 0.024757743 1.9984846e-38
0.11279605 0.10557358 0.024796247 2.1913364e-38
0.10713145 0.054882392 0.027110934 2.0345751e-38
0.10727867 0.057566851 0.025813878 2.1082587e-38
0.10745367 0.062244039 0.024293602 2.0805992e-38
0.10779604 0.065910548 0.024259865 2.0162074e-38
0.1074627 0.068243667 0.024291456 1.9513796e-38
0.10879605 0.094907895 0.024652183 1.4819402e-38
0.10879605 0.096907713 0.024679244 1.5278567e-38
0.1028937 0.054350708 0.026703954 2.0625177e-38
0.10337258 0.057572953 0.024925232 2.1454583e-38
0.10412936 0.061577607 0.024201453 2.0439736e-38
0.099045657 0.053937666 0.025955677 1.9980902e-38
0.099422082 0.057575367 0.024480939 2.0257122e-38
0.095250107 0.05355769 0.025760293 1.8598667e-38
0.095434353 0.057576232 0.024370015 1.9425567e-38
0.091210954 0.053555105 0.025982618 1.7309724e-38
0.090944007 0.057574049 0.024703622 1.8412501e-38
0.088796034 0.060244389 0.024184287 1.8230271e-38
0.087386377 0.053723924 0.025846362 1.8046591e-38
0.087191783 0.057406168 0.024896085 1.7309388e-38
0.08679603 0.060244389 0.024184406 1.7123559e-38
0.08436764 0.05421292 0.027103186 1.6755135e-38
0.083156787 0.057564218 0.026259542 1.6111924e-38
0.082510315 0.060815763 0.024192393 1.7215742e-38
0.079608217 0.058010545 0.026154757 1.6756202e-38
0.078796029 0.060910992 0.024193883 1.8688004e-38
0.07515043 0.058233697 0.026158035 1.7764603e-38
0.075462684 0.060910992 0.024194062 1.9793641e-38
0.071300842 0.058907166 0.025167346 1.8688362e-38
0.071408749 0.061576895 0.024536729 1.9698554e-38
0.071462728 0.12290531 0.025033116 1.3251687e-38
0.070633262 0.12432785 0.026052535 1.427484e-38
0.067461394 0.058568425 0.026162982 1.8505417e-38
0.067249753 0.062061943 0.024755597 1.8963506e-38
0.066129394 0.12290531 0.025033414 1.0589894e-38
0.067168549 0.12506333 0.026812732 1.3629819e-38
0.061603829 0.058899149 0.027167857 1.8134103e-38
0.063405044 0.061843634 0.025307596 1.7121753e-38
0.063031964 0.06557826 0.024543703 1.4821175e-38
0.062796034 0.068243645 0.024293959 1.4360899e-38
0.063288495 0.12232582 0.026025951 1.1231302e-38
0.064281955 0.12450648 0.028055429 1.113769e-38
0.059386909 0.062021665 0.02587688 1.5283948e-38
0.059362814 0.065579869 0.024813771 1.427015e-38
0.059246391 0.069197275 0.024450004 1.4269043e-38
0.058129355 0.072909884 0.024357378 1.5375391e-38
0.058129385 0.11490604 0.024925649 1.1414247e-38
0.058615476 0.11765322 0.025962949 1.3441815e-38
0.059977867 0.12144303 0.02661407 1.2796431e-38
0.055093288 0.062244751 0.026213467 1.3440041e-38
0.055298522 0.065582126 0.025147438 1.3531881e-38
0.055140615 0.069712974 0.024614334 1.4823679e-38
0.054642171 0.073781602 0.024369299 1.5650922e-38
0.054076344 0.10959329 0.025139749 1.1594324e-38
0.055091947 0.11372099 0.026910007 1.0116719e-38
0.056430459 0.1170645 0.026955068 9.1958628e-39
0.050891459 0.062246457 0.027213812 1.3347466e-38
0.051272273 0.065582737 0.025258839 1.3163104e-38
0.051129416 0.069419555 0.025185704 1.4084707e-38
0.050796032 0.074243091 0.024375856 1.5005572e-38
0.050129384 0.10690677 0.024817884 1.095471e-38
0.050945461 0.1098133 0.025571585 1.3162734e-38
0.050891489 0.11245616 0.027893186 1.3896349e-38
0.0468743 0.062246457 0.027213991 1.2888319e-38
0.047178566 0.065584764 0.025703549 1.279575e-38
0.047266573 0.06958808 0.025313258 1.3714843e-38
0.047462687 0.074243091 0.024375975 1.5097769e-38
0.047196016 0.078109406 0.024428368 1.6389919e-38
0.04701826 0.10335154 0.024769962 8.7427446e-39
0.047156438 0.10638639 0.025010943 8.7441711e-39
0.047091827 0.1097036 0.026744843 1.1971003e-38
0.047543854 0.11245615 0.027893305 1.4546016e-38
0.044196218 0.062246453 0.02721417 1.1783048e-38
0.042946443 0.065590464 0.026814997 1.2429821e-38
0.043260843 0.06958808 0.025313437 1.3994643e-38
0.043395102 0.074248426 0.024709642 1.5467268e-38
0.043462694 0.078242727 0.024430394 1.639028e-38
0.043081746 0.081385292 0.024473011 1.4914444e-38
0.042796031 0.085575387 0.024529636 1.2982267e-38
0.042129382 0.088241816 0.024565756 1.1511843e-38
0.043462723 0.099574104 0.024719 8.2792623e-39
0.043361157 0.10226963 0.025255501 8.8331381e-39
0.043215588 0.10565056 0.026023686 9.7536315e-39
0.043370813 0.1093092 0.027517676 1.1046887e-38
0.038505256 0.066597961 0.027273357 1.2429817e-38
0.039209023 0.069590576 0.025536001 1.3165248e-38
0.039255142 0.07359343 0.025367916 1.4915897e-38
0.039301053 0.077593744 0.025199771 1.6298103e-38
0.0394627 0.081575751 0.024475694 1.6110827e-38
0.039462715 0.085575387 0.024529815 1.3811322e-38
0.038662717 0.089575022 0.024583995 1.1967774e-38
0.038796052 0.093574651 0.024638116 9.0207566e-39
0.039296061 0.097574286 0.024692178 7.546344e-39
0.039255172 0.10163087 0.02574724 8.3761088e-39
0.039116785 0.10567924 0.026468694 1.123273e-38
0.036161914 0.066932686 0.027278006 1.1693355e-38
0.03486982 0.069607615 0.02709204 1.1964562e-38
0.035338148 0.074252658 0.024960279 1.4086484e-38
0.035462692 0.078242727 0.024430811 1.4821527e-38
0.035462707 0.081575751 0.024475932 1.408075e-38
0.035462707 0.085575387 0.024530053 1.4176886e-38
0.035462692 0.089575022 0.024584174 1.1694053e-38
0.035462722 0.093574651 0.024638295 9.2959113e-39
0.035391405 0.09759178 0.025025964 6.4446725e-39
0.035201624 0.10164393 0.025969923 7.7336275e-39
0.035135522 0.10534425 0.027226388 1.1788056e-38
0.031140506 0.070614733 0.027328134 1.132311e-38
0.031261638 0.074258298 0.025293946 1.2151086e-38
0.031462684 0.078242719 0.02443105 1.2148942e-38
0.031462699 0.081575751 0.024476171 1.224223e-38
0.031653181 0.085194468 0.024525166 1.2152507e-38
0.032462701 0.089908317 0.024588883 1.0863212e-38
0.032129377 0.093574651 0.024638474 8.8356366e-39
0.031341478 0.097602949 0.025248647 7.5466845e-39
0.031246766 0.10129875 0.02660042 7.823312e-39
0.032144815 0.10509205 0.0277946 1.2155763e-38
0.027458116 0.070949465 0.027332902 8.2821139e-39
0.027181819 0.074263312 0.025627673 8.1002464e-39
0.027462691 0.078242719 0.024431288 8.3750172e-39
0.027462691 0.080909148 0.024467349 9.6661092e-39
0.026129395 0.094907865 0.024656832 8.6526859e-39
0.027412787 0.097586088 0.024915278 8.6519698e-39
0.027013317 0.10102023 0.026739657 8.3764662e-39
0.023363769 0.07427533 0.026252925 5.9761498e-39
0.023151323 0.077756688 0.025050104 6.623659e-39
0.023239031 0.08119861 0.024614453 7.1786404e-39
0.022129372 0.086241983 0.024539828 7.5445447e-39
0.022129372 0.089575015 0.024584949 7.5452439e-39
0.022929385 0.094107941 0.024646223 7.5484851e-39
0.023257464 0.097620875 0.025582671 8.0998695e-39
0.023077413 0.10033244 0.026397288 8.0094367e-39
0.019156873 0.077787839 0.026425779 6.6218485e-39
0.01922594 0.081603274 0.025477409 6.160527e-39
0.019225076 0.085610099 0.02553159 5.6088162e-39
0.018962935 0.089659452 0.026697516 5.7942655e-39
0.019337669 0.093672171 0.026783526 5.9811678e-39
0.01987572 0.097368568 0.027190745 7.0864266e-39
0.014201552 0.082196422 0.027485788 6.4335252e-39
0.010720029 0.078983009 0.027442515 1.3077674e-38
0.011173874 0.08184348 0.027195454 1.0772771e-38
0.077651098 0.10208291 0.010999739 1.5006623e-38
0.089833379 0.11041452 0.013341606 1.6947763e-38
0.088279441 0.11245174 0.012871563 1.695535e-38
0.15242966 0.10238183 0.017472386 1.6667618e-38
0.15066631 0.096824147 0.017119527 1.4363423e-38
0.15053651 0.10836872 0.016386747 1.2244737e-38
0.15055306 0.11626725 0.016771376 1.3258538e-38
0.10393015 0.10837163 0.020649135 1.5743101e-38
0.10109245 0.097290963 0.020401597 1.5187434e-38
0.10114961 0.11087923 0.019729376 1.1229158e-38
0.10586794 0.088049054 0.020262361 1.5558379e-38
0.11694732 0.089809999 0.020867407 1.8045511e-38
0.11626036 0.079812586 0.020697653 1.9612831e-38
0.10476495 0.081012622 0.020964026 1.7675634e-38
0.095356919 0.09553986 0.022874355 1.2980861e-38
0.098679706 0.096561156 0.02327776 1.4729326e-38
0.088796034 0.060244389 0.024184287 1.8230271e-38
0.10624311 0.090097144 0.021297753 1.6206265e-38
0.12409718 0.092534855 0.022651076 1.4546389e-38
0.11081124 0.087291107 0.023978412 1.6295218e-38
0.10361788 0.077975281 0.023828804 1.5188876e-38
0.16733158 0.073665842 0.029695272 2.3024444e-38
0.16803437 0.076996386 0.028406918 2.3025165e-38
0.16736391 0.13867456 0.029241502 1.4545313e-38
0.16734765 0.1421029 0.029954493 1.4916611e-38
0.16732274 0.14625004 0.031010687 1.5470858e-38
0.16728362 0.14946958 0.032637715 1.6205905e-38
0.16254507 0.066969842 0.032271802 2.3022656e-38
0.16327006 0.069646753 0.030641139 2.2838989e-38
0.16377819 0.073202379 0.028689146 2.3025884e-38
0.16360925 0.13880864 0.029243469 1.5380791e-38
0.16332775 0.14207797 0.029732168 1.6113706e-38
0.16329037 0.14625004 0.031010926 1.6942737e-38
0.16324981 0.14910156 0.032383025 1.6388826e-38
0.15893322 0.066424906 0.031464517 2.3299563e-38
0.15924232 0.069644257 0.030419052 2.2743863e-38
0.15931818 0.072303474 0.028343916 2.3204868e-38
0.15914132 0.14222321 0.029539943 1.6393173e-38
0.15927362 0.14619595 0.030565977 1.7774305e-38
0.15946507 0.14969039 0.032791197 1.8326764e-38
0.15515582 0.065617077 0.031587064 2.2563819e-38
0.15526298 0.069630131 0.029085696 2.2563828e-38
0.15529531 0.072303474 0.028344154 2.2753965e-38
0.15551218 0.14249289 0.02946049 1.6115159e-38
0.15524462 0.14619595 0.030566096 1.7126799e-38
0.15512796 0.14956227 0.033389807 1.7311196e-38
0.15114562 0.06561213 0.030920804 2.1087614e-38
0.15125152 0.069626167 0.028752506 2.0812111e-38
0.15261342 0.072303474 0.028344274 2.1183783e-38
0.15127249 0.14303225 0.029301286 1.6205928e-38
0.15122493 0.1461689 0.030343771 1.6943827e-38
0.15110603 0.14983758 0.032893658 1.7037801e-38
0.14658697 0.062475007 0.032211959 2.1735147e-38
0.1471608 0.06560725 0.029920638 2.0168156e-38
0.14723216 0.068954505 0.028632581 1.9245855e-38
0.14724964 0.14336745 0.029306054 1.6389968e-38
0.14722003 0.14611629 0.029898822 1.7592068e-38
0.14706022 0.15051846 0.032958746 1.8508993e-38
0.14703654 0.1532705 0.033440411 1.8968179e-38
0.14283212 0.061960611 0.031633675 2.1456379e-38
0.14316775 0.065604836 0.029254138 1.9245488e-38
0.14302647 0.069240049 0.028446257 1.7400861e-38
0.14322677 0.14336747 0.029306352 1.6024392e-38
0.14319421 0.14611629 0.029899061 1.7038531e-38
0.14321691 0.15011744 0.032826483 1.8324961e-38
0.13852853 0.057982501 0.031651497 2.2472708e-38
0.1390028 0.061576005 0.031311214 2.1176222e-38
0.13913918 0.065604836 0.029254317 1.8877414e-38
0.13916075 0.069628663 0.028975427 1.7030977e-38
0.13920389 0.072303466 0.028345108 1.4824037e-38
0.14054488 0.14336745 0.029306412 1.5473736e-38
0.13918234 0.14608967 0.029676676 1.6117652e-38
0.13897745 0.14983758 0.032894313 1.6943474e-38
0.13489935 0.0548338 0.032109201 2.2840057e-38
0.13496216 0.057535738 0.031256616 2.2654934e-38
0.13500065 0.061575476 0.030755758 2.1546423e-38
0.13511062 0.065604836 0.029254556 2.0165627e-38
0.13534009 0.06945537 0.028431714 1.9334773e-38
0.1358515 0.072303466 0.028345227 1.712459e-38
0.13512173 0.14682093 0.030186892 1.5472667e-38
0.13492253 0.14985819 0.033061504 1.6390677e-38
0.13059953 0.054296363 0.031902134 2.3024427e-38
0.13092977 0.057536602 0.03114593 2.2470175e-38
0.13102388 0.06157542 0.029978216 2.1913772e-38
0.13132825 0.065217257 0.028535366 2.1640765e-38
0.13249913 0.06828098 0.028290987 2.0719905e-38
0.12977822 0.10585649 0.029299498 4.8773636e-39
0.1297392 0.10991316 0.029854476 6.4410964e-39
0.13048773 0.14336744 0.029307008 1.0588808e-38
0.13087568 0.14639853 0.030848086 1.2342669e-38
0.13152796 0.14922515 0.033386588 1.4181934e-38
0.12545934 0.050788451 0.032054961 2.293223e-38
0.12684451 0.053489879 0.031646907 2.2560212e-38
0.12698112 0.057541903 0.030034959 2.1455317e-38
0.12728065 0.061193075 0.028766751 2.182373e-38
0.12642328 0.10183083 0.029245257 5.7031544e-39
0.12691623 0.10599276 0.031468451 4.9684607e-39
0.12696211 0.10998976 0.030966818 6.255622e-39
0.12710772 0.11322282 0.0292328 7.2633097e-39
