# .PCD v0.7 - Point Cloud Data file format
VERSION 0.7
FIELDS x y z rgb
SIZE 4 4 4 4
TYPE F F F F
COUNT 1 1 1 1
WIDTH 977
HEIGHT 1
VIEWPOINT 0 0 0 0 1 0 0
POINTS 977
DATA ascii
0.11374292 0.14811414 0.036293566 1.0222905e-38
0.10976293 0.040724408 0.035786152 2.2464041e-38
0.10982588 0.043395948 0.032959402 2.2556242e-38
0.10844494 0.140643 0.035235882 1.3074822e-38
0.10931505 0.14428735 0.03637284 1.2709657e-38
0.10983811 0.14747871 0.038059115 1.289296e-38
0.10576159 0.040949494 0.035635054 2.2924289e-38
0.10714398 0.043395918 0.032963037 2.2374712e-38
0.10518222 0.13696478 0.036673486 6.1720709e-39
0.10556303 0.14016932 0.037509322 8.9343273e-39
0.10630225 0.14401329 0.038400948 1.2249027e-38
0.10680798 0.14701614 0.038855016 1.3169556e-38
0.10153925 0.040737674 0.035547733 2.2372236e-38
0.097529396 0.040584795 0.03525877 2.1819759e-38
0.093493216 0.040584743 0.035264373 2.2096359e-38
0.089457028 0.040584695 0.035269976 2.154355e-38
0.086578049 0.037799791 0.03689003 2.1542838e-38
0.08539512 0.040572979 0.035497665 2.0898532e-38
0.085018292 0.043395638 0.032993734 2.0437551e-38
0.081487961 0.040724054 0.035825312 2.0161325e-38
0.081617706 0.043911636 0.033407986 2.0346802e-38
0.077278562 0.040554937 0.035842001 1.9609617e-38
0.077643052 0.043395542 0.033003986 2.0069505e-38
0.073268719 0.04056656 0.035625517 1.8412494e-38
0.0736202 0.043395489 0.033009589 1.8505046e-38
0.069335207 0.040710766 0.036091924 1.7582015e-38
0.069033049 0.044189751 0.033230424 1.758309e-38
0.065072648 0.041196652 0.036481678 1.7213588e-38
0.06535311 0.044549547 0.033417046 1.7213231e-38
0.061104342 0.041897032 0.035999954 1.6387101e-38
0.061469026 0.044708371 0.033605874 1.6938453e-38
0.060432121 0.12941578 0.037597954 1.9519171e-38
0.059758805 0.13076222 0.037623405 1.9427696e-38
0.057737678 0.041896988 0.036004603 1.6571461e-38
0.057372741 0.044686455 0.03405571 1.6109411e-38
0.056187898 0.047417462 0.033107042 1.5371838e-38
0.056188881 0.12517977 0.03452605 1.5931878e-38
0.057162188 0.12832548 0.035725117 1.9522795e-38
0.057169951 0.13071342 0.03695935 2.0074531e-38
0.053526483 0.045053288 0.035734594 1.5372922e-38
0.053031944 0.048303753 0.03329438 1.54651e-38
0.05340001 0.12924942 0.035270989 1.887528e-38
0.053023577 0.13076213 0.037632763 1.8784873e-38
0.050166756 0.045889415 0.037088096 1.5281049e-38
0.049223512 0.048690148 0.034695745 1.454239e-38
0.049148127 0.051960178 0.033599794 1.3987076e-38
0.049429379 0.12922561 0.034942687 1.418372e-38
0.045450039 0.049091563 0.035819471 1.4816132e-38
0.045249559 0.052733395 0.03444159 1.4725036e-38
0.044119425 0.055461682 0.033270597 1.5921773e-38
0.045039617 0.12890226 0.03510946 1.2430568e-38
0.046122111 0.13083524 0.038643897 1.325854e-38
0.043423928 0.048586022 0.037146628 1.5371105e-38
0.041641824 0.05292232 0.036628127 1.6290903e-38
0.041042656 0.056381319 0.034434617 1.647459e-38
0.041887328 0.12862 0.03585875 1.1786631e-38
0.038928777 0.0535299 0.037243128 1.6937716e-38
0.037353292 0.056916356 0.035735548 1.6107958e-38
0.036073774 0.05948377 0.033355117 1.6015754e-38
0.033789575 0.057227187 0.036917567 1.6106505e-38
0.033310845 0.060812838 0.033811688 1.6752595e-38
0.031860694 0.12054578 0.035475373 1.4727553e-38
0.030837387 0.057574838 0.037328184 1.6293809e-38
0.029940233 0.060578987 0.03538388 1.5652012e-38
0.029061526 0.064037755 0.033647954 1.3895619e-38
0.028028786 0.11713503 0.034418285 1.2619619e-38
0.029142827 0.12010881 0.035637856 1.5009873e-38
0.026210219 0.06090815 0.036645234 1.380595e-38
0.02533406 0.064280532 0.03485769 1.2516979e-38
0.024675757 0.066187277 0.033493221 1.2149647e-38
0.025306359 0.11660953 0.034612417 1.1601891e-38
0.025668874 0.11991975 0.036222577 1.4733633e-38
0.021846965 0.061395042 0.037410378 1.1599702e-38
0.021584228 0.064132988 0.035460234 1.1321333e-38
0.021043435 0.067137077 0.03394413 1.132421e-38
0.02065298 0.070879772 0.033584416 1.1691559e-38
0.021510094 0.11635216 0.034813106 1.2063581e-38
0.021459267 0.11955748 0.036614716 1.4454527e-38
0.01914984 0.062069185 0.037426293 1.0493015e-38
0.017657593 0.063969322 0.036862969 9.6654169e-39
0.01772438 0.0675079 0.034693778 1.0033481e-38
0.017182201 0.071543984 0.034156919 1.0954009e-38
0.016496077 0.075304128 0.033670902 1.215004e-38
0.015959725 0.07892409 0.033737719 1.2981594e-38
0.015853226 0.11246653 0.034850001 1.0592324e-38
0.017363846 0.11611523 0.036843479 1.2616023e-38
0.017941386 0.11978474 0.037814379 1.4270468e-38
0.014536783 0.064775892 0.03698194 8.1016715e-39
0.014058352 0.06764102 0.036909938 8.928219e-39
0.013370007 0.071521074 0.036273301 1.003279e-38
0.013308898 0.075736992 0.034308255 1.1874878e-38
0.013082772 0.079426691 0.033875883 1.2520257e-38
0.013133138 0.11202702 0.035012484 9.8555437e-39
0.013595015 0.11503701 0.037067115 1.3263895e-38
0.011058509 0.06813664 0.037548244 8.0084067e-39
0.010221571 0.071705379 0.037042975 8.9282218e-39
0.0094810873 0.075560935 0.035685539 1.0678473e-38
0.0091805607 0.079594001 0.034092665 1.1874152e-38
0.0092550516 0.08227583 0.033808231 1.2889021e-38
0.0095091462 0.11232887 0.035481453 1.0037404e-38
0.0097105503 0.11465459 0.038399041 1.2436294e-38
0.0056661516 0.075387388 0.036937892 9.110783e-39
0.0052279681 0.079762273 0.034517944 1.0399357e-38
0.0046496242 0.083081134 0.034029245 1.0490139e-38
0.0038913041 0.08696831 0.033901215 8.3718054e-39
0.0048773736 0.11218947 0.035074532 9.5764106e-39
0.0058920085 0.11460423 0.037403226 1.0778565e-38
0.002687797 0.07589028 0.037451327 5.9747107e-39
0.0013997108 0.07940428 0.03705281 6.4396265e-39
0.0014111698 0.083629489 0.035843968 6.5310864e-39
0.0017627925 0.08764413 0.034416556 7.2676089e-39
0.00098595023 0.091660827 0.03399092 8.006606e-39
0.00094145536 0.10801773 0.03428942 7.5466915e-39
0.0015292615 0.11184312 0.035858691 8.6555488e-39
0.0013979375 0.11530351 0.037922263 9.5771323e-39
0.00027059019 0.11869952 0.038485885 9.7582936e-39
0.079491496 0.11665104 0.00098252296 1.9885089e-38
0.14478768 0.10677238 0.01006335 1.3074848e-38
0.14157787 0.084748924 0.0088880062 1.6939873e-38
0.14534189 0.07307563 0.012448251 1.9426995e-38
0.14873198 0.093200877 0.011588335 1.6204471e-38
0.11428092 0.099514723 0.013223767 1.380845e-38
0.11374806 0.10310246 0.013039887 1.4454915e-38
0.084775865 0.088683948 0.016516685 1.5004831e-38
0.07555297 0.080893874 0.019188702 1.1967044e-38
0.099546254 0.080811307 0.019278944 1.7400853e-38
0.07388135 0.066815361 0.024434984 1.5648761e-38
0.08049915 0.078541167 0.022525966 1.638706e-38
0.077699639 0.08916232 0.021913767 1.6663644e-38
0.069033049 0.044189751 0.033230424 1.758309e-38
0.13849129 0.15116332 0.039886951 1.649403e-38
0.15734622 0.039684273 0.039326787 1.3998963e-38
0.15802646 0.15129922 0.041195989 2.2931182e-38
0.15396242 0.039684229 0.039331436 1.6296307e-38
0.14989658 0.040009085 0.03959316 1.7221124e-38
0.14989217 0.152721 0.041900039 2.164508e-38
0.14584933 0.15265186 0.041237473 2.0905383e-38
0.14112365 0.040388308 0.038862169 2.2377976e-38
0.14180125 0.15261728 0.040909111 2.1182309e-38
0.13772148 0.039684024 0.039353967 2.2374767e-38
0.13771774 0.1522356 0.041574538 2.090428e-38
0.13296215 0.037625659 0.039823115 2.2560914e-38
0.13499358 0.038979746 0.039845049 2.2284365e-38
0.13368696 0.151265 0.0408957 2.0259268e-38
0.12957644 0.037625615 0.039827883 2.2926839e-38
0.12962982 0.15126495 0.040901363 1.9337336e-38
0.12692505 0.14991277 0.040880382 1.9250511e-38
0.12555347 0.15129882 0.041240931 1.9250155e-38
0.12280501 0.037625533 0.039837182 2.3024407e-38
0.12183639 0.040035944 0.039132357 2.2466566e-38
0.12151555 0.15126485 0.040912569 1.9342353e-38
0.11743459 0.039017078 0.039203227 2.2741722e-38
0.11743475 0.15175007 0.041260362 1.4279542e-38
0.11603506 0.15407464 0.041971505 1.4186293e-38
0.11264788 0.037625402 0.039851248 2.2557332e-38
0.11339985 0.039035797 0.038875878 2.2648792e-38
0.11204888 0.14991258 0.040901005 1.1416353e-38
0.11337569 0.15129867 0.041257799 1.0955812e-38
0.10858503 0.03762535 0.039856911 2.2281093e-38
0.10799033 0.039035734 0.038883388 2.2464747e-38
0.10898541 0.14959946 0.041149497 1.3535805e-38
0.10994076 0.15136644 0.041930616 1.3078072e-38
0.10655361 0.037625324 0.039859712 2.2464752e-38
0.10460939 0.039035693 0.038888037 2.2832459e-38
0.10432708 0.13554206 0.041316211 6.4421894e-39
0.10425059 0.14486542 0.041069746 1.022364e-38
0.10524352 0.14838395 0.041382551 1.2984102e-38
0.10045931 0.037625249 0.039868176 2.2187131e-38
0.10122842 0.039035648 0.038892686 2.2372229e-38
0.10249206 0.14121088 0.041755617 4.600809e-39
0.10249209 0.14391899 0.041804969 5.7972026e-39
0.10249215 0.14865822 0.041891515 1.2523488e-38
0.0970736 0.037625201 0.039872885 2.1909816e-38
0.089056991 0.037683338 0.038884938 2.1359892e-38
0.087594792 0.1297012 0.041566193 1.2612762e-38
0.084323667 0.037683278 0.038891494 2.1357019e-38
0.085563362 0.12970117 0.041568935 1.2606319e-38
0.079590358 0.039035376 0.038922727 1.9793997e-38
0.082177676 0.13173221 0.041610777 1.4725415e-38
0.076885574 0.037683185 0.038901746 1.9793289e-38
0.078453399 0.13207069 0.041622102 1.5742047e-38
0.073504627 0.03768314 0.038906395 1.8507585e-38
0.070665069 0.037624873 0.039909422 1.7676726e-38
0.06998913 0.13308613 0.041652381 1.7308654e-38
0.065925062 0.03762481 0.039916039 1.6478206e-38
0.066066548 0.039035201 0.038941443 1.6939875e-38
0.067280561 0.13376312 0.041668475 1.6112281e-38
0.0632165 0.03762478 0.039919734 1.5273907e-38
0.061738953 0.039576013 0.038957298 1.6109767e-38
0.0618634 0.13173196 0.04163897 1.5924283e-38
0.05825264 0.040035143 0.039220452 1.6105822e-38
0.057852156 0.13238393 0.041322947 1.933551e-38
0.054492064 0.041713111 0.039506316 1.6757615e-38
0.052542821 0.043091506 0.039034188 1.5928948e-38
0.053518116 0.13269109 0.040917814 1.9245129e-38
0.049739473 0.044414017 0.039662242 1.518815e-38
0.049784102 0.1330355 0.041012645 1.6207334e-38
0.045949385 0.045226019 0.039682269 1.5093795e-38
0.044428594 0.04714787 0.039119422 1.5461871e-38
0.045697033 0.13304827 0.0411852 1.3993924e-38
0.042902343 0.045748886 0.040096104 1.6753298e-38
0.041439548 0.048485339 0.039481223 1.5649477e-38
0.040371507 0.051204287 0.039199054 1.5465807e-38
0.042125642 0.13185248 0.041468382 1.3073774e-38
0.038388088 0.049359649 0.040168345 1.565093e-38
0.037124589 0.052086405 0.039719641 1.592537e-38
0.036315262 0.12151635 0.040487707 1.0209971e-38
0.036643833 0.12426245 0.041204095 1.15032e-38
0.038509429 0.12830091 0.040941834 1.1784836e-38
0.03376101 0.053534616 0.040250897 1.4724692e-38
0.033609658 0.055260666 0.039282501 1.5280727e-38
0.034962878 0.12151632 0.040489614 1.0948252e-38
0.034962878 0.12286848 0.04051429 1.178374e-38
0.030036733 0.053873081 0.040262222 1.3162752e-38
0.029552519 0.056274734 0.039306581 1.5188167e-38
0.029425398 0.12290958 0.041189432 1.5378656e-38
0.025606975 0.057399519 0.040132582 1.5004831e-38
0.02414304 0.059317015 0.039369643 1.3987812e-38
0.025974751 0.12293011 0.041527927 1.5471208e-38
0.021911085 0.059289221 0.040372312 1.1875217e-38
0.022589028 0.12157601 0.041507959 1.4829394e-38
0.016704977 0.062021233 0.039429247 9.5721255e-39
0.013892323 0.062009223 0.039932907 6.2620749e-39
0.012931541 0.063705869 0.039715171 6.9971274e-39
0.011971712 0.066077642 0.039509833 7.9165684e-39
0.013108954 0.11615965 0.041422307 1.37238e-38
0.0090820491 0.064031631 0.040310025 6.9913667e-39
0.0087851286 0.067229047 0.039963841 6.9928058e-39
0.0079146475 0.070810139 0.039601803 8.0091382e-39
0.0083689839 0.11615959 0.041428924 1.3169536e-38
0.0063368976 0.064705268 0.040492713 8.4557208e-39
0.0057952255 0.067684188 0.040547848 7.4422961e-39
0.0050584376 0.071478456 0.040284634 6.6233171e-39
0.0051347166 0.11612473 0.040765882 1.1329235e-38
0.0018227249 0.072378218 0.040639043 7.8114164e-39
0.00047659874 0.075542584 0.039698422 7.9979726e-39
0.001423806 0.11664814 0.040447235 1.0035962e-38
0.0011533648 0.11948767 0.040499449 9.3902453e-39
0.081511512 0.11534029 0.001139164 2.0804549e-38
0.1500168 0.096538782 0.012105823 1.5099923e-38
0.13954231 0.106085 0.01430881 1.4362007e-38
0.1194861 0.10102292 0.019449711 1.4638227e-38
0.10508402 0.088976674 0.017947614 1.4364512e-38
0.048040234 0.10582612 0.019181609 1.1323135e-38
0.1113497 0.085929371 0.019639432 1.7768919e-38
0.073857963 0.070331737 0.024082422 1.5004838e-38
0.052667603 0.071946763 0.027225137 1.5281437e-38
0.051444612 0.075955287 0.027540743 1.4266922e-38
0.15798935 0.15296292 0.044226885 2.2754335e-38
0.15662205 0.15439178 0.044921637 2.2761159e-38
0.15390643 0.036110848 0.04243356 1.5191754e-38
0.1525616 0.15292832 0.043900371 2.2012436e-38
0.14983225 0.036800388 0.042285085 1.6945614e-38
0.14984398 0.038867261 0.041822791 1.7219681e-38
0.14846206 0.15439168 0.044932961 2.1828748e-38
0.14574058 0.037451103 0.042802811 1.9244395e-38
0.14575969 0.039527368 0.042173803 1.9705755e-38
0.14548208 0.15489334 0.044546127 2.1458551e-38
0.14166057 0.037451051 0.042808473 2.053444e-38
0.14201801 0.039178468 0.042339325 2.1641859e-38
0.14201899 0.15467878 0.044447005 2.1181597e-38
0.13758059 0.037450999 0.042814136 2.1179434e-38
0.13830018 0.038867116 0.041838765 2.1918463e-38
0.13626447 0.15292811 0.043922961 2.0903915e-38
0.13758206 0.15439154 0.044948101 2.0996116e-38
0.13351905 0.036114853 0.042395234 1.9892282e-38
0.13354827 0.15292808 0.043926716 2.0719165e-38
0.13350207 0.1543915 0.044953704 2.1181939e-38
0.12916934 0.03557127 0.0423913 2.0536951e-38
0.12947398 0.15292802 0.043932319 2.02575e-38
0.1294295 0.15534763 0.044833958 2.1273782e-38
0.12398055 0.033371508 0.042758465 1.7312649e-38
0.1253694 0.035441257 0.042294145 2.0812467e-38
0.12553638 0.15536267 0.044982493 2.1655189e-38
0.12111435 0.035943128 0.042434335 2.1639344e-38
0.1199659 0.038866885 0.041864157 2.2742431e-38
0.12132543 0.15292792 0.043943644 1.9703949e-38
0.12126209 0.15507123 0.044983029 2.0921593e-38
0.11721513 0.036799978 0.042330265 2.2742805e-38
0.1179302 0.15292788 0.043948412 1.6490424e-38
0.11718209 0.15552443 0.044997036 1.8061746e-38
0.11345882 0.03644542 0.042579055 2.2650252e-38
0.11317687 0.15292782 0.043954968 1.2153655e-38
0.11310209 0.15507111 0.044994414 1.30767e-38
0.10906085 0.035893992 0.04232502 2.2096357e-38
0.10872233 0.1526401 0.044455945 1.3816736e-38
0.10481371 0.035950437 0.042331994 2.1911244e-38
0.10461563 0.15159918 0.044228375 1.4922722e-38
0.10426209 0.15439112 0.044994175 1.141353e-38
0.10137491 0.035903923 0.042169154 2.2094571e-38
0.10176847 0.1317282 0.044584155 6.9986296e-39
0.10179853 0.13555396 0.044320524 5.4326842e-39
0.10122442 0.13941242 0.044475019 4.8788196e-39
0.10095391 0.14342257 0.043798447 6.4389258e-39
0.10149719 0.14722462 0.043867052 1.0219338e-38
0.10176885 0.15129822 0.043941021 1.6951685e-38
0.097509421 0.035440907 0.042332768 2.172652e-38
0.09678179 0.1299151 0.044557869 8.0112485e-39
0.09841381 0.1318188 0.044590414 7.5481712e-39
0.098821849 0.13467433 0.044641912 7.455572e-39
0.099501945 0.14215308 0.044777453 7.6356585e-39
0.099502005 0.1475922 0.044876754 1.0956538e-38
0.099502049 0.15031174 0.044926345 1.8156696e-38
0.09372057 0.033031181 0.042794168 2.098894e-38
0.093870535 0.035323687 0.042035639 2.1357009e-38
0.093721792 0.12957512 0.044555962 1.0032369e-38
0.093789808 0.13181874 0.044596732 1.021928e-38
0.093381837 0.13399437 0.044637024 1.0307161e-38
0.089980565 0.033371076 0.042805612 2.07134e-38
0.090087779 0.035471838 0.041843534 2.0898908e-38
0.090428501 0.12950429 0.043559015 1.2052068e-38
0.090053909 0.13190526 0.043936729 1.1324575e-38
0.089981847 0.13399433 0.044641852 1.1972785e-38
0.086580575 0.033371039 0.042810261 2.0437201e-38
0.085975558 0.035451103 0.042182207 2.0532283e-38
0.085820712 0.13217148 0.04361403 1.3348922e-38
0.086355187 0.13444754 0.044655085 1.3165959e-38
0.081919782 0.035461392 0.042021394 1.9794365e-38
0.08194045 0.13275337 0.043630064 1.5004499e-38
0.07778237 0.035430633 0.042526722 1.9334106e-38
0.077866189 0.1339172 0.043656945 1.6203416e-38
0.07778395 0.13532765 0.044349611 1.6943118e-38
0.073984258 0.035570573 0.042467773 1.82328e-38
0.073791914 0.13391715 0.043662548 1.6846249e-38
0.073986284 0.13586625 0.044297993 1.7402283e-38
0.069275051 0.036444861 0.042640209 1.7310105e-38
0.071075715 0.13391712 0.043666363 1.7125695e-38
0.069649763 0.13599429 0.044206321 1.7033513e-38
0.069581911 0.1380734 0.044744432 1.8599034e-38
0.066860631 0.036090329 0.042887211 1.6389974e-38
0.064964287 0.13391703 0.043674827 1.6021881e-38
0.065572627 0.13599426 0.044211984 1.7123559e-38
0.06088879 0.037508268 0.041921198 1.5922506e-38
0.062248103 0.133917 0.043678582 1.6111198e-38
0.061421879 0.13467386 0.044693708 1.7127139e-38
0.058851644 0.037508242 0.041924 1.6385279e-38
0.056737132 0.038837917 0.042451262 1.6476382e-38
0.057494789 0.13391694 0.043685198 1.8321004e-38
0.055981904 0.13535368 0.044713676 1.7678163e-38
0.053340971 0.040875629 0.042493105 1.6481747e-38
0.054099545 0.1339169 0.043689847 1.9517759e-38
0.053261898 0.13535365 0.044717491 1.9152213e-38
0.049289636 0.041564222 0.04234463 1.4452758e-38
0.048666015 0.042939592 0.042037249 1.4911571e-38
0.049264073 0.13599405 0.044234574 1.6483568e-38
0.049181946 0.13807315 0.044772685 1.7309007e-38
0.045213439 0.04156417 0.042350292 1.389779e-38
0.044931263 0.043279011 0.042048573 1.4726098e-38
0.045271955 0.13595359 0.043739259 1.5101366e-38
0.044421948 0.13875297 0.044791698 1.6023628e-38
0.042380735 0.041529119 0.043020368 1.3993203e-38
0.041432977 0.044559199 0.0422768 1.5097379e-38
0.039838448 0.047013089 0.042123795 1.5193553e-38
0.040744931 0.13301149 0.043691874 1.3992145e-38
0.041026339 0.13637649 0.043952942 1.5470509e-38
0.042381965 0.13943283 0.044806898 1.5380814e-38
0.037620768 0.045608379 0.04310143 1.4449874e-38
0.036777675 0.048081763 0.042547584 1.5099942e-38
0.035765171 0.12576945 0.043566585 1.2335493e-38
0.036548987 0.12853146 0.044282675 1.2429484e-38
0.038301885 0.13127413 0.044663727 1.2888674e-38
0.033829257 0.049248092 0.042839646 1.4730783e-38
0.03277643 0.051629756 0.042217851 1.4269813e-38
0.033588096 0.1244593 0.044295847 1.3166675e-38
0.031500831 0.049687624 0.04318434 1.3260315e-38
0.029751182 0.051966321 0.0428949 1.2795403e-38
0.027615726 0.055839084 0.042301714 1.4820437e-38
0.029947311 0.12417775 0.044145763 1.5376124e-38
0.026740894 0.053766884 0.043265343 1.2058908e-38
0.024899513 0.055612739 0.042301357 1.3810242e-38
0.026061788 0.12492837 0.044564962 1.5838542e-38
0.021790281 0.056770191 0.042926908 1.2426603e-38
0.023341775 0.1231153 0.044535577 1.5379707e-38
0.018057078 0.059905626 0.042639256 1.003418e-38
0.013820991 0.060565591 0.043407381 7.1797124e-39
0.013248622 0.11764902 0.043949664 1.4274459e-38
0.013821706 0.11903586 0.044474304 1.4733985e-38
0.0093974471 0.061030772 0.042921782 7.7267527e-39
0.0097966194 0.11732304 0.044198632 1.3997866e-38
0.0097417384 0.11903581 0.044479907 1.4270503e-38
0.0072443932 0.061270304 0.04242909 1.0854563e-38
0.0049809366 0.063759699 0.042477667 1.0666605e-38
0.0045282692 0.066022813 0.042519569 9.5555831e-39
0.0058125556 0.1176399 0.043793082 1.160081e-38
0.002941072 0.064644776 0.043496847 1.2154251e-38
0.0019532293 0.067548104 0.042675972 1.1598601e-38
0.00090672076 0.070548996 0.042607188 1.1777576e-38
0.0031708181 0.11762183 0.043463051 1.0680292e-38
0.0024884194 0.11994223 0.04450655 9.1100473e-39
0.15616105 0.10050192 0.012630165 1.6019358e-38
0.062731989 0.11209665 0.013274729 1.3719851e-38
0.1188318 0.08520852 0.018392563 1.6113712e-38
0.10951824 0.11994661 0.016080856 1.362657e-38
0.090800405 0.10261393 0.018207967 1.2242911e-38
0.073448509 0.092080355 0.020479202 1.4453818e-38
0.11346889 0.098104648 0.018957615 1.1596835e-38
0.07317473 0.075872749 0.023499727 1.3346383e-38
0.073170699 0.096843645 0.02367115 8.2788699e-39
0.14059566 0.15487614 0.048273265 1.6288015e-38
0.153841 0.032474704 0.046034575 1.2429481e-38
0.15523052 0.15323928 0.046902835 2.2385517e-38
0.149727 0.032431375 0.046706378 1.4273413e-38
0.14993703 0.15617734 0.047338903 2.2754276e-38
0.14975736 0.15911834 0.047767878 2.1741219e-38
0.14559506 0.032367378 0.047710955 1.6116947e-38
0.14566782 0.035258226 0.04526329 1.7498416e-38
0.14598945 0.15712568 0.048236787 2.2752145e-38
0.14491192 0.16039653 0.050048292 1.9980519e-38
0.1414865 0.033051971 0.047729194 1.6853096e-38
0.1415613 0.035237491 0.045601964 1.8328572e-38
0.14129883 0.15685001 0.04758811 2.1828035e-38
0.14149542 0.16037177 0.049830198 1.9708597e-38
0.13737793 0.033051919 0.047734857 1.6300638e-38
0.13743874 0.035196081 0.046273768 1.7775741e-38
0.1374808 0.15670268 0.047490716 2.127665e-38
0.13737954 0.16039646 0.050058663 1.9251616e-38
0.1329862 0.032789476 0.04648596 1.6113001e-38
0.13406783 0.034576289 0.045266867 1.7034595e-38
0.13340963 0.15664795 0.046995282 2.1092986e-38
0.13333261 0.16024677 0.048728049 1.9439257e-38
0.13327101 0.16313499 0.050114393 1.8897519e-38
0.12924832 0.032474387 0.046068728 1.6762307e-38
0.13068047 0.034607269 0.044772029 1.906541e-38
0.12931821 0.15732968 0.047013342 2.1842402e-38
0.12928939 0.16012035 0.047620058 2.1843157e-38
0.13053197 0.16313495 0.050118148 1.8529088e-38
0.12517652 0.032051474 0.045566499 1.5836797e-38
0.12454489 0.15732962 0.047020018 2.341769e-38
0.12520078 0.16010731 0.047514319 2.3417686e-38
0.12106315 0.031804904 0.045845568 1.4911255e-38
0.12112268 0.1565333 0.047210276 2.2493221e-38
0.12107202 0.16016991 0.048076808 2.341769e-38
0.11713582 0.031974871 0.04586792 1.7217913e-38
0.11704239 0.034607094 0.044790924 2.1917719e-38
0.11772584 0.15732953 0.047029436 2.1947584e-38
0.11682884 0.15969971 0.047359765 2.277484e-38
0.11352276 0.031779207 0.046244383 2.0625174e-38
0.11295096 0.034607042 0.044796586 2.2467296e-38
0.11295252 0.15732948 0.047036052 1.2156607e-38
0.11311558 0.15971555 0.047508001 1.7885268e-38
0.10989608 0.031575538 0.046745837 2.1820498e-38
0.11022335 0.034607016 0.044800341 2.2282904e-38
0.10947619 0.15605666 0.047851086 9.7601727e-39
0.10942321 0.15954264 0.0485816 1.4752422e-38
0.10600986 0.031782985 0.046199381 2.1358793e-38
0.10613342 0.15323865 0.046970844 1.3821103e-38
0.10629532 0.156258 0.049740553 6.9939297e-39
0.10725003 0.15902677 0.050075471 9.5091525e-39
0.10190061 0.031775825 0.046316028 2.1360582e-38
0.10067794 0.13278484 0.04660517 7.0882735e-39
0.10067798 0.13687558 0.046679795 5.6156489e-39
0.097810939 0.03178288 0.046210706 2.098822e-38
0.096586503 0.13278478 0.046610773 7.916567e-39
0.097404823 0.13605739 0.046669424 7.9158523e-39
0.097907193 0.13964052 0.047178626 8.0977437e-39
0.097670577 0.14396623 0.047938585 9.4767069e-39
0.097854733 0.14788023 0.047884703 1.3534039e-38
0.093553163 0.028943468 0.047720611 1.9059657e-38
0.094090149 0.031034384 0.045157611 2.0346077e-38
0.095222697 0.13278477 0.04661268 9.2029814e-39
0.094038978 0.13591306 0.046814322 9.481013e-39
0.093666889 0.13976373 0.04863143 1.0126402e-38
0.094011098 0.14305149 0.049802244 1.2248279e-38
0.089444585 0.028943416 0.047726274 1.7220443e-38
0.089747988 0.031186502 0.044933021 1.9795793e-38
0.089731768 0.13622059 0.047016442 1.2891893e-38
0.089506686 0.13941792 0.049170732 1.353657e-38
0.085350089 0.031412769 0.045919657 1.9518846e-38
0.085608363 0.13637844 0.047291756 1.3811335e-38
0.085611328 0.13903478 0.049740613 1.4459207e-38
0.081425183 0.03178978 0.046122372 1.7953329e-38
0.081525356 0.13623396 0.047194779 1.6205161e-38
0.081550203 0.13900164 0.049345553 1.6572867e-38
0.077189706 0.032211766 0.045659781 1.7767856e-38
0.077493243 0.13687529 0.046711862 1.7496639e-38
0.076903179 0.13874657 0.048747241 1.8325681e-38
0.073269501 0.032495636 0.045813262 1.7676357e-38
0.072036706 0.034606531 0.04485327 1.8045873e-38
0.072038002 0.13687521 0.046719491 1.8232385e-38
0.073549151 0.13870519 0.048251092 1.8968161e-38
0.069037564 0.032430355 0.046818137 1.638636e-38
0.06921795 0.034565128 0.045523167 1.6481073e-38
0.068901785 0.13948883 0.048105121 1.8692669e-38
0.065706246 0.032594573 0.047825813 1.44506e-38
0.064860031 0.035114646 0.045472622 1.481763e-38
0.065148249 0.13896282 0.047267258 1.8507567e-38
0.062738948 0.033050973 0.047838271 1.4355524e-38
0.061222389 0.035350852 0.046082079 1.5367539e-38
0.06082496 0.1363458 0.046925426 1.7495203e-38
0.062128171 0.13947238 0.04928112 1.8417514e-38
0.057363473 0.035828326 0.047229707 1.6388145e-38
0.057642505 0.1355509 0.047215402 1.7218978e-38
0.053837106 0.03670232 0.047917187 1.5283604e-38
0.053345188 0.039132796 0.045295119 1.6295927e-38
0.052786082 0.13695577 0.047747791 1.9889771e-38
0.04972855 0.037158694 0.047931254 1.3805583e-38
0.050080799 0.039332487 0.045803428 1.4361633e-38
0.051420368 0.13695574 0.047749698 1.8971078e-38
0.046989501 0.037158661 0.047935009 1.3529376e-38
0.045983657 0.039331798 0.04580909 1.3250996e-38
0.046682909 0.13898373 0.047543168 1.6117292e-38
0.041743241 0.040424924 0.04666841 1.2978351e-38
0.040669233 0.042787634 0.045045972 1.3716255e-38
0.038087651 0.041266441 0.04802233 1.2145376e-38
0.037821576 0.043435957 0.045728564 1.2609195e-38
0.037033528 0.13232951 0.04668504 1.3439332e-38
0.037049174 0.13560387 0.047911763 1.4824412e-38
0.036988705 0.13836241 0.048295438 1.5197543e-38
0.033626482 0.044217572 0.047207236 1.2427299e-38
0.033462495 0.047207955 0.045386672 1.3808467e-38
0.033334583 0.1278073 0.046941042 1.3809171e-38
0.033753619 0.13114499 0.048239708 1.3718789e-38
0.034665018 0.13506317 0.049738705 1.427697e-38
0.030555323 0.04537423 0.048107684 1.1784816e-38
0.029649973 0.048428528 0.047164559 1.2705705e-38
0.028395057 0.050968971 0.045212269 1.2331194e-38
0.029505149 0.12742145 0.04793942 1.4824383e-38
0.02918686 0.13027057 0.049658835 1.4365921e-38
0.025218874 0.05189307 0.046519518 1.1413537e-38
0.02532509 0.12756023 0.047489345 1.5101342e-38
0.025763065 0.13027051 0.049663603 1.44567e-38
0.021171167 0.052940622 0.047258735 9.2909059e-39
0.02089414 0.055059623 0.045297325 1.0768923e-38
0.020213097 0.12187517 0.046517551 1.4640708e-38
0.021100223 0.12412018 0.047557533 1.4642501e-38
0.0215334 0.12727953 0.048757613 1.4269778e-38
0.022339255 0.13027048 0.049668372 1.417722e-38
0.017773211 0.053133413 0.048267007 7.5374247e-39
0.017666176 0.056585841 0.046329975 9.2977288e-39
0.016120881 0.059150308 0.045378566 9.2083652e-39
0.018230617 0.12410859 0.04956156 1.3628369e-38
0.018230647 0.12616253 0.049599111 1.3076631e-38
0.014805913 0.05358981 0.048279464 8.0012307e-39
0.013807252 0.056348167 0.047664464 8.6433785e-39
0.013393253 0.059150275 0.045382321 7.1779272e-39
0.012391329 0.11991659 0.047992885 1.4640359e-38
0.010187536 0.05662594 0.047541142 1.066982e-38
0.010065302 0.059586249 0.046061754 7.9997495e-39
0.0097718835 0.12005833 0.04809916 1.3719127e-38
0.00512968 0.12023543 0.047633708 9.8472592e-39
0.0053571165 0.12287606 0.049556911 7.4562881e-39
0.0022545159 0.12193477 0.047543705 6.3502881e-39
0.0031658858 0.1241084 0.049582422 6.352816e-39
0.14157063 0.094604909 0.010345817 1.6205191e-38
0.12546413 0.098481663 0.020172715 1.6110489e-38
0.12017879 0.10491611 0.01939851 1.4362006e-38
0.10787812 0.09244775 0.016189992 1.1414247e-38
0.081592143 0.12609911 0.0025022626 2.117582e-38
0.052114509 0.077620357 0.026822329 1.4175787e-38
0.059556045 0.13177 0.03390348 1.3348926e-38
0.15375265 0.030087665 0.050992072 1.160008e-38
0.14961007 0.02866552 0.051638603 1.3168847e-38
0.14962631 0.030087609 0.050997794 1.3351802e-38
0.14831045 0.16119534 0.051058352 1.8587163e-38
0.14547865 0.028665468 0.051644325 1.3076302e-38
0.14554782 0.030200493 0.049338579 1.4461739e-38
0.14693902 0.16050972 0.051047742 1.9887619e-38
0.14134723 0.028665416 0.051650047 1.3355756e-38
0.14143944 0.030908637 0.049023807 1.5473012e-38
0.13721579 0.028665364 0.051655769 1.3079169e-38
0.13730267 0.031166911 0.049558163 1.5287924e-38
0.13308437 0.028665312 0.051661491 1.225085e-38
0.13338757 0.030632511 0.051096916 1.4277002e-38
0.1275755 0.0038807988 0.051216841 3.411548e-39
0.12895295 0.028665259 0.051667213 1.2986256e-38
0.12910882 0.030245461 0.048695385 1.4461755e-38
0.12482117 0.00043847412 0.051157832 5.5281575e-39
0.12551939 0.0038980991 0.051053345 2.5767889e-39
0.12482126 0.0073230565 0.051283479 4.3278402e-39
0.12482131 0.010765329 0.051346302 1.3455157e-38
0.12568025 0.030245416 0.048700035 1.4274145e-38
0.12212835 0.00054715574 0.050163388 4.8838278e-39
0.12166358 0.0039170608 0.049680054 2.8533856e-39
0.12225449 0.0078644007 0.051046908 6.637026e-39
0.12241131 0.011109523 0.051355839 1.4467503e-38
0.12149054 0.02878708 0.0499295 1.3257456e-38
0.11802503 0.00058300793 0.049836338 3.868248e-39
0.11764815 0.0042409748 0.049665511 1.8442699e-39
0.11825129 0.0072453618 0.050691128 5.2619892e-39
0.11931273 0.010765262 0.051353931 1.5299752e-38
0.11774215 0.027922563 0.050468981 1.2244336e-38
0.11387694 0.00054705143 0.050174832 3.8657186e-39
0.11403929 0.0038006455 0.050358951 2.1180388e-39
0.11449268 0.0066344514 0.051285148 6.9265889e-39
0.1124272 0.024534307 0.051614702 1.1509663e-38
0.11373271 0.027556539 0.05029279 1.592606e-38
0.10969818 0.00047451258 0.0508461 3.7739042e-39
0.10996342 0.0030755848 0.051026583 1.9325475e-39
0.11036149 0.024534281 0.051617563 1.3076302e-38
0.10995296 0.02755649 0.050298035 1.9983759e-38
0.10691835 0.002503626 0.051220298 6.0615365e-39
0.10582939 0.027556434 0.050303817 2.0718813e-38
0.1015605 0.02809288 0.050027788 1.9981273e-38
0.097438283 0.028092828 0.05003351 1.9061475e-38
0.096196048 0.14816828 0.05089277 1.6114774e-38
0.093054466 0.026865955 0.049883842 1.6390673e-38
0.093190119 0.14454244 0.051164269 1.4823707e-38
0.093674511 0.14793365 0.053225756 1.8793825e-38
0.089194462 0.026718989 0.05001986 1.5282892e-38
0.089338832 0.1413122 0.050777197 1.4553941e-38
0.089335702 0.14383081 0.052680671 1.685523e-38
0.085438892 0.027584296 0.050279021 1.6389599e-38
0.084881693 0.14096932 0.050777137 1.5931473e-38
0.085602671 0.14361492 0.05357486 1.7221158e-38
0.081844673 0.028011046 0.051220477 1.5558767e-38
0.080767408 0.14096928 0.0507828 1.6945254e-38
0.08213158 0.14294851 0.053817511 1.7127505e-38
0.078090526 0.028372638 0.050982237 1.5373993e-38
0.077680297 0.030244809 0.048766553 1.6667606e-38
0.077558309 0.14071295 0.051782727 1.8510432e-38
0.078688733 0.14294846 0.053822279 1.7403363e-38
0.073995434 0.028734226 0.050744414 1.5281433e-38
0.072880298 0.030244749 0.048773229 1.6664739e-38
0.07327649 0.14086732 0.051991522 1.8877774e-38
0.074557312 0.14294842 0.053828001 1.9431308e-38
0.06982509 0.028710954 0.051083207 1.6297373e-38
0.069451727 0.030244708 0.048777997 1.6391001e-38
0.065935306 0.028141566 0.051344931 1.5188179e-38
0.065680303 0.030587457 0.048789442 1.4726478e-38
0.065338843 0.14131188 0.050810397 1.9334075e-38
0.06216158 0.028664414 0.05175972 1.509238e-38
0.061525352 0.031137452 0.050091147 1.4354812e-38
0.060995981 0.14085476 0.050808132 1.9242968e-38
0.05754295 0.031504095 0.050484419 1.4543855e-38
0.056423225 0.03435814 0.0488711 1.6572172e-38
0.057110235 0.13719818 0.050746739 1.7218266e-38
0.057409257 0.14015742 0.053356349 1.8046949e-38
0.053547949 0.032269865 0.051437438 1.4269087e-38
0.053279966 0.034856945 0.049684703 1.5004143e-38
0.054055862 0.13735971 0.052754283 1.8138417e-38
0.053231403 0.14001188 0.053678989 1.7955462e-38
0.050455935 0.032795008 0.051851273 1.4450229e-38
0.049263902 0.035223339 0.050754249 1.4083592e-38
0.045170955 0.036544997 0.050593555 1.3161313e-38
0.041220397 0.038892332 0.049641728 1.2701053e-38
0.035851896 0.041213885 0.049024642 1.1501443e-38
0.033794761 0.041213855 0.049027503 1.0954363e-38
0.031737611 0.042585034 0.049055398 1.1877005e-38
0.032424465 0.13308427 0.05070591 1.4090792e-38
0.032990843 0.1363681 0.053265452 1.4645784e-38
0.030487478 0.041056238 0.052029729 1.1413528e-38
0.029299945 0.043858293 0.051082313 1.132419e-38
0.028309107 0.047384191 0.049147785 1.1964922e-38
0.029491588 0.13247371 0.051699042 1.418081e-38
0.030023575 0.13565889 0.053613901 1.4647949e-38
0.025667548 0.045186922 0.052111745 1.0489421e-38
0.025581017 0.047810256 0.050588191 1.1318824e-38
0.025831595 0.13255997 0.052872539 1.4179759e-38
0.021536082 0.04518687 0.052117467 1.214931e-38
0.02169165 0.047973089 0.051390231 1.0399037e-38
0.021452039 0.050812107 0.049219787 9.8379672e-39
0.022163332 0.1317762 0.051553607 1.2796812e-38
0.022914365 0.13537474 0.053761363 1.0229009e-38
0.018161044 0.048533659 0.051183045 1.011992e-38
0.017576545 0.051135257 0.049731076 8.0952242e-39
0.016652942 0.12417126 0.050565064 1.3347833e-38
0.017749116 0.12791935 0.051965535 1.2429475e-38
0.017428473 0.13192448 0.053594887 9.3016539e-39
0.018094376 0.13468623 0.053755462 7.1815467e-39
0.013825178 0.052167531 0.04965508 1.0209932e-38
0.013533697 0.12359582 0.052336931 1.3442887e-38
0.013274282 0.12642467 0.053611398 1.1041516e-38
0.011166364 0.053554375 0.049284041 1.2873903e-38
0.011166364 0.054925576 0.049309075 1.1121845e-38
0.0094576776 0.12358247 0.052120149 1.067921e-38
0.0094775707 0.12757884 0.052887678 7.1811642e-39
0.0059224218 0.12429652 0.052582562 7.4544776e-39
0.15949935 0.077470489 0.014286816 2.0534787e-38
0.15105416 0.088638552 0.011946321 1.8046227e-38
0.11831881 0.079332821 0.017406106 1.1876311e-38
0.082231805 0.080874011 0.022012889 1.5652368e-38
0.050622061 0.078869127 0.026395738 1.4452744e-38
0.14069244 0.042888589 0.043555677 1.5196792e-38
0.1495399 0.025691271 0.054584861 1.2615309e-38
0.14956331 0.027490646 0.053617477 1.2893693e-38
0.14540587 0.025036637 0.054078639 1.2157207e-38
0.14542045 0.027145412 0.053617001 1.2986967e-38
0.14126016 0.025036588 0.054084361 1.1420724e-38
0.1412776 0.02714536 0.053622782 1.2616406e-38
0.13710707 0.025715608 0.054269195 9.9495568e-39
0.13713475 0.027145308 0.053628504 1.1509684e-38
0.13294533 0.00080377609 0.05415374 3.4112663e-39
0.13277251 0.0033962056 0.054201186 3.5906129e-39
0.13156253 0.006334275 0.054256499 3.0371168e-39
0.13294563 0.025691062 0.054607868 8.748871e-39
0.13298035 0.027472548 0.053890228 1.086612e-38
0.12930901 0.00045123696 0.053152204 6.0758984e-39
0.12953922 0.0036729276 0.053210616 3.6799107e-39
0.12951425 0.0077659786 0.053785503 6.6309079e-39
0.12915559 0.011542693 0.054104924 1.0592772e-38
0.12948848 0.024999712 0.05460006 8.8389031e-39
0.1295395 0.027145214 0.053638935 1.0961178e-38
0.12677728 0.00022108853 0.053151429 6.1709513e-39
0.12746778 0.0036728978 0.053213477 3.0355964e-39
0.12648146 0.0080123171 0.053294063 7.6446759e-39
0.12623914 0.0120956 0.053743958 1.2069705e-38
0.12533979 0.014629953 0.054416537 7.2722976e-39
0.12603135 0.024999667 0.054604828 9.208403e-39
0.12608713 0.02714517 0.053643763 1.1883843e-38
0.1205631 0.0091957152 0.053323865 1.4658318e-38
0.12166791 0.012785599 0.053387761 1.2718293e-38
0.12207858 0.015872978 0.054068685 4.2280482e-39
0.12188279 0.025137875 0.054613113 9.4871493e-39
0.12194428 0.027145118 0.053649485 1.2251568e-38
0.11745596 0.0088504925 0.053321838 1.4386445e-38
0.11762861 0.012129709 0.053381383 1.3828599e-38
0.11773409 0.01532118 0.054439723 4.2291356e-39
0.11758655 0.024508625 0.054232478 7.4566973e-39
0.11227735 0.0050534382 0.05325973 6.2593452e-39
0.11345036 0.0081956312 0.053458273 1.4395463e-38
0.11361724 0.011905879 0.053938568 1.3649629e-38
0.11319042 0.015814915 0.054454982 1.1038589e-39
0.11289418 0.021542933 0.054559946 3.5898366e-39
0.10917021 0.0047082156 0.053257704 7.8341538e-39
0.10950653 0.0078041479 0.053424835 1.6222862e-38
0.10944565 0.011874557 0.054277062 1.0227965e-38
0.10974535 0.015218288 0.054048896 5.5138432e-40
0.1097136 0.020989843 0.054554284 3.4958599e-39
0.1089472 0.023815773 0.053806722 1.1964932e-38
0.10537253 0.00022082031 0.053181052 2.8523122e-39
0.10515756 0.0037939623 0.0537467 1.3359013e-38
0.1052883 0.0077165663 0.05431807 1.8516912e-38
0.10528836 0.011864439 0.054393768 5.1536114e-39
0.10621036 0.020621095 0.054552376 3.1231776e-39
0.10534504 0.02412758 0.053950787 1.4550727e-38
0.10116902 0.00083928555 0.053865075 8.1903429e-39
0.10154736 0.0033862367 0.054101467 1.4925625e-38
0.10196944 0.0074400008 0.054317713 1.4734742e-38
0.10217693 0.012210064 0.054404438 2.0228934e-39
0.10119112 0.024745326 0.054063022 1.5562734e-38
0.096854426 0.024508361 0.054261208 1.3629142e-38
0.093354486 0.024114866 0.054133892 1.1880292e-38
0.091564894 0.14864832 0.055908799 2.0637426e-38
0.090077043 0.021542646 0.054591537 9.1050068e-39
0.08984299 0.023508463 0.054227769 1.012568e-38
0.089493439 0.14726758 0.055886447 1.9530697e-38
0.084545635 0.021542575 0.054599226 1.0028436e-38
0.085984014 0.023654222 0.05413574 1.1134795e-38
0.085966431 0.14594828 0.056534052 1.8604773e-38
0.082010925 0.024517599 0.054156899 1.3254231e-38
0.081896707 0.027144615 0.053704977 1.509205e-38
0.08189819 0.14450604 0.055846691 1.7770348e-38
0.083164364 0.14597899 0.056871831 1.8417868e-38
0.078007251 0.025363084 0.054427981 1.3250996e-38
0.077753842 0.027144562 0.053710699 1.4451675e-38
0.077379003 0.14418337 0.056096971 1.8046932e-38
0.073943794 0.025229439 0.054681182 1.3530085e-38
0.073524937 0.027096789 0.054382503 1.4451291e-38
0.073171139 0.14422847 0.056603789 1.9339107e-38
0.069334291 0.02707288 0.054721177 1.5374712e-38
0.065185711 0.025690209 0.054701746 1.5741704e-38
0.063802861 0.027072817 0.054728866 1.5738845e-38
0.065187201 0.14321351 0.056846321 1.8595072e-38
0.060728222 0.027435854 0.054489732 1.5373987e-38
0.059655763 0.14321344 0.05685395 1.9429875e-38
0.057910532 0.028040938 0.054087937 1.4637515e-38
0.057581492 0.14321342 0.056856811 1.9066475e-38
0.05550576 0.028455343 0.054765582 1.3809546e-38
0.052896768 0.029905695 0.053795457 1.3347156e-38
0.052898176 0.14174423 0.05583638 1.7037107e-38
0.053895697 0.14349225 0.056116939 1.6207386e-38
0.051357187 0.028455291 0.054771364 1.2704273e-38
0.050054625 0.031022698 0.054319978 1.4267274e-38
0.049445793 0.14105383 0.055828571 1.657324e-38
0.049823552 0.14358282 0.056588531 1.4643638e-38
0.046517238 0.032603115 0.054853737 1.3722727e-38
0.045301601 0.034738131 0.053894162 1.3624081e-38
0.047210068 0.14321327 0.056871235 1.4922733e-38
0.041734599 0.036309462 0.054594636 1.2607785e-38
0.038911581 0.036750894 0.054939926 1.2149663e-38
0.037618056 0.038852032 0.054480076 1.2242221e-38
0.033563539 0.03957051 0.053998649 1.040117e-38
0.032874346 0.13967288 0.055826366 1.594234e-38
0.028039768 0.040260799 0.054018855 1.2426932e-38
0.028039798 0.042331882 0.054056644 1.196703e-38
0.028731465 0.13760175 0.055794299 1.5485326e-38
0.02923286 0.13975647 0.056832969 1.6038129e-38
0.02521266 0.043465894 0.054414749 1.1500669e-38
0.025257438 0.13622996 0.055885077 1.4562605e-38
0.024392873 0.13906512 0.056827128 1.4476194e-38
0.021480277 0.043367341 0.054084659 1.2334787e-38
0.019552812 0.13353454 0.056732833 1.0400454e-38
0.021085605 0.13589498 0.056023717 7.8229827e-39
0.015612334 0.12931725 0.055661261 1.0118162e-38
0.01348789 0.1286442 0.055901885 9.4792502e-39
0.013833165 0.13175131 0.055958152 8.2896683e-39
0.014231429 0.13484012 0.05576396 7.0918356e-39
0.011469468 0.12862684 0.055654407 7.7332758e-39
0.010702536 0.13187528 0.056714833 7.9208858e-39
0.15723474 0.10955435 0.013664186 1.5008452e-38
0.14719562 0.097286388 0.011498272 1.6022242e-38
0.11990102 0.08069744 0.017886519 1.3350735e-38
0.10109493 0.056141898 0.024202526 2.034896e-38
0.14914449 0.020590592 0.059493184 1.0407648e-38
0.14947301 0.023400266 0.05737704 1.1144136e-38
0.14527491 0.020530514 0.058497369 9.6679421e-39
0.14533313 0.022771396 0.056537747 9.8501907e-39
0.13967606 0.00096117705 0.059148133 6.0820431e-39
0.13967608 0.003049396 0.059186161 6.7292174e-39
0.14109126 0.020504072 0.058835983 9.3942166e-39
0.14116089 0.022745579 0.056876481 9.759779e-39
0.13730159 0.00077473372 0.057647765 4.7927546e-39
0.13658857 0.0032872111 0.056908786 5.3437858e-39
0.13674915 0.0072994679 0.058517694 7.7411819e-39
0.13558389 0.011587277 0.057347357 7.5488621e-39
0.1378198 0.020683255 0.059510589 7.6475303e-39
0.13699287 0.02342587 0.057061434 9.3942264e-39
0.13423957 0.0047475845 0.056224227 4.6940962e-39
0.13353889 0.0075044036 0.056442261 6.7263363e-39
0.13335294 0.011292212 0.057545125 8.6570131e-39
0.13445489 0.020799231 0.059517324 5.3433458e-39
0.13352384 0.023425825 0.057066143 8.6570159e-39
0.13146627 0.0082136467 0.056291342 8.0145584e-39
0.13086314 0.011866026 0.05735898 9.0250866e-39
0.12911493 0.015614085 0.059029996 2.7619046e-39
0.12973073 0.020152811 0.059512138 2.3952745e-39
0.13038895 0.02305986 0.057313859 8.5601386e-39
0.12607826 0.016173914 0.05715847 2.4820807e-39
0.12578967 0.019807801 0.058844507 2.1161639e-39
0.12588327 0.022719637 0.057230532 5.2465091e-39
0.12037308 0.01722534 0.056471109 2.7622816e-40
0.12170535 0.019925937 0.057407618 1.5622824e-39
0.12172956 0.023079067 0.057076156 4.0487198e-39
0.11753255 0.017140403 0.057473719 1.8439546e-40
0.11751829 0.019897789 0.057746291 8.279614e-40
0.11898648 0.022771068 0.056574225 2.3888397e-39
0.11361758 0.019578557 0.056809306 8.2867466e-40
0.10413786 0.020868868 0.057226956 5.5206157e-39
0.10373316 0.022770874 0.056595445 1.1786658e-38
0.099572927 0.0040539429 0.056259632 1.307705e-38
0.099919632 0.0078666359 0.056328654 7.7303947e-39
0.10026634 0.010986127 0.056385159 2.1129353e-39
0.10178603 0.019647412 0.058398604 4.9631007e-39
0.10095983 0.022770837 0.056599259 1.1234214e-38
0.097302318 0.00037231296 0.058195889 9.5789372e-39
0.097429715 0.0032907575 0.056915462 8.3829303e-39
0.097492956 0.0075199902 0.056325853 3.3096932e-39
0.097493008 0.010292873 0.056376338 1.5622852e-39
0.098061748 0.01988811 0.057884216 7.0785583e-39
0.098186493 0.022770803 0.056603074 1.0954756e-38
0.095119931 0.0037449002 0.059260607 3.7710077e-39
0.095412962 0.0075199604 0.056328654 2.4810115e-39
0.094373137 0.021037713 0.056576729 8.5540037e-39
0.092641443 0.15032284 0.058938384 2.2748906e-38
0.088481441 0.14893636 0.058918834 2.0634522e-38
0.088822909 0.15163235 0.060967863 2.2014943e-38
0.088159963 0.15479299 0.06202662 1.1757896e-38
0.085538574 0.020569351 0.058080614 9.5667319e-39
0.085670777 0.14827511 0.059244096 2.0077024e-38
0.085632466 0.1517612 0.061224699 2.063234e-38
0.086767584 0.15548906 0.062041223 5.513427e-39
0.081382729 0.020716432 0.05798918 9.757265e-39
0.08015985 0.022770576 0.056628048 1.2793963e-38
0.081271939 0.14780667 0.05978334 1.8603353e-38
0.081198029 0.15200862 0.061985433 1.731148e-38
0.081894256 0.155489 0.062048018 4.8680282e-39
0.077059396 0.020476859 0.059257507 9.9394857e-39
0.077084705 0.023309652 0.056842208 1.3160216e-38
0.07725165 0.14765583 0.060022354 1.8048012e-38
0.078413256 0.15200858 0.061989367 1.4083561e-38
0.073538274 0.021146499 0.059608042 1.2610279e-38
0.072974063 0.02368189 0.056821406 1.3531166e-38
0.073257983 0.14748374 0.060038686 1.924582e-38
0.073539913 0.15061638 0.061970651 1.8143439e-38
0.070753515 0.021146465 0.059611917 1.3532974e-38
0.06910602 0.024254084 0.057670534 1.4084712e-38
0.068143614 0.14431465 0.058862686 1.814092e-38
0.069512606 0.14772782 0.060798407 1.9064699e-38
0.070233025 0.15200847 0.062000632 1.4368832e-38
0.070059016 0.15479279 0.062051773 5.3268189e-39
0.065741479 0.024388943 0.058177769 1.4637165e-38
0.065185413 0.14412868 0.059363425 1.8230611e-38
0.065777056 0.1479599 0.061432838 1.8881411e-38
0.065324873 0.15145156 0.061997235 1.6493657e-38
0.067274258 0.15479273 0.062055528 5.9696688e-39
0.061881356 0.024371479 0.058432817 1.518888e-38
0.061742693 0.14429399 0.059671223 1.8600843e-38
0.061736941 0.14781144 0.061713517 1.7500276e-38
0.061936766 0.15154433 0.062003732 1.6220684e-38
0.056435592 0.026858009 0.057735622 1.4270896e-38
0.057875969 0.14483686 0.059553206 1.9063242e-38
0.057701565 0.14765786 0.061938584 1.5845795e-38
0.058919936 0.15131226 0.062003613 1.640581e-38
0.052420564 0.024858631 0.059705138 1.1775875e-38
0.053504765 0.027818047 0.057257235 1.2703931e-38
0.054508083 0.14477661 0.058889985 1.6395366e-38
0.053833552 0.14747006 0.059940279 1.5756843e-38
0.04960037 0.025518566 0.057053924 1.1773696e-38
0.049164616 0.027841851 0.056930304 1.2237894e-38
0.046327412 0.028576374 0.058031023 1.2700299e-38
0.044894449 0.031337999 0.058333516 1.2887947e-38
0.044106677 0.033861607 0.056880355 1.3347497e-38
0.045856558 0.14356497 0.060880244 1.4739446e-38
0.046717107 0.14625517 0.05992794 1.5302001e-38
0.041745745 0.031819239 0.059846938 1.196133e-38
0.041290373 0.034539279 0.057146728 1.1780184e-38
0.038728938 0.032979321 0.05987221 1.1134435e-38
0.038560048 0.035247974 0.056913376 1.1410311e-38
0.025386795 0.040793553 0.057032824 1.2794294e-38
0.024693474 0.042179979 0.05705905 1.2239305e-38
0.025619164 0.14015479 0.058845639 1.6037064e-38
0.018454656 0.13645753 0.058788061 5.1550716e-39
0.012214631 0.13299137 0.058733463 8.1059889e-39
0.012214646 0.13507104 0.058771491 6.9078115e-39
0.010827988 0.13507101 0.058773398 7.0018064e-39
0.17400005 0.1083384 0.016385853 1.703351e-38
0.14837623 0.096818686 0.011404812 1.5099577e-38
0.12327408 0.099337384 0.01951474 1.3160599e-38
0.041459873 0.10044441 0.020092666 9.0125015e-39
0.061734661 0.12345213 0.02793014 1.1411714e-38
0.038911581 0.036750894 0.054939926 1.2149663e-38
0.14480898 0.01636678 0.062422633 7.7393714e-39
0.14515851 0.018114112 0.062454104 9.0261488e-39
0.14103362 0.00085437298 0.060144484 6.6348498e-39
0.14103366 0.0039910004 0.060201764 7.37567e-39
0.14033656 0.0064305812 0.060247183 7.6497177e-39
0.14096421 0.01671619 0.062434375 5.3433781e-39
0.14096424 0.01811406 0.062459886 7.2794639e-39
0.13824511 0.0043394789 0.060211957 6.5451849e-39
0.13824514 0.0071275905 0.060262799 7.8333775e-39
0.13685089 0.0099156722 0.060315549 9.1179941e-39
0.13746899 0.016716149 0.062439203 2.9434428e-39
0.137263 0.018634029 0.061807692 4.8813195e-39
0.13406235 0.012703747 0.060370326 5.2396918e-39
0.13380042 0.015567534 0.06185174 1.2889592e-39
0.13378358 0.018837579 0.060482681 2.0258053e-39
0.13092525 0.015491821 0.06042558 2.4824507e-39
0.13057671 0.018279914 0.060476899 1.0116478e-39
0.093527116 0.00074665993 0.061208487 3.7774901e-39
0.092880115 0.0035898983 0.060761213 3.4004385e-39
0.092930868 0.005732961 0.060300171 3.1256481e-39
0.090632625 0.00064013898 0.062210739 4.784089e-39
0.090632655 0.0027369335 0.062248945 4.8680338e-39
0.083869897 0.15350254 0.063009262 1.8324889e-38
0.084567063 0.15559362 0.063046455 6.1558845e-39
0.076898456 0.15141137 0.062980771 1.6395988e-38
0.07410989 0.15234071 0.063001573 1.3077736e-38
0.074027024 0.15449961 0.063707888 5.9714905e-39
0.068531089 0.021067243 0.060613692 1.3716624e-38
0.068532743 0.15210828 0.06300503 1.4745885e-38
0.067136809 0.021067224 0.060615659 1.3715551e-38
0.06406913 0.023704536 0.062668383 1.4181931e-38
0.06644132 0.1528053 0.063020647 1.3537992e-38
0.060165435 0.025249302 0.060701668 1.6206242e-38
0.057227775 0.024476856 0.061691761 1.3991085e-38
0.054588251 0.021067064 0.060633063 1.6470953e-38
0.054030567 0.023576356 0.060679615 1.2973691e-38
0.044828333 0.028037213 0.06077379 1.2239329e-38
0.044829808 0.14444068 0.06289798 1.510896e-38
0.044829838 0.14653176 0.062936127 1.5485307e-38
0.041420072 0.028736558 0.062791586 1.3435711e-38
0.040645525 0.030825265 0.060830414 1.2420131e-38
0.043435566 0.14653176 0.062938035 1.5484583e-38
0.038554102 0.030825239 0.060833335 1.3345636e-38
0.15645203 0.10535252 0.012129307 1.4639298e-38
0.15209553 0.093616664 0.012144387 1.6940956e-38
0.11663444 0.090776429 0.017500639 1.4270882e-38
0.0747381 0.098652117 0.022903323 8.832415e-39
0.07338313 0.098655507 0.022280097 8.3692761e-39
0.11374806 0.10310246 0.013039887 1.4454915e-38
0.0057952255 0.067684188 0.040547848 7.4422961e-39
0.14499843 0.011319637 0.067831159 3.496625e-39
0.14536321 0.014250547 0.064983726 4.8831468e-39
0.14149441 0.011364907 0.067336798 3.4022644e-39
0.1415786 0.014399543 0.064891577 2.581849e-39
0.13891327 0.0087856129 0.067293286 7.3680834e-39
0.13802701 0.011487253 0.066010296 5.3354635e-39
0.13808465 0.01442907 0.064563632 1.7484996e-39
0.13458601 0.0144438 0.064402103 1.0141533e-39
0.07731802 0.15596597 0.069492996 3.3983155e-39
0.074414641 0.15635039 0.06807524 1.4697435e-39
0.15771401 0.087371655 0.011691749 1.7493765e-38
0.15586632 0.096440658 0.011804223 1.6664009e-38
0.16615398 0.072461195 0.018409193 2.2289762e-38
0.075039536 0.10086443 0.022359848 9.7579391e-39
0.12546413 0.098481663 0.020172715 1.6110489e-38
0.15587071 0.092550553 0.012177825 1.7769647e-38
