# .PCD v0.7 - Point Cloud Data file format
VERSION 0.7
FIELDS x y z rgb
SIZE 4 4 4 4
TYPE F F F F
COUNT 1 1 1 1
WIDTH 979
HEIGHT 1
VIEWPOINT 0 0 0 0 1 0 0
POINTS 979
DATA ascii
0.10160192 0.1081587 0.015369654 2.2568841e-38
0.10188636 0.11142942 0.015788615 1.9978301e-38
0.096899882 0.10040893 0.017134786 2.0442192e-38
0.097338893 0.10405955 0.014300466 2.1454947e-38
0.096781723 0.10824356 0.013394415 2.3217097e-38
0.097195126 0.11210626 0.014978647 1.8226992e-38
0.09185002 0.097570531 0.018757939 2.2565263e-38
0.092921771 0.10004219 0.016407609 2.3115904e-38
0.094362244 0.10860669 0.01330924 2.3314679e-38
0.094217636 0.11283658 0.013758659 1.6930487e-38
0.088765629 0.096558355 0.017817378 2.2560953e-38
0.089357741 0.099021979 0.016391218 2.3026254e-38
0.084573902 0.093768425 0.019304574 2.1633953e-38
0.085662261 0.095584713 0.016919732 2.2188203e-38
0.086542189 0.098417021 0.015491247 2.2922925e-38
0.081094362 0.092767127 0.018573821 2.3200556e-38
0.082632527 0.094595619 0.016306877 2.2836057e-38
0.076724254 0.089930542 0.020113111 2.2931872e-38
0.077242553 0.09113998 0.018403769 2.2748206e-38
0.073278598 0.089314647 0.019128621 1.8962057e-38
0.069214091 0.089585967 0.020082116 1.3617618e-38
0.068203263 0.09605179 0.016635239 1.1317741e-38
0.066551 0.097350217 0.018737257 1.1596134e-38
0.065624952 0.10057285 0.017219603 1.2428398e-38
0.0645677 0.10347851 0.015360713 1.4823305e-38
0.0626266 0.10182571 0.017759085 1.252596e-38
0.062489696 0.10440304 0.016382992 1.3441468e-38
0.15010081 0.082771532 0.017195284 1.5927532e-38
0.14728715 0.080551066 0.017892003 1.5560904e-38
0.14561513 0.08171878 0.018275797 1.5467632e-38
0.14335454 0.075728275 0.019149542 1.6205554e-38
0.1423865 0.08110366 0.017856836 1.3994661e-38
0.1404307 0.079683028 0.018523157 1.4086861e-38
0.13842322 0.0721175 0.019523859 1.4915174e-38
0.13704288 0.084920771 0.017287016 1.2428766e-38
0.13851823 0.067599244 0.021732628 1.6849127e-38
0.1473714 0.079467766 0.019468188 1.4639305e-38
0.15060318 0.08284653 0.023483038 2.08103e-38
0.12850702 0.093891986 0.019652188 1.9795401e-38
0.12644811 0.096861966 0.019078851 1.9615705e-38
0.14674969 0.0928941 0.020548701 1.8417168e-38
0.081094362 0.092767127 0.018573821 2.3200556e-38
0.13791467 0.095469691 0.020114481 1.9060738e-38
0.13898328 0.097783633 0.020614684 1.620231e-38
0.13821754 0.10155154 0.019954979 1.5558744e-38
0.16959135 0.056379505 0.031965852 2.2571394e-38
0.16992128 0.062798508 0.029101074 2.2379078e-38
0.17035843 0.06609071 0.027822137 2.1179079e-38
0.17019379 0.10192197 0.020074844 1.6388878e-38
0.16993383 0.10529412 0.020368159 1.6481802e-38
0.16905823 0.10848945 0.020357013 1.7311203e-38
0.16333844 0.052839957 0.032714248 2.2935837e-38
0.16531599 0.055320896 0.031756938 2.265747e-38
0.16532329 0.058933057 0.029867649 2.2100314e-38
0.16583696 0.062383749 0.028611422 2.1637906e-38
0.16729598 0.065234669 0.027998865 2.0626268e-38
0.16533814 0.10243369 0.019951046 1.5099574e-38
0.16533753 0.10509741 0.019716322 1.5561277e-38
0.16511536 0.1087184 0.019614816 1.657506e-38
0.16070607 0.052839227 0.032707334 2.2471963e-38
0.16071805 0.055215411 0.031284213 2.2102109e-38
0.16089344 0.058714904 0.029646993 2.1271629e-38
0.16204536 0.061384968 0.028817058 2.1362382e-38
0.16074464 0.101791 0.020077586 1.3810214e-38
0.16074556 0.10499788 0.019384325 1.4455645e-38
0.16073972 0.10901273 0.019084573 1.5747431e-38
0.16034742 0.11311925 0.019673586 1.648321e-38
0.15623477 0.052022703 0.03266716 2.1735117e-38
0.15697144 0.054728635 0.030827284 2.1550381e-38
0.15810712 0.057535626 0.029638648 2.1550757e-38
0.15680872 0.10595883 0.019165874 1.4087573e-38
0.15680359 0.10894521 0.018861294 1.4915518e-38
0.15678105 0.11255796 0.019444227 1.556126e-38
0.15270202 0.050965048 0.032532871 2.1178004e-38
0.15317927 0.05406139 0.030632257 2.1177651e-38
0.15260905 0.10576523 0.01919651 1.353547e-38
0.15285912 0.10901051 0.019063771 1.4732584e-38
0.15282983 0.11260728 0.019593537 1.5378665e-38
0.14951701 0.04769019 0.03379035 2.0444028e-38
0.14888686 0.050708748 0.032198191 2.0623753e-38
0.14891937 0.053684808 0.03044641 2.0347522e-38
0.14926255 0.10595668 0.019145906 1.3811334e-38
0.14891577 0.10904262 0.019159973 1.5013103e-38
0.14887765 0.11265659 0.019742668 1.657541e-38
0.14359418 0.047688521 0.033774734 2.0163143e-38
0.14494938 0.050671645 0.032025158 2.0441157e-38
0.14563844 0.053683884 0.030437827 2.0165645e-38
0.14499727 0.10576309 0.019176424 1.4089727e-38
0.14497872 0.10900829 0.019042969 1.5010961e-38
0.14459996 0.11233375 0.019800842 1.5653841e-38
0.1409618 0.047687791 0.033767819 2.0715952e-38
0.14101009 0.050652601 0.031933308 2.071631e-38
0.14106029 0.10627506 0.019054949 1.445779e-38
0.1410522 0.10890738 0.018713355 1.5101007e-38
0.14102106 0.11170859 0.018903255 1.5929697e-38
0.13702886 0.046973608 0.033570468 2.0992181e-38
0.13708384 0.050580747 0.031597137 2.0624833e-38
0.13712391 0.10883943 0.018489957 1.5101725e-38
0.13688502 0.11302216 0.019247532 1.629812e-38
0.13309059 0.046937592 0.033397198 2.0162045e-38
0.13313499 0.050615497 0.031749547 2.007238e-38
0.13251467 0.053680189 0.030403078 1.9519891e-38
0.13318677 0.10883833 0.018479586 1.4731876e-38
0.13310699 0.11316069 0.01913631 1.5930398e-38
0.12940198 0.047086142 0.033457398 2.0441511e-38
0.12920418 0.050578676 0.031576335 1.9981255e-38
0.12988992 0.053679444 0.030396223 1.9612091e-38
0.12859273 0.10627154 0.019022107 1.4180855e-38
0.12923658 0.10890404 0.018682063 1.4364531e-38
0.12934291 0.11290587 0.018868685 1.5101725e-38
0.12516756 0.047683336 0.033726156 1.9613917e-38
0.12527432 0.050541885 0.031403244 1.8969978e-38
0.12531178 0.10627062 0.019013405 1.3168136e-38
0.12529132 0.10893633 0.018778205 1.2985197e-38
0.12522885 0.11309082 0.018902838 1.3171733e-38
0.12518723 0.1158661 0.018984795 1.3815305e-38
0.1225352 0.047682591 0.033719122 1.740053e-38
0.12146559 0.050374247 0.031656563 1.6572536e-38
0.12137464 0.10626952 0.019003034 1.1416796e-38
0.12134437 0.10896843 0.018874228 1.1694101e-38
0.12128412 0.11308972 0.018892407 1.1788074e-38
0.12189677 0.11586515 0.018976092 1.2896556e-38
0.1173162 0.050768264 0.032424092 1.5098472e-38
0.11610997 0.05367557 0.030359805 1.4176541e-38
0.11604305 0.088578649 0.023836672 8.8371262e-39
0.11612162 0.094081976 0.02162385 1.0034892e-38
0.11612292 0.098571576 0.020653188 1.0496621e-38
0.11612366 0.10113705 0.020098567 1.0497701e-38
0.11645295 0.10530607 0.01919806 1.0956174e-38
0.1173545 0.10916653 0.019502699 1.1234528e-38
0.11749817 0.1128367 0.019326687 1.0126723e-38
0.11463919 0.051539756 0.032863915 1.3349275e-38
0.11322971 0.05504442 0.031207144 1.1227691e-38
0.11211923 0.058955617 0.029889703 7.9969231e-39
0.11218024 0.079329304 0.024802804 3.9539836e-39
0.11291913 0.081794299 0.024885774 5.5219932e-39
0.1147543 0.085921265 0.024066687 6.9053158e-39
0.11465033 0.090133764 0.024519742 8.5619448e-39
0.1143619 0.094175972 0.023133516 1.0126374e-38
0.11343417 0.097507246 0.021671772 1.0864686e-38
0.11348973 0.10116807 0.020198464 1.1049069e-38
0.11347311 0.10508292 0.019579351 1.1692996e-38
0.1133666 0.10933138 0.020024598 1.2338329e-38
0.11334065 0.11264656 0.01964885 9.9398262e-39
0.11073532 0.059786655 0.030558825 8.3656579e-39
0.10925959 0.062845387 0.029211402 8.3725033e-39
0.10823904 0.065218009 0.027843118 7.8239944e-39
0.10824071 0.070990376 0.026595116 5.7996717e-39
0.10876665 0.074453928 0.025847733 4.7865917e-39
0.10934718 0.078333445 0.025522172 5.0606731e-39
0.11008354 0.081641026 0.025832057 4.2312796e-39
0.10965127 0.098623015 0.022670805 1.0952205e-38
0.10953297 0.10123046 0.020401657 1.1504281e-38
0.10954411 0.1050486 0.019462466 1.3808436e-38
0.10945901 0.10919748 0.019588351 1.8147652e-38
0.10920413 0.11292107 0.019578457 1.0857415e-38
0.10674561 0.063758962 0.030200779 1.0579073e-38
0.10564427 0.06727431 0.029145539 8.6501762e-39
0.10615004 0.070672698 0.028022349 7.1786404e-39
0.1059163 0.074140586 0.027442396 6.3506636e-39
0.10683975 0.077014618 0.026311994 5.7089096e-39
0.10521348 0.098508216 0.022274435 1.1131161e-38
0.1057541 0.10108096 0.020466387 1.1866935e-38
0.10693814 0.1049827 0.019242287 1.5100298e-38
0.10690917 0.10893113 0.018729687 2.201851e-38
0.10577679 0.11280932 0.017985642 1.2970372e-38
0.10138786 0.097832404 0.022180021 1.2885068e-38
0.10201533 0.10017101 0.020269275 1.3803776e-38
0.097299121 0.094704472 0.023280084 1.4365211e-38
0.097691953 0.097439729 0.021416605 1.6295923e-38
0.098406203 0.099849306 0.020329118 1.7033422e-38
0.092266627 0.060538702 0.030857861 1.3990348e-38
0.092267364 0.063111641 0.03030163 1.3165621e-38
0.092933439 0.090770878 0.024323404 1.5097741e-38
0.093714528 0.093679644 0.022559881 1.7126066e-38
0.093962722 0.097157277 0.021027088 2.0073099e-38
0.08831808 0.060537584 0.03084749 1.4632832e-38
0.088318817 0.063110538 0.0302912 1.4910498e-38
0.089700483 0.090633579 0.023832738 1.813447e-38
0.089848563 0.093494229 0.021907449 1.998055e-38
0.090530835 0.095998861 0.021140337 2.1551826e-38
0.085684583 0.056677468 0.031675041 1.6658268e-38
0.085685328 0.059250392 0.031118691 1.6383813e-38
0.085521869 0.062948935 0.030318618 1.6197633e-38
0.084371001 0.065682344 0.029724479 1.6012545e-38
0.085620292 0.090082504 0.023685098 1.8410331e-38
0.085772589 0.092951037 0.021786511 2.0252106e-38
0.082394123 0.056676529 0.031666279 1.7212875e-38
0.081751026 0.059223942 0.031000078 1.6937724e-38
0.081794076 0.063005663 0.029841602 1.638419e-38
0.081363998 0.066421069 0.029045105 1.5832107e-38
0.080423556 0.069540627 0.028879642 1.5372551e-38
0.080427647 0.083691783 0.025820196 1.4825124e-38
0.08124391 0.086726092 0.02496165 2.0070221e-38
0.081610046 0.08998125 0.023440421 2.2005239e-38
0.081343092 0.092148043 0.021948099 2.2832149e-38
0.078227066 0.059677117 0.031006336 1.7214313e-38
0.077803798 0.063081808 0.030155361 1.6661849e-38
0.077878535 0.066809349 0.028781235 1.5281087e-38
0.077528082 0.070054404 0.028760731 1.4453823e-38
0.07779526 0.083691038 0.025813222 1.5466214e-38
0.077869624 0.086115964 0.024720728 2.0720289e-38
0.077973448 0.089119919 0.023275852 2.3299936e-38
0.073840022 0.060533516 0.030809283 1.6939887e-38
0.073463149 0.063054048 0.02951926 1.6202677e-38
0.073299773 0.066768177 0.028607249 1.4086501e-38
0.073842801 0.070182033 0.0287233 1.3531892e-38
0.073846698 0.083689936 0.025802851 1.5462612e-38
0.073681116 0.086204983 0.024542451 2.034717e-38
0.073433742 0.088364847 0.023000419 2.117296e-38
0.069891468 0.060532399 0.030798912 1.647926e-38
0.069095589 0.062975712 0.029700041 1.5834603e-38
0.068994708 0.0667134 0.029167712 1.4454193e-38
0.070552349 0.070181079 0.028714538 1.3993585e-38
0.069508664 0.086172558 0.024913311 1.6754051e-38
0.068874411 0.088296302 0.022747219 1.5465105e-38
0.067259096 0.060531653 0.030791879 1.6294503e-38
0.065943643 0.06310422 0.030232131 1.5649145e-38
0.066164121 0.06696371 0.029398441 1.463714e-38
0.064300649 0.070822544 0.028559029 1.5099189e-38
0.063314617 0.074681692 0.027722001 1.6298075e-38
0.063644692 0.07821957 0.026957929 1.6388134e-38
0.064802602 0.089817889 0.023316741 1.5833497e-38
0.064564839 0.097091056 0.020834148 1.1596496e-38
0.064065821 0.10026722 0.020146012 1.1691924e-38
0.060681134 0.070821531 0.028549373 1.6572532e-38
0.060734548 0.07459747 0.027392149 1.6478886e-38
0.060735665 0.07845626 0.026557922 1.6294852e-38
0.06068448 0.082399733 0.026046216 1.6293424e-38
0.060309589 0.086442836 0.025171101 1.5832445e-38
0.060826384 0.089877568 0.02352041 1.4636414e-38
0.060931467 0.093547933 0.022045135 1.3255277e-38
0.060950018 0.097366877 0.021105826 1.1324567e-38
0.060839757 0.10096113 0.019987404 1.1508968e-38
0.06018585 0.10528507 0.01925528 1.3624791e-38
0.060755037 0.10929676 0.019821882 1.2059269e-38
0.056750432 0.070793219 0.028431296 1.5558376e-38
0.056896307 0.074431323 0.026735723 1.4543868e-38
0.05687955 0.078313358 0.026009977 1.4453462e-38
0.056880668 0.08216802 0.025176644 1.4176861e-38
0.056828 0.086110868 0.024664998 1.3718399e-38
0.056900755 0.089846589 0.02340287 1.2979046e-38
0.056901865 0.093700401 0.022569716 1.2058175e-38
0.056938902 0.097491123 0.02152276 1.0862535e-38
0.056993805 0.10124845 0.02036953 1.1692645e-38
0.05704584 0.1049789 0.020423949 1.3534036e-38
0.05409947 0.068246745 0.029088378 1.5460794e-38
0.052948587 0.070980169 0.028494239 1.4356607e-38
0.052822344 0.074623056 0.027478874 1.2241111e-38
0.052954592 0.078284033 0.025892079 1.21511e-38
0.052955694 0.082137831 0.025058866 1.2427673e-38
0.052938111 0.086021326 0.024332881 1.1507158e-38
0.05295793 0.089845471 0.023392379 1.1049394e-38
0.052959025 0.093699284 0.022559226 1.1046153e-38
0.05296015 0.097553082 0.021726072 1.1047602e-38
0.05292365 0.10147124 0.021106184 1.1785511e-38
0.05427628 0.10397647 0.0203408 1.3811674e-38
0.049493745 0.07146161 0.028380871 1.3436085e-38
0.048836574 0.074677594 0.027683794 1.2517005e-38
0.048953086 0.078367598 0.026204228 1.2426233e-38
0.048973761 0.082194217 0.02526325 1.2518427e-38
0.048897505 0.08616779 0.024858654 1.1504649e-38
0.048898615 0.090025119 0.024024665 1.1138026e-38
0.048996635 0.093728669 0.022655845 1.1135869e-38
0.048919968 0.097708859 0.022249818 1.1689399e-38
0.049311675 0.10121705 0.021776557 1.1967064e-38
0.046204589 0.075963326 0.027398646 1.3436769e-38
0.046205319 0.078536279 0.026842475 1.3622591e-38
0.045680039 0.082652815 0.025950968 1.3535097e-38
0.045417987 0.086769424 0.025060236 1.2701757e-38
0.04555057 0.090114288 0.024337471 1.2981591e-38
0.045102626 0.094064988 0.023226261 1.1874515e-38
0.045684345 0.097575821 0.022724628 1.3809173e-38
0.04621163 0.10040621 0.022114098 1.4451312e-38
0.16992225 0.082845218 0.020333469 1.7493425e-38
0.15396518 0.082341962 0.018196702 1.6112634e-38
0.15006472 0.076292314 0.019235849 1.6756571e-38
0.14621089 0.084212877 0.016677082 1.4360923e-38
0.12176358 0.084599949 0.014388144 8.2842803e-39
0.11681496 0.076286234 0.017083824 1.5102447e-38
0.12352221 0.09164656 0.015785456 1.7040357e-38
0.12613313 0.088582583 0.016274989 1.6665822e-38
0.14907838 0.095887788 0.016206801 1.2798987e-38
0.085521869 0.062948935 0.030318618 1.6197633e-38
0.11589043 0.072841026 0.025206089 1.5465831e-38
0.12034044 0.085041158 0.022855163 1.187882e-38
0.11039616 0.066074528 0.024941504 7.4552413e-39
0.08079537 0.083765723 0.023751378 1.4639648e-38
0.17037873 0.1105243 0.022478461 1.8232775e-38
0.16994102 0.11432087 0.022850037 1.9524252e-38
0.16500542 0.047977872 0.03786242 2.2385185e-38
0.16542913 0.051379852 0.035900235 2.2752886e-38
0.16597848 0.11133305 0.022121191 1.7311898e-38
0.16531628 0.11409146 0.02211988 1.8049121e-38
0.16504605 0.11808334 0.022500873 1.9247665e-38
0.15977216 0.044217862 0.038661182 2.1366019e-38
0.16066523 0.047075383 0.037250102 2.201388e-38
0.16067716 0.050763287 0.035543323 2.2380857e-38
0.16201943 0.11455742 0.021413386 1.6944912e-38
0.16068596 0.11816243 0.021880805 1.7679608e-38
0.15668651 0.043967389 0.038536608 2.1183051e-38
0.15670423 0.047005259 0.036913455 2.155182e-38
0.15709582 0.050537474 0.035387516 2.1828402e-38
0.15673962 0.11520103 0.021259964 1.6114443e-38
0.15671636 0.11819554 0.02197665 1.66676e-38
0.15271181 0.044000246 0.038689256 2.0721337e-38
0.15274681 0.046934552 0.036577106 2.1456022e-38
0.15408066 0.049400575 0.035479069 2.1823723e-38
0.15277116 0.11530203 0.021568477 1.6760145e-38
0.15292537 0.11798663 0.022547543 1.7496267e-38
0.14874043 0.044128515 0.038650811 2.0718463e-38
0.1485987 0.046538211 0.036521673 2.0534064e-38
0.14879037 0.11550505 0.022195876 1.758741e-38
0.14877173 0.1176495 0.022414267 1.8238169e-38
0.14476897 0.04399801 0.038668334 2.0809221e-38
0.14499177 0.046733521 0.036414862 2.0533351e-38
0.14511691 0.11474294 0.021532178 1.6482517e-38
0.14480811 0.11808199 0.022139549 1.740588e-38
0.14081095 0.04328195 0.038471341 2.1083645e-38
0.14085941 0.046274252 0.036630929 2.0718104e-38
0.14089949 0.11455146 0.021357596 1.60219e-38
0.14084184 0.11822533 0.022041023 1.6760169e-38
0.1368252 0.040760972 0.039346635 2.1269469e-38
0.13686746 0.043168195 0.037916839 2.0901409e-38
0.1369196 0.045525171 0.036270618 2.0625191e-38
0.13825969 0.11519582 0.021211147 1.6572919e-38
0.13688435 0.11815534 0.021818161 1.694529e-38
0.13596594 0.12141467 0.021906674 1.9063596e-38
0.13273452 0.043331675 0.037884474 2.0254243e-38
0.13295962 0.045524038 0.036260128 1.9608152e-38
0.13294055 0.11801641 0.021382749 1.6115515e-38
0.13271855 0.12207539 0.021627188 1.7954759e-38
0.12890863 0.043256156 0.038331032 2.0347147e-38
0.12866972 0.045845397 0.036179066 1.979722e-38
0.12769973 0.11519284 0.021183312 1.5009892e-38
0.12898192 0.11798085 0.021266103 1.5377961e-38
0.1289314 0.12213565 0.02127707 1.7037477e-38
0.125137 0.043598719 0.038116992 1.9520622e-38
0.12503982 0.046166904 0.036099792 1.9520994e-38
0.12501861 0.11862514 0.021116078 1.4365969e-38
0.12511604 0.12203407 0.021487772 1.556346e-38
0.1213057 0.044212915 0.038046837 1.7861121e-38
0.12087142 0.046778597 0.036595702 1.7493423e-38
0.12108077 0.049391277 0.035392046 1.7032816e-38
0.12086254 0.11836214 0.021210372 1.2340518e-38
0.1209741 0.12157381 0.021661341 1.2340521e-38
0.11696926 0.044637106 0.038455009 1.7310828e-38
0.11703648 0.047039382 0.037026405 1.6297381e-38
0.1158008 0.049389787 0.035378098 1.4730768e-38
0.11647977 0.11518968 0.021153688 9.1122277e-39
0.11705676 0.11811528 0.021659553 8.7441655e-39
0.11831509 0.12097839 0.021953344 8.6476805e-39
0.11302549 0.047154002 0.037559271 1.5558736e-38
0.1126852 0.051203288 0.035432339 1.2796805e-38
0.11185086 0.084223814 0.027836144 5.2468524e-39
0.11241584 0.087114789 0.028406262 6.1666563e-39
0.11307943 0.091169305 0.027507186 8.1002506e-39
0.11229952 0.094562776 0.026625156 9.2962687e-39
0.11317978 0.11518874 0.021144986 7.8240211e-39
0.10921639 0.047592439 0.037795126 1.7033497e-38
0.109093 0.051590271 0.036163092 1.5743465e-38
0.1091444 0.055985965 0.034616113 1.2238981e-38
0.10880135 0.059589393 0.033446252 1.0116317e-38
0.10788453 0.062289454 0.032567739 9.9355046e-39
0.10881481 0.083450086 0.028762579 4.1415895e-39
0.1099492 0.086383857 0.029069185 4.6029558e-39
0.10908438 0.095605291 0.026902616 9.1100809e-39
0.10888468 0.097447403 0.024969161 1.0122441e-38
0.10987979 0.11518782 0.021136284 5.7092627e-39
0.10988016 0.116478 0.020857334 6.078076e-39
0.10489033 0.047383286 0.037828743 1.942771e-38
0.10511867 0.051606797 0.0362342 1.8508266e-38
0.10515054 0.056058384 0.034930706 1.5373595e-38
0.10516168 0.059909187 0.033984482 1.2981927e-38
0.10486773 0.063394479 0.032320738 1.1600428e-38
0.10458568 0.066159092 0.031722188 1.0491925e-38
0.10392716 0.071319677 0.03060472 8.558684e-39
0.10424376 0.076383747 0.030874908 6.8119879e-39
0.10511955 0.079158165 0.030345559 6.0748138e-39
0.10638983 0.082804583 0.030174553 5.7056571e-39
0.10513151 0.095558129 0.026731789 9.2004787e-39
0.10556214 0.097516544 0.025201023 1.0305014e-38
0.099759787 0.044632249 0.038409591 1.9610654e-38
0.10108434 0.047220476 0.037853658 1.970429e-38
0.10116737 0.051570274 0.03606075 1.8967455e-38
0.10121809 0.0559837 0.034595132 1.6758354e-38
0.10123008 0.059833087 0.033649325 1.4365938e-38
0.10125209 0.063655458 0.032595575 1.3535089e-38
0.10122017 0.067606591 0.03208226 1.1323111e-38
0.10122128 0.071480878 0.031244576 9.5721045e-39
0.10118018 0.075466461 0.030837536 8.3775087e-39
0.10076243 0.078597762 0.031068861 8.0101822e-39
0.099773414 0.091860108 0.028198779 9.6621589e-39
0.1012073 0.094787054 0.026433051 1.0305742e-38
0.10261461 0.097123094 0.025022328 1.0672739e-38
0.096847266 0.044113882 0.038513839 1.9242235e-38
0.097159185 0.047126479 0.03740865 1.9242604e-38
0.097244024 0.051480047 0.035643458 1.8505391e-38
0.097322725 0.055835508 0.033934534 1.6663294e-38
0.097323835 0.05970607 0.033097684 1.4914806e-38
0.09727934 0.06368009 0.032693207 1.3810604e-38
0.097222492 0.067684598 0.032395661 1.2522374e-38
0.09722361 0.071560748 0.03155762 1.1600065e-38
0.097282261 0.075299449 0.03018105 9.8515948e-39
0.097180016 0.079426624 0.030311644 9.297733e-39
0.096461095 0.082154818 0.03028816 1.0492318e-38
0.095801063 0.088624187 0.028887689 1.1963108e-38
0.097149059 0.09115202 0.028117478 1.1134051e-38
0.097612776 0.093710996 0.026258111 1.1687918e-38
0.093802489 0.043983616 0.038533747 1.8596168e-38
0.093153447 0.047194965 0.037724137 1.8504312e-38
0.093260914 0.051514305 0.035795867 1.7584152e-38
0.093362726 0.05583439 0.033924103 1.5830669e-38
0.093528792 0.059543736 0.03312254 1.4451682e-38
0.093516298 0.063604809 0.032372475 1.3256014e-38
0.093256786 0.067683496 0.03238523 1.251988e-38
0.093257912 0.071559645 0.031547129 1.2058892e-38
0.093259022 0.075435795 0.030709088 1.1966668e-38
0.093260147 0.079311945 0.029871047 1.2151809e-38
0.093188822 0.083361633 0.029677331 1.2150014e-38
0.093202293 0.087211452 0.028731525 1.2609192e-38
0.093792871 0.09042374 0.027470112 1.3437523e-38
0.089435086 0.047993533 0.037655056 1.8227377e-38
0.089238331 0.051620074 0.036273658 1.7305428e-38
0.089402743 0.055833288 0.033913612 1.6015771e-38
0.089568809 0.059542619 0.033112109 1.4543162e-38
0.089569971 0.063574471 0.032240391 1.3900308e-38
0.089329839 0.067603655 0.032050848 1.3899599e-38
0.089292206 0.071558513 0.031536639 1.4729341e-38
0.089293323 0.075434677 0.030698597 1.4269421e-38
0.089294441 0.079310827 0.029860556 1.3623349e-38
0.089295566 0.083186992 0.029022515 1.3714469e-38
0.089309655 0.087033458 0.028077364 1.5097035e-38
0.089412414 0.089378245 0.026661158 1.7121744e-38
0.083875246 0.048509516 0.037528455 1.8684776e-38
0.085280798 0.051600896 0.036181867 1.7857165e-38
0.085442573 0.055187084 0.034042716 1.7029194e-38
0.086765356 0.064863883 0.03195411 1.5645192e-38
0.085551038 0.067724593 0.03184396 1.5646281e-38
0.085326508 0.071557395 0.031526208 1.5649142e-38
0.085327625 0.07543356 0.030688167 1.4635706e-38
0.085342363 0.079281278 0.029742599 1.3898864e-38
0.085343473 0.083157219 0.028904617 1.4268353e-38
0.085411869 0.086884744 0.027530491 1.7584845e-38
0.086772427 0.0893775 0.026654184 1.8226284e-38
0.080234513 0.04753805 0.037728667 1.8596877e-38
0.081376255 0.051492862 0.035683036 1.82281e-38
0.08129409 0.055462383 0.033971965 1.7580937e-38
0.082366355 0.068303145 0.031198621 1.555624e-38
0.081620917 0.071535833 0.030753374 1.5097758e-38
0.081404708 0.075349607 0.030354798 1.4451675e-38
0.081461802 0.079110749 0.029086947 1.3439321e-38
0.08165554 0.082763799 0.028070211 1.3900998e-38
0.082151517 0.086150713 0.027339399 1.7862888e-38
0.077255853 0.047213756 0.037790835 1.8781623e-38
0.077367127 0.051563121 0.035998106 1.8228819e-38
0.077478305 0.055903055 0.034207463 1.7857867e-38
0.076643661 0.058840133 0.033229172 1.7399054e-38
0.077857524 0.072279967 0.030326664 1.4270143e-38
0.077528365 0.075182773 0.029698133 1.353188e-38
0.077529483 0.07905335 0.028861284 1.2980509e-38
0.077530406 0.08227884 0.02816397 1.3254207e-38
0.073284619 0.047859587 0.037640452 1.8506496e-38
0.073366001 0.051615603 0.036231816 1.7861111e-38
0.073424928 0.056049429 0.034846961 1.7860393e-38
0.073563717 0.059054293 0.033174515 1.7216112e-38
0.073567629 0.072601296 0.030245662 1.3256369e-38
0.073537521 0.075237311 0.029902935 1.2980841e-38
0.073492266 0.079193406 0.029388487 1.2795751e-38
0.073524155 0.082363673 0.02847594 1.334712e-38
0.069975294 0.048505597 0.037491739 1.7952954e-38
0.069079429 0.071825914 0.030401111 1.4085412e-38
0.06956096 0.075263821 0.03000021 1.3532577e-38
0.069514439 0.079220526 0.029485643 1.3808118e-38
0.069562778 0.083007641 0.028325915 1.5189966e-38
0.065553367 0.052724816 0.036421597 1.7030618e-38
0.065460116 0.056095786 0.035042822 1.702956e-38
0.065478899 0.059535824 0.033048511 1.6385269e-38
0.064324886 0.062922262 0.032313287 1.574099e-38
0.064326368 0.068083026 0.031197548 1.500449e-38
0.065835916 0.071493246 0.030464292 1.4453463e-38
0.065632038 0.075207062 0.029774547 1.4913715e-38
0.06581457 0.079211317 0.02879554 1.5836388e-38
0.065650649 0.082920574 0.027993143 1.6756189e-38
0.065486707 0.086629815 0.027190804 1.7123534e-38
0.061372049 0.053678818 0.036350071 1.5643732e-38
0.061424062 0.056192718 0.035465717 1.5368229e-38
0.061597422 0.05982127 0.033544779 1.6107252e-38
0.06168507 0.063566603 0.032166839 1.5833899e-38
0.061686188 0.067437179 0.031329989 1.5649152e-38
0.063006938 0.070017941 0.030775607 1.5465122e-38
0.063010648 0.082919843 0.027986228 1.6848759e-38
0.062483691 0.086532213 0.027203739 1.6848749e-38
0.05819574 0.056524552 0.035726249 1.5369638e-38
0.057491392 0.060021199 0.034399927 1.7399424e-38
0.057635583 0.06369362 0.032696843 1.6477821e-38
0.057726197 0.067436047 0.031319499 1.6570735e-38
0.056417741 0.1074316 0.022668958 1.4269079e-38
0.05741211 0.11047328 0.023037016 1.297979e-38
0.053762332 0.061116703 0.034721434 1.6847666e-38
0.053635441 0.063743822 0.032902658 1.6108667e-38
0.053766169 0.067273684 0.031343997 1.5464381e-38
0.053281397 0.10666863 0.023166418 1.3260314e-38
0.05365245 0.11037288 0.023816049 1.3073052e-38
0.050121956 0.061439134 0.034641862 1.5832091e-38
0.049594492 0.063845702 0.03332442 1.5555485e-38
0.049748845 0.067512311 0.031622589 1.4454171e-38
0.049806975 0.070014216 0.030740798 1.4172937e-38
0.048496649 0.10355879 0.023484886 1.2242584e-38
0.049663961 0.10640077 0.023783028 1.2610991e-38
0.050135769 0.10931394 0.024291277 1.2704627e-38
0.045654915 0.06418746 0.034035742 1.4727535e-38
0.045687951 0.067643486 0.032151759 1.3899926e-38
0.045807421 0.071357064 0.030667067 1.3899217e-38
0.045056395 0.074915595 0.029668272 1.2795e-38
0.044529594 0.079044051 0.028774321 1.1324186e-38
0.044530347 0.081624426 0.028216422 1.1418928e-38
0.044531643 0.086140104 0.027240098 1.1974639e-38
0.044535547 0.099687107 0.024311185 1.3257099e-38
0.045591056 0.10276023 0.024088144 1.3073059e-38
0.046031147 0.10614765 0.024453223 1.3348935e-38
0.042271838 0.067787789 0.03273648 1.3438245e-38
0.04227294 0.071666725 0.031897843 1.3255991e-38
0.04302682 0.075421624 0.030576527 1.1599335e-38
0.04227519 0.079424657 0.030220687 9.5588538e-39
0.042458937 0.083043911 0.028415501 9.3751646e-39
0.041988835 0.086961664 0.027737737 9.4698531e-39
0.041748926 0.090865888 0.027006626 9.1039699e-39
0.041410878 0.094498895 0.026009202 8.364607e-39
0.041690379 0.098710157 0.025651574 9.1944041e-39
0.042612761 0.1023754 0.025259495 1.1958436e-38
0.042853728 0.10543016 0.025111198 9.5635439e-39
0.03821665 0.092489697 0.027896464 1.0481137e-38
0.038879499 0.09572468 0.027198851 9.0071219e-39
0.038880065 0.097665541 0.026779234 9.9287293e-39
0.16298191 0.073111184 0.021775126 1.8138777e-38
0.14993858 0.080551691 0.017049611 1.4914097e-38
0.14144148 0.075625725 0.015906036 1.5100294e-38
0.085384086 0.099630199 0.01011014 2.2941256e-38
0.120003 0.087343313 0.016280115 1.6388505e-38
0.13783696 0.087298073 0.018580139 1.3995019e-38
0.08565072 0.074569203 0.028747797 1.6480334e-38
0.10830469 0.068651058 0.028510451 1.1785544e-38
0.10056222 0.074478544 0.030360579 1.5097763e-38
0.16427441 0.044937201 0.041587114 2.1002598e-38
0.16527486 0.046783395 0.040679097 2.1831287e-38
0.16662647 0.1203218 0.024271905 2.0540934e-38
0.16516216 0.12212989 0.024695516 2.0257515e-38
0.1606219 0.04129643 0.042023301 2.0628442e-38
0.16106708 0.04342749 0.04139328 2.1000474e-38
0.16031726 0.12202097 0.024143279 1.8692666e-38
0.15662864 0.041361429 0.042339683 2.1367792e-38
0.15664689 0.042460762 0.041078806 2.1183405e-38
0.156661 0.12242324 0.024302304 1.6943111e-38
0.15297779 0.04098592 0.042155087 2.0997568e-38
0.15266405 0.042459644 0.041068375 2.0904289e-38
0.1520227 0.1203177 0.024233401 1.8049097e-38
0.15248376 0.12272293 0.024299264 1.722042e-38
0.14898381 0.041034378 0.042389691 2.0901053e-38
0.14867398 0.042832963 0.041232646 2.0901766e-38
0.14870366 0.12031675 0.024224579 1.8236032e-38
0.1486849 0.12312303 0.024299979 1.8234927e-38
0.14441131 0.040758841 0.042027593 2.1268394e-38
0.14469837 0.042457394 0.041047335 2.0993238e-38
0.14472082 0.12031562 0.024214149 1.7590256e-38
0.14469847 0.1231217 0.02428937 1.7956894e-38
0.14335781 0.12582508 0.024042368 1.8691937e-38
0.14050776 0.040315606 0.04193753 2.1453863e-38
0.14071159 0.12312076 0.024278879 1.7771417e-38
0.13670853 0.039308332 0.042218149 2.1452786e-38
0.1371834 0.12344714 0.023857772 1.9063938e-38
0.1353807 0.12582284 0.024021327 1.9432023e-38
0.1327199 0.039967231 0.042121708 2.0807773e-38
0.13410103 0.12420554 0.023344398 1.8509373e-38
0.13274306 0.12621415 0.023520291 1.887741e-38
0.12892321 0.040340416 0.042047143 2.0531546e-38
0.1287564 0.12621304 0.02350986 1.7589562e-38
0.12472019 0.041352428 0.042255402 1.9888325e-38
0.12412035 0.042451598 0.040992975 1.9425919e-38
0.12348013 0.12420256 0.023316443 1.575251e-38
0.12509243 0.12606499 0.023685396 1.7037842e-38
0.12073162 0.041351296 0.042244971 1.9334093e-38
0.12052169 0.043009646 0.041067243 1.832031e-38
0.12082489 0.12420181 0.02330941 1.271038e-38
0.12075599 0.12581873 0.023982823 1.2986972e-38
0.11541355 0.041349791 0.042230844 1.8875632e-38
0.11678113 0.043198414 0.041323304 1.8046945e-38
0.11679827 0.12308336 0.02412504 7.3633848e-39
0.11809696 0.12581798 0.02397573 8.4772433e-39
0.11295177 0.044034071 0.041260183 1.7769986e-38
0.11152185 0.090460606 0.030579329 7.0875448e-39
0.10881011 0.044494726 0.041021526 1.8321362e-38
0.10819009 0.046340011 0.040109277 1.832316e-38
0.10753752 0.085268952 0.031691015 4.1426601e-39
0.10856547 0.088230528 0.031462669 5.3390635e-39
0.10898931 0.092055194 0.030739248 7.0857343e-39
0.10886774 0.094352774 0.029730558 8.1899253e-39
0.10482442 0.044493608 0.041010976 1.9334797e-38
0.10619868 0.04633946 0.040104091 1.88749e-38
0.1044385 0.080942608 0.032617986 6.167378e-39
0.10444944 0.084304757 0.03247577 6.0748082e-39
0.10456917 0.087695546 0.032181501 6.0733985e-39
0.10438 0.092369385 0.030829489 7.7278401e-39
0.10485483 0.094443209 0.030041277 8.3725047e-39
0.10099243 0.043706067 0.041298807 1.9518464e-38
0.10116369 0.080855183 0.032628059 7.4584503e-39
0.10084491 0.084114321 0.032490909 7.1804383e-39
0.10081341 0.088097937 0.03197068 7.6392683e-39
0.10126687 0.091608427 0.030449629 8.7416487e-39
0.095470756 0.041344173 0.042178214 1.9057852e-38
0.097158559 0.042918511 0.041586637 1.915074e-38
0.097076677 0.084413849 0.032139957 9.3906363e-39
0.097057603 0.087764926 0.031378865 1.0493363e-38
0.093476474 0.041343607 0.042172968 1.8597609e-38
0.092346475 0.043301277 0.041132748 1.8596528e-38
0.088900611 0.043806024 0.040946186 1.9147904e-38
0.088607885 0.046658896 0.039987504 1.8686204e-38
0.085318521 0.044088922 0.041216373 1.9237946e-38
0.085123114 0.047468938 0.039802969 1.8777338e-38
0.080632463 0.044637509 0.041016877 1.8780924e-38
0.081645556 0.047577865 0.040793121 1.896351e-38
0.076990582 0.044384755 0.040447831 1.8595804e-38
0.072961785 0.044450946 0.040763676 1.8689432e-38
0.073008314 0.046330102 0.040016472 1.8965667e-38
0.069581494 0.044534631 0.04116267 1.8136626e-38
0.068773992 0.047344215 0.040224254 1.8136623e-38
0.065078348 0.047969349 0.040535927 1.7123899e-38
0.064748123 0.050781973 0.039236307 1.6937715e-38
0.062234841 0.048482038 0.040545285 1.5924288e-38
0.060992166 0.051611371 0.039296925 1.5740617e-38
0.057104141 0.053164162 0.03939122 1.5371099e-38
0.056084119 0.056382008 0.037797511 1.5097017e-38
0.056351952 0.11460356 0.025722086 1.4274855e-38
0.053594656 0.054327346 0.039258122 1.4637866e-38
0.053022891 0.056802996 0.038152993 1.6387409e-38
0.052832454 0.059819825 0.037045538 1.7214656e-38
0.051785566 0.1125036 0.02565223 1.279574e-38
0.053279385 0.11450299 0.025837839 1.307338e-38
0.048942268 0.057574786 0.038543522 1.6937361e-38
0.048826665 0.060355268 0.0375036 1.7027039e-38
0.048866086 0.11170448 0.026255608 1.2703915e-38
0.045331307 0.061740108 0.037377357 1.5829926e-38
0.043805674 0.063191138 0.036292255 1.5185999e-38
0.044201255 0.10827438 0.026887178 1.2429101e-38
0.045721643 0.1100551 0.026676774 1.4082518e-38
0.042296007 0.062121145 0.037542582 1.6567469e-38
0.041048184 0.064616568 0.036544979 1.4538839e-38
0.039824292 0.068380572 0.035159528 1.3070539e-38
0.03982541 0.07227347 0.034317851 1.2978689e-38
0.040397614 0.076290824 0.033962429 1.2150354e-38
0.039642215 0.080313392 0.033602238 1.1227701e-38
0.039643317 0.084211893 0.032759368 1.0018733e-38
0.039737001 0.087327994 0.031574309 9.1010874e-39
0.040291354 0.10379187 0.027913928 9.1961683e-39
0.041734993 0.10680709 0.027368248 9.009301e-39
0.038308561 0.066018529 0.036689162 1.3898846e-38
0.037815049 0.06882944 0.035875499 1.3164164e-38
0.037645653 0.072515853 0.035282671 1.307232e-38
0.038311556 0.076414533 0.03444159 1.242696e-38
0.037647545 0.079013325 0.03387785 1.1966734e-38
0.037649423 0.085510813 0.032473087 1.1316652e-38
0.037392095 0.088257231 0.031732619 1.1226959e-38
0.036958724 0.091404922 0.030320048 1.1042557e-38
0.03671591 0.095563702 0.029712498 1.0580877e-38
0.037292093 0.099488892 0.029245377 1.0668787e-38
0.032998174 0.092656769 0.030915618 1.1781934e-38
0.032998711 0.09460602 0.030494213 1.1505742e-38
0.030339122 0.092655994 0.030908525 1.0767419e-38
0.069516107 0.10747964 0.0034667253 1.7402637e-38
0.068548985 0.10944507 0.0033388138 1.6016826e-38
0.0839573 0.10679006 0.0086151958 2.3025502e-38
0.1175016 0.088980354 0.018808663 9.205501e-39
0.15423122 0.090563811 0.018303692 1.3994651e-38
0.15721531 0.075778015 0.020197749 1.6941666e-38
0.1444411 0.076612391 0.016269326 1.5005217e-38
0.13716604 0.070916153 0.021466494 1.3994647e-38
0.14012703 0.080580689 0.018544495 1.4271964e-38
0.11428749 0.08590994 0.019006491 1.3994291e-38
0.11911994 0.088933952 0.021790206 1.6204474e-38
0.13103405 0.093512423 0.018736899 1.3165985e-38
0.094314836 0.1016031 0.021719277 1.2705708e-38
0.125137 0.043598719 0.038116992 1.9520622e-38
0.084827065 0.079313435 0.029165804 1.2243632e-38
0.083505727 0.071202286 0.032102108 1.1319176e-38
0.082173303 0.06828814 0.031776905 1.5280713e-38
0.099971779 0.065529086 0.030243099 1.6571452e-38
0.10496254 0.091872208 0.026843727 1.4914453e-38
0.10753752 0.085268952 0.031691015 4.1426601e-39
0.13421184 0.12145738 0.027251244 1.8139517e-38
0.16325989 0.043063082 0.044035852 1.9987746e-38
0.16194989 0.12386251 0.026563108 1.9243333e-38
0.16194041 0.12678826 0.026953697 1.9705757e-38
0.16192752 0.12982914 0.02766031 2.0259672e-38
0.1579036 0.037452467 0.046598554 1.8145253e-38
0.15725899 0.039803334 0.044724405 1.9524251e-38
0.15767616 0.12649763 0.026493549 1.8416816e-38
0.15793546 0.1293973 0.026378751 1.9705041e-38
0.15389599 0.037451349 0.046588063 1.8879222e-38
0.15303671 0.039584942 0.044760227 1.9615366e-38
0.15377074 0.12682977 0.026539028 1.7587783e-38
0.15392976 0.12939617 0.02636826 1.8508312e-38
0.14917262 0.035806723 0.04863596 1.9428434e-38
0.14990696 0.03732238 0.045923114 1.9613194e-38
0.14992563 0.039670952 0.044733226 2.0075254e-38
0.14993718 0.12727776 0.026303887 1.860084e-38
0.14989688 0.13037243 0.027169347 1.9244786e-38
0.14515549 0.03580559 0.04862535 1.9795793e-38
0.14553481 0.037341215 0.045517445 2.0348614e-38
0.14570341 0.039582886 0.044740915 2.0902135e-38
0.14556995 0.12720904 0.02579546 1.8507557e-38
0.14562424 0.13017577 0.026995718 1.9799031e-38
0.14180788 0.035804652 0.048616469 2.1636834e-38
0.14163494 0.037176676 0.045863986 2.1731544e-38
0.14125885 0.039147206 0.04482305 2.1638262e-38
0.14128423 0.12711474 0.025804162 1.8875982e-38
0.14187405 0.13037017 0.027148128 2.0259989e-38
0.13782172 0.03567753 0.047951221 2.2096375e-38
0.13791785 0.037223242 0.0454005 2.1820877e-38
0.1379509 0.12711379 0.0257954 1.9338388e-38
0.13786264 0.13036904 0.027137518 2.0351819e-38
0.13384892 0.035191722 0.047192872 2.2096355e-38
0.13391627 0.03722211 0.04538995 2.154391e-38
0.1339511 0.12776425 0.025644004 1.9705376e-38
0.13385122 0.1303679 0.027127028 1.9892651e-38
0.12979254 0.03567528 0.047930062 2.1636818e-38
0.129897 0.03728459 0.04570663 2.1175492e-38
0.12859222 0.039143644 0.044789612 2.071451e-38
0.12861779 0.12776276 0.025629878 1.7774685e-38
0.12983981 0.13036677 0.027116358 1.887852e-38
0.12573937 0.035800107 0.04857409 2.1359859e-38
0.12588355 0.037315615 0.045859754 2.0624098e-38
0.12565905 0.039664097 0.044669151 2.0348224e-38
0.1246178 0.12776163 0.025619328 1.7957994e-38
0.12564626 0.13059992 0.026908576 1.9343803e-38
0.12239176 0.035799168 0.048565269 2.1172954e-38
0.12183451 0.037442304 0.046503484 2.0441862e-38
0.1212591 0.039793186 0.044629395 1.9795785e-38
0.12128448 0.12776071 0.025610566 1.4092601e-38
0.12181011 0.13105443 0.027059853 1.482981e-38
0.11777879 0.037568368 0.047147214 2.1084357e-38
0.11675926 0.040280618 0.044511914 1.9795797e-38
0.11661755 0.12678197 0.025809586 7.273343e-39
0.11805795 0.13029715 0.027304351 9.6697105e-39
0.1143575 0.035796903 0.048544109 2.1911954e-38
0.11384621 0.037376441 0.046155035 2.1543544e-38
0.11325932 0.040442534 0.044467449 1.9612471e-38
0.11450118 0.12693545 0.027305305 9.7557965e-39
0.11034037 0.035795771 0.048533499 2.1729001e-38
0.10984051 0.037375309 0.046144485 2.1267678e-38
0.10992599 0.04044161 0.044458628 1.9795789e-38
0.10992675 0.043048061 0.043895125 1.8690893e-38
0.10565372 0.035794459 0.048521161 2.1454214e-38
0.105835 0.038026713 0.045992851 2.0898897e-38
0.10589579 0.041157551 0.044634044 1.9793641e-38
0.10592676 0.043046929 0.043884575 1.9243334e-38
0.1046066 0.088659324 0.034019411 6.0744719e-39
0.10594057 0.090893812 0.033539951 6.4417788e-39
0.10163659 0.035793312 0.048510492 2.1545712e-38
0.10182929 0.038025595 0.045982301 2.0623023e-38
0.10191053 0.041123696 0.044459999 1.9884746e-38
0.10326011 0.043046169 0.043877542 1.9699633e-38
0.097619459 0.035792179 0.048499882 2.1267308e-38
0.097990453 0.03786137 0.046007395 2.0348594e-38
0.097735658 0.040810533 0.044346035 1.9334444e-38
0.093602143 0.035136648 0.048630834 2.1267671e-38
0.09374547 0.037498005 0.046756625 2.0164563e-38
0.093925856 0.039785482 0.044557333 1.8689091e-38
0.08931724 0.035266317 0.048591256 2.0900665e-38
0.089812011 0.037369661 0.046091676 1.9793987e-38
0.089926064 0.040435962 0.044405878 1.8411062e-38
0.085835733 0.035265334 0.048582017 2.0347495e-38
0.085581146 0.037702657 0.04630053 1.9515962e-38
0.086092792 0.040597774 0.044360518 1.9607428e-38
0.084593885 0.044344135 0.043546498 1.9145753e-38
0.081885606 0.035460539 0.048529208 1.9793632e-38
0.081571102 0.037952162 0.046455026 1.9700356e-38
0.082116671 0.040806122 0.044304788 1.9700722e-38
0.082193658 0.043561511 0.043709219 1.9516328e-38
0.078872867 0.035786904 0.04845041 1.9608863e-38
0.077649936 0.038231634 0.04700923 1.9146458e-38
0.077926293 0.041084193 0.044233322 1.841035e-38
0.077926859 0.043039031 0.043810606 1.8408931e-38
0.073626444 0.03903266 0.046916068 1.776569e-38
0.07348711 0.04126022 0.044621766 1.7581301e-38
0.073260203 0.04303772 0.043798387 1.8044782e-38
0.069835357 0.039383568 0.047648489 1.7214321e-38
0.069545895 0.041109018 0.045023799 1.7490197e-38
0.069260225 0.043036588 0.043787777 1.7767149e-38
0.066153079 0.039709739 0.047567964 1.6844461e-38
0.065537989 0.041865684 0.045565605 1.693738e-38
0.065482944 0.044773139 0.043402195 1.7123193e-38
0.063261382 0.046944566 0.042926669 1.5739901e-38
0.061636902 0.04210452 0.045901299 1.6290186e-38
0.061222069 0.045039646 0.043588758 1.463498e-38
0.060928337 0.047921307 0.042709231 1.5374343e-38
0.057540372 0.042584501 0.046338618 1.5371447e-38
0.05757799 0.045470722 0.044253111 1.5648755e-38
0.058095135 0.048409231 0.042596042 1.5743833e-38
0.057262518 0.050852515 0.042065561 1.5188888e-38
0.054327019 0.047122963 0.045933306 1.5743472e-38
0.05370862 0.049174435 0.043783069 1.3716974e-38
0.053742051 0.052018262 0.041931808 1.4176176e-38
0.053892903 0.117418 0.028005779 1.4273024e-38
0.04975307 0.049568273 0.044983029 1.3620108e-38
0.049758695 0.05236537 0.042741358 1.4268332e-38
0.049663812 0.055281349 0.041087508 1.5189963e-38
0.049509451 0.1157942 0.029027104 1.2058514e-38
0.05033052 0.11866999 0.030453742 1.1692622e-38
0.046739981 0.050174721 0.045252979 1.4357656e-38
0.045833066 0.052634515 0.043184221 1.4726821e-38
0.045719795 0.055953495 0.041187346 1.5555889e-38
0.045131788 0.059711032 0.040117621 1.666042e-38
0.045280233 0.11210061 0.028791189 1.3899215e-38
0.045517124 0.11532594 0.029629171 1.2151823e-38
0.044528 0.11866836 0.030438423 1.1692277e-38
0.042397365 0.053520299 0.043835998 1.5093418e-38
0.04186964 0.056496955 0.042082429 1.583208e-38
0.041743934 0.060298301 0.040288448 1.6751867e-38
0.040612444 0.10818962 0.029624164 9.1033141e-39
0.041505992 0.11140607 0.030465782 9.5682257e-39
0.042278022 0.11549357 0.030709505 1.0952568e-38
0.042073175 0.11888579 0.030384779 1.2885424e-38
0.038385183 0.057441868 0.042977273 1.6200504e-38
0.037806496 0.060770161 0.040550888 1.5737013e-38
0.036599874 0.064530544 0.039052606 1.408323e-38
0.03580074 0.067527734 0.038402438 1.353222e-38
0.035268813 0.072349496 0.037358463 1.3440731e-38
0.035936594 0.076259352 0.036514997 1.2795345e-38
0.036159828 0.07973469 0.035764217 1.2150382e-38
0.036605328 0.083427258 0.034967065 1.1687952e-38
0.035273135 0.087336563 0.034118235 1.2241805e-38
0.03572157 0.10123772 0.031113982 1.1961289e-38
0.037136316 0.10384264 0.031321943 1.1220857e-38
0.037904382 0.10714213 0.031889498 1.0484423e-38
0.038723111 0.1103776 0.032215238 9.9352173e-39
0.033697084 0.061336286 0.042395353 1.4266569e-38
0.033441395 0.063822471 0.039781749 1.3532223e-38
0.033267513 0.067787655 0.038339376 1.3531141e-38
0.033268824 0.07234893 0.037353158 1.3806643e-38
0.033269942 0.076258607 0.036507905 1.3253467e-38
0.033270881 0.079516657 0.035803556 1.2885789e-38
0.033271998 0.083426334 0.034958243 1.2517003e-38
0.033273146 0.087335981 0.03411293 1.2333303e-38
0.033274084 0.090594046 0.033408523 1.2609153e-38
0.033275977 0.09711016 0.031999707 1.2059261e-38
0.033410162 0.1001076 0.031351984 1.150571e-38
0.033560529 0.10363341 0.03161329 1.1869828e-38
0.03336589 0.10677687 0.03297925 1.251378e-38
0.030297607 0.064644031 0.041261852 1.2794315e-38
0.029557362 0.068231069 0.04016602 1.2887225e-38
0.029758349 0.071910866 0.0383479 1.3713386e-38
0.029759496 0.075825073 0.037501633 1.3805941e-38
0.029915228 0.079543553 0.035902381 1.3807727e-38
0.029938668 0.08342538 0.034949481 1.3161658e-38
0.029939801 0.087335058 0.034104109 1.2335118e-38
0.029750347 0.090872325 0.033338904 1.2055636e-38
0.0297506 0.09616629 0.032322049 9.2933638e-39
0.029610291 0.099637009 0.032174408 8.1892092e-39
0.029700905 0.10332338 0.031897306 8.7416726e-39
0.029348657 0.10644854 0.033039391 8.9268135e-39
0.025321722 0.072418399 0.040386081 1.3073787e-38
0.025640145 0.075960763 0.038029552 1.3717693e-38
0.025778055 0.079710551 0.03653717 1.4178671e-38
0.025801703 0.083596133 0.035583436 1.4176886e-38
0.025871232 0.08742132 0.034415603 1.3073746e-38
0.025940984 0.091243602 0.033248365 1.2151421e-38
0.025873899 0.095245369 0.032723904 9.0211097e-39
0.025692806 0.099405743 0.03273344 8.1924504e-39
0.026134148 0.10356825 0.033653498 8.6530474e-39
0.02149713 0.076717697 0.039446115 1.3349268e-38
0.02180849 0.080125578 0.038125634 1.3902445e-38
0.021869138 0.083975695 0.037001133 1.3718778e-38
0.021635324 0.087712847 0.035477936 1.2798249e-38
0.021823958 0.091391273 0.033773661 1.0773173e-38
0.021801934 0.095335789 0.033034384 8.4693779e-39
0.021522552 0.098969556 0.033612251 7.5470656e-39
0.018181399 0.07677909 0.039423943 1.2982299e-38
0.017531782 0.09174899 0.035048902 1.0397597e-38
0.01762931 0.095547177 0.033773303 8.5604693e-39
0.017295003 0.098592289 0.03470546 7.0871427e-39
0.01327619 0.092701532 0.035968244 1.0951478e-38
0.013277143 0.095973529 0.035260737 8.4693751e-39
0.014616936 0.098591544 0.034698367 7.6378263e-39
0.0092590004 0.09241993 0.036018252 1.0769569e-38
0.0094124526 0.095790215 0.034608006 9.5728289e-39
0.0052419305 0.092699267 0.035947025 9.8500954e-39
0.0052942336 0.095910259 0.035025597 9.5727925e-39
0.0025636554 0.092044093 0.036081433 7.8228804e-39
0.081091508 0.10562741 0.0043259859 1.7212555e-38
0.07845185 0.10334792 0.0049300194 1.786184e-38
0.077150442 0.10944746 0.0034183264 1.6666897e-38
0.073759437 0.10221217 0.0050113797 1.5927165e-38
0.072753608 0.10843032 0.0024327636 1.6113001e-38
0.082049586 0.10259194 0.006581068 2.0531218e-38
0.080021694 0.10586841 0.0074852705 2.0904307e-38
0.077542312 0.10209594 0.0072066784 1.9519217e-38
0.11506332 0.078182705 0.019179046 1.6846243e-38
0.11930168 0.088821508 0.016931713 1.6205191e-38
0.11599585 0.083498709 0.018691957 1.2241144e-38
0.11238234 0.077032186 0.019300282 1.4728252e-38
0.15140361 0.080033191 0.020379961 1.4546752e-38
0.13374825 0.088873915 0.016672313 1.3628387e-38
0.13554157 0.074876271 0.020864546 1.4454549e-38
0.13732265 0.07449422 0.021098971 1.5194632e-38
0.097212099 0.086789288 0.024412274 1.6666156e-38
0.10237604 0.089627303 0.023592889 1.5282143e-38
0.15680872 0.10595883 0.019165874 1.4087573e-38
0.09476424 0.072707407 0.028036535 1.2702478e-38
0.098305278 0.095332153 0.023850143 1.1692642e-38
0.085858844 0.065670319 0.032554209 1.5466909e-38
0.085162379 0.065690912 0.032112122 1.39932e-38
0.085200116 0.072685204 0.030258834 1.3164157e-38
0.11541355 0.041349791 0.042230844 1.8875632e-38
0.038308561 0.066018529 0.036689162 1.3898846e-38
0.025692806 0.099405743 0.03273344 8.1924504e-39
0.16190594 0.13249686 0.029300272 2.1091187e-38
0.16119644 0.13561374 0.032205284 2.2928265e-38
0.1579946 0.031779654 0.054207504 1.3536564e-38
0.15788023 0.13249573 0.029289663 2.0532642e-38
0.15782502 0.13561279 0.032196403 2.1548212e-38
0.15376349 0.032676302 0.053758621 1.4641478e-38
0.15380827 0.034933992 0.05122447 1.7312974e-38
0.15385453 0.1324946 0.029279053 1.9614632e-38
0.15412691 0.13577694 0.031639338 2.1270904e-38
0.14938729 0.032330252 0.053736389 1.6849838e-38
0.14999042 0.034416921 0.050546467 1.8877765e-38
0.14982383 0.13320327 0.029285431 2.0166361e-38
0.1494039 0.13585776 0.031864882 2.0902132e-38
0.1457016 0.031893022 0.053224146 1.8507565e-38
0.14596877 0.034389041 0.05039537 1.9152583e-38
0.14609808 0.13322848 0.030378222 2.0258561e-38
0.14570466 0.13610411 0.031545877 2.0903566e-38
0.14162894 0.031775035 0.05416435 2.0626257e-38
0.14174227 0.034151427 0.050679028 2.145387e-38
0.14178473 0.13309208 0.028946757 2.0625543e-38
0.14166181 0.13610294 0.031535149 2.0810633e-38
0.13792619 0.03237287 0.053951979 2.1730087e-38
0.13767976 0.034304954 0.051487386 2.2189645e-38
0.13777417 0.13298202 0.028618693 2.0628424e-38
0.13761897 0.13610181 0.031524539 2.0812453e-38
0.13355531 0.03267061 0.053705335 2.274027e-38
0.13369259 0.034005426 0.050620556 2.2464768e-38
0.13375133 0.13298088 0.028608084 2.0261799e-38
0.13360104 0.13527733 0.031180382 2.0536944e-38
0.12916622 0.032370396 0.053928912 2.2098173e-38
0.12967196 0.034116842 0.050483465 2.2097438e-38
0.1297285 0.13297975 0.028597474 1.9982006e-38
0.12956105 0.1352762 0.031169772 2.0811383e-38
0.12543952 0.032100953 0.05431807 2.1822647e-38
0.12634625 0.13314217 0.029064775 2.0359743e-38
0.12552106 0.13527504 0.031159043 2.0634888e-38
0.12165362 0.032262258 0.054443479 2.2189624e-38
0.12134721 0.034621097 0.051594198 2.1822617e-38
0.12150818 0.13566974 0.030653715 1.4551439e-38
0.11706849 0.032260962 0.054431438 2.2465134e-38
0.11751786 0.034965299 0.051346958 2.1822264e-38
0.1172273 0.1363081 0.031205714 1.0037815e-38
0.11330593 0.032097526 0.054286063 2.2280741e-38
0.11328194 0.034618832 0.051572919 2.2095254e-38
0.1133996 0.13000661 0.032265365 1.1696201e-38
0.11358691 0.13239366 0.031494081 1.141748e-38
0.11467089 0.1356006 0.032082438 1.1229884e-38
0.10930346 0.032005019 0.053783715 2.2002376e-38
0.10928635 0.034538038 0.051141202 2.1727941e-38
0.10528154 0.031304397 0.053697109 2.1636102e-38
0.10548799 0.034172393 0.050747097 2.1912687e-38
0.10125051 0.031283282 0.053577006 2.154284e-38
0.10146037 0.034171261 0.050736487 2.2097448e-38
0.097177275 0.031342857 0.053894162 2.126553e-38
0.09746635 0.034107752 0.050398469 2.1449192e-38
0.093135387 0.031341709 0.053883493 2.1082217e-38
0.093386754 0.033543907 0.05102092 2.1450298e-38
0.089081138 0.031360738 0.053982139 2.099002e-38
0.089721814 0.033824213 0.050694585 2.1267664e-38
0.08521606 0.031759135 0.054015517 2.0530467e-38
0.085024208 0.033822887 0.050682187 2.0531541e-38
0.081010729 0.032655783 0.053566694 1.9795758e-38
0.081082873 0.033990599 0.050481856 1.9609219e-38
0.07696756 0.032654651 0.053556025 1.905605e-38
