# .PCD v0.7 - Point Cloud Data file format
VERSION 0.7
FIELDS x y z rgb
SIZE 4 4 4 4
TYPE F F F F
COUNT 1 1 1 1
WIDTH 976
HEIGHT 1
VIEWPOINT 0 0 0 0 1 0 0
POINTS 976
DATA ascii
0.066441864 0.080981478 0.025725842 1.2334752e-38
0.06671834 0.085076116 0.025338471 1.2333694e-38
0.066073209 0.088968419 0.024815917 1.3253855e-38
0.066042304 0.092654228 0.024037182 1.4820805e-38
0.066097021 0.096552357 0.021247089 1.4268377e-38
0.06518738 0.098899752 0.02055198 1.2891538e-38
0.063492715 0.065499529 0.026866734 1.4817571e-38
0.063492715 0.068102069 0.026590645 1.436018e-38
0.062041193 0.081088878 0.02496618 1.2703184e-38
0.062202439 0.085776322 0.024496317 1.3438964e-38
0.062202439 0.088899374 0.024165094 1.4175806e-38
0.06199044 0.092811644 0.022972107 1.4635694e-38
0.06192863 0.096350268 0.021751821 1.3346425e-38
0.061975822 0.10013805 0.019874573 1.1599371e-38
0.060691193 0.10270631 0.019383669 1.1138039e-38
0.058700323 0.08121518 0.024384677 1.2335839e-38
0.058492973 0.085092053 0.023938179 1.2612437e-38
0.058331683 0.088830329 0.023514211 1.3163826e-38
0.057711616 0.092625856 0.022326171 1.252024e-38
0.058121949 0.09618254 0.019638836 1.1781961e-38
0.058121949 0.1000693 0.019226551 1.1322775e-38
0.057938412 0.10358263 0.01882267 1.17816e-38
0.056837335 0.10781991 0.018185914 1.2061066e-38
0.057333559 0.11189072 0.018858373 1.2798273e-38
0.055751175 0.082277954 0.023770452 1.1783028e-38
0.055428609 0.08454942 0.023474634 1.2058895e-38
0.054460883 0.088761285 0.022863388 1.1966702e-38
0.054248482 0.092412785 0.022002757 1.0954359e-38
0.053779066 0.096305817 0.020247221 1.1412085e-38
0.053941667 0.1001332 0.019415498 1.0950403e-38
0.053941697 0.10402585 0.019002497 1.1598641e-38
0.054362297 0.10802812 0.019272864 1.1508594e-38
0.054460943 0.11131664 0.02047056 1.1969238e-38
0.051235288 0.090005018 0.022182882 1.306942e-38
0.051235288 0.092607558 0.021906793 1.2426586e-38
0.050006628 0.096464358 0.02111876 1.1970648e-38
0.050129801 0.10031734 0.020390987 1.2153607e-38
0.049692631 0.10402784 0.019795537 1.2152533e-38
0.051364303 0.10796484 0.020299613 1.2887895e-38
0.16275322 0.080474667 0.016224682 1.5190316e-38
0.1611004 0.093522936 0.014319956 1.3718422e-38
0.1664784 0.068097889 0.018208861 1.5834584e-38
0.18296579 0.058056667 0.029613376 2.2286528e-38
0.10349745 0.10419516 0.014010847 1.6757282e-38
0.16753747 0.12401073 0.021353245 1.6390314e-38
0.098000437 0.11616407 0.0099876523 1.6477101e-38
0.095794663 0.11319716 0.010244668 2.0165286e-38
0.10412137 0.093636997 0.023972154 1.4175802e-38
0.10132168 0.069790743 0.026078582 1.5650926e-38
0.17398162 0.14282887 0.040000498 2.2486377e-38
0.17369772 0.14576204 0.041170895 2.3138909e-38
0.17101234 0.01956021 0.05371964 7.9183705e-39
0.17278224 0.021982107 0.052106321 7.1815187e-39
0.17174701 0.14281204 0.039112389 2.2573542e-38
0.17105438 0.14583994 0.039984703 2.3043487e-38
0.16729696 0.019327983 0.053041637 7.7325289e-39
0.16631217 0.021866698 0.051018357 7.4562839e-39
0.16757306 0.14264292 0.03859061 2.2751049e-38
0.16713727 0.14580131 0.039468408 2.3033772e-38
0.16591111 0.14889526 0.039514482 2.3396046e-38
0.16358851 0.019636162 0.052394629 7.455956e-39
0.16372415 0.021820534 0.050583243 7.8240084e-39
0.16372415 0.14319097 0.037707925 2.146466e-38
0.16355878 0.14579944 0.039151549 2.2568505e-38
0.16461334 0.14887212 0.039296269 2.340073e-38
0.16012362 0.019861419 0.051963687 7.824e-39
0.1592398 0.022539109 0.050152421 8.6537565e-39
0.15963218 0.14333294 0.038017035 2.1091913e-38
0.15591708 0.023827866 0.05047065 9.2984449e-39
0.15493521 0.026568856 0.048840046 1.0679199e-38
0.15581572 0.1431932 0.037042916 2.0722772e-38
0.15178311 0.026888989 0.049375057 1.1968144e-38
0.15315273 0.14321736 0.036927521 2.0445832e-38
0.15206975 0.14494014 0.037070572 2.0352565e-38
0.14781795 0.026833706 0.049046576 1.2984451e-38
0.14754899 0.029362366 0.047032773 1.417942e-38
0.14811976 0.14298427 0.035416484 2.0076686e-38
0.14904012 0.14532222 0.037024796 2.0259652e-38
0.14449793 0.028099425 0.048687756 1.537255e-38
0.1441844 0.030635495 0.046892285 1.647962e-38
0.14560798 0.14156274 0.034800172 1.9340918e-38
0.14016406 0.030429713 0.046811223 1.740302e-38
0.13913791 0.14144734 0.033712268 1.9154385e-38
0.13608646 0.030147962 0.046166003 1.7496652e-38
0.13476467 0.14179547 0.034971535 1.9249089e-38
0.13274151 0.031435575 0.045314908 1.9616418e-38
0.13155454 0.033483118 0.044895887 2.0623033e-38
0.13087136 0.14041717 0.034455776 1.9343076e-38
0.12853049 0.034518301 0.044271886 2.0254594e-38
0.12813881 0.036846489 0.042938352 1.9701779e-38
0.12846753 0.14054264 0.03326875 1.5103544e-38
0.12451282 0.034911774 0.044056892 1.9884738e-38
0.12451464 0.037123486 0.042547703 1.9517048e-38
0.12360977 0.13856025 0.03137815 9.8519746e-39
0.12451282 0.14085259 0.032818437 1.1047631e-38
0.12062234 0.034842379 0.043402731 2.0069499e-38
0.12067293 0.037614118 0.042097449 1.9424494e-38
0.12102173 0.13851409 0.030942976 1.0037397e-38
0.12087974 0.14051335 0.032491565 1.1323125e-38
0.11698782 0.035119679 0.043010294 1.9885462e-38
0.11698824 0.037987046 0.041487992 1.9425208e-38
0.11773109 0.13822965 0.031433582 5.9829741e-39
0.11400035 0.035408508 0.042726636 1.9882238e-38
0.11285657 0.037969932 0.041693807 1.942521e-38
0.11293416 0.040816709 0.039931774 1.8965999e-38
0.10933593 0.038357519 0.041280806 1.9333006e-38
0.10915495 0.041781634 0.039980173 1.8687613e-38
0.10712391 0.045631342 0.03877306 1.776854e-38
0.10556486 0.039184581 0.040891707 1.9701064e-38
0.10501224 0.041768748 0.040183604 1.8781979e-38
0.10453463 0.045585163 0.038337767 1.7952224e-38
0.1011208 0.041699335 0.039529264 1.8780544e-38
0.10065073 0.04551588 0.037684619 1.804476e-38
0.097357348 0.042019688 0.039049685 1.8502525e-38
0.09660849 0.045293033 0.037190974 1.767635e-38
0.094533831 0.042914353 0.038620353 1.767385e-38
0.092817396 0.045444388 0.037295163 1.7028485e-38
0.092553467 0.04795726 0.035708785 1.7302892e-38
0.08880055 0.045566693 0.037250757 1.7398347e-38
0.088161647 0.048463818 0.035724342 1.7951162e-38
0.084411234 0.046136796 0.036557257 1.8595427e-38
0.083495378 0.051710863 0.033770382 1.8227736e-38
0.081556141 0.046609405 0.03602165 1.8228434e-38
0.080582857 0.049128003 0.034569025 1.7859654e-38
0.080907345 0.052969765 0.033196867 1.776567e-38
0.076639831 0.049725823 0.034005225 1.7584519e-38
0.076768324 0.052962519 0.033287108 1.7492332e-38
0.076378301 0.055499084 0.032158375 1.7396914e-38
0.072731301 0.049854994 0.034176767 1.7308298e-38
0.073143244 0.056093916 0.031545222 1.6661858e-38
0.069876224 0.050327606 0.03364116 1.721465e-38
0.068909615 0.053264551 0.032728136 1.6477807e-38
0.068970978 0.056542855 0.031170607 1.6108324e-38
0.067967221 0.059264228 0.030328751 1.6200863e-38
0.065982908 0.053530276 0.032639384 1.5466888e-38
0.065253407 0.056923609 0.03157258 1.5278939e-38
0.065045059 0.060185552 0.030171335 1.500054e-38
0.064085186 0.063762687 0.029191434 1.4633907e-38
0.064732194 0.07095205 0.028538764 1.4728607e-38
0.064732194 0.074867226 0.028123438 1.3436471e-38
0.064085186 0.076813273 0.027806997 1.2884013e-38
0.064085186 0.0820335 0.027253211 1.242622e-38
0.064085186 0.085296147 0.026907086 1.2793233e-38
0.061458588 0.061018556 0.030395806 1.4354092e-38
0.061238319 0.06906265 0.028145194 1.39914e-38
0.061497137 0.07350447 0.027718008 1.3529376e-38
0.061497137 0.077419639 0.027302623 1.2885428e-38
0.062791169 0.081357889 0.027104855 1.2701731e-38
0.061497167 0.084271193 0.026575744 1.3071976e-38
0.05745022 0.064904533 0.029642045 1.4634615e-38
0.05737561 0.068935677 0.028181791 1.3899919e-38
0.057615116 0.073435225 0.027065217 1.3899936e-38
0.057615116 0.0773504 0.026649892 1.2886492e-38
0.056321099 0.08058995 0.026086152 1.2057809e-38
0.056321099 0.083852597 0.025740027 1.2059987e-38
0.056738466 0.11666624 0.02335 1.2611704e-38
0.053352952 0.069337152 0.02820307 1.4082876e-38
0.053369135 0.073475949 0.02735883 1.3806653e-38
0.053530276 0.077345178 0.026522517 1.279358e-38
0.053571343 0.081030309 0.025571942 1.1689717e-38
0.052956641 0.085358664 0.025008261 1.1967048e-38
0.053328335 0.11336361 0.022508502 1.2060705e-38
0.053294063 0.11635818 0.023525476 1.2428382e-38
0.050409675 0.069613084 0.028285325 1.4173642e-38
0.049412251 0.073641285 0.027305901 1.3622991e-38
0.049440205 0.077340081 0.026394188 1.2978699e-38
0.049645305 0.081194006 0.025453627 1.1778361e-38
0.049727201 0.085084543 0.024828136 1.1687233e-38
0.049666166 0.088581264 0.02410686 1.2612051e-38
0.048557043 0.092849515 0.023465455 1.1234192e-38
0.048787653 0.10888296 0.022058785 1.2434142e-38
0.049667358 0.11229835 0.023290873 1.3163803e-38
0.046516389 0.074779011 0.027075231 1.316382e-38
0.045867473 0.077385142 0.026688516 1.2605976e-38
0.045520842 0.081093945 0.025853574 1.168761e-38
0.046471924 0.084821649 0.025237381 9.3762898e-39
0.046054125 0.089098483 0.02496767 9.5537951e-39
0.045909941 0.093154311 0.024148643 9.0985973e-39
0.045592546 0.096862376 0.023555577 9.0060612e-39
0.04580164 0.10069995 0.022617519 8.6390555e-39
0.045502275 0.10464851 0.022374272 9.1933223e-39
0.045803249 0.1085141 0.022792459 1.0114547e-38
0.042623073 0.1008865 0.023643672 9.7421156e-39
0.14859989 0.052437183 0.022034764 1.8503965e-38
0.15965977 0.070392482 0.016343296 1.6847678e-38
0.16643937 0.079967827 0.015851021 1.3164185e-38
0.16535516 0.083722569 0.016920626 1.4455627e-38
0.16392371 0.083486035 0.017826796 1.519319e-38
0.12620252 0.11579219 0.015670121 1.6021505e-38
0.17119843 0.1238779 0.021777332 1.7405174e-38
0.10564193 0.10256459 0.022471488 1.4266206e-38
0.16671288 0.016136847 0.056283891 7.2740745e-39
0.16746235 0.14805536 0.041907132 2.3133863e-38
0.16746235 0.149368 0.041767836 2.3207316e-38
0.16325226 0.016105413 0.056718707 6.9049612e-39
0.16215315 0.018026371 0.055308104 7.1811684e-39
0.16225624 0.1479625 0.041031718 2.3031247e-38
0.16183822 0.15063196 0.042105258 2.0907536e-38
0.15846667 0.018963065 0.055091858 7.7310869e-39
0.15900244 0.14396656 0.040902376 2.1091904e-38
0.15883832 0.14675924 0.041371465 2.1645084e-38
0.15872191 0.15082395 0.041487098 2.2393063e-38
0.15531939 0.019928783 0.055474162 8.3771864e-39
0.15455645 0.022179171 0.054085851 8.9285623e-39
0.15473796 0.14688033 0.041567981 2.081139e-38
0.15481044 0.15075356 0.04082942 2.2953834e-38
0.15423061 0.15329808 0.0401209 2.341769e-38
0.15119055 0.023258451 0.053143919 1.0491945e-38
0.15080026 0.14736548 0.039759099 2.0627005e-38
0.15080047 0.15078218 0.040597856 2.2493216e-38
0.1522755 0.15326321 0.03979218 2.341769e-38
0.14736828 0.023816764 0.052485883 1.1601165e-38
0.14678696 0.14668725 0.039119422 2.0541245e-38
0.14691004 0.15068807 0.039833009 2.0919782e-38
0.14357185 0.024326719 0.053010106 1.1881363e-38
0.14309856 0.026502397 0.051096141 1.3809906e-38
0.14338413 0.14368796 0.038276196 1.943204e-38
0.14297044 0.14669494 0.039700091 2.0909304e-38
0.14422449 0.15071498 0.039713442 2.0086773e-38
0.13942738 0.027214039 0.050979257 1.4086857e-38
0.13959624 0.14322433 0.038293362 1.9339127e-38
0.13995291 0.14617842 0.039128423 2.0539822e-38
0.13553524 0.027779397 0.050767303 1.3439335e-38
0.13541313 0.14368908 0.037600636 1.8880672e-38
0.13443488 0.14527465 0.038625956 1.9982348e-38
0.13247696 0.028078083 0.050725579 1.4084337e-38
0.13106063 0.029864572 0.049683213 1.7680344e-38
0.13150416 0.14296272 0.037012994 1.9434195e-38
0.13117167 0.14521645 0.038077295 1.9712578e-38
0.12766913 0.031382654 0.048945546 1.9891203e-38
0.12711507 0.033136439 0.047237396 2.0808478e-38
0.12776583 0.14288431 0.035705745 1.4362047e-38
0.12722039 0.1461892 0.036792278 1.3905366e-38
0.12647265 0.15013506 0.036756516 1.4371037e-38
0.12334 0.031864371 0.048770249 2.0070949e-38
0.12368686 0.033112526 0.047336996 2.0345721e-38
0.12386125 0.14333972 0.03499347 1.0222549e-38
0.123485 0.14627488 0.036091387 1.1695847e-38
0.12336873 0.15031783 0.036096036 1.0778596e-38
0.12342623 0.15290077 0.035605133 1.105737e-38
0.12007681 0.031806163 0.048221588 2.0162395e-38
0.11960103 0.033076879 0.047326028 2.0805251e-38
0.11969638 0.14274038 0.034348905 1.408396e-38
0.11957206 0.14620508 0.035433412 1.6028277e-38
0.11968666 0.15002812 0.035231531 5.1569143e-39
0.12072943 0.15292874 0.035483539 5.9019931e-39
0.11578116 0.033646435 0.046275973 1.9978018e-38
0.11574894 0.14211912 0.034876764 1.1144539e-38
0.11562851 0.14615862 0.034881115 1.8328879e-38
0.11643192 0.14868027 0.034183562 9.1881879e-40
0.11187094 0.034891214 0.045479059 1.9882954e-38
0.11289775 0.14686514 0.034795105 1.6573538e-38
0.10816345 0.034968663 0.045044482 1.9792183e-38
0.10737528 0.037159782 0.043454111 1.9700708e-38
0.10376078 0.035464399 0.045059144 2.0252451e-38
0.10390489 0.03765149 0.043686092 2.0344285e-38
0.10049757 0.035406191 0.044510484 2.0070221e-38
0.10013895 0.037968382 0.043157816 1.9699646e-38
0.095929086 0.0353247 0.043742299 1.979543e-38
0.096095562 0.037924662 0.042928159 1.9791463e-38
0.095878467 0.040455073 0.041149616 1.9240442e-38
0.092335045 0.038670238 0.04257226 1.9702496e-38
0.092270434 0.041581504 0.041053951 1.8596524e-38
0.088750035 0.039145917 0.042116225 1.9333728e-38
0.088373959 0.041709572 0.040873647 1.8227727e-38
0.087418556 0.044242073 0.039309382 1.7949001e-38
0.084502965 0.041832305 0.040599108 1.8593986e-38
0.084603563 0.044240456 0.039510846 1.8595784e-38
0.080447912 0.045118086 0.038905382 1.8320264e-38
0.076554537 0.04562737 0.038717508 1.6383474e-38
0.076355606 0.047982641 0.037031412 1.7028114e-38
0.072489351 0.046083421 0.038445294 1.6659694e-38
0.072767913 0.047997221 0.037439704 1.6939512e-38
0.068779215 0.046161663 0.037976205 1.5834961e-38
0.068768501 0.048841029 0.036378741 1.6479969e-38
0.067895681 0.051769644 0.035191178 1.6572503e-38
0.065084636 0.049561515 0.036113083 1.4821168e-38
0.06470263 0.052517116 0.034772933 1.5002325e-38
0.06101732 0.049956009 0.036049843 1.3436453e-38
0.060880736 0.05308139 0.035332441 1.4268702e-38
0.061005414 0.056790367 0.034124434 1.454279e-38
0.059435785 0.060150869 0.032863557 1.417257e-38
0.059381202 0.11892386 0.028659344 1.2702852e-38
0.059381202 0.12024029 0.02851969 1.298409e-38
0.058075935 0.050446577 0.035701632 1.4085387e-38
0.057749614 0.053402707 0.035332561 1.3715532e-38
0.056928843 0.056966782 0.034361541 1.3619769e-38
0.056907669 0.060629487 0.032965779 1.3898129e-38
0.055531204 0.064019121 0.031789303 1.4451288e-38
0.057246491 0.11864464 0.026966095 1.2794672e-38
0.056724578 0.12126764 0.027346969 1.2706767e-38
0.05546537 0.12411971 0.027442276 1.1419623e-38
0.054160088 0.058275267 0.034205317 1.3440756e-38
0.053144157 0.061237983 0.033426881 1.3899203e-38
0.052896142 0.064528838 0.032161415 1.463604e-38
0.052277386 0.067242675 0.030894041 1.4266906e-38
0.051626623 0.11842382 0.025353968 1.2336184e-38
0.052544922 0.12119548 0.025929987 1.2151423e-38
0.050975859 0.12366275 0.024687529 1.2889362e-38
0.050244242 0.061496474 0.033197761 1.362157e-38
0.049193799 0.064742528 0.032419801 1.5187064e-38
0.048534274 0.068737194 0.030681849 1.4081444e-38
0.047071278 0.072400346 0.029461682 1.334497e-38
0.047505111 0.11397485 0.025125086 1.2334394e-38
0.048489332 0.11691375 0.025108159 1.2238944e-38
0.048785269 0.12092015 0.025625885 1.2516629e-38
0.045675755 0.066022471 0.031940758 1.5278881e-38
0.045073986 0.069192261 0.031038642 1.3529345e-38
0.044764102 0.073478423 0.029567003 1.316165e-38
0.044468224 0.08613658 0.027561903 1.0020205e-38
0.043166697 0.092676543 0.026646793 9.3715885e-39
0.043166697 0.1064592 0.025184691 9.003934e-39
0.043166697 0.10908447 0.024906218 9.46847e-39
0.045056462 0.11308496 0.024973094 9.6546564e-39
0.045428693 0.11706093 0.024784684 1.0574436e-38
0.046265364 0.12026174 0.025267243 1.2605979e-38
0.042412579 0.070571743 0.030903339 1.3530782e-38
0.042180508 0.074158177 0.030228376 1.3162013e-38
0.042116702 0.077470228 0.029509306 1.2886863e-38
0.042789638 0.082954764 0.028633893 1.2152517e-38
0.042041302 0.085913487 0.02880466 1.1964547e-38
0.041506588 0.089721039 0.028080404 1.1683256e-38
0.040960848 0.093389779 0.026875973 1.1771172e-38
0.041023999 0.097307816 0.026301086 1.1212616e-38
0.04093191 0.10123131 0.025767326 1.0575145e-38
0.040834218 0.10526751 0.025934398 1.1220187e-38
0.041078895 0.10929865 0.026058376 1.1310938e-38
0.042274803 0.1135955 0.025805831 1.0578748e-38
0.042228848 0.1163052 0.025340676 1.1685483e-38
0.038496733 0.090906456 0.028080285 1.2976504e-38
0.037619025 0.093502685 0.027509987 1.2610621e-38
0.037319005 0.097417377 0.026849449 1.2332232e-38
0.037319005 0.10136475 0.026430666 1.1408505e-38
0.037402421 0.10518304 0.02625227 1.1408515e-38
0.037713528 0.10905913 0.02602154 1.1779115e-38
0.034580857 0.098076932 0.026653826 9.8440516e-39
0.034580827 0.10136799 0.026304662 8.7409523e-39
0.034580857 0.10400084 0.026025355 8.6516293e-39
0.16255318 0.086224571 0.016487896 1.5837122e-38
0.12822473 0.1065363 0.016699314 1.7678885e-38
0.17204174 0.050451886 0.029008806 2.1087244e-38
0.10641749 0.071016535 0.025251329 1.4175813e-38
0.11578116 0.033646435 0.046275973 1.9978018e-38
0.16470794 0.014227211 0.059715092 6.626924e-39
0.16078083 0.016797591 0.05877471 7.0871805e-39
0.15838507 0.016439937 0.058915198 7.1793425e-39
0.15685372 0.01804775 0.057974279 7.7310925e-39
0.15366854 0.018789686 0.057558 8.7459703e-39
0.15085246 0.019938998 0.057263196 9.6657518e-39
0.14899948 0.021868285 0.056233466 1.0584848e-38
0.14630581 0.022273235 0.056072414 1.1049059e-38
0.14091094 0.024407014 0.05560869 1.1420739e-38
0.14179978 0.15112059 0.041297853 1.9259169e-38
0.1377527 0.025650542 0.054429829 1.3164183e-38
0.13801086 0.14738561 0.041389704 2.0817124e-38
0.13910234 0.15114759 0.04117626 1.8331131e-38
0.13447869 0.026252247 0.053809285 1.2703187e-38
0.13465609 0.14739899 0.041157782 2.0724212e-38
0.13566728 0.1499135 0.041402996 2.100256e-38
0.1305483 0.14772967 0.040254295 2.0084242e-38
0.1305241 0.15026122 0.040083706 1.9529588e-38
0.12661836 0.027433198 0.052347422 1.4274103e-38
0.12641859 0.029716823 0.051561296 1.7956212e-38
0.12805489 0.1502153 0.039056718 1.6861007e-38
0.12264468 0.027370356 0.051848352 1.3626222e-38
0.12281874 0.029982664 0.050920963 1.8507577e-38
0.11993629 0.027338143 0.051731229 1.3068759e-38
0.11858997 0.030211907 0.050614655 1.8507571e-38
0.11482857 0.031186379 0.04994458 1.9977644e-38
0.11365548 0.033119738 0.049030066 1.9978738e-38
0.11172572 0.031360362 0.049568474 2.0254217e-38
0.1106403 0.033409972 0.048741579 1.9977648e-38
0.11141533 0.14419249 0.037886143 2.1191989e-38
0.11141533 0.14551459 0.037745893 2.1745934e-38
0.10748258 0.031743374 0.049146354 1.9791832e-38
0.10682712 0.033494495 0.048849165 1.9793261e-38
0.10289438 0.034305748 0.048094392 2.0068058e-38
0.099497378 0.034225259 0.047185242 1.9978371e-38
0.095328957 0.035433263 0.045668423 1.9794707e-38
0.091197431 0.035399318 0.045649409 1.9608878e-38
0.091074586 0.037007645 0.044777989 1.961033e-38
0.088474318 0.035370626 0.045529425 1.9702149e-38
0.08737126 0.037732217 0.044411361 1.9425567e-38
0.083406538 0.037888575 0.043833971 1.8871662e-38
0.082238585 0.040480614 0.042907119 1.8590414e-38
0.079351366 0.038502276 0.043475926 1.8135183e-38
0.079096884 0.041216701 0.0422948 1.8046214e-38
0.076676071 0.039126493 0.043124795 1.7583438e-38
0.075656712 0.041690886 0.041772902 1.7307922e-38
0.075693399 0.044324499 0.041386425 1.6567154e-38
0.071762234 0.042030647 0.04154408 1.6384902e-38
0.071766287 0.044254448 0.040726066 1.6567853e-38
0.068155125 0.042940821 0.041271269 1.5648044e-38
0.067426577 0.044525318 0.040214419 1.5464004e-38
0.064104825 0.046245083 0.039416134 1.5003045e-38
0.06325753 0.048063308 0.038875222 1.4266566e-38
0.060945094 0.046778526 0.039638162 1.4357329e-38
0.059868008 0.048469108 0.038595736 1.3989624e-38
0.058675915 0.12257352 0.030191898 1.344577e-38
0.058675915 0.12455384 0.029981852 1.4180462e-38
0.055879161 0.049952723 0.037930131 1.4085042e-38
0.055272415 0.052937679 0.037000358 1.334639e-38
0.056712359 0.12451883 0.029651701 1.2431992e-38
0.051889688 0.057382949 0.036633492 1.316202e-38
0.05147621 0.059735063 0.035633743 1.3438239e-38
0.050821692 0.12309353 0.028801262 1.2334763e-38
0.052130699 0.12443709 0.028881311 1.2151793e-38
0.049146861 0.058467027 0.036392093 1.3433904e-38
0.047724277 0.060827069 0.03517139 1.3524346e-38
0.04689458 0.064934187 0.034303188 1.5186691e-38
0.044651508 0.061667256 0.035033226 1.4266548e-38
0.043982297 0.064534247 0.034141839 1.5648753e-38
0.041281372 0.066259362 0.034228027 1.472609e-38
0.039950877 0.069430515 0.033325374 1.3715169e-38
0.039487779 0.073802419 0.032306969 1.3622986e-38
0.039272428 0.078361399 0.031837702 1.3346756e-38
0.039081991 0.082383491 0.031888545 1.2886492e-38
0.039177179 0.085656129 0.031302631 1.251628e-38
0.039040327 0.11100148 0.028080702 1.2694216e-38
0.039411604 0.11345418 0.028291643 1.2601636e-38
0.036562055 0.086535603 0.031274617 1.2975463e-38
0.036066592 0.089728914 0.030341685 1.3251321e-38
0.035113215 0.093768686 0.029241085 1.2426968e-38
0.035113215 0.1069708 0.027840555 1.0211416e-38
0.035574555 0.11003377 0.028104007 1.0766009e-38
0.036911607 0.11289582 0.02853775 1.2147485e-38
0.032529771 0.090857461 0.029875457 1.2977944e-38
0.032645941 0.093618587 0.029420257 1.2425839e-38
0.031953394 0.097548336 0.02873987 1.0029162e-38
0.031840622 0.10163158 0.027850449 8.8360094e-39
0.032383412 0.10564843 0.02780813 8.7445298e-39
0.033108324 0.10880642 0.027984798 8.836015e-39
0.02948311 0.098440498 0.028807998 9.2951799e-39
0.02948311 0.10174577 0.028457403 8.4672283e-39
0.02948311 0.10438997 0.028176844 8.1916909e-39
0.17127897 0.084102213 0.014834285 1.5650566e-38
0.16712639 0.096437931 0.014476955 1.3995368e-38
0.18106675 0.087662965 0.014931023 1.3348904e-38
0.12272359 0.052345514 0.024168491 1.5467248e-38
0.086797565 0.082145132 0.027313888 1.3533666e-38
0.15690324 0.015584182 0.06436342 7.1793341e-39
0.15451251 0.016001508 0.061464906 8.0087823e-39
0.15077561 0.016517833 0.061012745 9.1158417e-39
0.15095964 0.018041968 0.060032427 9.3909768e-39
0.14663945 0.018020105 0.06099993 8.7456144e-39
0.14694063 0.019970786 0.059484363 1.0127449e-38
0.14209348 0.02150818 0.060536861 1.0127473e-38
0.14299412 0.02277505 0.058515787 1.0776798e-38
0.13841896 0.021912348 0.06054908 9.1140536e-39
0.13867532 0.02368971 0.058160305 1.0408737e-38
0.13649824 0.15103634 0.043465018 1.952281e-38
0.13511819 0.021853473 0.059994042 8.5583309e-39
0.13490078 0.023770154 0.057883978 9.7605048e-39
0.13413663 0.15071885 0.043352067 1.9145731e-38
0.13469926 0.15411089 0.044872701 1.5311328e-38
0.13044268 0.024625506 0.058225095 1.0405852e-38
0.13255423 0.025669023 0.056093693 1.2522024e-38
0.13167778 0.15117134 0.04263103 1.9425166e-38
0.13123956 0.15293139 0.042369783 1.6600935e-38
0.1269919 0.024017487 0.057872772 1.0216783e-38
0.12729554 0.025575221 0.055209458 1.1691549e-38
0.12861021 0.15288448 0.041927695 1.8894338e-38
0.12257528 0.024292894 0.057602465 1.0772493e-38
0.12335153 0.025504868 0.054546297 1.0771413e-38
0.1198014 0.025486022 0.054964483 1.0403701e-38
0.11795971 0.027420726 0.053936124 1.325388e-38
0.11524153 0.027566254 0.054784358 1.5095954e-38
0.11480616 0.029330127 0.052687466 1.8506116e-38
0.11063904 0.028358389 0.054121733 2.0072699e-38
0.11151949 0.029713463 0.052087903 2.0164164e-38
0.10701288 0.02862566 0.05347681 1.9702502e-38
0.10790414 0.030864377 0.05135107 1.9978365e-38
0.10666841 0.12673251 0.042670846 8.1942189e-39
0.10704538 0.13032672 0.042580307 8.9281966e-39
0.10607146 0.13318774 0.043244362 1.0030957e-38
0.10277069 0.028600145 0.053777993 1.9425555e-38
0.103488 0.031143107 0.051080465 1.9331581e-38
0.10363144 0.033108477 0.050386488 1.9792196e-38
0.10334451 0.12344879 0.041774094 8.9282442e-39
0.1033445 0.12610437 0.041492403 9.6665155e-39
0.10334451 0.13008773 0.041069806 1.1323133e-38
0.09946993 0.029207055 0.053152382 1.9699618e-38
0.099296719 0.031112675 0.051221013 1.9517034e-38
0.099249214 0.033472277 0.049602747 1.9885101e-38
0.099492401 0.12331852 0.040792823 1.2889729e-38
0.099264428 0.12611619 0.041250587 1.1781599e-38
0.099423409 0.12937565 0.041294456 1.2339083e-38
0.095114321 0.031743307 0.051236153 1.9240813e-38
0.095086068 0.034281943 0.048808992 1.9701445e-38
0.096761778 0.12333137 0.040667176 1.5007664e-38
0.095046803 0.12620844 0.041430235 1.3807357e-38
0.096169174 0.12901638 0.042003095 1.3531145e-38
0.091336966 0.032057725 0.050592899 1.9056419e-38
0.0908373 0.034263898 0.049108326 1.9423765e-38
0.092029124 0.12651901 0.04105413 1.4359849e-38
0.089567631 0.13023022 0.040751815 1.6297735e-38
0.087437898 0.032409862 0.049950778 1.8874537e-38
0.086880922 0.034700587 0.047981262 1.9607788e-38
0.085226059 0.036757857 0.046869755 1.9791109e-38
0.086927027 0.13018312 0.04030782 1.7036386e-38
0.082966089 0.032907397 0.04995358 1.7952971e-38
0.083332598 0.034660392 0.04779017 1.9147899e-38
0.080325484 0.032860298 0.049509525 1.7307598e-38
0.079453826 0.034891788 0.047717988 1.7952225e-38
0.07931003 0.03665233 0.045874953 1.8044064e-38
0.075478151 0.03624393 0.046966553 1.7584169e-38
0.07561262 0.037928127 0.04536587 1.758452e-38
0.071083337 0.036690176 0.047531724 1.6660777e-38
0.071746379 0.038569994 0.045405388 1.6385632e-38
0.070764661 0.040477585 0.044016123 1.6017207e-38
0.068442732 0.036643073 0.047087729 1.5927894e-38
0.06741181 0.039230771 0.045763791 1.5647699e-38
0.068135306 0.041314613 0.043480277 1.5647334e-38
0.063821673 0.040555373 0.045886934 1.5462943e-38
0.063675463 0.042444263 0.044131875 1.555442e-38
0.063533962 0.04432629 0.042378366 1.5370745e-38
0.059881806 0.04386048 0.043642521 1.4912275e-38
0.059830919 0.045936301 0.041832864 1.4636052e-38
0.057617947 0.048198447 0.040961623 1.4176513e-38
0.055239677 0.044397019 0.044020116 1.3898501e-38
0.055354923 0.046615507 0.042930245 1.3440022e-38
0.056303263 0.048174992 0.04074055 1.4083958e-38
0.052158952 0.047892936 0.043125451 1.3714815e-38
0.051679969 0.050356947 0.040402949 1.3160922e-38
0.051760972 0.053679954 0.039588213 1.2149664e-38
0.051044583 0.056036554 0.039012432 1.2978703e-38
0.051999062 0.12651628 0.032718003 1.1968506e-38
0.051608831 0.12855445 0.034475088 1.2153258e-38
0.048255593 0.05116294 0.04170686 1.2605578e-38
0.047609568 0.054636553 0.040361702 1.2883251e-38
0.048086584 0.057309687 0.038374364 1.3250922e-38
0.048638165 0.12683699 0.03415215 1.2705342e-38
0.043707192 0.054965395 0.040428102 1.3987817e-38
0.044223249 0.057965267 0.038327932 1.3893801e-38
0.043813884 0.05988526 0.037374675 1.3805926e-38
0.04071629 0.056122143 0.040306807 1.4173282e-38
0.040086865 0.059154183 0.03919822 1.3617966e-38
0.040123105 0.062148929 0.037089705 1.3897054e-38
0.039869875 0.065118484 0.036148846 1.4265839e-38
0.038833588 0.081800543 0.035222828 1.2704255e-38
0.036755383 0.06337516 0.038863838 1.380593e-38
0.036156893 0.066035442 0.037256002 1.3163073e-38
0.03604269 0.068885155 0.035535693 1.279681e-38
0.035797656 0.073039711 0.034956038 1.3439683e-38
0.035854906 0.077410281 0.034599364 1.3714102e-38
0.035640538 0.081268936 0.034124374 1.343753e-38
0.035597205 0.084599204 0.033355772 1.3344602e-38
0.035925865 0.11476915 0.030211151 1.270065e-38
0.035487711 0.11677237 0.031963885 1.3716602e-38
0.033052087 0.069227353 0.036933482 1.2061765e-38
0.032730073 0.07341902 0.035890043 1.2889763e-38
0.032072216 0.077394158 0.035997629 1.3714826e-38
0.032164127 0.081045255 0.034395576 1.4542426e-38
0.032595813 0.084891543 0.032927692 1.4084304e-38
0.031850368 0.088576347 0.032296777 1.3252398e-38
0.031324506 0.11004645 0.029929757 9.3902594e-39
0.032183111 0.11300831 0.030526459 1.0306836e-38
0.031697929 0.11687121 0.031309009 1.3166307e-38
0.028115064 0.081314512 0.034908891 1.3808081e-38
0.028344125 0.084917441 0.032995284 1.371625e-38
0.028467715 0.089300767 0.031922817 1.3714085e-38
0.028353065 0.093580954 0.03137517 1.2612733e-38
0.02819097 0.09631411 0.031023622 1.0859985e-38
0.027380466 0.10069484 0.030251145 8.5597784e-39
0.027214348 0.105202 0.031019568 7.8236427e-39
0.028827518 0.1088979 0.030986845 9.0211251e-39
0.028226554 0.11320046 0.031253874 1.1232006e-38
0.028565496 0.116316 0.030835271 1.2797885e-38
0.024872631 0.085799992 0.034464419 1.3347477e-38
0.024872631 0.089128934 0.034111321 1.3071248e-38
0.024940282 0.093314797 0.032658875 1.1692247e-38
0.024115562 0.097122215 0.032114804 9.4767209e-39
0.024196029 0.10054477 0.031619668 8.1895526e-39
0.024872631 0.10377628 0.032557487 7.4548658e-39
0.1709051 0.0815164 0.015608191 1.3072694e-38
0.16683647 0.087138511 0.014466226 1.3257801e-38
0.14472514 0.11449688 0.016126454 1.7403376e-38
0.090207398 0.094295971 0.026138365 1.2703538e-38
0.090550721 0.064268097 0.02751869 1.435661e-38
0.16130984 0.012920197 0.068964839 6.1659403e-39
0.1576616 0.013189457 0.068316042 6.5354346e-39
0.15330131 0.013138633 0.06859988 7.6392767e-39
0.14972119 0.013358489 0.068137705 8.3772018e-39
0.14809665 0.015544411 0.066949666 9.0254327e-39
0.14521606 0.01418132 0.06762439 8.1938798e-39
0.14574061 0.016130336 0.065127075 8.4701135e-39
0.14171311 0.017142039 0.065403402 8.010929e-39
0.14205667 0.019896496 0.062809348 9.3920516e-39
0.13735537 0.017377462 0.065438747 6.9046011e-39
0.13798526 0.019972395 0.062550962 8.1942441e-39
0.13413526 0.017559793 0.065381885 6.1677563e-39
0.13357708 0.02021616 0.06281966 7.6389095e-39
0.12793002 0.0018035471 0.065998137 5.7150627e-39
0.12826243 0.0048268363 0.06573391 9.4903975e-39
0.12961718 0.020552885 0.062822938 6.9946093e-39
0.13024962 0.023138903 0.060049772 8.1928022e-39
0.1253978 0.0010832921 0.065134048 3.0413922e-39
0.12543683 0.0042735487 0.065312207 1.0321239e-38
0.12593547 0.0071321577 0.065093696 1.2708544e-38
0.12555102 0.020493086 0.062477827 6.9939059e-39
0.12562199 0.023056354 0.059271634 1.0124596e-38
0.12162715 0.0010083392 0.063650966 1.839996e-39
0.12147148 0.00398729 0.064668357 1.0049692e-38
0.12261122 0.007072866 0.064534724 1.436846e-38
0.12153965 0.020425841 0.061916173 6.6294421e-39
0.12222964 0.023009416 0.059039772 1.086324e-38
0.11737993 0.00094170868 0.063955784 1.1042358e-39
0.11729243 0.0042959005 0.063924968 1.134511e-38
0.11729243 0.0083190426 0.063498199 1.3367614e-38
0.11777943 0.020837691 0.062082946 6.996431e-39
0.11755571 0.02395986 0.060135365 1.0861791e-38
0.11373129 0.0010076314 0.06305629 8.2982933e-40
0.11330336 0.0042247474 0.063254237 1.2453994e-38
0.11333314 0.0082464144 0.062719285 1.41963e-38
0.11463305 0.021682072 0.061628342 8.1070581e-39
0.11339337 0.02432723 0.060797036 1.2331498e-38
0.11306123 0.026832715 0.056735218 1.592105e-38
0.10940552 0.0007994473 0.062614799 1.8392743e-39
0.11020072 0.0072985142 0.062400579 1.5852592e-38
0.10941763 0.024422083 0.060068488 1.657573e-38
0.11041686 0.026785553 0.056290627 1.8967808e-38
0.10912627 0.1354011 0.046384633 7.457035e-39
0.10940227 0.13867588 0.04506439 9.750742e-39
0.1055911 0.00060044974 0.062327266 5.7910677e-39
0.10632244 0.0037649646 0.062115967 1.4655491e-38
0.10566695 0.024344541 0.059183955 1.777502e-38
0.10645029 0.026714802 0.055623651 1.9612463e-38
0.1063571 0.1353064 0.045107961 9.6625246e-39
0.10557416 0.13934954 0.046699047 1.2338744e-38
0.10610503 0.14307143 0.045844018 1.9436705e-38
0.10200094 0 0.061780512 7.4516736e-39
0.10147955 0.024777815 0.058553398 1.740588e-38
0.10248375 0.026644047 0.054956675 1.9246564e-38
0.10190931 0.13504596 0.045399129 1.2706413e-38
0.10266577 0.13948072 0.047097147 1.5381567e-38
0.097346991 0.024726357 0.058366179 1.4643255e-38
0.098076746 0.027557928 0.05498451 1.8691599e-38
0.09811306 0.13162588 0.043331683 1.3165961e-38
0.097914308 0.13493213 0.045369327 1.4642515e-38
0.097346991 0.1380448 0.046344995 1.5748172e-38
0.093953669 0.027920425 0.055410504 1.8045151e-38
0.094273567 0.13074847 0.04289937 1.4640367e-38
0.093506992 0.13452473 0.045555532 1.5377206e-38
0.089571357 0.027907465 0.056026638 1.6020813e-38
0.089618251 0.030467026 0.053383291 1.8686571e-38
0.090711623 0.13046925 0.042068362 1.565525e-38
0.089817047 0.13430503 0.044849396 1.7862916e-38
0.08471489 0.025171548 0.05617094 8.8270383e-39
0.085689396 0.027821284 0.05503571 1.4732959e-38
0.085976139 0.030735429 0.052735567 1.8782359e-38
0.086617544 0.1303717 0.041255116 1.6758724e-38
0.085777968 0.13431258 0.042733967 1.8692314e-38
0.082720339 0.025135968 0.055835605 9.1054132e-39
0.081565678 0.027770016 0.054793179 1.2149678e-38
0.082388416 0.030996121 0.051927924 1.7400164e-38
0.082650989 0.12763403 0.040871084 1.8030388e-38
0.08251074 0.13038535 0.041008532 1.611121e-38
0.082124591 0.13328837 0.041881502 1.8047289e-38
0.078394294 0.028618202 0.05439055 1.1691605e-38
0.077996343 0.031460464 0.051939249 1.5741734e-38
0.078684449 0.034220345 0.050106168 1.7493408e-38
0.078576893 0.12762479 0.040519238 2.1082216e-38
0.078113228 0.13056618 0.041601479 1.739582e-38
0.077507824 0.13360181 0.04310292 1.7031701e-38
0.073788613 0.03203341 0.053002477 1.5009164e-38
0.074126333 0.034730174 0.050296843 1.6848784e-38
0.07431227 0.13066025 0.0409168 1.9238261e-38
0.073412448 0.13359474 0.042747319 1.7032431e-38
0.070088208 0.032956928 0.052857935 1.4272324e-38
0.070087343 0.034850158 0.050617218 1.6111924e-38
0.067428827 0.032909494 0.052410781 1.1503623e-38
0.065964282 0.035470676 0.050287485 1.3898501e-38
0.065462604 0.037984911 0.047458589 1.5278562e-38
0.062395468 0.035897542 0.050388098 1.3249913e-38
0.062481686 0.03891167 0.047290444 1.417689e-38
0.058785796 0.036778461 0.050530732 1.4640764e-38
0.058410108 0.039398789 0.049338996 1.4449472e-38
0.058346212 0.042226315 0.046308517 1.49112e-38
0.057756215 0.13046807 0.039542615 1.8509351e-38
0.058785796 0.13400435 0.040216744 1.8325694e-38
0.055129111 0.040401116 0.049524665 1.5372871e-38
0.054795772 0.042664625 0.046168208 1.4912285e-38
0.055546224 0.12715054 0.036313474 1.4088274e-38
0.054737478 0.13012826 0.037559807 1.4734702e-38
0.051094145 0.04302118 0.046666682 1.3531179e-38
0.050357163 0.04663052 0.044312894 1.3161655e-38
0.050780654 0.13081747 0.036134005 1.2798263e-38
0.049896359 0.13258155 0.035796463 1.362837e-38
0.047825664 0.044157926 0.047544241 1.2976195e-38
0.046797276 0.047451571 0.045932114 1.2883989e-38
0.045868486 0.050656855 0.043037474 1.2699591e-38
0.046586215 0.12718105 0.035806537 1.3074476e-38
0.046751261 0.13002235 0.03553313 1.3533663e-38
0.04688248 0.1327257 0.036288619 1.280043e-38
0.043838471 0.048108049 0.046447217 1.3344253e-38
0.04277873 0.050960332 0.042791545 1.2885063e-38
0.041663289 0.053562038 0.041759312 1.371339e-38
0.038363099 0.051124498 0.045026243 1.2516646e-38
0.0391711 0.054670896 0.042237759 1.3160582e-38
0.038137436 0.057944056 0.040694952 1.3159888e-38
0.035864651 0.056008324 0.044253409 1.2518818e-38
0.035076231 0.058933377 0.041769207 1.2516661e-38
0.034619659 0.062594131 0.039749205 1.2703901e-38
0.033730179 0.065421768 0.039152265 1.2613124e-38
0.034949005 0.11914025 0.035700619 1.4270514e-38
0.034219325 0.12115265 0.036722898 1.4270878e-38
0.031386912 0.060045972 0.042893648 1.1599709e-38
0.031359524 0.062811956 0.040045857 1.1599357e-38
0.030891001 0.066089779 0.039108574 1.1325988e-38
0.030424714 0.069363222 0.038172126 1.1320625e-38
0.030094177 0.073024362 0.037727535 1.2241882e-38
0.029763639 0.076685511 0.037282944 1.353045e-38
0.032299012 0.11909298 0.035255015 1.3812041e-38
0.032576442 0.12061605 0.036160529 1.3994998e-38
0.027090281 0.062978595 0.041795254 9.940915e-39
0.026601255 0.066273779 0.04090929 1.0033824e-38
0.027255982 0.069451243 0.038983762 1.0676326e-38
0.026939809 0.073568389 0.038025737 1.1596497e-38
0.026987314 0.077342808 0.037081003 1.2794666e-38
0.025797069 0.08061517 0.036191583 1.3163086e-38
0.025797069 0.10928479 0.033150256 8.3768445e-39
0.025797069 0.11261846 0.032796621 1.0223219e-38
0.023770452 0.066550948 0.041418493 9.5732031e-39
0.023604244 0.069774792 0.040174007 1.012459e-38
0.023015976 0.073350593 0.039257646 1.0859639e-38
0.023415148 0.077359259 0.037151814 1.159722e-38
0.023188233 0.081533805 0.036524653 1.2795042e-38
0.023183525 0.085001044 0.036046803 1.3071263e-38
0.022303373 0.089329869 0.035488963 1.2149681e-38
0.022198796 0.09300907 0.034672916 1.1319186e-38
0.021830529 0.095879324 0.033897877 1.0029879e-38
0.022491604 0.10255846 0.033301711 7.3626519e-39
0.022837102 0.10545874 0.033435225 5.8918687e-39
0.023245037 0.10916686 0.033457279 6.9960653e-39
0.023546785 0.11314823 0.033377588 1.0871806e-38
0.020224601 0.070957847 0.040347993 9.2019262e-39
0.019161701 0.073759504 0.039615154 9.6621743e-39
0.019253254 0.077538662 0.038578212 1.0768166e-38
0.019132257 0.081373416 0.038037479 1.178234e-38
0.019208252 0.085588656 0.037829816 1.2425552e-38
0.018687844 0.089646794 0.037667036 1.1962064e-38
0.018634349 0.093584307 0.036657453 1.1046192e-38
0.01882574 0.097291119 0.034143627 9.3855762e-39
0.018915355 0.1012641 0.033510745 7.5441663e-39
0.018927664 0.10522307 0.034015596 6.5332794e-39
0.018980592 0.10989031 0.035368919 7.4544762e-39
0.020626068 0.11236797 0.035003483 9.1193954e-39
0.016235501 0.074909829 0.039250433 8.8341989e-39
0.015703619 0.077850647 0.038848042 9.6628946e-39
0.01499629 0.081564978 0.038107157 1.1046539e-38
0.01495102 0.085600458 0.037784636 1.2151103e-38
0.01512289 0.089456953 0.037390649 1.1874858e-38
0.015087366 0.093599834 0.036619246 1.0678469e-38
0.014718533 0.097594172 0.034692049 9.2976531e-39
0.014871538 0.10144845 0.033398569 7.9151139e-39
0.015146136 0.10546903 0.03412354 7.5470418e-39
0.011249155 0.0895724 0.036847115 1.0581573e-38
0.011719465 0.093555644 0.036164582 9.573168e-39
0.14060244 0.067399763 0.014449656 1.6018984e-38
0.16733202 0.05147174 0.027030349 2.0442603e-38
0.091618568 0.077224456 0.028059721 1.4177951e-38
0.082650989 0.12763403 0.040871084 1.8030388e-38
0.14075866 0.013218235 0.069882572 6.8148858e-39
0.14009909 0.015489746 0.068655312 7.3659212e-39
0.13786457 0.014132481 0.069439173 5.7117948e-39
0.13731408 0.015454721 0.068695307 6.1670403e-39
0.13118792 0.0012194589 0.069673777 7.0969027e-39
0.13118792 0.0039129183 0.069388032 8.4751484e-39
0.13231082 0.016710788 0.067711353 4.9727977e-39
0.12893319 0.0010390952 0.068697572 5.803294e-39
0.12941745 0.0042800605 0.068640053 8.3836969e-39
0.12776464 0.0085455552 0.067294598 5.2486447e-39
0.12718193 0.011921842 0.067857265 1.8439126e-40
0.12853596 0.016803749 0.066804647 3.5905807e-39
0.12343094 0.0057785884 0.066851258 1.3083184e-38
0.12457389 0.0088728741 0.066717386 7.645008e-39
0.12473819 0.012163453 0.067270339 1.1027462e-39
0.12468001 0.016569313 0.066258848 2.299151e-39
0.12009731 0.0057191253 0.066290736 1.3548772e-38
0.12059733 0.0085858107 0.06607163 1.13339e-38
0.12056279 0.012471873 0.066446662 1.6534019e-39
0.12067777 0.016497925 0.065585911 1.4708435e-39
0.11684084 0.01201218 0.065506518 2.4799185e-39
0.11713842 0.01698206 0.06520474 1.102756e-39
0.11578594 0.01955051 0.064430296 4.3227409e-39
0.11142986 0.00018517673 0.065403998 2.0279395e-39
0.112868 0.011522386 0.065057755 3.490109e-39
0.11268643 0.020390119 0.063765645 6.2567038e-39
0.10838562 0.0084771737 0.06441462 1.2990166e-38
0.10853294 0.021009821 0.063552082 9.7540168e-39
0.10876295 0.022999797 0.062530279 1.5012354e-38
0.10342914 0.0013872907 0.063916028 8.74709e-39
0.10379261 0.0043609142 0.064274311 1.6768418e-38
0.10521883 0.0074853823 0.064338267 1.4281276e-38
0.10481514 0.021286659 0.063060582 1.131885e-38
0.10314599 0.022940297 0.062601328 1.5201094e-38
0.10342914 0.14461224 0.048722327 2.0726372e-38
0.10076223 0.00089144707 0.063515127 9.7666117e-39
0.10114297 0.0040503591 0.064264715 1.308778e-38
0.10114297 0.021557841 0.062407434 1.0489462e-38
0.10076223 0.022857081 0.061184943 1.2434884e-38
0.10042888 0.13951559 0.048752844 1.6393548e-38
0.10190567 0.14405404 0.049202383 1.989804e-38
0.098694861 0.0089447126 0.06332922 1.9292755e-39
0.09747082 0.021155655 0.061825693 9.3855846e-39
0.096761867 0.022785723 0.060512304 1.0305403e-38
0.095428422 0.13707294 0.048161685 1.556339e-38
0.0980272 0.14023891 0.049287677 1.6761622e-38
0.09513399 0.0012497157 0.063539982 9.8461788e-39
0.094002619 0.020247228 0.061204791 8.6455071e-39
0.093378544 0.024077002 0.059969962 1.1506112e-38
0.093428239 0.13703725 0.047825396 1.5559076e-38
0.093131006 0.13858037 0.048631012 1.5931472e-38
0.091127992 0.021379203 0.060723424 8.0944436e-39
0.089960396 0.024027545 0.059677303 9.7533106e-39
0.090094596 0.13697778 0.047264814 1.8049068e-38
0.089792669 0.13852082 0.048069715 1.8324218e-38
0.086107612 0.023793232 0.059103668 9.2904883e-39
0.086607665 0.13634402 0.047249019 1.9428433e-38
0.082760617 0.023880824 0.058015406 9.6589037e-39
0.081858993 0.13630927 0.04670018 1.9338028e-38
0.077097654 0.026933212 0.057068586 9.4724007e-39
0.077763081 0.13599126 0.045476556 1.8690523e-38
0.074766457 0.028702091 0.056824505 1.0952584e-38
0.072759718 0.03042661 0.055620492 1.4176872e-38
0.073984712 0.13608524 0.044960141 1.7861477e-38
0.069983408 0.031290989 0.055396616 1.3994279e-38
0.070227087 0.13589682 0.044409215 1.8046575e-38
0.065507293 0.03201874 0.054983199 1.1135546e-38
0.061863899 0.032959145 0.054178953 1.0858917e-38
0.061425388 0.034258939 0.053286672 1.214715e-38
0.060415387 0.13395663 0.043558598 2.0258936e-38
0.059080064 0.032928113 0.054048896 1.1231652e-38
0.057918236 0.035346251 0.05308485 1.408399e-38
0.057647273 0.13415761 0.042046726 1.795441e-38
0.055074066 0.036896843 0.052946746 1.4089393e-38
0.053683251 0.038718641 0.051905036 1.3810972e-38
0.053915083 0.13441508 0.041894674 1.5466168e-38
0.05086118 0.040368166 0.05118221 1.3347847e-38
0.049792141 0.13485643 0.04148674 1.4457077e-38
0.045726717 0.043463763 0.050660729 1.224222e-38
0.044757217 0.046065137 0.049199998 1.2517006e-38
0.047062069 0.13573854 0.041099012 1.4091177e-38
0.041676164 0.047115959 0.048972547 1.2334801e-38
0.038729429 0.04825075 0.048623025 1.2334403e-38
0.034566849 0.05466786 0.047064483 1.2053165e-38
0.035044104 0.12003677 0.040721178 1.3348978e-38
0.033899665 0.12295465 0.039707005 1.4456354e-38
0.03275615 0.12519634 0.038764894 1.3627276e-38
0.030391097 0.12284386 0.039224207 1.3994635e-38
0.022037029 0.064029902 0.044246793 8.9278267e-39
0.021066368 0.066297755 0.04336524 9.0196818e-39
0.020755053 0.069171615 0.042667508 9.201213e-39
0.018018633 0.06687396 0.043465793 7.6374774e-39
0.017719567 0.069675505 0.042607784 7.9140587e-39
0.016754687 0.07246235 0.041638196 8.1874044e-39
0.014680326 0.070181236 0.042547345 6.9002347e-39
0.014539391 0.073521227 0.041353106 7.6353012e-39
0.01308772 0.077440068 0.040486634 9.0203852e-39
0.012754351 0.09121868 0.038968265 1.123163e-38
0.01200965 0.074173786 0.041669667 6.7133393e-39
0.010674328 0.078190155 0.041016579 7.6378277e-39
0.010685056 0.085824043 0.039358616 1.1323443e-38
0.011420906 0.089850061 0.038886726 1.0957184e-38
0.094672322 0.081045806 0.025533199 1.1691926e-38
0.15685372 0.01804775 0.057974279 7.7310925e-39
0.12333548 0.013928194 0.069030106 6.4320861e-40
0.11530095 0.013784878 0.067679167 4.5953761e-40
0.11530095 0.015810657 0.067464232 9.1908364e-40
0.1126228 0.013737109 0.067228854 2.7622535e-40
0.1126228 0.016438141 0.066942275 1.470468e-39
0.10893634 0.012506325 0.067369998 1.5615636e-39
0.10927081 0.016786519 0.067063928 2.2051561e-39
0.10927507 0.019079462 0.066092849 5.1567924e-39
0.10525781 0.0095541812 0.066420257 7.80822e-39
0.10464317 0.011255484 0.067155123 3.0309315e-39
0.10531364 0.017353293 0.066622257 3.6791932e-39
0.10492304 0.019339465 0.06532526 6.9906548e-39
0.10120907 0.0081338659 0.065995812 7.0900251e-39
0.10114616 0.010839239 0.065924704 1.1023889e-39
0.1009555 0.017613664 0.065853655 5.6152678e-39
0.10109803 0.019626364 0.065154374 7.6356865e-39
0.099901468 0.14383514 0.051264584 1.9252332e-38
0.099901468 0.14586091 0.05104965 2.1096575e-38
0.096838444 0.00076446682 0.066329062 9.7661927e-39
0.097190768 0.0040099993 0.065750062 8.3815122e-39
0.096896946 0.0072477981 0.065447211 1.7452682e-39
0.096722931 0.016990576 0.064996064 7.9115434e-39
0.097433344 0.019415438 0.064247668 7.9097847e-39
0.095884204 0.1417377 0.050803959 1.7771465e-38
0.098273575 0.14334011 0.052060187 1.8607705e-38
0.093373418 0.0037713125 0.065012872 4.4156582e-39
0.094250679 0.0066747665 0.065873921 2.0207551e-39
0.094000608 0.01701672 0.06405437 8.9213807e-39
0.09186694 0.018768948 0.063165724 8.8309857e-39
0.093540803 0.14000775 0.050589025 1.6390678e-38
0.093580201 0.14190398 0.05141443 1.7772887e-38
0.090527847 0.0011883378 0.064803064 7.6457689e-39
0.090527847 0.0025388598 0.064659774 7.2780443e-39
0.0893116 0.020085551 0.062931538 8.0966521e-39
0.089188755 0.14026777 0.049821436 1.8046921e-38
0.088216335 0.1418083 0.050512552 1.8229167e-38
0.085069299 0.13958751 0.049533069 2.0074867e-38
0.079815149 0.025306564 0.060422957 8.7395048e-39
0.079815149 0.13739951 0.04853183 1.9521014e-38
0.081589341 0.13961057 0.049363911 2.0164183e-38
0.078159109 0.025321502 0.06115967 8.3732334e-39
0.078476071 0.13737564 0.048306644 1.9246221e-38
0.076031089 0.13926907 0.048369944 1.9153289e-38
0.072118223 0.028336566 0.059132695 1.0028464e-38
0.072591558 0.13932502 0.04791522 1.9149701e-38
0.068881765 0.029196523 0.058831096 1.1778726e-38
0.068432927 0.030505605 0.057936013 1.3715537e-38
0.067763373 0.13718455 0.046505392 1.767851e-38
0.068882704 0.13936695 0.047144055 1.8505766e-38
0.066090405 0.029163461 0.058699965 1.1405696e-38
0.065586865 0.030480862 0.057964623 1.1686218e-38
0.065419972 0.13612986 0.046218812 1.8229874e-38
0.064749449 0.1377833 0.046949327 1.8231681e-38
0.060953498 0.031740692 0.056873143 1.0859619e-38
0.061067939 0.13605224 0.045486987 2.0075593e-38
0.060726553 0.13726072 0.046320617 1.9704285e-38
0.056381136 0.03299167 0.055622995 1.1227701e-38
0.055711597 0.034330241 0.055367172 1.270285e-38
0.05705069 0.13631819 0.044775724 1.7679601e-38
0.055711597 0.13832009 0.044335663 1.5838613e-38
0.053351253 0.032993462 0.056127489 1.0489054e-38
0.053427994 0.035393395 0.055274069 1.2702122e-38
0.053033412 0.13692181 0.04402858 1.5562322e-38
0.053033412 0.13894759 0.043813705 1.5753253e-38
0.051339805 0.036338612 0.055430591 1.196528e-38
0.048897356 0.039631899 0.053986013 1.1960971e-38
0.050355256 0.13687404 0.043578267 1.5382974e-38
0.049408466 0.13855882 0.043646574 1.5847605e-38
0.046422899 0.040082749 0.054197431 1.0857874e-38
0.044329345 0.042905577 0.052522063 1.196599e-38
0.044634968 0.13562128 0.043758392 1.2619622e-38
0.045975953 0.13767381 0.043768644 1.3457681e-38
0.041913688 0.043572605 0.052550495 1.0954355e-38
0.043294013 0.13559736 0.043532908 1.1235272e-38
0.043294013 0.13694976 0.04338944 9.8397973e-39
0.038693488 0.044209279 0.052190304 9.6593157e-39
0.037874877 0.046523057 0.051295757 1.0217865e-38
0.03524822 0.048223287 0.051433682 1.040044e-38
0.033907235 0.052256603 0.050777793 1.1596479e-38
0.032947123 0.054181948 0.049390376 1.1683664e-38
0.034863412 0.12347227 0.04297775 1.4915177e-38
0.032566279 0.12593912 0.042733312 1.3899576e-38
0.030746162 0.056888685 0.04923898 1.0952577e-38
0.028929859 0.05816184 0.048285127 1.0309002e-38
0.025991529 0.059972595 0.048273265 9.6646967e-39
0.021366 0.062127225 0.047088265 8.3743054e-39
0.017708451 0.0639636 0.046373487 7.0846582e-39
0.016878068 0.066049971 0.04539907 6.8091559e-39
0.013996333 0.064022489 0.045634091 5.6070029e-39
0.013850272 0.066556804 0.045034409 5.8875373e-39
0.012860805 0.069354609 0.044365406 5.4297751e-39
0.010543078 0.066690095 0.045018852 7.2611377e-39
0.010645807 0.070044793 0.044425488 5.6073533e-39
0.010182619 0.073358394 0.043485284 5.6981112e-39
0.17857707 0.076552302 0.017604232 1.3163799e-38
0.14415278 0.11636937 0.017361939 1.8693742e-38
0.10468853 0.013135407 0.069003165 6.4321281e-40
0.10415065 0.015566971 0.068653762 2.2994957e-39
0.095965669 0.14461567 0.053980172 1.8972162e-38
0.095704272 0.14797233 0.05623132 2.0723498e-38
0.091743201 0.14430061 0.054198861 1.8139863e-38
0.092440933 0.1480276 0.055670559 1.9157249e-38
0.092778504 0.15109785 0.055402279 1.8244277e-38
0.087939739 0.14370613 0.054598689 1.7951146e-38
0.084124982 0.14280163 0.053281069 1.9892288e-38
0.078554794 0.02410391 0.064415753 9.383784e-39
0.078712344 0.14012197 0.051625133 1.9888695e-38
0.080263346 0.14249595 0.053166866 1.9517022e-38
0.076204181 0.024528235 0.064310968 8.9224485e-39
0.076864988 0.14034931 0.051456869 1.9613899e-38
