# .PCD v0.7 - Point Cloud Data file format
VERSION 0.7
FIELDS x y z rgb
SIZE 4 4 4 4
TYPE F F F F
COUNT 1 1 1 1
WIDTH 990
HEIGHT 1
VIEWPOINT 0 0 0 0 1 0 0
POINTS 990
DATA ascii
0.17121446 0.012043267 0.025547862 1.4547458e-38
0.17162961 0.015267685 0.025054693 1.5188521e-38
0.16556144 0.11765876 0.04578203 5.1553799e-39
0.16559264 0.1191403 0.047453046 6.1627131e-39
0.16755712 0.013063177 0.023901761 1.4548201e-38
0.1680001 0.015653163 0.023304284 1.5653083e-38
0.16145554 0.11440942 0.043889642 5.6142196e-39
0.16462463 0.016147956 0.022097409 1.4914099e-38
0.16163009 0.017034039 0.021716356 1.5466535e-38
0.16127062 0.019620448 0.020924866 1.5283214e-38
0.15422365 0.11036611 0.039246202 2.1804944e-38
0.15818429 0.020742252 0.019358814 1.4637853e-38
0.15679824 0.023721993 0.018940568 1.5096668e-38
0.15321323 0.11408554 0.03809756 2.1464583e-38
0.15109599 0.11749303 0.038670778 2.3043503e-38
0.15381381 0.024555236 0.018256545 1.4727889e-38
0.1540615 0.026969418 0.01719147 1.509417e-38
0.14971244 0.11909875 0.036844015 2.3140028e-38
0.14758921 0.12074438 0.037751019 2.3141455e-38
0.15126836 0.025146142 0.017479539 1.4542073e-38
0.15059465 0.028152943 0.017074823 1.4635702e-38
0.14950573 0.0313223 0.016402662 1.4636076e-38
0.14508152 0.08814165 0.027421355 6.1612865e-39
0.144977 0.090015307 0.027799547 6.4353595e-39
0.14582738 0.12272187 0.037171066 2.3142161e-38
0.14397657 0.12487525 0.035690248 2.341768e-38
0.14618444 0.033118501 0.015745342 1.4450613e-38
0.14602622 0.036039904 0.014954031 1.435841e-38
0.14225656 0.088031515 0.026906908 5.5162619e-39
0.14252964 0.090693459 0.026903331 6.7148036e-39
0.14296752 0.094022125 0.026363432 8.2785364e-39
0.14146698 0.12765917 0.034115195 2.3137858e-38
0.14005876 0.13032225 0.034548402 2.3043501e-38
0.14278337 0.037775785 0.014526606 1.4266564e-38
0.14217782 0.040775567 0.013982743 1.4265852e-38
0.13864642 0.084192514 0.023470044 5.3369041e-39
0.13886508 0.087147415 0.024688959 5.7946452e-39
0.13921851 0.09089534 0.024988115 6.9013543e-39
0.13977206 0.094295442 0.0247311 8.3714383e-39
0.13979864 0.041040197 0.01362285 1.4173652e-38
0.1383509 0.045096844 0.012926757 1.3897034e-38
0.13807839 0.047831982 0.012616962 1.3899255e-38
0.13632548 0.083600104 0.021559834 5.5219946e-39
0.13569754 0.087184712 0.022820115 7.4555734e-39
0.13583738 0.091070548 0.023156703 8.4675618e-39
0.13625062 0.094953373 0.022897124 1.0399004e-38
0.1356543 0.045745283 0.012666583 1.3253482e-38
0.13469857 0.05206871 0.012003839 1.2980146e-38
0.13298827 0.083829522 0.020256698 7.5470446e-39
0.13297045 0.086727634 0.02109617 8.5593847e-39
0.13247955 0.091299176 0.021879017 9.9401793e-39
0.13260096 0.095429584 0.021497846 1.1872688e-38
0.13188761 0.09979403 0.021151185 1.3160222e-38
0.13230109 0.049366921 0.011924803 1.3253499e-38
0.13117051 0.052613914 0.011170268 1.2517002e-38
0.13041481 0.055424735 0.011043519 1.2793957e-38
0.13029641 0.077144101 0.014888465 9.0182132e-39
0.12998298 0.080283001 0.016889393 9.8472424e-39
0.12879533 0.082618713 0.017656267 1.0675589e-38
0.12911716 0.096294776 0.020532012 1.2885051e-38
0.12914658 0.10007516 0.020270169 1.3344258e-38
0.12874255 0.053947419 0.010891289 1.3253122e-38
0.12894881 0.057069272 0.010560811 1.3438232e-38
0.1279299 0.060555682 0.010775626 1.3159506e-38
0.12772095 0.064302981 0.0115318 1.2329364e-38
0.12793481 0.06891346 0.012741387 1.067057e-38
0.12716115 0.073017299 0.013378352 1.0307174e-38
0.12736189 0.07667315 0.014619648 1.1139419e-38
0.1270189 0.079921901 0.015969932 1.1414928e-38
0.12713814 0.082719743 0.016697705 1.1877364e-38
0.12630108 0.097731397 0.01972717 1.3068026e-38
0.12550813 0.10056092 0.019328713 1.3160579e-38
0.12562066 0.10390514 0.01840198 1.352792e-38
0.12256759 0.13984255 0.026218474 1.546404e-38
0.12211287 0.14255519 0.027178943 1.602043e-38
0.12210494 0.10190326 0.017428994 1.2701416e-38
0.12178385 0.10428524 0.017572284 1.3159137e-38
0.12064514 0.10843131 0.0171085 1.3434999e-38
0.11960295 0.14326534 0.025027931 1.5193909e-38
0.11904728 0.10440727 0.016995311 1.3712658e-38
0.1181404 0.10825324 0.017123759 1.3345322e-38
0.1167641 0.1118405 0.016794741 1.3346034e-38
0.11693609 0.1207865 0.017811656 1.2425158e-38
0.1161744 0.12351541 0.018594265 1.1679687e-38
0.11575878 0.14356405 0.02317512 1.3718063e-38
0.11203206 0.11667883 0.015718997 1.2698156e-38
0.11408019 0.12056065 0.015472919 1.1868767e-38
0.11425555 0.1235095 0.016269445 1.1406696e-38
0.11302847 0.1406856 0.019773781 1.1969224e-38
0.11219409 0.14323367 0.021374106 1.2796482e-38
0.11089233 0.11737168 0.015206158 1.2696703e-38
0.11032614 0.12043348 0.014996678 1.2144978e-38
0.11062515 0.1240342 0.014504194 1.1685767e-38
0.10953325 0.12663858 0.014205039 1.1505703e-38
0.10923487 0.13691154 0.016440868 1.1227359e-38
0.1092208 0.14033043 0.018125057 1.2426621e-38
0.10932821 0.14288509 0.019875765 1.2796464e-38
0.10627365 0.12393808 0.013747036 1.1964198e-38
0.10694498 0.12856661 0.013617843 1.1137638e-38
0.1068325 0.13296975 0.014354706 1.0583773e-38
0.10633045 0.13643557 0.015645146 1.1871644e-38
0.1062316 0.13983758 0.017423272 1.3342091e-38
0.10384506 0.12528168 0.012886524 1.1689031e-38
0.10347196 0.1287847 0.012979805 1.0953944e-38
0.10309955 0.13288084 0.013834029 1.2426583e-38
0.20430326 0.081255794 0.031852543 1.4547474e-38
0.20294988 0.06515637 0.029926658 1.2059984e-38
0.18883008 0.056626394 0.020480335 1.297907e-38
0.17089251 0.094692707 0.019794524 1.6573263e-38
0.1748023 0.045984402 0.01379022 1.6107899e-38
0.18292451 0.09486635 0.031044483 1.4550346e-38
0.1683678 0.078980148 0.018870771 1.9253405e-38
0.11689067 0.12379931 0.015194744 1.2423357e-38
0.19928056 0.11020091 0.068524957 2.3325854e-38
0.19708294 0.11187479 0.066192091 2.3325853e-38
0.19467765 0.11360231 0.06849283 2.3325854e-38
0.1935268 0.11638369 0.068701029 2.341769e-38
0.19410723 0.11580196 0.065350592 2.3325854e-38
0.19167951 0.11832774 0.066029429 2.3325853e-38
0.1894719 0.11983033 0.063549042 2.341769e-38
0.1871776 0.12118955 0.064287245 2.2491783e-38
0.1837979 0.12222014 0.063118875 1.8511929e-38
0.18094951 0.12402838 0.060669065 1.9530006e-38
0.17956179 0.12718317 0.062451184 2.155579e-38
0.17812794 0.1255163 0.058160126 2.1371712e-38
0.17831728 0.12706548 0.058636189 1.9431682e-38
0.17425543 0.12575245 0.055920064 1.7224745e-38
0.17418557 0.12700526 0.056172848 1.7959096e-38
0.17046598 0.12388584 0.054421306 1.2526033e-38
0.16734296 0.12117961 0.050748587 7.7314989e-39
0.16738769 0.12297101 0.053567767 9.0243761e-39
0.1710335 0.0083177239 0.027219951 1.2336938e-38
0.17024118 0.0098796934 0.026326478 1.3442559e-38
0.16420448 0.12015343 0.050623775 7.1779636e-39
0.16580468 0.0077088624 0.026744664 1.0768534e-38
0.16646171 0.010136396 0.025671244 1.2798611e-38
0.15972733 0.11572814 0.046436369 6.3514147e-39
0.16090274 0.11879092 0.04992801 7.3612619e-39
0.1626178 0.011627182 0.02399683 1.2612465e-38
0.16228652 0.014110416 0.022604764 1.3898883e-38
0.15765136 0.10974373 0.043108523 5.610942e-39
0.1569488 0.11269559 0.044439614 6.164134e-39
0.15627652 0.11630583 0.045811355 7.5413119e-39
0.15497532 0.11915234 0.046499312 9.8411271e-39
0.15838769 0.011610016 0.023264349 1.104871e-38
0.15898669 0.014819846 0.022594392 1.3718067e-38
0.15931079 0.018037602 0.021763206 1.4915504e-38
0.15468505 0.10984194 0.041768432 1.1494864e-38
0.15388966 0.11298987 0.04216826 1.3707595e-38
0.15314561 0.11657539 0.043623388 1.6294809e-38
0.15236825 0.11985597 0.044780314 1.9153586e-38
0.15614739 0.012060165 0.022042036 1.0035948e-38
0.15524918 0.014925107 0.021737874 1.2335859e-38
0.15558165 0.018707201 0.020658731 1.3625505e-38
0.15167561 0.11739033 0.040571511 2.258215e-38
0.14994296 0.12065758 0.042024851 2.2854063e-38
0.14813548 0.12452628 0.043707013 2.0811353e-38
0.1526027 0.016038746 0.020875335 1.1872718e-38
0.15209889 0.019250035 0.020540178 1.261458e-38
0.15301573 0.022167116 0.019001663 1.3995705e-38
0.14784235 0.12153625 0.039272964 2.2767643e-38
0.14486831 0.1292046 0.042869031 1.8686929e-38
0.14905804 0.020017296 0.019708574 1.2335493e-38
0.14837718 0.023570716 0.018953621 1.3623704e-38
0.14889872 0.02678819 0.017646492 1.4175444e-38
0.14374217 0.12607661 0.038699508 2.3036629e-38
0.14245728 0.12975 0.040381968 1.9053878e-38
0.14170131 0.13208517 0.041668296 1.5828508e-38
0.1454432 0.025254309 0.018795788 1.3349988e-38
0.14471513 0.028123885 0.018021703 1.3900662e-38
0.14550203 0.030705124 0.0173437 1.4359855e-38
0.14226097 0.086500272 0.027735949 6.0694328e-39
0.13988888 0.13046956 0.03823781 2.2105277e-38
0.13815707 0.1332092 0.039436102 1.886905e-38
0.14134282 0.029266775 0.017307639 1.3720234e-38
0.14126313 0.03214325 0.016749978 1.3899956e-38
0.14061409 0.036165297 0.015530914 1.435768e-38
0.14027905 0.085788712 0.026394069 5.7910313e-39
0.13646162 0.1311783 0.03479141 2.3417684e-38
0.13593689 0.13402477 0.036862075 2.2860855e-38
0.13371116 0.13633482 0.037929952 2.2948091e-38
0.13800865 0.029470086 0.015378952 1.353187e-38
0.13797173 0.032040983 0.015763342 1.3806664e-38
0.13734332 0.035811692 0.015683442 1.4173999e-38
0.13673532 0.040598124 0.014865816 1.4081088e-38
0.13429835 0.039729506 0.015589237 1.4080358e-38
0.13307416 0.044031054 0.014292479 1.3712305e-38
0.13287881 0.047117904 0.012925088 1.3621941e-38
0.13088784 0.082823709 0.020130813 8.8367086e-39
0.13127923 0.087669283 0.021500826 9.4809976e-39
0.13046867 0.090340719 0.021647751 1.0308969e-38
0.129273 0.047674119 0.014081001 1.3343895e-38
0.1287781 0.083933383 0.01914078 1.0677756e-38
0.12743676 0.086962402 0.020901978 1.1414609e-38
0.12751025 0.090835363 0.021327972 1.1319898e-38
0.12732017 0.094070315 0.02065748 1.2696734e-38
0.12446189 0.13905621 0.031505167 1.9423779e-38
0.12465781 0.14204733 0.032395601 1.7124646e-38
0.12273824 0.14501309 0.033068478 1.5838935e-38
0.12432647 0.058222622 0.012835473 1.352865e-38
0.12454253 0.060251355 0.012847185 1.3248827e-38
0.12376183 0.064411983 0.014349729 1.2328286e-38
0.12462372 0.068637714 0.013876587 1.1593951e-38
0.12463337 0.076337889 0.014900118 1.187448e-38
0.12485239 0.080319986 0.015965223 1.2518056e-38
0.1248517 0.083828151 0.017381668 1.2519154e-38
0.12368149 0.08700189 0.019475818 1.2241864e-38
0.12342945 0.091266781 0.020172298 1.233226e-38
0.12435845 0.095794722 0.019833863 1.2884711e-38
0.12337589 0.098888934 0.019451082 1.2976553e-38
0.1225121 0.13816679 0.028756917 1.7951541e-38
0.12284958 0.14293331 0.029483438 1.5741695e-38
0.12067083 0.14583382 0.030736864 1.5376517e-38
0.12194103 0.069328412 0.015215814 1.1873758e-38
0.12134209 0.072124064 0.015517354 1.1874848e-38
0.12133989 0.076072961 0.015426993 1.2517351e-38
0.12062749 0.079605818 0.016192079 1.3253121e-38
0.12034512 0.083350375 0.017035961 1.3162003e-38
0.11984721 0.087014169 0.018128455 1.2792521e-38
0.11992601 0.09153685 0.018644214 1.2608846e-38
0.12043723 0.096208498 0.018660784 1.2976894e-38
0.12112802 0.099650279 0.018297434 1.2884743e-38
0.11756513 0.14640611 0.028879642 1.4548519e-38
0.11640877 0.14867714 0.030572474 1.261568e-38
0.11804551 0.079599142 0.015318811 1.3897414e-38
0.11727929 0.083408296 0.015759349 1.3898459e-38
0.11664319 0.087366283 0.016311884 1.3527199e-38
0.11648506 0.091700658 0.016840756 1.3343893e-38
0.1166757 0.096257836 0.017233372 1.3253125e-38
0.1169017 0.10017683 0.017497122 1.343716e-38
0.11690035 0.10427809 0.016878247 1.343895e-38
0.11628312 0.10743715 0.017254353 1.306946e-38
0.11445746 0.14666104 0.026702106 1.454744e-38
0.11305711 0.14919505 0.028707385 1.5007007e-38
0.11365083 0.092199549 0.01567331 1.3619403e-38
0.11276075 0.096255243 0.015966296 1.3437143e-38
0.11298931 0.10017984 0.016232908 1.3989593e-38
0.11336461 0.1041469 0.016332805 1.3898147e-38
0.11300844 0.1078648 0.017258406 1.3438588e-38
0.11314151 0.11167757 0.017065704 1.2886856e-38
0.11313277 0.11449641 0.017044902 1.2883989e-38
0.11090291 0.14459819 0.022792816 1.3439719e-38
0.11076424 0.14677721 0.025199175 1.3715186e-38
0.11029619 0.14904986 0.027036607 1.1783037e-38
0.10955143 0.10087647 0.014984578 1.454134e-38
0.10915342 0.10405685 0.015396804 1.408073e-38
0.10889077 0.10756944 0.016461492 1.3529708e-38
0.10897398 0.11178654 0.016908109 1.2610994e-38
0.10910442 0.11560205 0.015933216 1.2700304e-38
0.10828972 0.1189536 0.015221 1.2420499e-38
0.10781455 0.1439541 0.020810902 1.3257451e-38
0.10747182 0.14635141 0.023147464 1.2142152e-38
0.10569793 0.11233282 0.015687466 1.297762e-38
0.10515851 0.11557007 0.01578933 1.2789274e-38
0.1054554 0.11999507 0.014378428 1.2238628e-38
0.10357696 0.13755342 0.016795754 1.3804836e-38
0.10372555 0.13990402 0.018226564 1.1502118e-38
0.10396066 0.14332816 0.020988524 1.0572665e-38
0.10439408 0.14564729 0.022738874 1.0298619e-38
0.10170984 0.11637868 0.014076173 1.2055661e-38
0.1015079 0.11977635 0.013502508 1.1319882e-38
0.10166344 0.12366357 0.012992263 1.1688669e-38
0.10102382 0.1279702 0.013031602 1.1691888e-38
0.100537 0.13274446 0.013864338 1.2519472e-38
0.10090169 0.13609825 0.016054034 1.1962013e-38
0.1009419 0.13946179 0.018528283 9.6553318e-39
0.098523736 0.11684625 0.012494951 1.1412784e-38
0.097422659 0.11976142 0.012395144 1.1412791e-38
0.097254336 0.1234675 0.012704521 1.2059238e-38
0.09755981 0.12773904 0.013804168 1.288827e-38
0.097399056 0.13246052 0.014507115 1.223643e-38
0.097217798 0.1361232 0.015852869 1.1032171e-38
0.097591072 0.1385372 0.017036438 1.0944657e-38
0.094613492 0.1224148 0.011484921 1.3070124e-38
0.20295864 0.028056771 0.020831168 9.1111529e-39
0.1904372 0.047408298 0.019241631 1.0493011e-38
0.1663447 0.1017224 0.019238174 1.4268367e-38
0.20242998 0.099161714 0.047400236 2.0632042e-38
0.11652088 0.1342213 0.015882254 1.2151095e-38
0.11305609 0.11861974 0.015596002 1.2237544e-38
0.18617088 0.12183745 0.06850177 2.2950964e-38
0.18224204 0.1233823 0.066768646 2.0907552e-38
0.1813153 0.1261766 0.067583919 2.2477032e-38
0.17903104 0.12727295 0.0662238 2.2390547e-38
0.17892534 0.12916899 0.066606462 2.2201853e-38
0.16919243 0.1251694 0.057525873 1.400439e-38
0.16714117 0.12630419 0.060608804 1.6120564e-38
0.16475648 0.12430468 0.056274593 1.0771762e-38
0.16372031 0.12661701 0.058773041 1.5843969e-38
0.16223881 0.12056936 0.05232358 7.9155006e-39
0.16169447 0.12338713 0.054540455 9.9445275e-39
0.16051543 0.1264413 0.057128489 1.5935827e-38
0.16469303 0.0053241402 0.02908361 8.9303994e-39
0.15855402 0.11702602 0.049307227 6.9024319e-39
0.15873969 0.11979181 0.050857425 8.0083941e-39
0.15790641 0.12344763 0.053198814 1.2247248e-38
0.15674311 0.12758821 0.055326343 1.80545e-38
0.16013041 0.0064644814 0.027832747 8.2785252e-39
0.1612587 0.0088444501 0.025502741 1.0038513e-38
0.15744099 0.11709389 0.048663378 6.9939185e-39
0.15578473 0.11988363 0.048863828 9.0221509e-39
0.15460533 0.12366766 0.051194847 1.2615331e-38
0.15371525 0.12789482 0.05294466 1.6021907e-38
0.15285641 0.13120571 0.053806245 1.8414673e-38
0.15715337 0.0071769357 0.026531875 8.0988353e-39
0.15896234 0.010240465 0.024469376 1.1044781e-38
0.1522215 0.12118015 0.046529174 1.7496571e-38
0.15135399 0.12383986 0.04850328 1.860225e-38
0.15055907 0.12815993 0.050740778 1.9339138e-38
0.15008125 0.13187927 0.051858127 1.961501e-38
0.14848685 0.13438424 0.052160323 2.0262505e-38
0.1535143 0.0078656375 0.025030732 7.9151797e-39
0.15345776 0.010627568 0.023669183 9.2037157e-39
0.148698 0.12490717 0.046671271 2.0533358e-38
0.14770606 0.12871796 0.047105372 1.8781298e-38
0.14678818 0.13229936 0.048785925 1.8597624e-38
0.14658058 0.13590325 0.050596416 1.9981644e-38
0.14588958 0.13869987 0.051337838 2.2379787e-38
0.1508165 0.0080961287 0.023287952 7.6371383e-39
0.14993486 0.010578379 0.023094237 8.8331535e-39
0.14963606 0.015045136 0.021933138 1.0677412e-38
0.14963642 0.018345162 0.020844817 1.2519146e-38
0.14564306 0.1297453 0.044641256 1.8228486e-38
0.14354044 0.1327295 0.045677006 1.7121771e-38
0.1430276 0.13607395 0.048135042 1.7584195e-38
0.14281636 0.13979991 0.049240768 1.9984496e-38
0.14757732 0.010622635 0.022554338 8.2814203e-39
0.1461044 0.015423387 0.021919131 9.7586831e-39
0.14564347 0.018793315 0.021293938 1.1416045e-38
0.14608651 0.022329614 0.019676268 1.2980826e-38
0.14036408 0.13362342 0.043608904 1.5464766e-38
0.13929623 0.13658449 0.045805931 1.5742771e-38
0.13886452 0.14025055 0.047187328 1.7494145e-38
0.13742632 0.14263928 0.04754281 1.8972177e-38
0.14252961 0.018921673 0.021214843 1.0769969e-38
0.14235818 0.022857085 0.02011025 1.2333335e-38
0.14253658 0.02631408 0.018507838 1.3256363e-38
0.13795844 0.13405004 0.041887701 1.4813583e-38
0.13656938 0.13690628 0.042657554 1.4175078e-38
0.13545972 0.14045815 0.044546962 1.4825152e-38
0.13462728 0.14280996 0.04592371 1.6480726e-38
0.13828868 0.023392692 0.019810319 1.2334401e-38
0.13939601 0.02697809 0.018157542 1.3071622e-38
0.13378695 0.1373786 0.040295541 1.9791759e-38
0.1324538 0.14075372 0.04217571 1.7583445e-38
0.13144219 0.14370212 0.043849945 1.9244079e-38
0.13801414 0.02784586 0.016186833 1.3349632e-38
0.13474545 0.031326443 0.016647935 1.3715549e-38
0.13536644 0.035543352 0.016425192 1.4083236e-38
0.13204071 0.13497072 0.037805498 2.3417672e-38
0.12973446 0.1372772 0.038956702 2.2755754e-38
0.12896252 0.14092138 0.040409148 2.219107e-38
0.1281198 0.14455833 0.041949689 2.1087967e-38
0.12657791 0.14709106 0.042157769 2.0625911e-38
0.13303095 0.031082436 0.015890598 1.3255656e-38
0.13236201 0.035472319 0.016660511 1.3806283e-38
0.13158613 0.039101586 0.01650244 1.4079988e-38
0.13167599 0.04204841 0.015765369 1.3895976e-38
0.12667984 0.13787176 0.037003279 1.9707211e-38
0.12617761 0.14127138 0.037786424 2.2009194e-38
0.12532917 0.14490332 0.039322376 2.0350029e-38
0.12455088 0.14727905 0.040605068 1.9890489e-38
0.1286689 0.041183934 0.01733768 1.3987808e-38
0.12722784 0.043037638 0.016918838 1.3620819e-38
0.12812603 0.046032891 0.01459685 1.3439695e-38
0.12518686 0.13852865 0.034578323 1.9057508e-38
0.12494087 0.14293967 0.035468519 1.8877786e-38
0.12333727 0.1455597 0.036022782 1.712644e-38
0.12133738 0.14880203 0.038662493 1.5928623e-38
0.1196481 0.15130393 0.039039433 1.4920203e-38
0.12510324 0.045186117 0.016163945 1.3527204e-38
0.12468711 0.047686309 0.015793025 1.3343143e-38
0.12249124 0.051170662 0.016614258 1.3437506e-38
0.12237313 0.054183632 0.016658843 1.3714453e-38
0.12283063 0.061427847 0.015073597 1.2789637e-38
0.12027788 0.14699203 0.03365624 1.4731855e-38
0.11862868 0.14909723 0.035544932 1.4087927e-38
0.11740887 0.15144046 0.037744105 1.4736524e-38
0.12057754 0.054594144 0.016876876 1.3806667e-38
0.11913985 0.060367286 0.017380595 1.306658e-38
0.11918148 0.063461259 0.016945958 1.269599e-38
0.12019521 0.067366958 0.015855074 1.2423695e-38
0.11922514 0.071381763 0.015274197 1.2791784e-38
0.11875361 0.074864537 0.015812695 1.3065869e-38
0.1154266 0.15003929 0.033359826 1.4638954e-38
0.11405003 0.15164526 0.035801172 1.5104572e-38
0.11582112 0.063854575 0.016232431 1.3254166e-38
0.11622137 0.067243293 0.015815914 1.3437485e-38
0.1154488 0.071431845 0.015567541 1.4354799e-38
0.11581591 0.075294971 0.015654892 1.4172196e-38
0.11540288 0.079211652 0.015863955 1.4449143e-38
0.11495775 0.08326003 0.015534401 1.3989576e-38
0.11481714 0.085780591 0.016043067 1.3804478e-38
0.11205077 0.15049325 0.031261981 1.5833539e-38
0.1118108 0.1517818 0.034505904 1.6294855e-38
0.11256528 0.06735447 0.014785647 1.4173274e-38
0.11210862 0.070985764 0.014689922 1.4449486e-38
0.11216778 0.075077176 0.015177786 1.4723905e-38
0.1117478 0.078900307 0.015770257 1.4633873e-38
0.11164695 0.083646089 0.015770853 1.3989221e-38
0.11218116 0.087908342 0.01550734 1.3803789e-38
0.11142254 0.09195362 0.015480638 1.3801988e-38
0.10755354 0.15012762 0.030407906 1.3433591e-38
0.10928705 0.071389169 0.013891637 1.4358385e-38
0.10882914 0.07523936 0.014020383 1.4909394e-38
0.10851353 0.078900307 0.014643639 1.4266177e-38
0.10810745 0.083523422 0.014546126 1.3896677e-38
0.10815284 0.088290036 0.014394999 1.4080021e-38
0.108015 0.092106298 0.015077919 1.4261862e-38
0.10824621 0.096048489 0.015350163 1.4449492e-38
0.1082845 0.09949261 0.015391111 1.4908681e-38
0.10746568 0.10820898 0.016952872 1.3438231e-38
0.10680375 0.11013336 0.017012477 1.3163803e-38
0.10536206 0.14777145 0.025788248 1.1121887e-38
0.10457096 0.14961427 0.02891463 1.2237584e-38
0.10601103 0.075697333 0.013198733 1.4172919e-38
0.10576364 0.080134466 0.014094174 1.3897041e-38
0.10409415 0.084122241 0.013645828 1.4447347e-38
0.10418293 0.088133961 0.013680547 1.4356236e-38
0.10370469 0.091969088 0.014203638 1.4449105e-38
0.10356712 0.09579134 0.014888018 1.4542426e-38
0.10365266 0.09968625 0.015326381 1.4542785e-38
0.10388726 0.10362616 0.015600204 1.4265835e-38
0.10427114 0.10760568 0.015708148 1.3622263e-38
0.10409027 0.11105241 0.015619874 1.3070539e-38
0.10325384 0.11411783 0.015843928 1.2789277e-38
0.10092807 0.14357518 0.022569776 9.0953701e-39
0.10109699 0.14648357 0.024708271 9.8394133e-39
0.10082665 0.14866123 0.027261972 1.1864469e-38
0.10212201 0.085410267 0.013174564 1.4173649e-38
0.10130888 0.087986723 0.013297737 1.4358042e-38
0.099828392 0.092094228 0.013088316 1.4542781e-38
0.099541277 0.095765561 0.013681531 1.472827e-38
0.099553972 0.099641189 0.014203966 1.4911923e-38
0.099642068 0.10353842 0.014644444 1.4818267e-38
0.099804878 0.10745379 0.015001655 1.3714809e-38
0.10041821 0.11150087 0.014866203 1.2609921e-38
0.10102773 0.11425355 0.014556319 1.2055673e-38
0.097928256 0.14012386 0.020376205 9.6542626e-39
0.097829938 0.14286548 0.022147834 9.8422804e-39
0.096947551 0.14626263 0.024102747 1.2237184e-38
0.098587424 0.14879775 0.025966704 1.2882917e-38
0.097219408 0.093289822 0.012119025 1.4635698e-38
0.097078025 0.095825329 0.012630731 1.4819381e-38
0.096301317 0.10022113 0.012965649 1.5003382e-38
0.095986724 0.1036455 0.013029873 1.5095207e-38
0.096076846 0.10753952 0.013470739 1.3346034e-38
0.096318275 0.11147529 0.013747603 1.214894e-38
0.097165257 0.11489336 0.012891531 1.1228061e-38
0.095732331 0.12964854 0.015033096 1.2428367e-38
0.095310628 0.13721029 0.016559064 1.251377e-38
0.094056547 0.13953555 0.019919753 1.2145347e-38
0.093653172 0.14283252 0.021344304 1.3253463e-38
0.09372586 0.1459356 0.022412717 1.0953275e-38
0.093224317 0.10490438 0.012478739 1.4172559e-38
0.093310565 0.10751022 0.012746572 1.3252412e-38
0.092818767 0.11164837 0.013110608 1.1963112e-38
0.092832088 0.1154943 0.012493223 1.1595401e-38
0.092877209 0.11928938 0.012432486 1.233116e-38
0.092089057 0.12354609 0.013812125 1.2977206e-38
0.092911184 0.12765624 0.014737666 1.2608125e-38
0.092408001 0.13195667 0.015807092 1.3063348e-38
0.091950476 0.13520284 0.017653704 1.3803409e-38
0.089264631 0.11588506 0.012710452 1.2425833e-38
0.089087844 0.11905444 0.01335007 1.3071206e-38
0.088946462 0.12158993 0.013861775 1.3990997e-38
0.2032147 0.034500346 0.021530688 9.7547413e-39
0.20279568 0.038304985 0.022386789 1.1045846e-38
0.20239469 0.0703464 0.02677542 1.3256725e-38
0.18769902 0.089269102 0.028108895 1.4270535e-38
0.17733321 0.061946467 0.021676064 1.6754762e-38
0.17958713 0.061253577 0.023040473 1.2060328e-38
0.2200768 0.047073603 0.032960355 7.8258035e-39
0.12067083 0.14583382 0.030736864 1.5376517e-38
0.16480017 0.12733378 0.063337088 1.6946337e-38
0.16197309 0.128001 0.061422646 1.8053396e-38
0.16039065 0.12922159 0.061562002 1.9709696e-38
0.15860075 0.12777221 0.058974624 1.8608727e-38
0.15784264 0.12969421 0.060162544 1.9800451e-38
0.15493381 0.13079894 0.057956517 1.823171e-38
0.15242136 0.13196434 0.056691587 1.7493793e-38
0.15124509 0.13425577 0.057125449 2.0258904e-38
0.15444511 0.0056183636 0.027822018 7.3616276e-39
0.14824325 0.13532722 0.055054128 2.1459635e-38
0.14733303 0.13773403 0.055228055 2.3030546e-38
0.15200067 0.005634889 0.026772261 7.453819e-39
0.14453009 0.13962916 0.053813934 2.3029825e-38
0.1487951 0.006596446 0.024702609 7.0846736e-39
0.14064077 0.14226359 0.052324891 2.2103932e-38
0.14637202 0.0099121034 0.024044931 8.2803497e-39
0.13781184 0.14289974 0.050678849 2.0444053e-38
0.14196318 0.014570147 0.023316145 8.8346025e-39
0.14006186 0.017074853 0.02257967 9.6672204e-39
0.13393459 0.14415061 0.048674285 1.8137007e-38
0.13738298 0.020597428 0.021226108 1.0861457e-38
0.13098261 0.14475462 0.047184885 1.8598327e-38
0.12973785 0.14631876 0.047407389 2.1180504e-38
0.12875044 0.14530504 0.045398116 2.118306e-38
0.1271013 0.14717844 0.045651138 2.0903228e-38
0.12790215 0.03430137 0.019417584 1.3622622e-38
0.12320289 0.14871594 0.043503702 1.9799725e-38
0.122379 0.15099752 0.044144213 1.906288e-38
0.12635642 0.036120772 0.019521773 1.3714071e-38
0.12527442 0.038741469 0.018902898 1.3620828e-38
0.11910337 0.15192524 0.0418275 1.6025109e-38
0.12276971 0.040146515 0.018341124 1.3529708e-38
0.12225288 0.042716041 0.018638253 1.3528274e-38
0.12080574 0.046951324 0.017589152 1.352791e-38
0.11614561 0.15268019 0.039954841 1.5010945e-38
0.11925614 0.050735801 0.017954707 1.3805583e-38
0.11749047 0.054427549 0.018565893 1.3805962e-38
0.1170378 0.05842337 0.018642962 1.3435721e-38
0.11665711 0.061142981 0.018463075 1.3065134e-38
0.11245731 0.15257233 0.037842214 1.5006275e-38
0.11460614 0.059256464 0.017990291 1.3619751e-38
0.11378771 0.061474964 0.017433047 1.3527897e-38
0.10891581 0.15188095 0.035975814 1.656786e-38
0.11076093 0.06333971 0.016195536 1.4172541e-38
0.10934329 0.065866977 0.0158301 1.4449151e-38
0.10534683 0.15161303 0.034192622 1.6389595e-38
0.10799697 0.063889489 0.015160739 1.4447709e-38
0.10762203 0.066605806 0.014983416 1.4265137e-38
0.10602224 0.070190996 0.014876992 1.4171854e-38
0.1059128 0.073202506 0.014926553 1.4723914e-38
0.10214937 0.15072846 0.030903578 1.4637892e-38
0.10204852 0.15247992 0.032243431 1.6751221e-38
0.1041618 0.07237193 0.014879525 1.4355158e-38
0.10297242 0.076643065 0.014881045 1.3987819e-38
0.10263979 0.079688594 0.014707446 1.4356219e-38
0.099377543 0.15026388 0.029151499 1.315915e-38
0.098528504 0.15329778 0.030546665 1.3901057e-38
0.10039762 0.079581022 0.014341325 1.4539905e-38
0.099538803 0.083809033 0.014350921 1.4356959e-38
0.098171115 0.087518498 0.014095068 1.435841e-38
0.096186042 0.1472906 0.02656132 1.3067289e-38
0.095725685 0.149964 0.027212799 1.1230931e-38
0.095432162 0.1531508 0.028507352 1.0771036e-38
0.096299022 0.087762266 0.013833255 1.4542055e-38
0.095360458 0.091070801 0.013263375 1.4726805e-38
0.094601274 0.095433861 0.013442695 1.4910494e-38
0.094424039 0.098612547 0.01408422 1.5003386e-38
0.092817307 0.14749601 0.024612665 9.9412793e-39
0.092372507 0.14997301 0.02545774 9.1129662e-39
0.092414469 0.15240155 0.026712 9.6664791e-39
0.092975736 0.092089191 0.01287955 1.4542064e-38
0.092669427 0.095665008 0.013241261 1.5092368e-38
0.091988564 0.099261791 0.013386011 1.5001959e-38
0.090860069 0.10285543 0.013679594 1.4449493e-38
0.090138227 0.10694008 0.014290184 1.3068735e-38
0.090452641 0.10962552 0.014316648 1.233189e-38
0.088999212 0.13569084 0.019576848 1.3988878e-38
0.089039922 0.13875219 0.020912945 1.3714095e-38
0.089018822 0.14254326 0.02187556 1.2152509e-38
0.089137793 0.14634401 0.022819877 9.937671e-39
0.088951945 0.14989337 0.024070382 9.2958861e-39
0.08871448 0.10821168 0.014140248 1.242085e-38
0.087857187 0.11101857 0.01412183 1.2146769e-38
0.086926311 0.11453106 0.013674945 1.2608445e-38
0.086324602 0.11843051 0.013937652 1.3347444e-38
0.086591482 0.12241687 0.01562494 1.3531833e-38
0.08815521 0.12658547 0.017333329 1.3530425e-38
0.088124454 0.13130912 0.018029213 1.3988524e-38
0.087682247 0.13506696 0.019044995 1.3988529e-38
0.087010443 0.13877192 0.020307541 1.3530443e-38
0.086797416 0.14259194 0.021078408 1.2060679e-38
0.086285532 0.14674744 0.021750987 1.0675204e-38
0.086442381 0.14895865 0.022363245 1.0123815e-38
0.084686935 0.11511958 0.013375223 1.297652e-38
0.084397942 0.118627 0.014027715 1.3254546e-38
0.084630787 0.12115082 0.014758438 1.371589e-38
0.20261538 0.043802232 0.023307383 1.2333331e-38
0.20294806 0.05238156 0.023823082 1.4360563e-38
0.20267779 0.064002723 0.025601566 1.4267295e-38
0.17528766 0.086654797 0.018227041 1.2704643e-38
0.15782839 0.085589364 0.011257946 1.2608495e-38
0.19672629 0.10636967 0.047820568 2.1917031e-38
0.16551161 0.12742299 0.065360963 1.7589566e-38
0.16102988 0.13016699 0.064534843 1.9524974e-38
0.15933588 0.13267872 0.066492558 2.1282085e-38
0.15761343 0.13115236 0.062345803 2.0076337e-38
0.15633884 0.13315269 0.064382553 2.007923e-38
0.15516242 0.13186663 0.060270011 1.9058257e-38
0.15295142 0.13409892 0.061114371 1.9703589e-38
0.15198153 0.136531 0.063037932 2.1089765e-38
0.14965212 0.13574027 0.059494793 2.1920581e-38
0.14878696 0.13679388 0.060810685 2.2840376e-38
0.14581132 0.13863358 0.058490634 2.2846531e-38
0.14403683 0.14017022 0.055625319 2.312202e-38
0.14218152 0.14174563 0.056793034 2.2840781e-38
0.14706945 0.0052729249 0.025740683 6.7144365e-39
0.13928127 0.14349136 0.05524683 2.2747125e-38
0.13741374 0.14507791 0.056409895 2.2104285e-38
0.14318526 0.0062451959 0.026038587 6.6265597e-39
0.14280096 0.010225296 0.025559604 8.282858e-39
0.13650322 0.1444422 0.052162886 2.1644734e-38
0.13445449 0.14580756 0.054589927 2.247197e-38
0.14003691 0.0070618689 0.025550067 6.5322229e-39
0.13962287 0.010389358 0.025097966 7.4534701e-39
0.1392667 0.01353991 0.023847759 8.0991926e-39
0.13425076 0.14457953 0.050859988 2.0081682e-38
0.13176441 0.14678007 0.051978528 2.0721716e-38
0.13498247 0.006731838 0.022476494 4.5989999e-39
0.13503608 0.010102019 0.023299873 5.7053391e-39
0.13631573 0.014396578 0.02282685 7.7314863e-39
0.13625002 0.017497778 0.022791445 9.1144152e-39
0.12911904 0.14760777 0.04971534 2.0168178e-38
0.12701917 0.14954105 0.051296592 2.1825885e-38
0.13365343 0.011668712 0.021662235 5.7971872e-39
0.13284308 0.014203191 0.021974802 6.8095286e-39
0.13293821 0.018210977 0.022379518 8.6530783e-39
0.13315424 0.02062124 0.023468912 1.1773352e-38
0.12573481 0.14878505 0.047590494 2.0534458e-38
0.12469763 0.15100989 0.048931181 2.1363486e-38
0.12826222 0.03056623 0.020532787 1.3620471e-38
0.12256217 0.15233554 0.046227336 1.8870594e-38
0.1205838 0.15434581 0.048135996 1.7494134e-38
0.12442711 0.030551165 0.021576703 1.2888298e-38
0.12450245 0.033996105 0.02029568 1.3438222e-38
0.11918348 0.15312347 0.04393518 1.6206261e-38
0.11800939 0.15479979 0.045609653 1.5747438e-38
0.12188911 0.030867547 0.019197822 9.9420332e-39
0.12154904 0.034307271 0.019634664 1.3161999e-38
0.12103277 0.038096428 0.018964827 1.3345322e-38
0.12020355 0.042241275 0.018497884 1.3620471e-38
0.11411557 0.15343249 0.041003704 1.3702945e-38
0.11440676 0.15495875 0.043906808 1.3439311e-38
0.11821222 0.034559727 0.019071341 1.1411768e-38
0.11824685 0.037865132 0.019472957 1.3254926e-38
0.11672395 0.041032702 0.019709468 1.3529357e-38
0.11677879 0.046158671 0.019522667 1.3714109e-38
0.11660928 0.050339848 0.01826936 1.3805955e-38
0.11572027 0.054206684 0.018650532 1.3897072e-38
0.11557803 0.056757092 0.019165218 1.3712304e-38
0.111211 0.15342565 0.040466368 1.4162512e-38
0.11060101 0.15488204 0.042818844 1.3804881e-38
0.1142171 0.046730116 0.018770933 1.389562e-38
0.11300099 0.049723774 0.01895082 1.3805224e-38
0.11295038 0.053827465 0.018896341 1.4173289e-38
0.11278382 0.057814091 0.018231571 1.3988887e-38
0.10698062 0.15304309 0.03994441 1.7485904e-38
0.10950911 0.054638147 0.018331647 1.4082168e-38
0.10958701 0.058065519 0.018056095 1.4081814e-38
0.10943437 0.061262012 0.016581535 1.4173269e-38
0.10435069 0.15301213 0.036980391 1.8502931e-38
0.10474759 0.15472837 0.039313018 2.0807451e-38
0.10628796 0.056348145 0.017120302 1.3989241e-38
0.10590804 0.058789045 0.016621351 1.3989227e-38
0.10552585 0.062727422 0.015625447 1.4172915e-38
0.10490888 0.066939145 0.015232295 1.4264052e-38
0.10139549 0.15411609 0.034217238 1.8499703e-38
0.099663824 0.15533005 0.036203623 1.9244774e-38
0.10190043 0.064274356 0.016381085 1.4265112e-38
0.10160333 0.067336887 0.015738308 1.4171487e-38
0.10177597 0.071374446 0.015207648 1.4354097e-38
0.10149091 0.07456097 0.01499629 1.4538832e-38
0.096759111 0.15655173 0.033688247 1.5286852e-38
0.099495292 0.066973895 0.015589446 1.3804142e-38
0.098299146 0.071270972 0.015593171 1.4355162e-38
0.098150879 0.075062558 0.015308648 1.4447705e-38
0.097957283 0.079216123 0.014884561 1.4540251e-38
0.097237229 0.082252324 0.015071988 1.4540978e-38
0.093843937 0.15466851 0.029277623 1.0679566e-38
0.093588352 0.15694718 0.031506121 1.2614974e-38
0.093221933 0.15926047 0.033545375 1.4735503e-38
0.09524864 0.075742453 0.015131563 1.4631722e-38
0.093497753 0.079060286 0.014576495 1.4816121e-38
0.094033211 0.083071187 0.014287412 1.4357665e-38
0.093864441 0.086943194 0.01385811 1.4358385e-38
0.090722978 0.15389848 0.027585745 9.4831795e-39
0.089788526 0.15681233 0.030426919 1.1233812e-38
0.090946674 0.082907841 0.013869107 1.4449841e-38
0.090280175 0.086823627 0.014195949 1.4725017e-38
0.089539111 0.090788245 0.014292538 1.4542038e-38
0.089510828 0.094620585 0.014029443 1.4632433e-38
0.089687854 0.098368138 0.0135912 1.4725782e-38
0.086772442 0.15065163 0.024142504 9.3883998e-39
0.086575687 0.15353262 0.026679158 8.7441515e-39
0.086649328 0.15583189 0.028844118 9.2051534e-39
0.0864878 0.095513105 0.014186472 1.3530799e-38
0.086239368 0.098826081 0.014196157 1.4357669e-38
0.086574495 0.10277441 0.013834894 1.3990282e-38
0.086496711 0.10653681 0.014211118 1.3066211e-38
0.085669279 0.11005102 0.013953 1.2329361e-38
0.084922642 0.1234407 0.016655147 1.3716234e-38
0.083927035 0.1262283 0.019091666 1.3992467e-38
0.083638191 0.13091612 0.020258725 1.4175413e-38
0.08461526 0.13482545 0.019542158 1.407965e-38
0.084632456 0.13870884 0.020069063 1.3709804e-38
0.084419131 0.14253446 0.020841062 1.3621529e-38
0.084107399 0.14611191 0.021496475 1.1782274e-38
0.083540201 0.15013364 0.023587346 1.0030919e-38
0.083010554 0.15332061 0.025623024 8.1002142e-39
0.082826376 0.10309251 0.014191508 1.3806992e-38
0.082519948 0.10668457 0.014557064 1.3065864e-38
0.082732826 0.11074406 0.013709366 1.242408e-38
0.081950545 0.11427617 0.013689846 1.3251673e-38
0.081986576 0.11869603 0.014274836 1.3160921e-38
0.081425816 0.12188049 0.016785622 1.3900637e-38
0.081647962 0.12422571 0.018456399 1.4177211e-38
0.081387609 0.13519725 0.020285845 1.4357638e-38
0.080644429 0.13872074 0.019931614 1.4268675e-38
0.080674767 0.14249277 0.02019304 1.4361608e-38
0.080397964 0.14577386 0.021590292 1.2520216e-38
0.080121577 0.14906111 0.022989213 1.1041833e-38
0.079004437 0.11098421 0.013779402 1.3436785e-38
0.07904774 0.11467293 0.013781935 1.3711585e-38
0.079692513 0.11768396 0.013981909 1.3068724e-38
0.077254653 0.14236382 0.020112097 1.4546359e-38
0.20282048 0.058200121 0.024702191 1.4636082e-38
0.19001454 0.068173528 0.023794472 1.2888314e-38
0.1944676 0.071098313 0.027288735 1.4545311e-38
0.21036434 0.033878505 0.024084687 6.9024291e-39
0.21463779 0.012560457 0.039574981 1.1238142e-38
0.19901741 0.076547295 0.030002058 1.4735463e-38
0.11261129 0.14195964 0.020573914 1.2336935e-38
0.15045762 0.10174602 0.019214451 1.2886136e-38
0.11180833 0.092357889 0.017927885 1.2699592e-38
0.15895128 0.13346061 0.069413126 2.2390953e-38
0.15541077 0.13463305 0.066996753 2.1097699e-38
0.15429148 0.13660628 0.068491161 2.2204056e-38
0.15257466 0.13480596 0.065356255 2.0905364e-38
0.15133527 0.13737522 0.066559255 2.1735529e-38
0.14940572 0.13972227 0.067004383 2.2288713e-38
0.14834809 0.13790375 0.064086735 2.2656365e-38
0.14729244 0.14055929 0.065553129 2.2665032e-38
0.14556715 0.13858011 0.062484205 2.2943733e-38
0.1439614 0.14132625 0.063264489 2.2659956e-38
0.14236382 0.14400327 0.06383568 2.2568858e-38
0.14115041 0.14236812 0.06086868 2.2658548e-38
0.14003474 0.14531676 0.062466979 2.257713e-38
0.13728172 0.14599499 0.059709728 2.2479184e-38
0.13644737 0.14880425 0.06098181 2.2673647e-38
0.14002806 0.0049945116 0.02743119 6.4432488e-39
0.13378435 0.1471792 0.057361186 2.2562031e-38
0.1331903 0.14940384 0.058480322 2.2381595e-38
0.13750362 0.0056604743 0.026091278 5.7946648e-39
0.13683575 0.0081762075 0.026286185 6.3478442e-39
0.13094294 0.14764638 0.055549324 2.3303905e-38
0.12956417 0.15025598 0.056315422 2.2386629e-38
0.12828007 0.15256527 0.057498157 2.2939438e-38
0.13545451 0.0059134662 0.024935961 4.9663475e-39
0.12622517 0.15080729 0.0538342 2.1826611e-38
0.12555826 0.15306082 0.055526793 2.2108946e-38
0.12807417 0.01391907 0.024813414 6.53435e-39
0.12793046 0.016495556 0.025333405 7.7311038e-39
0.12911206 0.020773053 0.025457144 1.1691888e-38
0.12881535 0.023600474 0.025154531 1.3074116e-38
0.12392148 0.15191498 0.052389741 2.1547867e-38
0.12214786 0.15426143 0.053075612 2.0535876e-38
0.12632102 0.020958886 0.02542758 1.0036713e-38
0.12636179 0.024294496 0.026235104 1.4176522e-38
0.11931175 0.15567192 0.050836146 1.8785224e-38
0.11725613 0.15708908 0.052026033 1.9062523e-38
0.11576551 0.15625277 0.048573971 1.5562697e-38
0.11454016 0.15787411 0.049888909 1.5283962e-38
0.11746645 0.032896847 0.021796644 1.3344249e-38
0.11214638 0.156414 0.046861947 1.2333338e-38
0.11188966 0.15750454 0.0483495 1.2614592e-38
0.11486632 0.037881359 0.020714462 1.3346758e-38
0.11432213 0.04232049 0.021256566 1.3713042e-38
0.10820505 0.15625995 0.044983685 1.8418953e-38
0.11163402 0.042289317 0.021434844 1.3896699e-38
0.11057532 0.045395225 0.02025193 1.3712665e-38
0.11043787 0.049044058 0.020236611 1.3805583e-38
0.10540864 0.15554465 0.042663872 2.0533738e-38
0.10360339 0.15792154 0.044128537 2.2105003e-38
0.10793608 0.046928033 0.020233393 1.3529708e-38
0.10723016 0.049984723 0.019890428 1.37141e-38
0.10681969 0.053105146 0.019045711 1.3897059e-38
0.10182536 0.15591572 0.040676355 2.1269122e-38
0.10088459 0.15929872 0.042247474 2.1824097e-38
0.10409063 0.050902024 0.019282639 1.343752e-38
0.10396126 0.054006159 0.018240809 1.3988884e-38
0.098871708 0.15673512 0.038910389 1.970538e-38
0.097866207 0.15971106 0.040093899 1.96157e-38
0.096561491 0.16220254 0.040959895 2.0539088e-38
0.1008172 0.055381209 0.018394232 1.3896684e-38
0.10086539 0.058523461 0.017974794 1.3988535e-38
0.099825442 0.062282175 0.017845869 1.4081451e-38
0.096480131 0.15742868 0.037418365 1.740627e-38
0.094755113 0.15997836 0.03778547 1.6946013e-38
0.09398365 0.1626807 0.039544046 1.8331454e-38
0.096973002 0.063318878 0.017979801 1.3899566e-38
0.095947176 0.066155702 0.017247319 1.4171132e-38
0.095881104 0.069458574 0.01679796 1.4355522e-38
0.091536701 0.16038564 0.035627365 1.5473386e-38
0.090529323 0.16262732 0.037088573 1.6853453e-38
0.092362106 0.07015422 0.016324759 1.4540268e-38
0.092727989 0.07397005 0.015790761 1.4539899e-38
0.087404609 0.15798205 0.032168686 1.2522404e-38
0.088168859 0.16043818 0.033593953 1.4736524e-38
0.086890787 0.16279219 0.035365939 1.685919e-38
0.089360297 0.071058363 0.015284985 1.3805218e-38
0.08945474 0.074247405 0.015299201 1.4172193e-38
0.088679612 0.078099251 0.015179694 1.4355864e-38
0.088000417 0.082319573 0.01514703 1.4449136e-38
0.085024774 0.15721273 0.030577421 1.0404771e-38
0.084687561 0.16063103 0.031707406 1.2891923e-38
0.083477587 0.1630003 0.033391535 1.5565947e-38
0.085871458 0.079402313 0.015176505 1.3897415e-38
0.085295141 0.082352892 0.014850199 1.3989987e-38
0.085276604 0.086336136 0.015118182 1.4357686e-38
0.084528774 0.089848578 0.015648127 1.4266181e-38
0.084376365 0.093214124 0.015557498 1.3711577e-38
0.081947327 0.1544743 0.028109908 7.8250776e-39
0.081573963 0.15699795 0.028876662 8.9289351e-39
0.080898643 0.16076443 0.030151606 1.0312956e-38
0.080064416 0.16320841 0.031417191 1.1327826e-38
0.082027256 0.087339967 0.014762044 1.2977991e-38
0.081753254 0.09031415 0.015001595 1.3989964e-38
0.081094295 0.094145566 0.015066177 1.3899222e-38
0.080957651 0.09781459 0.015253872 1.3899573e-38
0.080474764 0.10169196 0.015136987 1.3899545e-38
0.080167234 0.10529664 0.015504777 1.3252783e-38
0.079491973 0.1260947 0.019989312 1.4453079e-38
0.079491735 0.1300865 0.02109617 1.4542768e-38
0.078857124 0.13386011 0.021436691 1.4634961e-38
0.077839315 0.14704382 0.023929715 1.1786212e-38
0.077794373 0.15039715 0.025086045 1.0489732e-38
0.078460813 0.15336545 0.026046455 8.7430585e-39
0.077782631 0.1571286 0.027318954 8.6512622e-39
0.077490389 0.16097224 0.028180122 8.8381814e-39
0.076579392 0.1647048 0.029702783 1.0678835e-38
0.077967525 0.099142402 0.01512751 1.3437871e-38
0.077868491 0.10216674 0.015186131 1.3255625e-38
0.076803714 0.10932082 0.015167922 1.3161284e-38
0.076334178 0.11321132 0.015091538 1.3712675e-38
0.075999826 0.11791386 0.016590953 1.2886849e-38
0.076304853 0.12130138 0.018160284 1.3902069e-38
0.076156318 0.12549669 0.019294679 1.4636051e-38
0.075718939 0.13036992 0.020620525 1.5094526e-38
0.075432599 0.13412762 0.020919144 1.4822237e-38
0.07545808 0.13795528 0.020892084 1.4454186e-38
0.075036168 0.14205396 0.021333396 1.4362345e-38
0.07536453 0.14578298 0.022957265 1.279324e-38
0.075283796 0.14927468 0.024362028 1.1691515e-38
0.074207783 0.15352467 0.025226474 9.7550566e-39
0.073985636 0.15725979 0.025757849 8.9278351e-39
0.074082077 0.16118005 0.026208699 8.7470437e-39
0.073244065 0.16492715 0.027646124 8.9317895e-39
0.074212849 0.10972536 0.014992058 1.3346002e-38
0.07400465 0.11368921 0.015305459 1.3069085e-38
0.072447866 0.13841984 0.020487428 1.4177587e-38
0.072651863 0.1419701 0.021244526 1.3992125e-38
0.071501374 0.15410146 0.024202347 1.0673777e-38
0.070610374 0.15787904 0.024561405 8.9270938e-39
0.069968492 0.16125627 0.024974108 8.1941895e-39
0.067267895 0.15885317 0.02280885 7.5448796e-39
0.067360401 0.16147381 0.023083866 7.085342e-39
0.18260875 0.080941767 0.026866972 1.5192118e-38
0.14345473 0.10524839 0.020613492 1.3898136e-38
0.12133989 0.076072961 0.015426993 1.2517351e-38
0.16018289 0.13142286 0.06551367 2.0357611e-38
0.15761343 0.13115236 0.062345803 2.0076337e-38
0.1457988 0.14211982 0.067801416 2.2486374e-38
0.14486259 0.14449757 0.069386184 2.2582536e-38
0.14317775 0.14705475 0.069778621 2.2678326e-38
0.14206618 0.14498834 0.06685549 2.2478472e-38
0.14073521 0.14757343 0.068156123 2.2389873e-38
0.13987756 0.14634365 0.065283477 2.2656021e-38
0.13792139 0.14883231 0.066026151 2.2483485e-38
0.13494366 0.15004744 0.064118147 2.2675084e-38
0.13376302 0.1522775 0.065424681 2.2491418e-38
0.13193849 0.15059854 0.062169731 2.2757555e-38
0.1306445 0.15242952 0.063018918 2.2480996e-38
0.12753516 0.15249494 0.060598135 2.2012091e-38
0.12424377 0.15404454 0.058615565 2.2842942e-38
0.12175947 0.15517393 0.056617558 2.1825539e-38
0.11928573 0.15625939 0.05777806 2.1829109e-38
0.12551054 0.016528934 0.026278615 7.4534491e-39
0.12345615 0.021433905 0.027398825 9.7623139e-39
0.12334788 0.023374677 0.027790487 1.2246195e-38
0.11689675 0.15784682 0.055718362 2.0720622e-38
0.11506391 0.16039073 0.056245804 2.0166386e-38
0.12231344 0.021503568 0.026737869 7.4610133e-39
0.12220523 0.023444355 0.027129531 1.0406225e-38
0.11399996 0.15889113 0.053602636 1.7405172e-38
0.11277527 0.16053028 0.054921925 1.7405925e-38
0.10985905 0.15907413 0.051665485 1.3900309e-38
0.10991448 0.1607047 0.053267121 1.4912309e-38
0.10710454 0.15773004 0.049479783 1.7037076e-38
0.1099849 0.038373441 0.023391962 1.3621177e-38
0.10905728 0.040536016 0.022757053 1.352791e-38
0.10314724 0.15802139 0.047736228 2.2566331e-38
0.10684013 0.041659862 0.022299767 1.3528987e-38
0.10569918 0.044335693 0.021856487 1.3438236e-38
0.10034165 0.15968245 0.046562016 2.2476302e-38
0.097899169 0.16143733 0.046316981 2.2377995e-38
0.10267174 0.046065092 0.02145648 1.3437135e-38
0.10191986 0.049107879 0.02024287 1.34368e-38
0.096072286 0.16232255 0.044552445 2.0998642e-38
0.1002664 0.049281627 0.02019304 1.3436807e-38
0.098525822 0.05325675 0.020094931 1.3711574e-38
0.097308993 0.057358429 0.019743979 1.4079305e-38
0.096853554 0.061410636 0.01983273 1.4266924e-38
0.091927379 0.16374454 0.042370141 2.0445836e-38
0.095528454 0.053972751 0.019672275 1.343608e-38
0.094695598 0.057305366 0.019763827 1.3988538e-38
0.093286455 0.064203292 0.018374145 1.4998008e-38
0.088965237 0.16414382 0.040075481 1.9159054e-38
0.088059783 0.16607654 0.040388107 2.0727434e-38
0.092272222 0.057830006 0.018648028 1.307052e-38
0.09145543 0.061382264 0.018659353 1.389741e-38
0.091278791 0.06550926 0.017886162 1.4355873e-38
0.085547984 0.16450784 0.037683606 1.9438141e-38
0.088374913 0.065613538 0.017454326 1.3621187e-38
0.086817086 0.068482235 0.017125726 1.3619395e-38
0.085899949 0.074310631 0.016369522 1.3528978e-38
0.081330419 0.16423076 0.035965621 1.7406277e-38
0.083753616 0.073671848 0.016726196 1.2976883e-38
0.083635032 0.077292413 0.016201675 1.3437871e-38
0.082116663 0.080979288 0.015693128 1.3346435e-38
0.081936598 0.084209263 0.016344965 1.3530851e-38
0.07857129 0.16474971 0.034254253 1.4183356e-38
0.07708472 0.16658039 0.035186708 1.5471193e-38
0.080590665 0.077582866 0.016125619 1.2701392e-38
0.079565704 0.081442028 0.015673399 1.269815e-38
0.079777539 0.08525762 0.015785813 1.2605627e-38
0.078986019 0.089539528 0.015847802 1.343859e-38
0.07808122 0.092169881 0.015929282 1.3807015e-38
0.076705247 0.16547942 0.033517182 1.2796108e-38
0.07481879 0.16771093 0.032774806 1.1693331e-38
0.077203751 0.08263801 0.015542418 1.2885026e-38
0.076755166 0.085570812 0.015965283 1.2330104e-38
0.076308966 0.088945836 0.016256332 1.2884707e-38
0.075712591 0.0931492 0.016731918 1.3437513e-38
0.075346231 0.097132161 0.017054856 1.3070177e-38
0.074201882 0.10122451 0.01664573 1.3070171e-38
0.074009776 0.10400648 0.01629585 1.2700687e-38
0.073001176 0.12209427 0.019946098 1.4176166e-38
0.072749078 0.12661624 0.020858645 1.4357296e-38
0.072604924 0.12920022 0.021380067 1.4908689e-38
0.071668386 0.14599603 0.024769664 1.2699259e-38
0.071755528 0.1495316 0.025651693 1.1875199e-38
0.071344197 0.15180998 0.025942981 1.1047207e-38
0.071362615 0.1674588 0.030518651 8.8410078e-39
0.072903812 0.098395914 0.016694427 1.2794666e-38
0.072831601 0.099691629 0.016955912 1.2886859e-38
0.071625322 0.10544282 0.016405702 1.3253465e-38
0.071439564 0.10931358 0.016018689 1.3530363e-38
0.071223438 0.11318952 0.01680094 1.2975797e-38
0.070893884 0.12078068 0.019178987 1.2612038e-38
0.070056617 0.12515423 0.020698309 1.3347104e-38
0.070038021 0.12974414 0.021369874 1.3990307e-38
0.070289671 0.13374114 0.021667182 1.4081808e-38
0.069028795 0.13721909 0.021934211 1.3258853e-38
0.068934739 0.14145362 0.023268342 1.3714816e-38
0.069335461 0.14556614 0.023963511 1.3066943e-38
0.068657994 0.14924952 0.024671853 1.24255e-38
0.068674386 0.15307641 0.024657786 1.0769196e-38
0.06823948 0.15650585 0.025205493 9.5710128e-39
0.067466348 0.16523947 0.027589023 7.1786236e-39
0.067930222 0.16713858 0.029891253 7.3637464e-39
0.068676114 0.1128581 0.017585039 1.2880735e-38
0.067736804 0.12970239 0.020984352 1.1871627e-38
0.067520082 0.13358954 0.021768808 1.3253484e-38
0.06730336 0.13747668 0.022553265 1.2980117e-38
0.06661436 0.14165086 0.023125291 1.3348209e-38
0.065928221 0.14509314 0.023527086 1.3161282e-38
0.065290779 0.14931622 0.023548007 1.1965231e-38
0.065168262 0.15349576 0.023567379 8.8291696e-39
0.064903736 0.15690738 0.023830771 7.2661515e-39
0.063673794 0.1605597 0.024044156 6.3492357e-39
0.064815015 0.1642707 0.026185215 6.6283085e-39
0.063147873 0.15064314 0.023182333 8.3796625e-39
0.062163234 0.15296298 0.02314353 7.1714602e-39
0.061188996 0.15724882 0.023375094 5.9786581e-39
0.061353862 0.16086005 0.024281323 5.7067249e-39
0.05935365 0.15733105 0.022503972 5.3354453e-39
0.059209198 0.15992248 0.023027003 5.1567854e-39
0.13538963 0.15150581 0.069765449 2.2305582e-38
0.13232607 0.15312418 0.067440093 2.2489976e-38
0.13216642 0.15506223 0.067899346 2.2484575e-38
0.12838525 0.15387821 0.066170692 2.2483513e-38
0.12539828 0.1533159 0.063477278 2.2291183e-38
0.12237656 0.15433377 0.062122881 2.2851543e-38
0.12026793 0.15567005 0.061779797 2.2752573e-38
0.11830473 0.1574192 0.060236216 2.2476302e-38
0.11615878 0.15868713 0.05886662 2.1926381e-38
0.11474419 0.1606732 0.058790982 2.164763e-38
0.11142343 0.16156591 0.056735754 1.9338816e-38
0.1075502 0.16143605 0.054705918 1.6389581e-38
0.10425112 0.15904623 0.052188933 1.9614623e-38
0.10422981 0.1608628 0.053492606 1.9154713e-38
0.10751346 0.036834359 0.025123417 1.3253475e-38
0.10121852 0.1591875 0.050721049 2.2843266e-38
0.10051283 0.16076522 0.051266372 2.3117676e-38
0.10410488 0.039848059 0.023810744 1.3161277e-38
0.097358584 0.161691 0.049021006 2.2657102e-38
0.1020956 0.041697308 0.023054004 1.3807365e-38
