# .PCD v0.7 - Point Cloud Data file format
VERSION 0.7
FIELDS x y z rgb
SIZE 4 4 4 4
TYPE F F F F
COUNT 1 1 1 1
WIDTH 980
HEIGHT 1
VIEWPOINT 0 0 0 0 1 0 0
POINTS 980
DATA ascii
0.0562042 0.10103656 0.019380808 1.1688686e-38
0.056204207 0.10424197 0.01914221 1.2153272e-38
0.13437256 0.086003482 0.012852132 1.4454923e-38
0.15312886 0.085202739 0.013278842 1.6852363e-38
0.16999751 0.074320272 0.015152395 1.9339484e-38
0.17088637 0.076688811 0.014600217 1.9062908e-38
0.17049083 0.081015348 0.014403582 1.869304e-38
0.1710975 0.084460422 0.014036655 1.7954393e-38
0.17119855 0.088440627 0.013198495 1.7494508e-38
0.17118596 0.092300028 0.012800395 1.8048399e-38
0.1710975 0.096081108 0.013171434 1.9245128e-38
0.16613056 0.064015299 0.016302109 2.163289e-38
0.16613056 0.067890286 0.016013622 2.0163136e-38
0.16728881 0.07682085 0.014002502 1.8874927e-38
0.16728881 0.080688454 0.013714552 1.850542e-38
0.16727665 0.084546164 0.013316572 1.7218631e-38
0.16725272 0.088391036 0.01280874 1.6942762e-38
0.16728839 0.09229295 0.012850583 1.6849494e-38
0.16731189 0.09618561 0.012782335 1.7126078e-38
0.16656022 0.099317595 0.013631165 1.7677459e-38
0.16269326 0.061026588 0.016864657 2.1909495e-38
0.16350791 0.064005777 0.016114354 2.1450651e-38
0.16348505 0.067862034 0.015605628 1.9611759e-38
0.16341713 0.072327383 0.014608145 1.8691958e-38
0.16334869 0.076784089 0.013611317 1.8323526e-38
0.16334869 0.080647677 0.013323665 1.7491981e-38
0.16330421 0.084468722 0.012595654 1.6574693e-38
0.16334869 0.088374853 0.012748361 1.6112645e-38
0.16334869 0.092238456 0.012460649 1.565132e-38
0.1634391 0.096201673 0.013052285 1.6022248e-38
0.163315 0.099953011 0.013149142 1.6850906e-38
0.15839666 0.057613622 0.017543733 2.1823364e-38
0.15896991 0.060147874 0.016542614 2.0990742e-38
0.15889913 0.063970596 0.015509307 1.924406e-38
0.15885964 0.067807503 0.014807642 1.8504691e-38
0.15875685 0.072232261 0.013396859 1.758382e-38
0.15883462 0.076648936 0.012052715 1.684912e-38
0.15883462 0.080501139 0.011765897 1.5926812e-38
0.15865988 0.084354609 0.011496186 1.5100636e-38
0.15885052 0.088407815 0.013190866 1.4639301e-38
0.15885052 0.092271402 0.012903214 1.4363798e-38
0.15889913 0.096190929 0.01311034 1.4917328e-38
0.15895401 0.10012613 0.013399601 1.5377585e-38
0.15862614 0.103946 0.013769031 1.5746027e-38
0.15839666 0.10669681 0.013889253 1.6116589e-38
0.15434666 0.056499176 0.017775416 2.1269481e-38
0.15443139 0.060159761 0.016626775 1.9981967e-38
0.15431334 0.063941836 0.015013337 1.8964239e-38
0.1544098 0.067365937 0.013757408 1.7676361e-38
0.15502924 0.073680654 0.012650073 1.6388151e-38
0.15481567 0.076678373 0.012448013 1.5926809e-38
0.15494382 0.08052963 0.012148559 1.5098133e-38
0.15433516 0.08454679 0.011909664 1.3809548e-38
0.15421481 0.088285178 0.0120911 1.3167052e-38
0.15433306 0.092281148 0.01312536 1.335106e-38
0.15435235 0.096167937 0.013057947 1.4086477e-38
0.15444103 0.10014917 0.013760328 1.4455271e-38
0.15465757 0.10393362 0.014086902 1.4732956e-38
0.15063509 0.056360267 0.01806885 2.044188e-38
0.15054309 0.060168017 0.016674876 1.9428448e-38
0.15053293 0.063740194 0.014338791 1.8504693e-38
0.15118504 0.085265398 0.012167752 1.3165226e-38
0.15033078 0.088267803 0.012028694 1.2891182e-38
0.15044229 0.092262134 0.013063788 1.3074143e-38
0.15052444 0.096234128 0.01376754 1.3625879e-38
0.15057977 0.10017744 0.014140189 1.4455275e-38
0.1506215 0.10394768 0.014359176 1.5193914e-38
0.14679582 0.053823601 0.01897341 2.0627335e-38
0.14674428 0.056370858 0.01811713 2.0071664e-38
0.14665858 0.060176872 0.01672262 1.92426e-38
0.14648658 0.063256696 0.01427114 1.8230963e-38
0.14648658 0.088937983 0.012359083 1.2891188e-38
0.14650376 0.092172205 0.012340546 1.3349651e-38
0.14665858 0.096249729 0.014036834 1.381135e-38
0.14670175 0.10017978 0.014299691 1.4916978e-38
0.1467185 0.10407501 0.01423192 1.5747098e-38
0.14679582 0.10678178 0.015030444 1.7036393e-38
0.1429047 0.053189632 0.019069672 2.0346445e-38
0.14284176 0.056370024 0.017943323 1.9519925e-38
0.14276971 0.060178954 0.016659319 1.8783788e-38
0.14264238 0.063284844 0.014649332 1.8138407e-38
0.14392377 0.08959879 0.012563348 1.3260658e-38
0.14282542 0.092541844 0.0124529 1.3996791e-38
0.1427228 0.09615387 0.013313711 1.427268e-38
0.14278564 0.10011625 0.013908148 1.4640399e-38
0.14282542 0.10404906 0.014171124 1.5285054e-38
0.1428695 0.10734925 0.014536917 1.6114445e-38
0.13901797 0.052556258 0.019165397 1.9979105e-38
0.13895203 0.056374218 0.017880023 1.906001e-38
0.13884297 0.060141273 0.015930891 1.8414288e-38
0.13905445 0.063182719 0.015011847 1.8137688e-38
0.13943887 0.093483835 0.012717724 1.4548555e-38
0.13879818 0.096056655 0.012589514 1.4547471e-38
0.13893005 0.10014448 0.014287412 1.4363089e-38
0.13894491 0.10403594 0.014220119 1.5009528e-38
0.13883534 0.1078413 0.014731288 1.5469789e-38
0.13777295 0.11072285 0.01562947 1.5931843e-38
0.13648397 0.050024137 0.020276308 2.025603e-38
0.1353182 0.052746732 0.019559085 1.9704675e-38
0.13510105 0.05640839 0.018370271 1.8967822e-38
0.13496694 0.060143679 0.015866339 1.8873474e-38
0.13495398 0.062699124 0.015453398 1.8322087e-38
0.13495398 0.097368881 0.0128721 1.4089362e-38
0.13502218 0.10006838 0.013783932 1.3996449e-38
0.1350615 0.10400927 0.014158309 1.5192477e-38
0.13510816 0.10797234 0.014642358 1.5286115e-38
0.13131016 0.053274553 0.020210207 1.9612823e-38
0.13123751 0.056430928 0.018638849 1.8966737e-38
0.13110977 0.060159151 0.016022801 1.8506119e-38
0.13110977 0.06272728 0.01583159 1.7769276e-38
0.13175048 0.097392336 0.01318723 1.4180839e-38
0.13126995 0.10012449 0.013031304 1.4088637e-38
0.13117081 0.10395595 0.013875425 1.473367e-38
0.13123709 0.10797188 0.014801443 1.4733319e-38
0.13109712 0.11157912 0.015362382 1.4825181e-38
0.13003907 0.11659198 0.015957475 1.7497729e-38
0.12725601 0.053022701 0.020533919 1.9703948e-38
0.12737419 0.056453254 0.018907368 1.8966741e-38
0.12726557 0.060187306 0.016400933 1.8231689e-38
0.12694523 0.063078798 0.016217351 1.722005e-38
0.12694523 0.1009587 0.013396978 1.3443306e-38
0.12734118 0.10403869 0.014695883 1.3902843e-38
0.1273955 0.10804303 0.01551193 1.3906061e-38
0.12743936 0.11203066 0.016106367 1.3906445e-38
0.1276222 0.1161253 0.016231239 1.5657068e-38
0.12359414 0.050118543 0.021544278 1.9522439e-38
0.12356097 0.052664552 0.020574212 1.9338052e-38
0.12278068 0.060220156 0.016842127 1.7035318e-38
0.12470277 0.062774211 0.016461849 1.6942749e-38
0.12329359 0.10043357 0.01455301 1.261389e-38
0.12352215 0.10416289 0.01584816 1.2521707e-38
0.12355094 0.10811399 0.016222835 1.2707522e-38
0.12357974 0.11207396 0.016596854 1.3168852e-38
0.12101617 0.050137423 0.021797895 1.9798669e-38
0.11922166 0.052803118 0.020769179 1.8142746e-38
0.11916508 0.056354802 0.018953204 1.6207351e-38
0.11847518 0.10059933 0.014765441 1.049732e-38
0.11901896 0.10418537 0.016207874 1.1418563e-38
0.11904053 0.10812558 0.016500235 1.0773198e-38
0.11956773 0.11180148 0.01690203 1.1051934e-38
0.11481391 0.052612428 0.021723211 1.5004853e-38
0.11450613 0.055882797 0.019830883 1.3808111e-38
0.11317017 0.085329816 0.015923202 9.2969665e-39
0.11351855 0.088637665 0.016650081 9.9412611e-39
0.11370516 0.092731342 0.016125321 1.0494094e-38
0.11410949 0.096517429 0.015861034 1.0862529e-38
0.11447026 0.1001659 0.015361726 1.0956157e-38
0.11451142 0.10418692 0.016401768 1.1508943e-38
0.11452139 0.10809429 0.016445756 1.0863564e-38
0.11508127 0.11137901 0.017623663 9.5724982e-39
0.11113398 0.053223681 0.022545576 1.4178671e-38
0.11065521 0.056562714 0.020328999 1.4360544e-38
0.10984747 0.060081072 0.01853478 1.4268708e-38
0.10932597 0.064170897 0.01787883 1.3625837e-38
0.10932598 0.067381054 0.017639816 1.2984048e-38
0.10932598 0.077653572 0.016874969 8.4650675e-39
0.11046397 0.081378132 0.018212497 7.3641065e-39
0.11110817 0.08455947 0.019207418 8.1917176e-39
0.11144674 0.089093536 0.018634796 9.9419856e-39
0.11067633 0.092719033 0.018530548 1.0954712e-38
0.1106635 0.096525028 0.017688751 1.1690124e-38
0.11065585 0.10035156 0.017068684 1.2058901e-38
0.11065585 0.10421516 0.016781032 1.3073756e-38
0.11065585 0.10807875 0.01649338 1.3442544e-38
0.11052962 0.11217682 0.016872406 7.1753964e-39
0.10812636 0.05410682 0.022777319 1.4272273e-38
0.10719716 0.056857906 0.022232473 1.2795356e-38
0.10680128 0.060462195 0.020531893 1.2059248e-38
0.10680128 0.064327262 0.020244122 1.1597561e-38
0.10679303 0.068159014 0.019511759 9.7586747e-39
0.10678664 0.072639182 0.018842995 5.7085592e-39
0.10696229 0.077047065 0.019295096 5.0588991e-39
0.10768989 0.080344528 0.020531058 4.5096923e-39
0.10779901 0.093154818 0.019650519 1.0213563e-38
0.10681634 0.096615538 0.018622279 1.1594321e-38
0.10680027 0.10037979 0.017447948 1.3253118e-38
0.10680027 0.1042434 0.017160296 1.878561e-38
0.10666761 0.1084563 0.015943766 1.9250468e-38
0.10808547 0.11067329 0.016554415 9.6524227e-39
0.10424465 0.061179034 0.021627069 7.7293367e-39
0.10392609 0.064744964 0.02164495 8.1967735e-39
0.10312071 0.068298191 0.021460056 6.3528679e-39
0.10398686 0.072401866 0.020817041 3.497676e-39
0.10425942 0.076093405 0.02152282 4.692615e-39
0.10295491 0.096630678 0.018891096 1.1960592e-38
0.10292882 0.10025042 0.016497016 1.7031339e-38
0.10356951 0.10410236 0.016146898 2.0352219e-38
0.10334938 0.10875732 0.015374303 2.2199669e-38
0.10163757 0.11173761 0.015097737 1.4252481e-38
0.0978145 0.094223887 0.020810366 1.306899e-38
0.099092141 0.096608713 0.018827081 1.5372215e-38
0.099715471 0.098911032 0.016242862 1.9249081e-38
0.094807006 0.093348861 0.020837128 1.5739882e-38
0.09539257 0.096297085 0.017620802 1.8785241e-38
0.090510264 0.08997184 0.021849453 1.5553665e-38
0.091374665 0.092859983 0.020429313 1.8505782e-38
0.092027076 0.095115155 0.017286003 2.0907157e-38
0.087346688 0.089244053 0.02171272 1.7490904e-38
0.087681815 0.092643827 0.020040989 2.0625199e-38
0.083646066 0.08909291 0.021922112 1.8873098e-38
0.08365906 0.092230678 0.020847559 2.0438997e-38
0.079971105 0.089469418 0.022065639 2.0622315e-38
0.079437718 0.092331082 0.021041751 2.2278598e-38
0.075288258 0.089367896 0.02229166 2.2835728e-38
0.0754712 0.091746017 0.020182073 2.3109086e-38
0.069456898 0.086035773 0.024224997 1.7675301e-38
0.070972204 0.088901669 0.021972358 2.1266943e-38
0.067136727 0.086181939 0.024443626 1.7674949e-38
0.066804193 0.088640898 0.021558523 1.7579115e-38
0.064300962 0.086719364 0.024684131 1.9151122e-38
0.063047059 0.089232534 0.023837328 1.9332975e-38
0.062953644 0.092785329 0.022098541 1.5828819e-38
0.062523 0.096689731 0.020758867 1.2608795e-38
0.061914161 0.099187896 0.019961357 1.1873771e-38
0.059145026 0.089986295 0.024950862 1.8228823e-38
0.059168167 0.093167126 0.024263859 1.6658255e-38
0.059248842 0.096863642 0.022413313 1.3622603e-38
0.05999206 0.099201977 0.020150423 1.2060328e-38
0.058938377 0.10971153 0.021235466 1.3072315e-38
0.05904147 0.11260052 0.022143781 1.2794637e-38
0.054848418 0.089802489 0.025389552 1.5833175e-38
0.055335768 0.093136013 0.024085462 1.4820452e-38
0.055417657 0.096841648 0.02234602 1.27961e-38
0.054994605 0.10000901 0.020584643 1.2058889e-38
0.054225765 0.10438047 0.020335197 1.2154015e-38
0.055411719 0.10844202 0.021594822 1.2982652e-38
0.055467613 0.11238888 0.023142755 1.2888284e-38
0.050766654 0.082943514 0.026304007 1.3719144e-38
0.05141113 0.085522115 0.026048183 1.4085045e-38
0.051417917 0.089385808 0.025647879 1.334819e-38
0.051481299 0.093152583 0.024353504 1.2704267e-38
0.051537067 0.096920967 0.023171842 1.1783744e-38
0.051591761 0.100679 0.021990955 1.1508242e-38
0.051564187 0.10459241 0.022150099 1.1600812e-38
0.051480673 0.10862827 0.023201406 1.1877738e-38
0.052086152 0.11128367 0.023559511 1.2246163e-38
0.047544196 0.082321286 0.026669085 1.2887225e-38
0.04758995 0.085485801 0.025757194 1.2610993e-38
0.047612831 0.089323714 0.025133193 1.159754e-38
0.047620453 0.093180865 0.024733305 1.1599342e-38
0.047650546 0.096999258 0.023998201 1.1137672e-38
0.047673635 0.1008262 0.023375154 1.0771423e-38
0.047612831 0.10480088 0.023980856 1.0864682e-38
0.047815345 0.10799783 0.02452898 1.0957927e-38
0.044966228 0.085569322 0.026682198 1.2795012e-38
0.043718114 0.08939679 0.025960803 1.2518779e-38
0.04375156 0.093221277 0.025224984 1.2059975e-38
0.043768086 0.097065642 0.024713159 1.1509318e-38
0.043767668 0.10093367 0.024425209 1.2242228e-38
0.043726161 0.10487068 0.024696052 1.3162741e-38
0.044321738 0.10753231 0.025110722 1.3256397e-38
0.040583692 0.089734733 0.02680558 8.2810447e-39
0.04045479 0.093352333 0.026548982 8.3642609e-39
0.040777035 0.097224966 0.026228786 8.6336479e-39
0.04109928 0.1010976 0.025908589 9.0020689e-39
0.04109928 0.10432675 0.025668144 9.1043328e-39
0.17088637 0.076688811 0.014600217 1.9062908e-38
0.13110302 0.094449371 0.011348963 1.8141298e-38
0.12325092 0.082679912 0.012331605 1.8690876e-38
0.12086125 0.085593075 0.011637151 1.4726118e-38
0.1195271 0.095867306 0.011147857 1.5008085e-38
0.11557387 0.077819809 0.011206388 8.09632e-39
0.13045453 0.089035928 0.012162507 1.5746738e-38
0.16334869 0.090306655 0.012604535 1.5836064e-38
0.17033181 0.064828545 0.018848896 2.2011739e-38
0.13144255 0.080178902 0.01782316 1.8969623e-38
0.12599693 0.091131851 0.017692268 1.8231341e-38
0.13117364 0.058295041 0.017330825 1.8690511e-38
0.11589677 0.08656998 0.01656878 1.5928243e-38
0.13109712 0.11157912 0.015362382 1.4825181e-38
0.12743936 0.11203066 0.016106367 1.3906445e-38
0.11640182 0.095383465 0.019499481 1.6941327e-38
0.16696566 0.060571905 0.019498765 2.2474159e-38
0.16805115 0.064159364 0.018548608 2.2007761e-38
0.16831774 0.068039179 0.018137395 2.0718817e-38
0.16892761 0.071250081 0.017502129 1.9797239e-38
0.16808403 0.10085601 0.015549183 1.8322115e-38
0.16709514 0.10312441 0.016317725 1.869341e-38
0.16308168 0.056708269 0.020170629 2.2471282e-38
0.16420475 0.059851009 0.018985927 2.2286531e-38
0.16504928 0.10172184 0.015616953 1.7679233e-38
0.16379091 0.10436372 0.015880585 1.7405199e-38
0.15849483 0.052960981 0.020903349 2.2928631e-38
0.15947999 0.056007545 0.019907355 2.2192161e-38
0.16117096 0.1049889 0.015757322 1.6941338e-38
0.15936881 0.10846516 0.016501188 1.6759815e-38
0.15867978 0.11097021 0.016565979 1.6854171e-38
0.15414844 0.050027419 0.021551669 2.2927569e-38
0.15475678 0.052595925 0.020852506 2.2560573e-38
0.15599987 0.055151489 0.019979477 2.2468392e-38
0.15341432 0.10569344 0.016472101 1.491948e-38
0.15476622 0.10836156 0.01681149 1.6024034e-38
0.15479578 0.11099866 0.016948044 1.5564144e-38
0.15091178 0.050051123 0.021870077 2.1914842e-38
0.15085645 0.052613605 0.021013081 2.1270555e-38
0.15082878 0.10571237 0.016726434 1.6391005e-38
0.15088411 0.10838999 0.017193377 1.8051607e-38
0.15123545 0.11134908 0.017274141 1.8049466e-38
0.14702776 0.050079569 0.022252142 2.1364181e-38
0.14698912 0.05200189 0.021609068 2.0903559e-38
0.14698911 0.10904495 0.017361939 1.7683912e-38
0.14676884 0.11157639 0.017699003 1.7589201e-38
0.14287087 0.049582228 0.022498906 2.1085433e-38
0.14307213 0.051359784 0.021540523 2.0809567e-38
0.14307213 0.10965557 0.017200112 1.6575409e-38
0.14294885 0.11199304 0.017901957 1.7036014e-38
0.13922679 0.049465917 0.022565722 2.0532262e-38
0.1404866 0.10967451 0.017454445 1.593076e-38
0.13924065 0.11237182 0.018096626 1.7683184e-38
0.1349889 0.048857749 0.023246109 2.0440784e-38
0.13402273 0.05142606 0.022430718 1.979543e-38
0.13533559 0.11364439 0.018004239 1.7956911e-38
0.13408108 0.11504246 0.018695951 1.7405161e-38
0.13019708 0.046310756 0.024197519 2.0714885e-38
0.13146165 0.048872072 0.023322046 2.0532631e-38
0.13143718 0.051445 0.022685051 1.9887617e-38
0.13208356 0.11362244 0.017991662 1.5383724e-38
0.13212056 0.11630778 0.018459857 1.7404099e-38
0.12760773 0.046329718 0.024452269 2.0256057e-38
0.12757516 0.048895836 0.02359271 2.00731e-38
0.12820524 0.05146867 0.023002982 1.9887623e-38
0.12755886 0.11689423 0.018195629 1.6210607e-38
0.1269604 0.1189867 0.019106627 1.7682486e-38
0.12372373 0.046358168 0.024834335 1.9797951e-38
0.12368805 0.048269838 0.023855865 1.9797573e-38
0.12369461 0.1169702 0.018908083 1.4275879e-38
0.12372373 0.1190104 0.019424975 1.5381168e-38
0.11983972 0.046386614 0.025216401 1.9707185e-38
0.11965469 0.048793599 0.024425805 1.9891568e-38
0.11850944 0.11372185 0.019326985 9.8587877e-39
0.11982722 0.11639783 0.019669116 9.5775485e-39
0.11593451 0.048981093 0.024737835 1.8045877e-38
0.1159239 0.11341693 0.019605398 9.1133123e-39
0.11595571 0.11569415 0.02044028 8.1949462e-39
0.11222024 0.049177442 0.025258541 1.5376484e-38
0.10989095 0.052034628 0.024772346 1.427049e-38
0.11010641 0.085930973 0.022227287 7.1793845e-39
0.10989095 0.089171201 0.022007346 8.373969e-39
0.11290742 0.11333106 0.019910157 7.2740731e-39
0.10851137 0.050037324 0.026065111 1.4269048e-38
0.10688189 0.052940886 0.025434375 1.3070162e-38
0.10558171 0.056168485 0.02489084 1.05816e-38
0.10558171 0.078839064 0.023202896 4.4163771e-39
0.1066263 0.081735313 0.023488462 4.8759343e-39
0.10850625 0.085691407 0.023159087 6.3499882e-39
0.10774933 0.089470267 0.022868693 7.8218729e-39
0.10610214 0.092847258 0.022309959 9.3852371e-39
0.10429631 0.057500217 0.025422573 7.9925846e-39
0.1030035 0.06075713 0.025408745 7.7242822e-39
0.1022205 0.064354517 0.024613857 8.1921001e-39
0.10170339 0.068503782 0.024356008 6.7173386e-39
0.10235375 0.073059589 0.024288356 4.7865903e-39
0.10429631 0.078243755 0.023878098 5.0595899e-39
0.1030031 0.093166798 0.022951007 9.7515169e-39
0.10041969 0.064691909 0.025774419 8.9253267e-39
0.10041969 0.068583995 0.025484622 7.452726e-39
0.10041969 0.071178719 0.025291443 6.5340095e-39
0.097830348 0.090658098 0.024097204 1.0207113e-38
0.099284165 0.093039438 0.02339828 1.0671652e-38
0.094917446 0.090329319 0.024157941 1.1964178e-38
0.096102498 0.092329934 0.023471892 1.3068696e-38
0.090062328 0.086822912 0.025151134 1.371051e-38
0.091790654 0.088921919 0.024320126 1.3527531e-38
0.087476604 0.086160704 0.025120378 1.4727533e-38
0.08877565 0.088030398 0.024180889 1.6013588e-38
0.083594486 0.086189136 0.025502264 1.5930009e-38
0.078410313 0.079124078 0.026876867 1.500091e-38
0.07892818 0.081974484 0.026613414 1.4542083e-38
0.079714634 0.085558265 0.02582103 1.7123897e-38
0.079079844 0.088101402 0.025134683 2.0160953e-38
0.075451054 0.07803373 0.027250767 1.4634648e-38
0.075820982 0.081737772 0.026938438 1.4079643e-38
0.075836167 0.085576057 0.026091397 1.7400156e-38
0.077140696 0.088115603 0.025325418 2.1550722e-38
0.071289636 0.068797342 0.028350115 1.6017203e-38
0.072098814 0.078035116 0.027582288 1.4084326e-38
0.072306871 0.081948847 0.027270317 1.3526842e-38
0.071958721 0.085593835 0.026361644 1.7309406e-38
0.073262371 0.088144004 0.025706947 2.2283985e-38
0.067794025 0.065709278 0.028925776 1.7216447e-38
0.068052962 0.068821043 0.028668463 1.5372533e-38
0.06675829 0.072722614 0.028506041 1.4634301e-38
0.068052955 0.083092019 0.027605951 1.4912314e-38
0.068052955 0.084389389 0.027509332 1.5926113e-38
0.065463625 0.06559661 0.029164672 1.648139e-38
0.064945757 0.068584338 0.028993487 1.5648758e-38
0.065463625 0.072083414 0.028681695 1.5189966e-38
0.064009413 0.085290849 0.027266502 1.8874896e-38
0.06004627 0.085836172 0.027790606 1.8967448e-38
0.059041858 0.088248163 0.027105808 1.8873107e-38
0.059662454 0.11551791 0.025517821 1.3998268e-38
0.053811602 0.079304248 0.029296637 1.6204498e-38
0.054951832 0.082041323 0.028854132 1.7123559e-38
0.055613846 0.085598961 0.02800858 1.7399417e-38
0.056025378 0.088702083 0.027370393 1.7030972e-38
0.053870775 0.11419527 0.02568543 1.2889373e-38
0.055646665 0.11582072 0.025993228 1.4182267e-38
0.051222257 0.078674525 0.029599667 1.4083254e-38
0.051452182 0.081481434 0.028648317 1.4266936e-38
0.05106429 0.11336869 0.026600361 1.233728e-38
0.05096332 0.11617017 0.026833534 1.2614934e-38
0.047079317 0.074942529 0.030287325 1.3806667e-38
0.047345892 0.078044683 0.029918075 1.2978704e-38
0.047406904 0.08056061 0.028829038 1.270392e-38
0.04706607 0.11006775 0.026917696 1.2059963e-38
0.047508433 0.11290294 0.027292609 1.2704259e-38
0.048632927 0.1156683 0.027101398 1.2887941e-38
0.04371319 0.074967176 0.030618429 1.3529e-38
0.043824159 0.078080028 0.030375719 1.2518075e-38
0.043643497 0.082101457 0.029716313 1.261062e-38
0.042869493 0.08579129 0.02905637 1.3531141e-38
0.043301158 0.1095359 0.027653635 1.1781243e-38
0.044748925 0.11180465 0.027773261 1.5276725e-38
0.040864922 0.083291143 0.030280411 1.0306826e-38
0.040243618 0.085858271 0.029814899 8.7370203e-39
0.038733803 0.089760467 0.029673696 7.9004184e-39
0.03827557 0.09368901 0.029762387 8.8180531e-39
0.038841836 0.097508997 0.028817415 8.2691996e-39
0.038990229 0.10136937 0.028280199 8.0869761e-39
0.039234363 0.10549043 0.028357089 7.9065253e-39
0.040864922 0.10858969 0.028396785 9.6478026e-39
0.036980912 0.097590566 0.029599905 1.0021979e-38
0.036980912 0.10148266 0.029310167 9.9319565e-39
0.036980912 0.10407738 0.029116929 1.0673102e-38
0.031154901 0.098930597 0.030076444 1.0213189e-38
0.031802237 0.10022323 0.029916167 9.6610939e-39
0.085337624 0.10307917 0.013112783 1.5471218e-38
0.12288727 0.090421408 0.010405719 1.9062191e-38
0.089507967 0.11036694 0.01026988 2.2671824e-38
0.12564853 0.076857492 0.014431 1.70346e-38
0.13682655 0.086890474 0.017408013 1.9702855e-38
0.13159692 0.097978503 0.017231107 1.6666524e-38
0.13496694 0.060143679 0.015866339 1.8873474e-38
0.12356097 0.052664552 0.020574212 1.9338052e-38
0.10210761 0.077550486 0.020047367 1.6205554e-38
0.096971408 0.097321868 0.020646274 1.5192837e-38
0.1668708 0.053373504 0.024074674 2.239527e-38
0.091578119 0.06940911 0.026549757 1.7679963e-38
0.16361517 0.050134949 0.024637878 2.2484935e-38
0.16412029 0.052670758 0.022943616 2.257426e-38
0.16493285 0.056164138 0.021035671 2.2663217e-38
0.16421974 0.10924417 0.017154157 1.9797249e-38
0.16402839 0.11245532 0.017605782 1.9519957e-38
0.16426629 0.11537816 0.019715786 1.970795e-38
0.15942772 0.048931409 0.024042547 2.2752533e-38
0.16058935 0.052103277 0.021767676 2.2840396e-38
0.15968174 0.11288974 0.01777941 1.7682129e-38
0.15970841 0.11541153 0.020164132 1.8325705e-38
0.15489009 0.045761991 0.025826454 2.2931891e-38
0.15519693 0.04845231 0.024012506 2.2838971e-38
0.15491402 0.11312594 0.018121481 1.6023313e-38
0.15513317 0.1159392 0.020375848 1.7216828e-38
0.15121643 0.045645565 0.025862634 2.2471238e-38
0.15110609 0.048199557 0.024339974 2.2379055e-38
0.15073547 0.1132407 0.018190384 1.8326759e-38
0.15107778 0.1158479 0.018970132 1.8141293e-38
0.14725971 0.045649812 0.025581956 2.2100322e-38
0.14713149 0.048187602 0.023726225 2.1826958e-38
0.14742923 0.11345981 0.018501103 1.7772513e-38
0.14704081 0.11623733 0.019916296 1.7866141e-38
0.14212802 0.042462565 0.027334511 2.1360591e-38
0.143143 0.045384228 0.025577128 2.1453154e-38
0.14353952 0.047875628 0.023768902 2.1361681e-38
0.14386368 0.11381075 0.018827617 1.7404086e-38
0.14331907 0.11661854 0.020128012 1.7404465e-38
0.14316982 0.11996953 0.021460652 1.9062897e-38
0.1394356 0.045041487 0.02606529 2.0899623e-38
0.13932569 0.047581673 0.024207592 2.0808858e-38
0.14062226 0.11383449 0.019146502 1.8136622e-38
0.13939896 0.11660001 0.020181239 1.8141287e-38
0.1395141 0.12038575 0.021647394 1.9338046e-38
0.13549626 0.04504592 0.025782824 2.0809572e-38
0.13673256 0.047600664 0.0244627 2.0625175e-38
0.13565928 0.1167738 0.020426214 1.8418242e-38
0.13587722 0.12002294 0.022178054 1.8785945e-38
0.13157265 0.045273844 0.025650263 2.0900711e-38
0.13301226 0.11952193 0.022498727 1.8048747e-38
0.12693509 0.042138852 0.028861403 2.099038e-38
0.12771396 0.044459075 0.026764274 2.1269476e-38
0.1273973 0.12094735 0.019925058 1.749666e-38
0.12650101 0.12348451 0.022847712 1.8145991e-38
0.12388243 0.041932784 0.028842807 2.0066974e-38
0.12381011 0.044481881 0.026980817 2.053229e-38
0.12376691 0.12110387 0.020272493 1.5197532e-38
0.12363605 0.12402748 0.02309072 1.4919506e-38
0.12030546 0.042287957 0.029254198 1.9977291e-38
0.11991473 0.044510409 0.027363956 2.0070944e-38
0.11990223 0.12058167 0.021365464 9.1162144e-39
0.11998975 0.12353219 0.023488224 9.1158543e-39
0.11601935 0.045188569 0.027698755 1.8786675e-38
0.11598753 0.11758788 0.021303773 8.1005659e-39
0.11639034 0.12047081 0.022056937 8.3750368e-39
0.11212675 0.045875348 0.028200626 1.6481749e-38
0.11274612 0.1172868 0.021646798 7.825072e-39
0.10957174 0.046615891 0.030245543 1.5279271e-38
0.10794883 0.048331186 0.027255416 1.4266906e-38
0.10691158 0.085497648 0.02459079 6.256331e-39
0.10691158 0.088745788 0.024348915 7.361608e-39
0.10532277 0.049539432 0.029440522 1.2608121e-38
0.10396507 0.052913014 0.028603911 1.0581261e-38
0.10303219 0.056984536 0.027903676 8.7316042e-39
0.10172532 0.060200039 0.026987314 8.3671209e-39
0.10304762 0.077900499 0.027553976 5.4276493e-39
0.10434093 0.081762388 0.026735425 5.2418161e-39
0.1051341 0.086000875 0.027147591 6.3467064e-39
0.10389997 0.089517638 0.025596976 7.8193491e-39
0.10110711 0.053202685 0.030592382 1.4359735e-38
0.10045026 0.057091683 0.02979213 1.1230149e-38
0.099509336 0.061101351 0.028003097 1.1045428e-38
0.098483905 0.06477119 0.026967585 9.8497549e-39
0.098483905 0.068668976 0.02667737 8.3771668e-39
0.099719919 0.073530115 0.02753675 6.8116488e-39
0.10045598 0.077218711 0.028868675 6.441074e-39
0.10000628 0.089401364 0.025990784 8.9210276e-39
0.097417392 0.05801456 0.030599117 1.46389e-38
0.096385166 0.060881149 0.030109882 1.426725e-38
0.095406339 0.065053813 0.02876246 1.1598986e-38
0.095243216 0.068787128 0.028332651 1.0402234e-38
0.095895901 0.073396817 0.028668642 8.9292868e-39
0.09628877 0.077249229 0.029278636 8.4679387e-39
0.09576609 0.086531878 0.027429998 9.9348137e-39
0.095893681 0.088676155 0.026115835 1.0485485e-38
0.092383236 0.062128041 0.030589283 1.5927133e-38
0.091605023 0.06482707 0.029760003 1.3904226e-38
0.091350339 0.068783745 0.028270125 1.2428035e-38
0.091546662 0.073543921 0.028628349 1.0951837e-38
0.0919943 0.078007743 0.028975189 1.0581636e-38
0.091486745 0.08224231 0.029045999 1.1778715e-38
0.091999546 0.085441187 0.027077675 1.1869843e-38
0.087433472 0.053955313 0.031888902 1.7764603e-38
0.086912572 0.057743508 0.031658351 1.601719e-38
0.087440051 0.061092298 0.030685067 1.5371461e-38
0.087449096 0.064937994 0.029390216 1.4083244e-38
0.087455258 0.068796962 0.028430581 1.3254584e-38
0.087446317 0.073427275 0.029094279 1.4175813e-38
0.087443344 0.078012884 0.029089034 1.3899212e-38
0.08745078 0.081861287 0.028130054 1.3526489e-38
0.087463111 0.084340826 0.026600659 1.3991403e-38
0.083852276 0.054307777 0.032216847 1.7486239e-38
0.083345391 0.057604611 0.031733632 1.638347e-38
0.083542921 0.061100829 0.030734122 1.5645552e-38
0.083570376 0.064894468 0.028657496 1.5462605e-38
0.083560005 0.068842493 0.029036403 1.629379e-38
0.083542265 0.07348074 0.029812336 1.6753302e-38
0.083563887 0.077928305 0.028135598 1.5002688e-38
0.083573416 0.081770793 0.027176738 1.4541009e-38
0.083573416 0.084369317 0.026983261 1.4910516e-38
0.080271088 0.05466025 0.032544851 1.8223085e-38
0.079624474 0.057262551 0.032191217 1.7947923e-38
0.079649813 0.061103355 0.03067112 1.7858973e-38
0.079668298 0.064952418 0.029487133 1.7582738e-38
0.079645507 0.068933263 0.030312419 1.7213571e-38
0.079673104 0.073391467 0.028690338 1.6756915e-38
0.079845786 0.077737898 0.02784574 1.5465112e-38
0.080656148 0.081467345 0.027487934 1.4724326e-38
0.07555043 0.057467863 0.032802761 1.8776958e-38
0.075746126 0.061145145 0.031278014 1.8410708e-38
0.075788461 0.064951465 0.029422998 1.7951148e-38
0.075788461 0.068851359 0.029132605 1.7213948e-38
0.075789861 0.073395044 0.028738201 1.5926818e-38
0.077090599 0.077270858 0.028153062 1.5192123e-38
0.071806446 0.058637124 0.033086061 1.896387e-38
0.07183183 0.061200216 0.032108903 1.8596164e-38
0.071904339 0.064965867 0.029582202 1.7767478e-38
0.072089568 0.068862289 0.029273808 1.6387775e-38
0.071904324 0.073411062 0.028953433 1.4821172e-38
0.070607774 0.07666871 0.028839111 1.3989259e-38
0.070607774 0.081216127 0.028500557 1.3620812e-38
0.067899704 0.058665734 0.033470333 1.8687998e-38
0.067972064 0.061161634 0.031373978 1.8318858e-38
0.068338782 0.064017534 0.030005515 1.785896e-38
0.06844683 0.073652923 0.029277384 1.4266935e-38
0.068014652 0.077986956 0.028997481 1.3897429e-38
0.068014644 0.081235111 0.028755605 1.3623724e-38
0.063992947 0.058694351 0.033854663 1.8044838e-38
0.063884452 0.06139249 0.0324049 1.7676724e-38
0.063741393 0.064858109 0.030685604 1.6572162e-38
0.063152522 0.069252566 0.030128717 1.5648774e-38
0.063865639 0.073729783 0.029724836 1.4728619e-38
0.064124957 0.078015447 0.029380083 1.5187107e-38
0.064124957 0.081913233 0.029089868 1.703244e-38
0.060102761 0.061312325 0.033708632 1.7031691e-38
0.060190678 0.065108694 0.031625926 1.6201938e-38
0.060235262 0.068949118 0.030439854 1.5280353e-38
0.060235254 0.073496521 0.030101299 1.5463659e-38
0.060235262 0.078043938 0.029762745 1.795222e-38
0.060235254 0.081941724 0.02947253 1.8413556e-38
0.059811741 0.1176333 0.028872311 1.5839651e-38
0.056559153 0.061536387 0.034234524 1.6382037e-38
0.056215942 0.0652325 0.033465505 1.6294125e-38
0.056270465 0.069072567 0.032166421 1.601721e-38
0.056345552 0.073525012 0.030483902 1.749232e-38
0.05634556 0.078072429 0.030145347 1.7676368e-38
0.057317995 0.081638277 0.029783666 1.8229537e-38
0.056516662 0.11805736 0.028763592 1.6208395e-38
0.053574935 0.062685534 0.034587979 1.7581636e-38
0.052706763 0.065736793 0.034446657 1.6846204e-38
0.052319758 0.069164239 0.033446133 1.6848756e-38
0.052455872 0.073553503 0.030866563 1.6477818e-38
0.05278001 0.077124096 0.030568659 1.5557667e-38
0.052715182 0.1178564 0.027542293 1.3076263e-38
0.052303687 0.12036686 0.029915214 1.2800061e-38
0.048365928 0.066638559 0.034808874 1.620482e-38
0.048153915 0.069329634 0.033924222 1.5925009e-38
0.048330426 0.072934091 0.031320751 1.4821167e-38
0.049862742 0.076820642 0.030879796 1.316201e-38
0.045973055 0.1145277 0.028457046 1.3814189e-38
0.04759375 0.11727676 0.028092086 1.3257427e-38
0.048691496 0.12046574 0.030768991 1.2888653e-38
0.044123575 0.069183245 0.033695579 1.518815e-38
0.043194696 0.072600484 0.031853616 1.4173652e-38
0.042083353 0.078176886 0.031548321 1.2609193e-38
0.042083353 0.08077541 0.031354845 1.2330811e-38
0.043571241 0.1132918 0.029122531 1.1593975e-38
0.044139124 0.11764885 0.030709386 1.3070184e-38
0.040552422 0.066695787 0.035577536 1.5369669e-38
0.040448241 0.069089293 0.034653842 1.4452021e-38
0.040078491 0.073702008 0.032835484 1.3348553e-38
0.040058501 0.07827583 0.032748938 1.1409941e-38
0.03997685 0.081865408 0.031885087 9.1029357e-39
0.038193651 0.086000934 0.031350493 9.4634366e-39
0.038193658 0.088599458 0.031157017 9.0928422e-39
0.039096899 0.10960422 0.029791713 9.2819054e-39
0.040843748 0.11335742 0.031671524 8.1780941e-39
0.04185468 0.11627471 0.031757295 8.0859546e-39
0.037642829 0.069635078 0.035394609 1.3713749e-38
0.037424915 0.073583543 0.03494215 1.261207e-38
0.037947908 0.078459501 0.034959257 1.1501016e-38
0.037296787 0.082379147 0.034731805 1.1129781e-38
0.036078684 0.086206496 0.03355974 1.2146046e-38
0.035946503 0.090129167 0.031553388 1.2052064e-38
0.035600536 0.093815506 0.031025171 1.2142799e-38
0.034952261 0.09771803 0.030798733 1.2969697e-38
0.034952261 0.1016158 0.030508518 1.2509092e-38
0.035600543 0.10550885 0.030154586 1.2148591e-38
0.036107235 0.10961972 0.031477809 1.2147866e-38
0.036645666 0.11239797 0.032561183 1.232758e-38
0.033520281 0.086321682 0.034811854 1.2885761e-38
0.03235478 0.090188459 0.034079492 1.3529712e-38
0.03162919 0.093938351 0.032304585 1.251843e-38
0.031896085 0.097369194 0.031127095 1.1504289e-38
0.031710841 0.10228918 0.030779004 8.6516097e-39
0.032032169 0.10568802 0.031725764 9.5707032e-39
0.032768331 0.10977365 0.032804251 1.0952203e-38
0.028681278 0.090095997 0.034883618 1.2979062e-38
0.027777381 0.094099954 0.033919036 1.1871631e-38
0.027755156 0.097845808 0.032172859 9.9373179e-39
0.028107829 0.10158174 0.032051802 8.9270882e-39
0.028630987 0.10591154 0.033668935 8.6501776e-39
0.029700324 0.10896896 0.033503473 8.8345702e-39
0.026227653 0.090289965 0.03523773 1.3254574e-38
0.025359496 0.094211206 0.035031617 1.2242549e-38
0.024925411 0.098129258 0.034782887 9.9398178e-39
0.025576532 0.10203937 0.034427345 8.9253001e-39
0.088013045 0.098102584 0.010745645 1.5190309e-38
0.082956016 0.099104971 0.011168659 2.2929738e-38
0.11814806 0.080146551 0.013101757 1.6571456e-38
0.13849397 0.080459096 0.011765599 1.2980867e-38
0.16420475 0.059851009 0.018985927 2.2286531e-38
0.13548529 0.085125014 0.017065048 1.5835687e-38
0.13018416 0.098446831 0.013935387 1.5929695e-38
0.10538194 0.085872561 0.020557702 1.4640389e-38
0.098939419 0.095785171 0.021329224 1.4641094e-38
0.10761171 0.090792209 0.024855137 1.7585971e-38
0.097617313 0.073939845 0.026706576 1.6662931e-38
0.10045116 0.09592621 0.024352908 1.7954026e-38
0.064609811 0.079118893 0.030257642 1.2149996e-38
0.066368058 0.073083535 0.029175341 1.4084316e-38
0.1645045 0.11766559 0.021872997 2.007743e-38
0.16410978 0.12060332 0.022969663 2.1182703e-38
0.15812495 0.042476691 0.02978164 2.2750771e-38
0.15979011 0.045160949 0.028134644 2.2574267e-38
0.16185811 0.047618739 0.027014256 2.2577155e-38
0.15989906 0.11765167 0.021993816 1.8695561e-38
0.16005138 0.12089537 0.023349345 1.961357e-38
0.15520822 0.041959904 0.029705584 2.293404e-38
0.15569924 0.04408212 0.028390586 2.2933693e-38
0.15532792 0.11801232 0.022419035 1.77693e-38
0.15530829 0.12103236 0.023833513 1.8874924e-38
0.15026595 0.038596578 0.030847907 2.2563464e-38
0.15152988 0.041194625 0.029969633 2.2749632e-38
0.15140978 0.043768987 0.028334379 2.2745316e-38
0.15140978 0.11836822 0.02278012 1.8326047e-38
0.15150222 0.12114836 0.023683548 1.924478e-38
0.15070257 0.12434714 0.024420202 2.034968e-38
0.14764628 0.038615767 0.031105638 2.2471973e-38
0.14756897 0.041210525 0.029912472 2.2285444e-38
0.14749165 0.043797687 0.028719783 2.2286154e-38
0.14814468 0.11839212 0.02310127 1.7955468e-38
0.14752665 0.12107962 0.023410141 1.9245142e-38
0.14760354 0.12516078 0.024106324 2.0811004e-38
0.14371678 0.038644549 0.031492174 2.1732253e-38
0.14378178 0.041062362 0.02992022 2.1917723e-38
0.14422655 0.043821603 0.029040992 2.1913776e-38
0.14390004 0.1220223 0.023250878 2.0166012e-38
0.14363763 0.12510513 0.023943007 2.0903211e-38
0.14371678 0.12789845 0.024846733 2.1363113e-38
0.13976562 0.038008161 0.031594455 2.1180144e-38
0.13967738 0.041247077 0.030018508 2.1085459e-38
0.1396554 0.12238058 0.02364403 1.9705755e-38
0.13970646 0.12511739 0.024218917 2.0994687e-38
0.14109711 0.12791763 0.025104403 2.1454589e-38
0.13555966 0.038162991 0.031730294 2.1177992e-38
0.13575736 0.041275792 0.03040421 2.1084726e-38
0.13541076 0.12208448 0.024085939 1.8878509e-38
0.13577744 0.12512881 0.024494827 2.0626983e-38
0.13585778 0.127956 0.025619805 2.0998644e-38
0.13225573 0.038400345 0.032643974 2.0991797e-38
0.13186786 0.041321874 0.031345308 2.090069e-38
0.13247216 0.043907691 0.030197263 2.1087605e-38
0.13183419 0.12154526 0.024767816 1.8049827e-38
0.13186723 0.12519133 0.025100827 1.9890519e-38
0.12799878 0.038759667 0.033038378 2.0807072e-38
0.12836927 0.040903322 0.031498611 2.0808139e-38
0.12920706 0.1224571 0.024671853 1.7862929e-38
0.12810141 0.12536164 0.025320709 1.9710439e-38
0.12668894 0.12867944 0.026472867 1.8978645e-38
0.12537912 0.038778849 0.033295989 2.0622304e-38
0.12402609 0.0400723 0.032325923 1.9880782e-38
0.12430941 0.12609206 0.024885654 1.5842181e-38
0.12404111 0.12793836 0.026118219 1.5106409e-38
0.12013978 0.038817223 0.03381139 1.9609589e-38
0.11983319 0.040621087 0.0324983 1.9887245e-38
0.12006477 0.12579596 0.025327623 9.114048e-39
0.11985531 0.12850447 0.026557326 9.1083237e-39
0.11752011 0.038836408 0.034069061 1.9886189e-38
0.11618531 0.04144641 0.033223093 1.9152219e-38
0.11485556 0.12198219 0.02663058 1.0225021e-38
0.11617792 0.12532309 0.026754975 1.0127805e-38
0.1170835 0.12853104 0.027434111 1.0591657e-38
0.11243774 0.041654617 0.03411001 1.7586692e-38
0.11223659 0.044067468 0.032522857 1.7218615e-38
0.11359061 0.12418142 0.028103411 1.0132075e-38
0.10922451 0.042397328 0.034624577 1.7306866e-38
0.10815968 0.045252621 0.033131719 1.5832809e-38
0.1048476 0.045904167 0.034124613 1.5279995e-38
0.10361673 0.049116943 0.033268213 1.3712294e-38
0.10308622 0.082731292 0.030213356 5.7024159e-39
0.10342237 0.085745171 0.030711472 6.3463574e-39
0.10049228 0.046836473 0.0351578 1.8778711e-38
0.10048199 0.049413584 0.033847332 1.785963e-38
0.099168085 0.053312924 0.032791257 1.7307477e-38
0.099168092 0.055930439 0.03259635 1.454734e-38
0.10047413 0.079151332 0.030738235 6.440009e-39
0.10048018 0.082156509 0.031185746 6.4389356e-39
0.10048081 0.086085945 0.030893087 7.2640258e-39
0.096561477 0.049470928 0.034902573 2.0626243e-38
0.096556 0.053332057 0.033048272 1.8966701e-38
0.096120656 0.056825269 0.032831252 1.6665766e-38
0.096882507 0.079177633 0.031091571 8.0048082e-39
0.096556589 0.082134709 0.031015635 8.0040977e-39
0.09681721 0.085525602 0.030625463 8.8313445e-39
0.092636257 0.049471468 0.034619093 2.044223e-38
0.092637874 0.053360749 0.033433676 1.9521679e-38
0.092637874 0.057287026 0.033141375 1.7311529e-38
0.092376664 0.06042996 0.032933176 1.648139e-38
0.093508571 0.081274554 0.031269193 9.5671214e-39
0.088382304 0.046568133 0.035619855 1.9611744e-38
0.088717096 0.049476661 0.034446537 1.9151832e-38
0.08924216 0.052862119 0.033806682 1.924258e-38
0.088906333 0.056940425 0.033536255 1.6755473e-38
0.090025797 0.060578052 0.033154607 1.6110818e-38
0.084781103 0.046275999 0.036249697 1.9053911e-38
0.084797062 0.049505372 0.03483212 1.8502526e-38
0.084475107 0.052438963 0.034309685 1.7947209e-38
0.084148601 0.056040443 0.03407383 1.6751192e-38
0.081176594 0.046640169 0.036831021 1.9240451e-38
0.080868006 0.049552538 0.035665154 1.8778406e-38
0.080230474 0.053124435 0.034678519 1.8501107e-38
0.077094413 0.049769856 0.036623955 1.9515241e-38
0.07608632 0.053497348 0.035396516 1.9421967e-38
0.076965369 0.056093052 0.034780443 1.8866657e-38
0.072841488 0.049801007 0.03704232 1.9700358e-38
0.07199645 0.053390283 0.035674751 1.9425204e-38
0.071741194 0.056785699 0.035245657 1.9147178e-38
0.068435088 0.049920231 0.037192225 1.9701777e-38
0.06781435 0.053552806 0.036098659 1.8966739e-38
0.067823067 0.056814395 0.035631061 1.8781626e-38
0.064882025 0.049967218 0.038043976 1.9240814e-38
0.06386584 0.05361395 0.037156463 1.8228839e-38
0.063904956 0.057333875 0.035979986 1.8137711e-38
0.065210991 0.060105417 0.035644352 1.8227746e-38
0.060978971 0.050626028 0.038784087 1.8321378e-38
0.059914827 0.053669136 0.038102925 1.7769283e-38
0.059981078 0.057531964 0.036465287 1.7768207e-38
0.060639836 0.11903302 0.031709075 1.759208e-38
0.059912749 0.12089258 0.033153951 2.0171778e-38
0.05726777 0.051090717 0.039116502 1.7311539e-38
0.056142434 0.053869426 0.038643062 1.7029556e-38
0.056043878 0.057578284 0.037187159 1.6104379e-38
0.054762647 0.060836319 0.036623418 1.5187462e-38
0.055540405 0.12105814 0.03374207 1.6763403e-38
0.052683361 0.054405693 0.039323151 1.6569998e-38
0.052229606 0.057820667 0.038484037 1.5278196e-38
0.051971801 0.061361924 0.037112296 1.6478183e-38
0.051279873 0.06456998 0.036689937 1.7305778e-38
0.052138723 0.12252781 0.032491267 1.3076309e-38
0.051373526 0.1246371 0.034223616 1.2983039e-38
0.048320837 0.061767843 0.038324893 1.7675296e-38
0.048232444 0.06530121 0.036936998 1.6570375e-38
0.047931187 0.12261809 0.033303857 1.3534012e-38
0.048098937 0.12466109 0.034545839 1.3259198e-38
0.044209465 0.061653178 0.039061964 1.7583092e-38
0.044298001 0.065507665 0.037534654 1.6289844e-38
0.044459552 0.12191647 0.034102499 1.2517729e-38
0.04071562 0.062119283 0.039428949 1.7949341e-38
0.04035712 0.064899713 0.038249612 1.6477091e-38
0.039498806 0.1148711 0.034445941 9.5656851e-39
0.040339842 0.11797346 0.034515738 9.7447122e-39
0.037620269 0.063047633 0.040169656 1.7584858e-38
0.036578216 0.065762118 0.038811147 1.5830996e-38
0.035694428 0.069221154 0.037885308 1.3621553e-38
0.035416082 0.07447429 0.037723184 1.2334401e-38
0.035825036 0.078643262 0.037170887 1.2057077e-38
0.035172023 0.082574323 0.03694272 1.2332601e-38
0.036421537 0.11472127 0.035097361 1.3065494e-38
0.036310427 0.11687209 0.036291778 1.389703e-38
0.033283353 0.066557214 0.040001452 1.4907969e-38
0.032622263 0.069748431 0.039283514 1.3714821e-38
0.032477096 0.074158058 0.038759708 1.2979055e-38
0.032499827 0.078723907 0.038165569 1.2977247e-38
0.032529674 0.082623184 0.037536323 1.2976532e-38
0.031580396 0.086526901 0.037003696 1.3344949e-38
0.029761255 0.070980541 0.040356398 1.3717332e-38
0.029012777 0.074923709 0.040136933 1.3437532e-38
0.028514236 0.078808948 0.039225161 1.3713744e-38
0.028557189 0.082702383 0.038483202 1.399068e-38
0.028631024 0.086558908 0.037405074 1.3622248e-38
0.027335756 0.10749812 0.035862148 8.743434e-39
0.028206445 0.11054552 0.035549164 9.4788368e-39
0.025347427 0.083052099 0.039491177 1.4544206e-38
0.024785839 0.086835295 0.038660526 1.3992102e-38
0.024053521 0.090524852 0.037618577 1.3256021e-38
0.023744144 0.094436839 0.037189901 1.2152507e-38
0.023417629 0.098365515 0.036929667 1.0031653e-38
0.023744144 0.10261658 0.036580861 8.5583169e-39
0.024712257 0.10622257 0.036328614 8.2810349e-39
0.024622373 0.11026563 0.03693217 9.7586579e-39
0.025428131 0.11340714 0.037290275 1.1602205e-38
0.021902263 0.088101342 0.039859056 1.3531122e-38
0.021200091 0.091175288 0.038893521 1.2703555e-38
0.020709775 0.094553888 0.038377047 1.1691538e-38
0.020733878 0.098460227 0.037859857 9.2036947e-39
0.0207339 0.1023903 0.037567258 7.8232728e-39
0.020686932 0.10637605 0.037722945 7.3619723e-39
0.020796113 0.11021094 0.037944436 8.5623148e-39
0.017972782 0.09600547 0.039659202 1.0944979e-38
0.016687438 0.098614767 0.039368153 9.3873489e-39
0.016699702 0.10253815 0.038962901 7.2693927e-39
0.017972782 0.10584965 0.038926303 6.2577772e-39
0.017317846 0.10913584 0.038746357 7.0871735e-39
0.012911655 0.098817647 0.039824545 1.0031653e-38
0.011423603 0.10195994 0.039863706 8.4661591e-39
0.0097863078 0.09869054 0.040269077 1.0123147e-38
0.0094588548 0.10131806 0.04010582 8.7423816e-39
0.092790179 0.096622676 0.010895371 1.5280354e-38
0.12467073 0.093764976 0.013441086 1.1781956e-38
0.13914169 0.090038091 0.016409099 1.3992502e-38
0.13324043 0.078654036 0.018535554 1.3812078e-38
0.12101617 0.050137423 0.021797895 1.9798669e-38
0.096616246 0.087873653 0.020580232 1.3168487e-38
0.083707586 0.078804687 0.023969591 1.4915889e-38
0.077090599 0.077270858 0.028153062 1.5192123e-38
0.094262756 0.076707594 0.026592374 1.8413569e-38
0.071289636 0.068797342 0.028350115 1.6017203e-38
0.10958897 0.083240792 0.016951501 1.5746727e-38
0.075767316 0.082122982 0.026193917 1.132171e-38
0.13914169 0.090038091 0.016409099 1.3992502e-38
0.091290213 0.070317753 0.026925683 1.6203396e-38
0.16018869 0.038066618 0.033936501 2.2477379e-38
0.16052948 0.041110143 0.032393634 2.2572466e-38
0.16225079 0.043828472 0.031288147 2.2394549e-38
0.16028035 0.12282428 0.025601387 2.0902499e-38
0.16036734 0.12559694 0.026310086 2.1088333e-38
0.16047099 0.12840089 0.027182639 2.219503e-38
0.15583079 0.037995193 0.034036934 2.2844702e-38
0.15603369 0.040261284 0.032420576 2.2934748e-38
0.15699628 0.12284833 0.025924444 2.0717382e-38
0.15576148 0.1256267 0.026735425 2.0902834e-38
0.15586004 0.12843467 0.02763623 2.1453868e-38
0.15124908 0.034737401 0.035068572 2.1830216e-38
0.15199937 0.037184175 0.03393048 2.2564885e-38
0.15220764 0.12600638 0.026498854 2.0626634e-38
0.15161148 0.12893133 0.027616441 2.1458903e-38
0.14795554 0.034761522 0.035392523 2.1920246e-38
0.14785278 0.03670951 0.033914089 2.2102831e-38
0.14761512 0.12886684 0.027411997 2.1275235e-38
0.14396748 0.034119949 0.035331011 2.1642941e-38
0.14387229 0.036727 0.033802688 2.1641492e-38
0.14394599 0.12918898 0.027952433 2.145531e-38
0.14001808 0.034148876 0.035719514 2.0905734e-38
0.13991916 0.036093891 0.034072936 2.1272703e-38
0.13961893 0.12973928 0.028281987 2.1457461e-38
0.13606866 0.034177791 0.036107898 2.0994336e-38
0.1363067 0.036449436 0.034403801 2.1362393e-38
0.13601641 0.12984814 0.028108239 2.1181243e-38
0.13544008 0.1325447 0.029350042 2.0813524e-38
0.13246179 0.034539606 0.036689758 2.0900682e-38
0.13179576 0.036689643 0.035235226 2.0991436e-38
0.13206729 0.12970142 0.02843982 2.0999008e-38
0.13214654 0.13256882 0.029674053 2.1552888e-38
0.1281943 0.034906257 0.037336409 2.1083295e-38
0.12812945 0.036854286 0.03585422 2.0991108e-38
0.12852156 0.12998573 0.029217362 2.0635618e-38
0.1275356 0.13260259 0.030127585 2.0171782e-38
0.12555946 0.034925554 0.03759563 2.0807777e-38
0.12402879 0.037382971 0.036430478 2.0164194e-38
0.1241995 0.13048796 0.029607475 1.4552161e-38
0.1239127 0.13295916 0.030459404 1.3350751e-38
0.12026302 0.037208907 0.037229776 2.007093e-38
0.12055305 0.13072433 0.029194713 1.0035305e-38
0.12027106 0.13323487 0.030295372 1.086648e-38
0.11614949 0.037449896 0.037582695 2.0069495e-38
0.1149603 0.12710528 0.029765487 1.2524877e-38
0.11586693 0.13032928 0.03044349 1.2431617e-38
0.11676546 0.13306753 0.030822456 1.2616741e-38
0.11255804 0.038022783 0.038075328 1.8599014e-38
0.11101942 0.040254626 0.036621749 1.7584901e-38
0.11106789 0.11952165 0.03273046 7.362694e-39
0.11237286 0.12208694 0.031962514 8.1942175e-39
0.11237162 0.12581693 0.031629026 8.7520506e-39
0.11370273 0.12874344 0.031783223 1.1791302e-38
0.10843306 0.039011452 0.038985431 1.8877054e-38
0.1079608 0.041164272 0.037192523 1.7858965e-38
0.10513952 0.039035574 0.039309442 1.9794326e-38
0.10446829 0.041656334 0.038397014 1.8046582e-38
0.10357983 0.044708543 0.037361979 1.6754035e-38
0.10079207 0.042499829 0.03948158 1.8600464e-38
0.10051767 0.044967718 0.038149297 1.8686536e-38
0.096576318 0.04305876 0.039856911 2.0624818e-38
0.096572943 0.045661218 0.038655877 2.0902469e-38
0.092185631 0.042205349 0.040186822 2.0440428e-38
0.092627384 0.045025826 0.038925469 2.0624471e-38
0.089330539 0.039151359 0.040864527 1.9611384e-38
0.088673398 0.041789196 0.040509224 1.9611385e-38
0.088944525 0.044919692 0.039264143 1.9611751e-38
0.084722184 0.042480044 0.040904701 1.9055347e-38
0.084733255 0.04443093 0.039918542 1.9329061e-38
0.083402164 0.1190642 0.035501063 2.2383731e-38
0.08110106 0.042833857 0.041152537 1.9332644e-38
0.080523588 0.044988312 0.040293455 1.9517393e-38
0.081645608 0.11929709 0.035657465 2.3033413e-38
0.077473789 0.043198667 0.041736007 2.043504e-38
0.076840147 0.045805741 0.040596962 2.0159885e-38
0.075551555 0.048412532 0.039522648 2.0161316e-38
0.072897196 0.045830548 0.04087311 1.9978745e-38
0.074237935 0.04842215 0.039651871 1.9977296e-38
0.069111682 0.046027437 0.041344821 1.9332664e-38
0.070297062 0.048451014 0.040039539 1.9606352e-38
0.064993113 0.046558999 0.041880608 1.933625e-38
0.064363755 0.048514687 0.041125536 1.9425915e-38
0.061029993 0.046600237 0.042605519 1.8688004e-38
0.060749389 0.048870243 0.04145658 1.8598311e-38
0.06137035 0.12241679 0.036674917 2.2013904e-38
0.057062455 0.04664214 0.043330729 1.6846973e-38
0.056934416 0.049518283 0.042001545 1.7122834e-38
0.056942858 0.12272584 0.036406159 1.8879264e-38
0.05573643 0.12520751 0.037780166 1.9522484e-38
0.054419018 0.047327992 0.04370904 1.4175458e-38
0.053331524 0.050322145 0.042873979 1.6017912e-38
0.053219944 0.052525159 0.041425347 1.6204819e-38
0.054533564 0.12359878 0.036003649 1.7498831e-38
0.053436466 0.1258346 0.036751807 1.6849515e-38
0.049149357 0.050798997 0.043971896 1.565021e-38
0.049228206 0.05390789 0.042501032 1.4730058e-38
0.048894204 0.057641625 0.041616321 1.5188519e-38
0.049203709 0.12710851 0.037445068 1.3165607e-38
0.045197107 0.051355995 0.044321299 1.4171149e-38
0.045236073 0.053968716 0.043563128 1.4266224e-38
0.045283549 0.057890072 0.042594731 1.5187445e-38
0.046651818 0.060471404 0.041483402 1.7398344e-38
0.0452573 0.12647453 0.037858725 1.2797877e-38
0.042035319 0.054283507 0.04441613 1.4723943e-38
0.041456476 0.058115382 0.04355824 1.5556935e-38
0.039927453 0.060635682 0.044151604 1.7860726e-38
0.041320555 0.12252654 0.038398087 1.0951496e-38
0.042562269 0.125304 0.03907609 1.2148246e-38
0.037951328 0.059329998 0.044444323 1.6017553e-38
0.037209727 0.061522171 0.043058932 1.7676338e-38
0.037127055 0.11936468 0.038846791 1.3899227e-38
