# .PCD v0.7 - Point Cloud Data file format
VERSION 0.7
FIELDS x y z rgb
SIZE 4 4 4 4
TYPE F F F F
COUNT 1 1 1 1
WIDTH 978
HEIGHT 1
VIEWPOINT 0 0 0 0 1 0 0
POINTS 978
DATA ascii
0.14002654 0.028974058 0.043584645 1.6664742e-38
0.14019406 0.030910108 0.04157275 1.7681042e-38
0.14042175 0.1371358 0.03188616 2.0720625e-38
0.14024895 0.1395053 0.033672273 2.1092295e-38
0.13638744 0.029288948 0.043049216 1.7768933e-38
0.13619846 0.030901574 0.041385233 1.8226674e-38
0.13642615 0.13712727 0.031698644 2.0260713e-38
0.13617849 0.13962169 0.034139931 2.0263248e-38
0.13200088 0.030293865 0.043253422 2.0347166e-38
0.13131876 0.032661568 0.040994525 2.071667e-38
0.13243057 0.13711873 0.031511068 2.0540199e-38
0.13220146 0.1388839 0.03368479 2.0539827e-38
0.12788931 0.030985836 0.044001639 2.0991473e-38
0.12815855 0.03289406 0.04132694 2.080993e-38
0.12843497 0.13711019 0.031323552 1.9619667e-38
0.12822793 0.13947961 0.033107936 1.9250884e-38
0.12399258 0.032939974 0.042634368 2.1082917e-38
0.12355429 0.034858003 0.040428102 2.0438246e-38
0.12577125 0.1371045 0.031198502 1.556346e-38
0.12393646 0.13921382 0.032068431 1.2613543e-38
0.1199458 0.032943927 0.042778373 2.0805623e-38
0.1195587 0.034849469 0.040240586 1.9977302e-38
0.11899295 0.13727577 0.031868696 1.0593095e-38
0.12021297 0.13946153 0.032731891 1.1599705e-38
0.11596321 0.033974349 0.042305171 2.0435769e-38
0.11490002 0.036167331 0.039900661 1.9793257e-38
0.1149831 0.13327806 0.032044649 1.2160813e-38
0.11621677 0.13609827 0.032706976 1.2707859e-38
0.11742028 0.13897742 0.033649683 1.2981558e-38
0.11273779 0.03450948 0.042965889 2.016205e-38
0.11242709 0.036984071 0.040312707 1.9793978e-38
0.11091012 0.038814433 0.039470971 1.915149e-38
0.11213247 0.12862635 0.033675373 7.0925208e-39
0.11267116 0.13184121 0.032737017 9.2112505e-39
0.11273019 0.13496689 0.03379482 1.0594219e-38
0.10788566 0.038262255 0.042059481 1.9795067e-38
0.10388377 0.038117323 0.041817129 2.0438273e-38
0.10398728 0.04012746 0.03902483 1.9700349e-38
0.099816024 0.03826014 0.04201448 2.043646e-38
0.10021114 0.040799063 0.039120674 1.9885798e-38
0.10026374 0.042775135 0.038607657 1.8412836e-38
0.096071109 0.038385488 0.041826487 2.0620131e-38
0.096188076 0.040798344 0.03909868 1.9702132e-38
0.096268162 0.042766597 0.038420141 1.9058563e-38
0.091792025 0.038909752 0.041576982 2.0067707e-38
0.092189617 0.040789802 0.038910985 1.9608519e-38
0.09227255 0.042758059 0.038232565 1.9424837e-38
0.087862015 0.041327432 0.039663255 1.8964597e-38
0.088612065 0.043746103 0.037969887 1.8412854e-38
0.083809376 0.04154836 0.040736556 1.887167e-38
0.083878234 0.045085851 0.038916945 1.7675633e-38
0.084557995 0.047521718 0.037434161 1.7858597e-38
0.084615454 0.12290527 0.033570826 2.0895274e-38
0.080096126 0.042551901 0.040693283 1.8595076e-38
0.079961568 0.045489769 0.039301753 1.8409951e-38
0.080238394 0.048063166 0.037516177 1.8503956e-38
0.075875536 0.045505431 0.039554656 1.9332284e-38
0.076121435 0.048093487 0.037989616 1.8964568e-38
0.071805477 0.046182405 0.039636016 1.8503607e-38
0.071854144 0.048615485 0.037740827 1.8595081e-38
0.06773144 0.046192627 0.039778173 1.6844461e-38
0.067685187 0.048850972 0.037810087 1.739692e-38
0.066984206 0.050670926 0.036318362 1.8136272e-38
0.064053833 0.046518147 0.0395751 1.6847321e-38
0.063694492 0.04864499 0.038157761 1.7308661e-38
0.063655972 0.051327724 0.03610158 1.777002e-38
0.059996948 0.04942432 0.037711322 1.6939161e-38
0.060328141 0.052174211 0.035867512 1.7125332e-38
0.05900158 0.054637313 0.035580099 1.6662554e-38
0.056349963 0.050408516 0.037348986 1.5462245e-38
0.056023866 0.052961621 0.036167085 1.5370749e-38
0.05607374 0.055693313 0.035345733 1.5650559e-38
0.056488693 0.12500614 0.029037654 1.6025106e-38
0.05614543 0.12661754 0.030549824 1.6299901e-38
0.051981255 0.053404078 0.037037253 1.4818646e-38
0.052238688 0.056649923 0.035580277 1.5095259e-38
0.052018538 0.058937795 0.034858406 1.5184578e-38
0.051948607 0.12682819 0.029662609 1.2339445e-38
0.048203111 0.053906973 0.037818432 1.50956e-38
0.047909707 0.057192493 0.036080658 1.3622642e-38
0.048517406 0.060316376 0.034711123 1.3714483e-38
0.048497498 0.12498907 0.028662622 1.2152888e-38
0.04813534 0.12726715 0.030112982 1.2061782e-38
0.04501988 0.058812406 0.037555695 1.3442537e-38
0.043874726 0.061190024 0.036446989 1.3530075e-38
0.044104055 0.063634627 0.034056604 1.4727884e-38
0.044007301 0.12461665 0.029490232 9.9369703e-39
0.044720516 0.12664998 0.030343533 1.0956545e-38
0.03989172 0.065166891 0.03510046 1.4728587e-38
0.040118128 0.068140686 0.033457339 1.5648758e-38
0.038170815 0.070969194 0.0331074 1.4911548e-38
0.037828371 0.1183272 0.028767943 1.1684398e-38
0.039163068 0.11965786 0.028709412 1.1776229e-38
0.037011579 0.066796333 0.036449432 1.5648031e-38
0.036072925 0.068647496 0.0345608 1.5649127e-38
0.03559719 0.071583346 0.032929957 1.4911912e-38
0.035708249 0.1170735 0.029285073 1.242658e-38
0.036690816 0.11930802 0.030635238 1.3070162e-38
0.033003166 0.068788022 0.036078691 1.5828499e-38
0.032233268 0.072135784 0.034103215 1.3898482e-38
0.031854063 0.075704485 0.03309536 1.3623684e-38
0.031723276 0.080484226 0.032060504 1.3898856e-38
0.031762391 0.084454954 0.031574249 1.3620467e-38
0.031103581 0.087773085 0.031240284 1.3346014e-38
0.031113535 0.092420459 0.030816436 1.279321e-38
0.031122074 0.096403927 0.030453205 1.3252392e-38
0.031126335 0.098395661 0.03027159 1.2792133e-38
0.032211885 0.11606345 0.029882729 1.0954686e-38
0.031772777 0.11879185 0.031455815 1.1877362e-38
0.028570354 0.076339386 0.034778357 1.3439649e-38
0.028592572 0.080009215 0.033841193 1.3806669e-38
0.028350711 0.084177785 0.033305705 1.3622629e-38
0.028190702 0.087881595 0.032098353 1.3530418e-38
0.028449804 0.092414767 0.030691445 1.2975107e-38
0.028458357 0.096398234 0.030328214 1.270032e-38
0.028462619 0.098389968 0.030146599 1.2516999e-38
0.027143568 0.10436232 0.029539168 9.2912758e-39
0.027683407 0.107683 0.029261529 8.9231884e-39
0.028003663 0.11192098 0.029320538 8.742362e-39
0.028516248 0.11500925 0.029637158 8.9289225e-39
0.025187343 0.088028848 0.03328377 1.4084669e-38
0.024229705 0.092176229 0.031921744 1.426799e-38
0.024167389 0.095954373 0.030669153 1.3347107e-38
0.024441421 0.099723719 0.029947042 1.3254895e-38
0.024393246 0.10373907 0.029801548 9.8437083e-39
0.024288833 0.10778799 0.029873788 8.7409369e-39
0.024014622 0.11194225 0.030598581 8.1906133e-39
0.023738757 0.11477417 0.031444013 8.4700897e-39
0.021016449 0.09276551 0.033324838 1.4085783e-38
0.020695567 0.096262977 0.032186151 1.3439663e-38
0.020185605 0.10009844 0.031359732 1.2430533e-38
0.019990653 0.10394485 0.031139076 9.7536455e-39
0.02031517 0.10778648 0.031058908 8.2831747e-39
0.020625487 0.11177393 0.031168997 7.4544776e-39
0.021063611 0.11476845 0.031318486 8.0087528e-39
0.16441566 0.084426738 0.011803567 1.509956e-38
0.1639698 0.093675964 0.011608422 1.3719159e-38
0.16050395 0.066550262 0.013660789 1.8503263e-38
0.16055396 0.074816823 0.012387216 1.6292719e-38
0.13244912 0.076568641 0.0098974109 1.5097765e-38
0.13252759 0.086083636 0.0084739327 1.4269082e-38
0.13220586 0.095790669 0.0096390247 1.3165248e-38
0.13821861 0.079021014 0.014610708 1.4362359e-38
0.13818085 0.075852886 0.012964666 1.3994664e-38
0.13265273 0.082298175 0.012455583 1.233728e-38
0.17710483 0.098478653 0.015586674 1.768067e-38
0.05818747 0.079283223 0.025763392 1.5003771e-38
0.04883787 0.087645359 0.024285078 1.1039386e-38
0.073568821 0.053952586 0.034765482 1.7305059e-38
0.11596321 0.033974349 0.042305171 2.0435769e-38
0.1638518 0.14163028 0.037807405 2.2953465e-38
0.16268158 0.143848 0.039359272 2.3233292e-38
0.15972388 0.019120036 0.05060637 7.3630555e-39
0.15983021 0.021766003 0.048694313 8.1002576e-39
0.1599164 0.024411261 0.047116637 9.2977134e-39
0.15988976 0.14124544 0.037885606 2.2668623e-38
0.15982559 0.14501537 0.039118111 2.2396319e-38
0.15865466 0.14786269 0.038803041 1.8491033e-38
0.15564492 0.019122604 0.051083982 8.1016996e-39
0.15580419 0.021757402 0.048505306 9.206601e-39
0.15656772 0.024404103 0.04695946 1.0682788e-38
0.15598622 0.1410477 0.038740873 2.2291915e-38
0.15629584 0.14512362 0.039659977 2.266965e-38
0.15657216 0.14805727 0.039692342 1.9604146e-38
0.1518776 0.018576236 0.050889313 8.4686842e-39
0.15173784 0.021760451 0.048871994 9.6690127e-39
0.15187956 0.024394086 0.046739399 1.0591344e-38
0.15239799 0.14082746 0.038647771 2.2104273e-38
0.15319581 0.14402109 0.039901674 2.284724e-38
0.14888683 0.019113818 0.051101387 9.0225755e-39
0.1476742 0.021760559 0.049127221 1.0126419e-38
0.14719139 0.024384068 0.046519339 1.1600096e-38
0.14752349 0.14151657 0.039108992 2.1737637e-38
0.14385782 0.022572214 0.049543321 1.1321729e-38
0.14355895 0.024915379 0.046500742 1.2889743e-38
0.14398371 0.14147989 0.037018895 2.173657e-38
0.14289737 0.14438231 0.039048314 2.183093e-38
0.13949487 0.02311518 0.049958348 1.32596e-38
0.13960333 0.025551658 0.046683371 1.4638233e-38
0.13998765 0.14207555 0.036441147 2.1919172e-38
0.14012885 0.14418389 0.038516998 2.201352e-38
0.13573956 0.025927028 0.048351884 1.6850527e-38
0.13514471 0.028364539 0.045588195 1.7956543e-38
0.1359943 0.14200321 0.035924435 2.1370648e-38
0.13574138 0.14440498 0.038440883 2.2016725e-38
0.13175264 0.026792318 0.0493415 1.8508623e-38
0.13156076 0.028427374 0.047759175 1.9612097e-38
0.13200426 0.14126317 0.035468876 2.0999357e-38
0.13155255 0.14474024 0.037810683 2.2014242e-38
0.13030399 0.14800115 0.03845948 2.2102761e-38
0.12735075 0.027125746 0.04935503 1.8875989e-38
0.12756705 0.029076472 0.04717654 2.053443e-38
0.12798569 0.1419223 0.035219252 1.9254125e-38
0.12775645 0.1450294 0.037158728 2.1283496e-38
0.12767181 0.14922731 0.037665009 1.1318539e-38
0.12263594 0.027115669 0.049133658 1.943454e-38
0.12350141 0.029747466 0.047258854 2.0900348e-38
0.12400249 0.14184995 0.034703076 1.2342352e-38
0.12372387 0.14502078 0.036969423 1.5016373e-38
0.12368279 0.14912906 0.03703922 1.0027811e-38
0.12234335 0.1518084 0.036731422 7.4578478e-39
0.11926822 0.027108476 0.048975706 1.9704314e-38
0.11946966 0.029738855 0.047069669 2.0900339e-38
0.11958948 0.14160241 0.035020292 1.196636e-38
0.11982056 0.14490689 0.037116826 1.4551441e-38
0.12031984 0.14912188 0.036881328 7.7307716e-39
0.12055072 0.1522516 0.03660655 8.2022413e-39
0.11541055 0.029737739 0.047101796 2.0625171e-38
0.11573091 0.032329269 0.044311285 2.0989643e-38
0.11461757 0.13782369 0.034628272 1.325815e-38
0.1157029 0.14080708 0.035160959 1.3262465e-38
0.11561693 0.14506748 0.036918044 1.7321572e-38
0.1155495 0.14854129 0.037212133 1.2599453e-38
0.11156414 0.030556966 0.047493517 2.0991465e-38
0.11115928 0.033240013 0.044850469 2.0898534e-38
0.1103816 0.036324047 0.043694556 2.0253876e-38
0.11044152 0.12529618 0.036580324 6.3535489e-39
0.11118411 0.12855384 0.035815358 5.9861957e-39
0.11103514 0.13291958 0.034907162 6.2617484e-39
0.11167153 0.13696942 0.035141826 8.9289435e-39
0.11178774 0.14072053 0.035458982 1.141603e-38
0.11263993 0.14465024 0.036424994 1.7598875e-38
0.10715165 0.030440066 0.048100471 2.108184e-38
0.10741337 0.033725429 0.045913935 2.0714496e-38
0.10770265 0.036318328 0.04356879 2.03468e-38
0.10748884 0.12495479 0.038482785 6.8127432e-39
0.1076903 0.12872896 0.036695778 6.5361395e-39
0.1077132 0.13272446 0.036220312 6.809523e-39
0.10847588 0.1366287 0.035285592 6.9856284e-39
0.10277434 0.030766461 0.047864318 2.1448818e-38
0.10338204 0.03371682 0.04572475 2.0897445e-38
0.10363685 0.036323506 0.043711841 2.0716291e-38
0.10352594 0.12119089 0.039267957 6.6197297e-39
0.10339069 0.12502058 0.038730383 7.7289542e-39
0.10355306 0.12870942 0.038672626 7.731817e-39
0.10467483 0.13183051 0.038727701 7.9155076e-39
0.099069133 0.030422801 0.047721088 2.0897449e-38
0.099352419 0.033708211 0.045535624 2.0990365e-38
0.099519871 0.036342438 0.044186175 2.0802726e-38
0.099711634 0.12196098 0.038640857 8.0941592e-39
0.099320635 0.12504917 0.03875941 9.849783e-39
0.099277847 0.12779002 0.038842261 1.0402248e-38
0.095926419 0.030639919 0.047553182 2.0254254e-38
0.095236637 0.033720627 0.045898974 2.1264444e-38
0.095199496 0.036656663 0.043702543 2.1264064e-38
0.096049055 0.12224816 0.038190722 1.2140659e-38
0.095456354 0.12520167 0.038521469 1.1599705e-38
0.095236599 0.12778139 0.038652599 1.2246895e-38
0.091241002 0.033911809 0.046530962 2.0899611e-38
0.091551721 0.036972322 0.043250501 2.0620875e-38
0.091259181 0.12501341 0.03827107 1.4268723e-38
0.089848258 0.12776987 0.038399696 1.5927488e-38
0.087223716 0.034560762 0.046785057 2.0803471e-38
0.0874139 0.037661627 0.043718457 2.0069146e-38
0.087220669 0.12500414 0.038081586 1.6016853e-38
0.087208979 0.12770738 0.037945986 1.6938445e-38
0.083219312 0.037695743 0.044522941 2.0437572e-38
0.083587795 0.12526691 0.03548485 1.7395443e-38
0.08324717 0.12896609 0.03719753 1.7680331e-38
0.079112872 0.037917461 0.045719385 1.9978735e-38
0.079315513 0.040798049 0.041821897 1.942234e-38
0.081104949 0.12573346 0.034152508 1.6845899e-38
0.080036402 0.12880632 0.036167204 1.7309399e-38
0.07472302 0.038121484 0.045439959 1.914862e-38
0.075506657 0.041606911 0.041903675 1.9055709e-38
0.070697859 0.037899487 0.045324445 1.8227744e-38
0.071382642 0.041624993 0.042266011 1.896529e-38
0.071554005 0.044253517 0.041140735 1.8594369e-38
0.066756368 0.038411707 0.045468867 1.7581662e-38
0.067253128 0.04164286 0.042628229 1.7950787e-38
0.067535564 0.04424493 0.040952086 1.7301131e-38
0.065603599 0.12906106 0.037139177 2.0812029e-38
0.064063638 0.039077446 0.045281112 1.7026335e-38
0.06298472 0.041694488 0.043651044 1.6477461e-38
0.063171118 0.04479095 0.041098654 1.666114e-38
0.063038364 0.12896591 0.035519063 2.2195381e-38
0.058900297 0.041907508 0.044528186 1.5740602e-38
0.059094384 0.045670558 0.042434573 1.6201248e-38
0.058837593 0.048232548 0.04017812 1.66615e-38
0.059408784 0.12858978 0.034209549 2.0904664e-38
0.057526842 0.13172978 0.036514878 2.0261822e-38
0.055989757 0.043089166 0.044534385 1.5373264e-38
0.054843038 0.045933478 0.044095159 1.5372205e-38
0.054929227 0.048840493 0.041345716 1.5187102e-38
0.055454582 0.12919123 0.033633173 1.6761599e-38
0.054648161 0.13219032 0.035935104 1.7128939e-38
0.051282153 0.046436585 0.044006944 1.4728975e-38
0.051010534 0.04946544 0.041078806 1.4265482e-38
0.051826566 0.12921272 0.03285712 1.2891168e-38
0.051276878 0.13207735 0.035183251 1.3810605e-38
0.048589423 0.047102321 0.043819249 1.3898869e-38
0.047182992 0.049829911 0.041493475 1.3715549e-38
0.046568602 0.052657686 0.039195895 1.4819387e-38
0.047552735 0.12972613 0.032541871 1.2244745e-38
0.048208132 0.13229324 0.035521567 1.2705373e-38
0.043881103 0.050113995 0.043322444 1.3714096e-38
0.043439671 0.053739075 0.041965485 1.3713027e-38
0.043030217 0.057459887 0.039721549 1.2884345e-38
0.041892245 0.060290709 0.039283872 1.3527568e-38
0.041197717 0.05514447 0.042736709 1.2606698e-38
0.03936407 0.05808036 0.042181194 1.306762e-38
0.03932181 0.061808132 0.039275527 1.3894887e-38
0.037999958 0.12179817 0.033485472 1.3068016e-38
0.035649419 0.062084362 0.041439652 1.3896696e-38
0.035365939 0.065566175 0.037776709 1.4359471e-38
0.034951836 0.120787 0.033836186 1.4267257e-38
0.034846097 0.1234585 0.035195708 1.7578765e-38
0.0327622 0.062710211 0.04131341 1.4172934e-38
0.031819761 0.06553258 0.039623141 1.4081816e-38
0.030895099 0.069123834 0.037289143 1.472501e-38
0.030087531 0.07087297 0.036756277 1.3713337e-38
0.030187726 0.11761226 0.032494128 9.3023783e-39
0.031851009 0.12077902 0.034150302 1.3259246e-38
0.031466872 0.12406383 0.035986543 1.5286118e-38
0.028150037 0.066846453 0.040802181 1.4450938e-38
0.027734458 0.068994924 0.039832532 1.3624029e-38
0.027454734 0.072415844 0.036993921 1.2979373e-38
0.026289493 0.075921401 0.036619067 1.2886851e-38
0.026089162 0.08021225 0.035715342 1.3346048e-38
0.026096314 0.083550766 0.035410821 1.3621549e-38
0.027048975 0.11735038 0.032872736 9.2966456e-39
0.027886853 0.12061951 0.034233332 1.141571e-38
0.027509362 0.12444776 0.035429835 1.4454905e-38
0.024614379 0.06943427 0.040650666 1.2517362e-38
0.023626447 0.072267339 0.039196551 1.1873418e-38
0.02364853 0.076364353 0.037626863 1.1874155e-38
0.023155957 0.080310166 0.036573231 1.2794322e-38
0.023220837 0.084297359 0.035988927 1.3716969e-38
0.022757649 0.088217549 0.034827471 1.4361975e-38
0.023276821 0.11706026 0.033056557 9.3898964e-39
0.023772091 0.12066463 0.034370303 1.1878804e-38
0.023642033 0.12455873 0.035572588 1.4731838e-38
0.020541877 0.072808869 0.039949536 1.1227293e-38
0.019861832 0.076521054 0.039109409 1.1320611e-38
0.019370526 0.080475092 0.038055182 1.196599e-38
0.019379139 0.084496498 0.037688434 1.307054e-38
0.019646406 0.088402882 0.036339283 1.3715556e-38
0.019063726 0.092276499 0.03478545 1.3808834e-38
0.01835534 0.09591797 0.034168243 1.3255649e-38
0.018113837 0.10890636 0.032719791 7.7310841e-39
0.018456593 0.11257945 0.032400727 6.9034829e-39
0.019246325 0.11638697 0.032951891 8.2817664e-39
0.019851461 0.12074591 0.034736753 1.2707148e-38
0.020466894 0.12459991 0.035419106 1.5469398e-38
0.016999125 0.077923603 0.039516747 1.0953996e-38
0.01674293 0.084945813 0.038612247 1.2519174e-38
0.015850499 0.088587597 0.037818849 1.3072712e-38
0.015713379 0.092311069 0.036563039 1.3532604e-38
0.01581277 0.096342072 0.034763694 1.2887589e-38
0.015821382 0.10035399 0.034397781 1.169227e-38
0.015917882 0.10431968 0.033705235 9.3838162e-39
0.015589193 0.10854803 0.033495247 7.9136958e-39
0.015205801 0.11237173 0.033159912 6.4425089e-39
0.015397444 0.11654007 0.033793688 7.8225609e-39
0.015669346 0.11972952 0.034632325 1.2157583e-38
0.011972755 0.089664027 0.038208067 1.2796823e-38
0.011791721 0.092617579 0.037371397 1.3898856e-38
0.011920512 0.096587658 0.036568284 1.3160953e-38
0.011929154 0.10061096 0.036201417 1.1967045e-38
0.011937752 0.10463426 0.035834491 9.6628988e-39
0.011288434 0.10842913 0.034726262 8.1906414e-39
0.011092499 0.11241286 0.033297479 7.8221994e-39
0.011494488 0.11658801 0.033968329 8.6497894e-39
0.011789173 0.11949208 0.03514123 1.0495875e-38
0.0078637153 0.089453802 0.038033605 1.1415323e-38
0.008274734 0.092677861 0.037758708 1.2795748e-38
0.0077620298 0.096635401 0.03681469 1.2332599e-38
0.0078628063 0.1006168 0.036120892 1.1139062e-38
0.0079022199 0.10462563 0.035645068 1.0123538e-38
0.0071196258 0.10835918 0.033256888 9.1122333e-39
0.0072959065 0.11237147 0.032898843 8.5597644e-39
0.0077600777 0.11686374 0.034521222 9.1132759e-39
0.0083323419 0.11953777 0.035309315 9.6661092e-39
0.00437738 0.096967094 0.037183344 1.0302506e-38
0.0039217025 0.10081076 0.036182761 9.2959183e-39
0.0038666576 0.10461701 0.035455704 9.2966414e-39
0.0033905208 0.10854453 0.034404576 8.3775255e-39
0.003883332 0.11239539 0.034746349 7.9172747e-39
0.0046008527 0.11589731 0.03513062 8.1913546e-39
0.12077013 0.070272237 0.01109457 8.8377974e-39
0.15545276 0.017148102 0.054103494 7.917653e-39
0.15441203 0.14643057 0.041749597 2.2760736e-38
0.15441781 0.14912413 0.041504025 1.8310536e-38
0.15105832 0.016802017 0.053927958 7.8247595e-39
0.15102759 0.14305636 0.041898191 2.2107149e-38
0.15127158 0.14589044 0.042368889 2.284759e-38
0.15029475 0.15066399 0.042174339 1.4174428e-38
0.14735734 0.018701129 0.053412616 8.9282358e-39
0.14832582 0.14305058 0.041771293 2.1737285e-38
0.14760475 0.1458734 0.042149723 2.266175e-38
0.14623782 0.15132965 0.041922331 2.2223829e-38
0.14624071 0.15267834 0.041799426 2.0934186e-38
0.14295593 0.020827902 0.053178549 1.0587752e-38
0.14401333 0.14628245 0.041775644 2.2384849e-38
0.1439793 0.1495266 0.041980624 2.3415889e-38
0.14455333 0.15436059 0.041566253 2.314178e-38
0.14054911 0.02184416 0.053474963 1.2615299e-38
0.1395229 0.14623998 0.041400373 2.2483153e-38
0.13586357 0.023171518 0.052630305 1.4642515e-38
0.13388741 0.024502769 0.051913023 1.6206594e-38
0.13542962 0.14687453 0.041568339 2.2387689e-38
0.13676393 0.14928639 0.041662395 2.3137149e-38
0.13113645 0.025183018 0.052223861 1.6668668e-38
0.13207477 0.14715479 0.041133344 2.183597e-38
0.13116205 0.14988211 0.04100889 1.3252829e-38
0.12342162 0.026163891 0.051268101 1.7312269e-38
0.11903051 0.025817819 0.051092744 1.7034979e-38
0.11793943 0.14702603 0.039976358 1.6318593e-38
0.11794521 0.1497196 0.039730668 8.1877701e-39
0.11795098 0.15241319 0.039485037 5.8779804e-39
0.11495908 0.026486909 0.05100733 1.8601569e-38
0.11659721 0.15106352 0.039544404 1.8409839e-40
0.11174242 0.026718341 0.051337183 1.758527e-38
0.11059393 0.028830055 0.050420225 2.0072398e-38
0.10741723 0.027168097 0.051427484 1.9064335e-38
0.10687827 0.028485421 0.050276518 2.0166738e-38
0.10562366 0.13708174 0.04130888 8.6540774e-39
0.10403525 0.027160872 0.051268637 1.9893012e-38
0.10301239 0.029034384 0.050647438 2.1266607e-38
0.10236955 0.13083136 0.04072088 7.8268965e-39
0.10291036 0.13347948 0.041509926 8.5615763e-39
0.1042694 0.13640451 0.041306913 1.0035943e-38
0.098942012 0.13020876 0.040951252 1.0954686e-38
0.10020237 0.13234977 0.041485369 9.8504976e-39
0.093375124 0.031150144 0.049396873 2.0347528e-38
0.094862528 0.13022912 0.040924668 1.2707164e-38
0.090515971 0.03117804 0.050264835 2.0529039e-38
0.089325339 0.032488272 0.049083769 2.0717374e-38
0.090974778 0.12971552 0.040788293 1.5378306e-38
0.087133996 0.031170812 0.050106108 2.0249585e-38
0.086245328 0.032827366 0.04915911 2.0527962e-38
0.086832851 0.13012478 0.040053129 1.805554e-38
0.086336955 0.13265732 0.04080385 1.9431667e-38
0.083165146 0.033840153 0.049172699 2.0345011e-38
0.082988843 0.13274671 0.040034771 1.9797957e-38
0.079700865 0.034526639 0.049449444 2.0070225e-38
0.07717599 0.036502667 0.048144758 1.9519198e-38
0.077376634 0.13010457 0.039609313 1.6110497e-38
0.079710938 0.1330447 0.040054083 1.9245514e-38
0.075643212 0.034855135 0.049228191 1.933698e-38
0.07514964 0.036498342 0.048049688 1.9429513e-38
0.07584919 0.13094907 0.040465474 1.7024902e-38
0.076754898 0.13274926 0.040343881 1.7859012e-38
0.071647525 0.035170529 0.048675895 1.9242963e-38
0.071772426 0.036491126 0.04789114 1.9145745e-38
0.070438012 0.1309375 0.040211499 1.7196007e-38
0.06758976 0.03516186 0.048485458 1.7400866e-38
0.067044303 0.036481023 0.047669232 1.7399437e-38
0.067796201 0.13087374 0.039757669 1.6840424e-38
0.066383973 0.13295186 0.039836526 1.7393635e-38
0.063153252 0.037384421 0.047738492 1.6753689e-38
0.065026835 0.13092594 0.039957523 2.0348928e-38
0.063742608 0.13221312 0.039444327 2.1455984e-38
0.059809133 0.038637817 0.047533453 1.5559095e-38
0.059720412 0.13284948 0.039029181 2.1731908e-38
0.056713492 0.039197899 0.047939539 1.4636767e-38
0.055220172 0.041592449 0.047047377 1.5097025e-38
0.055959269 0.13430586 0.038618445 1.860193e-38
0.051665023 0.042673253 0.046982229 1.4726121e-38
0.051526383 0.044528566 0.046203196 1.4913368e-38
0.051719815 0.13476349 0.037974775 1.4457418e-38
0.052864715 0.13696903 0.038832605 1.5653813e-38
0.047367021 0.045668803 0.046405613 1.4543149e-38
0.048801988 0.13493732 0.038826644 1.2979814e-38
0.044665247 0.046561517 0.046196878 1.4451294e-38
0.042643741 0.049252663 0.04585588 1.3437148e-38
0.03922765 0.050603822 0.045739055 1.2976538e-38
0.039103836 0.053794056 0.045274496 1.2791076e-38
0.038043469 0.056620818 0.044463813 1.2425123e-38
0.037957981 0.12479904 0.039241076 1.260958e-38
0.035778463 0.054663002 0.045541108 1.3068715e-38
0.035213649 0.058000892 0.044763029 1.3987795e-38
0.034674898 0.060653973 0.043936908 1.4447705e-38
0.035369441 0.12471107 0.038624465 1.6017569e-38
0.031863138 0.058296073 0.045024872 1.4541009e-38
0.031299844 0.061656855 0.04368633 1.4356601e-38
0.031315833 0.12537628 0.038372695 1.6298102e-38
0.027680486 0.06341213 0.044360697 1.3620833e-38
0.026786491 0.065282091 0.043946803 1.3898141e-38
0.02873446 0.12528691 0.037756562 1.5190686e-38
0.023756012 0.067407168 0.043308377 1.3439324e-38
0.022310019 0.069157191 0.042577922 1.2148575e-38
0.019888058 0.06965965 0.043087959 1.1413523e-38
0.018086746 0.072425619 0.042331815 1.0768139e-38
0.019272417 0.12257312 0.037558377 1.4181882e-38
0.019276768 0.1245933 0.037374139 1.556373e-38
0.015713781 0.073078111 0.042713225 9.9420108e-39
0.014819801 0.076653615 0.04204309 1.0127463e-38
0.013779387 0.080811083 0.041111946 1.0771403e-38
0.014327824 0.084583253 0.040793478 1.1875591e-38
0.01569654 0.12201386 0.038194835 1.4836299e-38
0.014959037 0.12407557 0.038223207 1.7314051e-38
0.0121537 0.0775401 0.042339206 9.0211237e-39
0.010977611 0.081077874 0.041960835 9.8487446e-39
0.01093635 0.084905773 0.04116261 1.1138025e-38
0.010822996 0.088077404 0.04030925 1.1691563e-38
0.011056855 0.12181231 0.037642777 1.2252985e-38
0.0074290484 0.082250386 0.041686535 9.2944848e-39
0.0068193525 0.084921613 0.041190565 1.0031311e-38
0.0067023486 0.087866589 0.040134311 1.0767817e-38
0.0057000369 0.092914879 0.039626181 1.2242567e-38
0.006801486 0.12165435 0.037485361 1.0129259e-38
0.0040542781 0.085614875 0.041220307 9.6575038e-39
0.0035767406 0.089231804 0.040666521 1.0491582e-38
0.003533572 0.092970252 0.040021658 1.1414963e-38
0.0030040294 0.095602691 0.039253831 9.9340725e-39
0.0035024285 0.11805014 0.037228048 8.3761172e-39
0.003687501 0.1212202 0.037114859 9.2998728e-39
0.0036867261 0.12450106 0.037653148 1.0496604e-38
0.16439511 0.074835971 0.012678087 1.7122473e-38
0.16439727 0.07868389 0.012438715 1.648105e-38
0.13688129 0.076413907 0.014677644 1.3716274e-38
0.15207785 0.12000434 0.0204283 1.7311546e-38
0.052256674 0.12022133 0.023369133 1.2703548e-38
0.15867761 0.016514458 0.056826472 8.0076864e-39
0.15524992 0.014821688 0.057322085 7.7350414e-39
0.15121342 0.015146032 0.056599617 7.4574246e-39
0.15195312 0.149268 0.0443905 2.0253163e-38
0.14842463 0.015151311 0.057472944 7.8240197e-39
0.14684498 0.017035419 0.05662334 8.4672535e-39
0.14743209 0.14970917 0.04413718 2.1551473e-38
0.14811473 0.15173933 0.043983996 1.8594765e-38
0.14328612 0.018658321 0.056709647 8.9289659e-39
0.14200714 0.1503738 0.043820798 2.341769e-38
0.14269122 0.15308022 0.043605983 2.341769e-38
0.13899484 0.021210769 0.055721462 1.2246525e-38
0.13912183 0.14918421 0.04379344 2.3231145e-38
0.13963671 0.15205933 0.0435552 2.341769e-38
0.13453935 0.022226447 0.055921376 1.4179039e-38
0.13452035 0.1497318 0.043777883 2.1277442e-38
0.135195 0.15177934 0.043706536 2.0656511e-38
0.13083023 0.022551453 0.055465519 1.445849e-38
0.12952814 0.024567025 0.054717541 1.5469064e-38
0.13251096 0.15035352 0.043375075 1.686277e-38
0.13251385 0.151706 0.043251812 1.2085248e-38
0.12676452 0.022251202 0.055229604 1.3720583e-38
0.12398902 0.023225335 0.055584192 1.33507e-38
0.12274514 0.02455253 0.054399192 1.4172597e-38
0.11929493 0.024557419 0.0547387 1.4368849e-38
0.1144824 0.024559407 0.055014431 1.3720965e-38
0.10999926 0.025443619 0.054387331 1.4270902e-38
0.10641503 0.025880307 0.053910434 1.5743155e-38
0.10190204 0.026770927 0.053549409 2.0441876e-38
0.10195558 0.13541101 0.043299079 1.0679548e-38
0.099544711 0.027236229 0.054066002 2.1173666e-38
0.099013351 0.028559254 0.052914917 2.0989996e-38
0.098519839 0.13410266 0.043543816 1.2890449e-38
0.094617955 0.029020816 0.053335726 1.9976931e-38
0.095396757 0.13431494 0.043520987 1.4644338e-38
0.091398045 0.029250383 0.053498209 2.0070564e-38
0.091726482 0.13409671 0.043272078 1.5744908e-38
0.091628842 0.13692339 0.043679595 1.7218672e-38
0.087322541 0.029241677 0.053306937 1.9790395e-38
0.087834068 0.13449199 0.043148339 1.9523477e-38
0.083304107 0.029898947 0.052722454 1.9423419e-38
0.083586626 0.13543181 0.042766571 2.0629877e-38
0.079407871 0.030058492 0.052482247 1.8964607e-38
0.079351366 0.032574672 0.051621616 1.9516696e-38
0.079571702 0.13536319 0.042248487 2.0351486e-38
0.079459757 0.13683675 0.04277879 2.0901778e-38
0.075100392 0.031247118 0.052547812 1.8599031e-38
0.075246692 0.033114068 0.051580071 1.8783094e-38
0.075047776 0.1344519 0.04211849 1.7310505e-38
0.07532829 0.13756576 0.042852759 1.9707178e-38
0.072383389 0.031241309 0.052420259 1.6760149e-38
0.071121216 0.033251286 0.051674724 1.7308319e-38
0.071429223 0.13399333 0.041989863 1.6574334e-38
0.071283072 0.1375268 0.042498171 1.9705734e-38
0.06733954 0.033374853 0.051384628 1.6755499e-38
0.067747414 0.13417868 0.041799366 1.6667959e-38
0.067175806 0.13687116 0.042531967 1.8695212e-38
0.062978819 0.034587301 0.051168919 1.6385275e-38
0.063291058 0.13465218 0.041546106 1.9520609e-38
0.063100308 0.13686244 0.042340636 1.9796501e-38
0.058945 0.037053183 0.050586164 1.5097758e-38
0.059222728 0.13531972 0.041293383 2.1731159e-38
0.059091121 0.13679323 0.041822851 2.0810265e-38
0.054508209 0.038507648 0.05071342 1.3160233e-38
0.053593382 0.040634487 0.049671888 1.4264777e-38
0.055054024 0.13743147 0.04140687 1.7493056e-38
0.05427587 0.13955233 0.041679144 1.805017e-38
0.052023292 0.039324041 0.050722778 1.3344995e-38
0.050740108 0.041110732 0.050164044 1.3803821e-38
0.051087961 0.13755648 0.04070586 1.5655249e-38
0.046955422 0.042814147 0.049763203 1.4725745e-38
0.045462504 0.044674538 0.048919916 1.472933e-38
0.046333596 0.13461594 0.040750206 1.2614259e-38
0.04837282 0.13664903 0.040660739 1.4363445e-38
0.043880999 0.043369759 0.049969733 1.4449503e-38
0.042451143 0.046038553 0.048988581 1.3163792e-38
0.041401401 0.048723288 0.048358858 1.3344956e-38
0.038771778 0.046868861 0.049208462 1.1965629e-38
0.038688198 0.048717491 0.048231542 1.2518434e-38
0.038178042 0.12715991 0.0410465 1.2242583e-38
0.040103555 0.12927897 0.041446388 1.2703576e-38
0.035738677 0.04741548 0.049216688 1.1783023e-38
0.035389155 0.050345141 0.048128545 1.2978671e-38
0.034290105 0.053779874 0.047562063 1.325311e-38
0.035007924 0.12689936 0.04142344 1.5836413e-38
0.033030391 0.051472805 0.048718572 1.2793215e-38
0.031773716 0.054151606 0.048012733 1.3163432e-38
0.029664487 0.058165535 0.046943784 1.3897418e-38
0.032073334 0.12714687 0.040759981 1.7123544e-38
0.027672842 0.058553353 0.04756844 1.2795731e-38
0.026507318 0.061990798 0.046445727 1.3253845e-38
0.027758956 0.12730634 0.041547298 1.6210911e-38
0.023996934 0.062288485 0.047305524 1.2794675e-38
0.02299735 0.065631092 0.046450615 1.3255301e-38
0.020123959 0.06685099 0.046304405 1.2150366e-38
0.018382683 0.068961225 0.045426488 1.1043684e-38
0.015837416 0.069802493 0.045631766 9.84729e-39
0.014318705 0.071657494 0.044988811 9.2984211e-39
0.011644304 0.073219478 0.045222819 8.2853299e-39
0.010598943 0.076721326 0.044351161 8.3753942e-39
0.011715651 0.12304596 0.040174842 1.4094773e-38
0.010092646 0.12455985 0.040965438 1.4264734e-38
0.0078182817 0.077570304 0.044812858 7.5463552e-39
0.0072829425 0.08029829 0.043868363 8.3732502e-39
0.0075003505 0.12583499 0.040280104 1.2062114e-38
0.006706506 0.12929292 0.040373743 9.4849871e-39
0.004189536 0.081414968 0.044022739 7.7275024e-39
0.0034919828 0.083806634 0.043369472 8.5543778e-39
0.0045308173 0.12611586 0.039807379 1.0772479e-38
0.0043084174 0.12900519 0.039951861 9.3927775e-39
0.16830668 0.088343605 0.012522995 1.5191395e-38
0.16570207 0.07902547 0.013250887 1.7308305e-38
0.16436666 0.068144925 0.013538957 1.8872393e-38
0.1370427 0.084584057 0.011858165 1.3256363e-38
0.13693354 0.093584634 0.011924863 1.3074131e-38
0.13418759 0.099581011 0.011361063 1.3259237e-38
0.14419976 0.047789302 0.025267243 2.0625191e-38
0.15523262 0.011939893 0.061907113 7.1836865e-39
0.15508206 0.013829863 0.059917867 7.7368421e-39
0.15082343 0.012479987 0.062186122 6.9967827e-39
0.15097058 0.013824191 0.060059786 7.2733794e-39
0.14804082 0.012478996 0.062725067 7.3637534e-39
0.14652766 0.014367931 0.060872912 8.0991716e-39
0.14301845 0.014840968 0.061016262 9.0193286e-39
0.14246601 0.016862074 0.05929786 9.1126201e-39
0.13915749 0.016551586 0.06193465 1.0312929e-38
0.1386399 0.018566497 0.059883475 1.1047984e-38
0.13729583 0.02060152 0.0594666 1.2338367e-38
0.13471656 0.018928852 0.061508358 1.2336928e-38
0.13456741 0.020595687 0.059338629 1.3077388e-38
0.13027123 0.019260311 0.061268568 1.2151109e-38
0.13047479 0.020586943 0.059146523 1.3077021e-38
0.1268512 0.019253008 0.061108053 1.0131455e-38
0.12648818 0.020559596 0.057955861 1.1789181e-38
0.12275007 0.020608094 0.060791075 1.0595299e-38
0.12197646 0.022480402 0.05897522 1.2708568e-38
0.11879577 0.022617165 0.059164762 1.2612447e-38
0.11696076 0.024613734 0.057136714 1.4278811e-38
0.11523038 0.02263782 0.060251355 1.2430207e-38
0.11095534 0.022746978 0.059235811 1.2058899e-38
0.10745537 0.022730455 0.058670223 1.1776538e-38
0.10606232 0.024590448 0.056625187 1.1962061e-38
0.10291971 0.023293449 0.05961132 1.4537722e-38
0.10319864 0.024948392 0.057462811 1.6016847e-38
0.10253379 0.13839927 0.047074556 1.2247584e-38
0.098878369 0.026001962 0.058771551 2.0439694e-38
0.099422008 0.13807498 0.046454966 1.6209488e-38
0.099163711 0.14113511 0.048006415 1.9715454e-38
0.094769478 0.026676241 0.058583379 2.016492e-38
0.09609133 0.028734282 0.05879283 2.0437904e-38
0.095207378 0.13821888 0.047080934 1.7592805e-38
0.095647037 0.14056949 0.048562407 1.9435997e-38
0.089239568 0.023264226 0.058969259 1.6942445e-38
0.09080407 0.025961513 0.057568073 1.9612118e-38
0.090979025 0.13850455 0.04772675 1.7772161e-38
0.086778015 0.025940746 0.056933403 1.795475e-38
0.08715269 0.13804875 0.045879006 2.0532227e-38
0.082739621 0.026604287 0.05634737 1.7308662e-38
0.08306291 0.13804002 0.045687079 2.1638635e-38
0.082650907 0.14054173 0.047952414 2.1730445e-38
0.078589968 0.027285852 0.056424797 1.5655644e-38
0.077288121 0.028633691 0.055905223 1.7311934e-38
0.079060726 0.13861862 0.044942975 2.1453858e-38
0.078465879 0.14059417 0.046242476 2.1177985e-38
0.074471042 0.029322492 0.056212246 1.7586357e-38
0.074146897 0.14108181 0.046095014 2.071845e-38
0.070679381 0.030022439 0.056807458 1.5376543e-38
0.070902258 0.14111714 0.04533571 2.0629117e-38
0.067932278 0.031299811 0.05421561 1.5558419e-38
0.065210581 0.032652162 0.0539639 1.6567158e-38
0.066799968 0.13859244 0.044367492 1.9611768e-38
0.066084743 0.1406606 0.046155572 1.9152229e-38
0.062779158 0.032718781 0.055853784 1.6293435e-38
0.063004971 0.13895205 0.04616642 2.0528311e-38
0.058634281 0.03403639 0.054644644 1.4082909e-38
0.057045475 0.036709215 0.053208709 1.4084693e-38
0.05855982 0.13863611 0.044310272 1.9892631e-38
0.058295637 0.14024203 0.045491695 1.9894069e-38
0.055040106 0.034062937 0.055366278 1.2699258e-38
0.055002019 0.036704846 0.053112805 1.2791096e-38
0.055041149 0.14120623 0.045585275 1.924691e-38
0.052329481 0.035460066 0.056116283 1.2513759e-38
0.051030487 0.03784227 0.0542292 1.3160237e-38
0.050452292 0.13855751 0.043600261 1.5837135e-38
0.05110687 0.14142573 0.044173539 1.8325696e-38
0.047920153 0.03905734 0.054909945 1.3899223e-38
0.047227725 0.040825788 0.053710639 1.3990342e-38
0.047277883 0.13830312 0.043976545 1.5375799e-38
0.047169924 0.14120995 0.045817137 1.7496646e-38
0.043139622 0.042630468 0.05335319 1.3068743e-38
0.042726696 0.13396464 0.044660628 1.2431247e-38
0.043336123 0.13740151 0.045506597 1.3810999e-38
0.038666874 0.043614008 0.054727912 1.1132298e-38
0.039276421 0.044837903 0.051964343 1.1498921e-38
0.038057923 0.1297892 0.044319212 1.3807743e-38
0.03908731 0.1334153 0.046298563 1.3532935e-38
0.040233672 0.13635956 0.046335101 1.3257081e-38
0.035950094 0.046171304 0.051350653 1.1317751e-38
0.033912465 0.048883282 0.051007092 1.0958291e-38
0.035331398 0.12978336 0.044191301 1.666506e-38
0.034752861 0.13225628 0.04645139 1.6664705e-38
0.031753823 0.050947145 0.051219583 1.150716e-38
0.029715225 0.053660072 0.050875843 1.270282e-38
0.029994383 0.12764847 0.043631911 1.6942745e-38
0.031041622 0.12991764 0.044814646 1.7682454e-38
0.032016814 0.13225043 0.046323001 1.7310452e-38
0.02799052 0.055115826 0.052169502 1.2704591e-38
0.026128933 0.057491712 0.050189495 1.2243261e-38
0.025660977 0.1278079 0.044418395 1.5841395e-38
0.027125284 0.12968265 0.045321584 1.6302027e-38
0.027912766 0.13224165 0.0461303 1.6204119e-38
0.022800371 0.058877803 0.051294327 1.1408503e-38
0.021957561 0.062118787 0.049486756 1.2332619e-38
0.019126505 0.062587343 0.051069736 1.030899e-38
0.01808922 0.065888077 0.049462914 1.1780869e-38
0.015909493 0.063568607 0.051833749 9.109023e-39
0.015166923 0.06662342 0.050012052 9.3874049e-39
0.013521522 0.069212183 0.048190176 8.8352919e-39
0.014219493 0.12607504 0.046047926 1.6392836e-38
0.011359215 0.068105072 0.051205158 8.1906428e-39
0.010910556 0.070074163 0.048591673 7.7335883e-39
0.009440437 0.071919799 0.047750711 6.9066764e-39
0.010650307 0.12573621 0.043900073 1.4735054e-38
0.0073952377 0.070097879 0.050333798 5.7027705e-39
0.0067183375 0.073499694 0.048106432 6.3470721e-39
0.005817309 0.076439276 0.047167301 6.7151484e-39
0.0087518096 0.12810914 0.045604527 1.2148208e-38
0.0031554848 0.070133328 0.050633371 1.0122073e-38
0.0033852458 0.073467702 0.049535632 7.3540466e-39
0.0031825155 0.077387713 0.047459304 4.7837177e-39
0.0026463717 0.080054283 0.046687901 5.5184184e-39
0.16885629 0.08261732 0.013071716 1.6481061e-38
0.13702118 0.071535215 0.013327539 1.4547105e-38
0.081438288 0.051751234 0.034387887 1.7490895e-38
0.024229705 0.092176229 0.031921744 1.426799e-38
0.11929928 0.023564454 0.062620461 7.0871903e-39
0.15055661 0.01113718 0.065981925 6.7212734e-39
0.14618003 0.01167302 0.06552577 7.4555931e-39
0.14227603 0.011807028 0.066033185 8.561956e-39
0.1418035 0.01383888 0.063312292 9.3906307e-39
0.13879684 0.012489052 0.066309631 1.003782e-38
0.13815916 0.014809309 0.063339233 1.0038855e-38
0.13427767 0.015378237 0.064576387 9.9445233e-39
0.13359278 0.017918594 0.06255281 1.1508239e-38
0.13025695 0.016235709 0.065062463 9.3888525e-39
0.13009983 0.017921161 0.063058257 1.0774632e-38
0.12642503 0.016576953 0.065353334 8.9354175e-39
0.1259191 0.018377498 0.063489676 9.3960271e-39
0.12367377 0.016571077 0.06522423 8.1070651e-39
0.12252557 0.018820489 0.062954247 8.7499234e-39
0.11954689 0.016562255 0.065030456 7.6392865e-39
0.11886666 0.019106148 0.06325835 8.3779263e-39
0.11542002 0.016553441 0.0648368 5.8929701e-39
0.11506101 0.019444631 0.063299477 9.1147599e-39
0.11061415 0.020657497 0.064235628 1.0404794e-38
0.11236785 0.021970509 0.061182618 1.1592903e-38
0.10724047 0.020640874 0.063575506 1.003746e-38
0.10268492 0.021963643 0.061397195 1.3527908e-38
0.10124934 0.14406736 0.052528203 2.137033e-38
0.098453082 0.022655379 0.06197226 1.8326366e-38
0.097989574 0.024671296 0.060258389 2.0439331e-38
0.09864182 0.14387226 0.051417887 2.1467176e-38
0.097125418 0.14543001 0.052209496 2.1561523e-38
0.0943354 0.022646584 0.061778963 1.9246211e-38
0.094428763 0.1427518 0.050603569 2.0263956e-38
0.094374165 0.14542414 0.052080274 2.1919881e-38
0.090600684 0.022486882 0.060913861 1.7038922e-38
0.090465277 0.14240375 0.050719857 1.8970339e-38
0.090247281 0.14541532 0.051886618 2.0261086e-38
0.086486958 0.022751248 0.060695887 1.4918805e-38
0.086487398 0.14226054 0.050740898 1.9334431e-38
0.08293236 0.023601206 0.062059224 1.3899248e-38
0.083156154 0.14340508 0.051333904 2.1363092e-38
0.079369426 0.024356084 0.062174141 1.2337326e-38
0.078128703 0.025994612 0.059201539 1.3808151e-38
0.07914006 0.1431088 0.049850523 2.0717009e-38
0.079299711 0.14532812 0.05104363 2.0444392e-38
0.074512064 0.024351839 0.062196851 1.0767107e-38
0.074152797 0.02682671 0.05974251 1.3994324e-38
0.074732706 0.14299615 0.049617112 2.0718081e-38
0.07580322 0.14538446 0.051208675 1.9242279e-38
0.070729822 0.024686618 0.061987996 1.0029861e-38
0.070640936 0.026578512 0.060805917 1.1688644e-38
0.069917977 0.030074328 0.058442175 1.4180855e-38
0.069793627 0.14381061 0.050063908 2.1826947e-38
0.066886127 0.027800467 0.061091959 1.1134437e-38
0.066741541 0.030425038 0.058763087 1.4546395e-38
0.067233607 0.14270511 0.049038887 2.0262519e-38
0.062957481 0.030944642 0.060045183 1.417653e-38
0.062411025 0.14211576 0.049669623 1.9336965e-38
0.058662221 0.030781955 0.05935508 1.3070909e-38
0.06056276 0.13931455 0.048028708 2.1094016e-38
0.058699057 0.14182644 0.050224781 2.0169567e-38
0.053484827 0.032770723 0.057421505 1.260884e-38
0.056458861 0.14203729 0.047586739 1.9888332e-38
0.050485134 0.034861144 0.058345973 1.2332246e-38
0.049383849 0.036859218 0.056854963 1.2885797e-38
0.051667079 0.14339282 0.047237158 1.7864026e-38
0.046679914 0.035606779 0.059857726 1.1780182e-38
0.045899004 0.037818685 0.057943523 1.2702127e-38
0.046870902 0.14269969 0.047074437 1.7954404e-38
0.046168938 0.14567791 0.048779964 1.5755424e-38
0.043358237 0.0390056 0.058888257 1.205747e-38
0.043912962 0.040944785 0.056224167 1.261172e-38
0.041383907 0.13927357 0.047128558 1.5464389e-38
0.04256174 0.14217524 0.047812819 1.5936155e-38
0.042776197 0.14536911 0.048145533 1.6127795e-38
0.040504277 0.042450804 0.058941841 1.2054601e-38
0.037265375 0.13516751 0.047309279 1.4177599e-38
0.038642675 0.1380852 0.048113167 1.4547836e-38
0.038768232 0.14246863 0.049226761 1.4921316e-38
0.038774103 0.14520963 0.048976839 1.4373211e-38
0.034797773 0.13434279 0.047268212 1.5836403e-38
0.035372466 0.13831118 0.049230993 1.5191765e-38
0.036131516 0.14164251 0.049680591 1.556633e-38
0.030076116 0.050514612 0.055368662 1.0493384e-38
0.030627176 0.13426159 0.048658967 1.6296295e-38
0.031481177 0.13735895 0.049601138 1.546761e-38
0.026827902 0.051320355 0.057236254 1.0398669e-38
0.026352659 0.054255541 0.054684043 1.1598262e-38
0.026297256 0.13104683 0.047168493 1.6209457e-38
0.027131483 0.13442378 0.048335731 1.5099194e-38
0.026451319 0.13783723 0.049370646 1.2889753e-38
0.023189351 0.055191547 0.056627631 1.0584101e-38
0.02202943 0.057287071 0.053700924 1.0952888e-38
0.022517338 0.13052785 0.049383402 1.491657e-38
0.023588106 0.13424294 0.049429834 1.3994609e-38
0.023514763 0.13841553 0.049380481 1.0498766e-38
0.019211501 0.056119747 0.056690514 9.2941135e-39
0.018621981 0.058248669 0.054290354 9.7522302e-39
0.020142123 0.13012344 0.049643517 1.5103123e-38
0.015221521 0.059502907 0.055690944 8.4615096e-39
0.014874935 0.062304784 0.053240716 8.1870821e-39
0.014549673 0.12742484 0.049961329 1.6212714e-38
0.013995662 0.12871075 0.049315155 1.6115126e-38
0.010373175 0.062931567 0.055316985 7.6331474e-39
0.011089087 0.066141084 0.052376986 7.5456405e-39
0.011904329 0.12691881 0.046867073 1.5654496e-38
0.010057971 0.12964475 0.049211979 1.2060686e-38
0.0064670742 0.066970639 0.053982317 7.9097413e-39
0.0056167692 0.069543779 0.051808417 7.1714209e-39
0.0074898154 0.13043858 0.048348188 9.8516159e-39
0.0034167916 0.067743272 0.05488497 1.048545e-38
0.0042483062 0.070223734 0.051681876 7.996186e-39
0.16783935 0.07895688 0.013357937 1.7125336e-38
0.13663654 0.067709371 0.014620006 1.5098848e-38
0.1503156 0.0097793005 0.069445491 6.3510588e-39
0.14614958 0.0097716153 0.069584966 7.2708333e-39
0.14197667 0.0080425069 0.069881201 7.3655554e-39
0.14198035 0.0097639263 0.069724143 8.0094829e-39
0.13921475 0.0083808787 0.06972003 8.100615e-39
0.13786814 0.010900915 0.069091499 9.6690028e-39
0.13403012 0.011945894 0.068547249 8.6559467e-39
0.13241641 0.013865549 0.067893684 8.9303868e-39
0.13026807 0.01180275 0.068734765 7.9198138e-39
0.13011834 0.014319062 0.067744076 8.7470746e-39
0.1267916 0.012485748 0.068759859 6.8138432e-39
0.12690017 0.014541382 0.067572057 8.0098851e-39
0.12237015 0.011925444 0.068602622 2.7626473e-39
0.12255002 0.014828116 0.067484438 6.7198483e-39
0.11850213 0.011779469 0.068433642 1.1963908e-39
0.11842714 0.014817972 0.067147434 3.9601087e-39
0.11574093 0.012462139 0.068241179 8.2760827e-40
0.11425366 0.014812006 0.067238629 2.3924453e-39
0.11311323 0.017950024 0.066611111 6.7248678e-39
0.11026382 0.015200324 0.067398012 1.8378268e-39
0.11031351 0.018636674 0.066751599 7.3659114e-39
0.10700036 0.01611582 0.067495704 7.3506232e-40
0.10596425 0.018923501 0.066616178 6.8109397e-39
0.10201301 0.019997625 0.066403627 9.4795991e-39
0.097871862 0.019988785 0.066209257 1.2890802e-38
0.098405071 0.14675677 0.054762304 2.2849737e-38
0.094022267 0.020116393 0.065915763 1.354304e-38
0.090678409 0.019837588 0.065984607 1.1328886e-38
0.090806916 0.14678068 0.054133952 2.0908233e-38
0.086801931 0.019968273 0.065857053 9.5707284e-39
0.0871002 0.14657576 0.054145455 1.9799379e-38
0.081915975 0.020652674 0.065899193 8.7405753e-39
0.082084879 0.022009442 0.064778149 9.7579965e-39
0.082959071 0.14656691 0.053951144 2.1361307e-38
0.07825917 0.022563808 0.06515038 8.925366e-39
0.078475736 0.14758876 0.053646505 2.1732626e-38
0.073396772 0.020175429 0.065541327 9.6618478e-39
0.07477507 0.022543916 0.064384818 8.6487777e-39
0.074288636 0.14694053 0.053759754 2.026217e-38
0.070270121 0.022682194 0.064662516 9.6628988e-39
0.069935307 0.14575481 0.052908778 2.2006671e-38
0.066131935 0.024049532 0.064342618 9.5689109e-39
0.065540552 0.026099807 0.063624978 1.002916e-38
0.065794066 0.14437072 0.052839935 2.1004023e-38
0.066392049 0.14584295 0.053236365 2.247337e-38
0.062240094 0.024397759 0.064630032 1.0121366e-38
0.062008485 0.027479868 0.063779294 1.0582697e-38
0.060721397 0.030215224 0.063022196 1.2790362e-38
0.062345505 0.14436336 0.052678108 1.9707552e-38
0.062252596 0.14617792 0.053010702 2.0074162e-38
0.058845714 0.14371565 0.052823603 1.9429515e-38
0.059392601 0.14592373 0.053401768 1.8695562e-38
0.054678142 0.031129843 0.062988997 1.2425542e-38
0.055313841 0.1444747 0.053006828 1.8507574e-38
0.055248603 0.14591488 0.053207278 1.7219743e-38
0.052240938 0.031606346 0.063500702 1.2517372e-38
0.052689493 0.14434274 0.052224934 1.7863302e-38
0.051104605 0.14590603 0.053012729 1.6577264e-38
0.046935916 0.034311485 0.061998546 1.1688343e-38
0.048096284 0.14662498 0.051800191 1.6216384e-38
0.043573081 0.035246953 0.062424779 1.0950415e-38
0.041715682 0.038092632 0.061658561 1.1412466e-38
0.041432932 0.041175906 0.061112463 1.1139835e-38
0.039825171 0.03915406 0.062226534 1.1411383e-38
0.038309842 0.042288724 0.061265886 1.1224856e-38
0.034313083 0.045339383 0.061402082 1.0950419e-38
0.033368602 0.14017574 0.051694751 1.5747819e-38
0.034605026 0.14580695 0.051909149 1.6221787e-38
0.030864209 0.047397718 0.061051667 1.0581631e-38
0.029035747 0.049400844 0.059777379 9.6589723e-39
0.030284896 0.13965584 0.051797986 1.5471215e-38
0.031206921 0.14283381 0.052355409 1.5663204e-38
0.031765923 0.14586471 0.052105069 1.6225007e-38
0.025750577 0.049781635 0.060341716 9.7543713e-39
0.027158231 0.13878724 0.051528752 1.3808476e-38
0.022018075 0.05147931 0.059759438 9.8447523e-39
0.021228775 0.053968295 0.058992445 9.4752663e-39
0.020941928 0.13464823 0.051613748 1.3441111e-38
0.020950779 0.13877398 0.051237524 1.0035288e-38
0.02095668 0.14152445 0.050986588 7.6439808e-39
0.019133195 0.052192621 0.060061038 9.8451096e-39
0.018186033 0.054629311 0.059190869 9.0171538e-39
0.017486006 0.13120276 0.051765323 1.5102405e-38
0.018807784 0.13400014 0.051823556 1.3718768e-38
0.019577235 0.1415215 0.050921857 7.8287014e-39
0.015069112 0.054918736 0.059333503 9.1082775e-39
0.014569402 0.05762136 0.058345079 8.7395076e-39
0.014760643 0.13085337 0.052070916 1.5376116e-38
0.0165447 0.13343799 0.052522182 1.4175454e-38
0.012497321 0.056241695 0.058373392 9.1975416e-39
0.011554718 0.13132761 0.051474333 1.196992e-38
0.010530055 0.13432579 0.051403642 8.9296315e-39
0.0057622939 0.13186532 0.051152289 8.4730002e-39
0.0072674602 0.1342762 0.051290393 8.0112836e-39
0.11631075 0.058463275 0.016597748 1.3438253e-38
0.14474341 0.11478872 0.016178787 1.565454e-38
0.1463217 0.12000223 0.018202543 1.6758012e-38
0.13243057 0.13711873 0.031511068 2.0540199e-38
0.051774099 0.033153042 0.058422923 1.114127e-38
0.105327 0.014757898 0.069718957 8.2761388e-40
0.10532333 0.14731367 0.059795737 1.8247135e-38
0.10166265 0.017970668 0.0690853 4.4203021e-39
0.10221615 0.1469505 0.057336986 2.2572807e-38
0.10222682 0.15043902 0.060034692 2.3219611e-38
0.098127767 0.017970635 0.069421291 5.6127398e-39
0.10041587 0.14796855 0.058164299 2.340259e-38
0.098653734 0.15058906 0.059134603 2.321636e-38
0.094736956 0.017955871 0.068760276 6.0712531e-39
0.094881415 0.15077247 0.058778465 2.2385537e-38
0.095975429 0.1538922 0.059424818 1.6027224e-38
0.090581536 0.017946994 0.068565249 6.0708636e-39
0.090403534 0.15045989 0.058183134 2.1459992e-38
0.086426124 0.017938115 0.068370163 6.8051552e-39
0.086284272 0.15039475 0.057707727 1.9432392e-38
0.08484865 0.15386845 0.058902562 1.7322368e-38
0.082399979 0.018922342 0.0685215 8.0962681e-39
0.082378775 0.15074575 0.058191657 1.961463e-38
0.082762398 0.15386398 0.058804691 1.7411332e-38
