# .PCD v0.7 - Point Cloud Data file format
VERSION 0.7
FIELDS x y z rgb
SIZE 4 4 4 4
TYPE F F F F
COUNT 1 1 1 1
WIDTH 975
HEIGHT 1
VIEWPOINT 0 0 0 0 1 0 0
POINTS 975
DATA ascii
0.086823836 0.050357699 0.033988297 1.6199068e-38
0.086343542 0.053980753 0.033055425 1.5462942e-38
0.086709499 0.058610857 0.032042444 1.491084e-38
0.086983919 0.062875301 0.031098068 1.4359828e-38
0.087121367 0.066579401 0.029824793 1.4083974e-38
0.086983934 0.070476994 0.029325128 1.3532227e-38
0.086983919 0.074277848 0.028438628 1.2887571e-38
0.086983934 0.078078687 0.027552128 1.2795392e-38
0.086672693 0.080334038 0.025926173 1.380558e-38
0.083355039 0.050903603 0.03322649 1.6294492e-38
0.082501173 0.053825274 0.032388866 1.6108676e-38
0.082528904 0.058241338 0.031277061 1.5464382e-38
0.082575142 0.062643364 0.030113876 1.4636415e-38
0.082761347 0.066314727 0.028712273 1.4084325e-38
0.082501173 0.070295602 0.028547406 1.353151e-38
0.082684144 0.074103862 0.027692676 1.3071599e-38
0.082501173 0.077897295 0.026774406 1.3069467e-38
0.08231236 0.080876768 0.025836289 1.4725714e-38
0.078658819 0.053669795 0.031722248 1.6387067e-38
0.078715384 0.058067024 0.030533135 1.555623e-38
0.078658819 0.06253843 0.029653788 1.4727902e-38
0.078771859 0.066262424 0.028458178 1.4267271e-38
0.078818917 0.069988236 0.027945518 1.4083973e-38
0.079299212 0.072699934 0.027400911 1.3715902e-38
0.079024747 0.077937618 0.026129067 1.2881482e-38
0.079036027 0.081042647 0.02481097 1.5556593e-38
0.075136662 0.054477483 0.030889571 1.6016841e-38
0.074816465 0.057948634 0.030021369 1.537076e-38
0.074976563 0.062231064 0.02905184 1.4635353e-38
0.075584918 0.06596151 0.028293073 1.3992486e-38
0.07609725 0.07890512 0.025367916 1.2787455e-38
0.074989453 0.080626816 0.024242222 1.3894595e-38
0.070974082 0.054625794 0.030093491 1.5371471e-38
0.071614474 0.057185605 0.029613614 1.5095244e-38
0.072254896 0.062279314 0.028542757 1.4449897e-38
0.071441233 0.081848994 0.02320379 1.3253166e-38
0.066649824 0.088181898 0.020641685 1.2333685e-38
0.063449472 0.084886461 0.021659255 1.3346052e-38
0.063369572 0.088463515 0.020578504 1.2058179e-38
0.060300887 0.085445315 0.02095294 1.2243638e-38
0.059607118 0.088531837 0.020106137 1.150786e-38
0.059733212 0.091958135 0.018518925 1.1691542e-38
0.058413148 0.09573409 0.017512619 1.2153257e-38
0.056885421 0.085729435 0.020261884 1.1230946e-38
0.056885421 0.088263333 0.019670904 1.0954721e-38
0.056885421 0.092064172 0.018784404 1.1507902e-38
0.056885421 0.095231548 0.018045664 1.160009e-38
0.14633843 0.068405911 0.017024279 1.1507516e-38
0.14849296 0.07750769 0.015335619 1.1139446e-38
0.14779082 0.073957428 0.017504334 1.4178683e-38
0.1171256 0.057682991 0.019346714 8.5619546e-39
0.11012679 0.094828576 0.01640588 1.1779784e-38
0.092736602 0.094623521 0.013272583 1.8322447e-38
0.10093001 0.07190378 0.027943909 1.4727538e-38
0.091091126 0.0892618 0.022721827 1.3532947e-38
0.1528616 0.02450636 0.05366236 9.2980707e-39
0.1770175 0.12967508 0.033378303 2.2482086e-38
0.17663488 0.1331259 0.034539938 2.2951315e-38
0.17263055 0.013777345 0.06238848 7.7318254e-39
0.17292391 0.015804917 0.059622467 6.902785e-39
0.17280792 0.018796414 0.058121324 6.4421726e-39
0.17345624 0.12990364 0.032847464 2.2565275e-38
0.1727656 0.13271262 0.033978164 2.2663218e-38
0.16876568 0.013620958 0.061717927 7.3637464e-39
0.16911112 0.015906125 0.059509814 7.3640967e-39
0.16938747 0.018235087 0.057626545 7.5513606e-39
0.16938747 0.12988985 0.031584859 2.2099581e-38
0.16890416 0.13255669 0.033308208 2.2381568e-38
0.16525564 0.015750118 0.05884093 7.825093e-39
0.16639461 0.01853691 0.057008684 8.4715387e-39
0.16513778 0.13289246 0.032077312 2.1460337e-38
0.1616527 0.015872851 0.058699608 8.2878579e-39
0.16040884 0.019140571 0.055772901 9.9427059e-39
0.16112904 0.13180231 0.031088352 2.0996843e-38
0.15845937 0.017027035 0.059038222 9.2104882e-39
0.15761089 0.019485608 0.057005823 1.0404749e-38
0.15697616 0.021714367 0.055587709 1.141497e-38
0.15777111 0.13197994 0.03016448 2.0261089e-38
0.15341759 0.022602767 0.055474579 1.2612432e-38
0.15372777 0.13155192 0.029549539 2.044511e-38
0.14985998 0.023236766 0.0549739 1.4176885e-38
0.1499974 0.13136181 0.029780626 2.035253e-38
0.14557648 0.024151959 0.055019855 1.6390985e-38
0.14629954 0.024913684 0.051845431 1.6758341e-38
0.14573778 0.13098243 0.029437661 1.9980896e-38
0.14171162 0.023995571 0.054349303 1.8231689e-38
0.14245155 0.024757981 0.051177859 1.9240798e-38
0.14228711 0.1290151 0.027526915 1.9156166e-38
0.13913505 0.023891315 0.053902328 1.9151491e-38
0.13813147 0.025696442 0.051360786 2.0162399e-38
0.13826594 0.1290742 0.027472854 1.9248351e-38
0.13446014 0.026405104 0.051268876 2.0252808e-38
0.13347292 0.028624013 0.048633754 1.9884396e-38
0.13449955 0.12817648 0.026645601 1.9342717e-38
0.1304391 0.027043954 0.051576257 2.0437195e-38
0.12994877 0.029305652 0.048724174 1.9516675e-38
0.13028175 0.1269944 0.026566923 1.750062e-38
0.12625216 0.027193129 0.050775588 1.9974768e-38
0.12572749 0.029398613 0.049027383 1.9239372e-38
0.12449428 0.031644188 0.046286881 1.8871298e-38
0.12594703 0.12680697 0.026182711 1.0315443e-38
0.12367558 0.027088873 0.050328553 1.9793632e-38
0.12111065 0.029574886 0.048627675 1.9059285e-38
0.12167242 0.032037526 0.045678973 1.8597206e-38
0.12140599 0.12730598 0.025380552 9.8519115e-39
0.118093 0.030261293 0.048567474 1.9148968e-38
0.1175625 0.032350913 0.046766281 1.8871654e-38
0.11351322 0.032315522 0.046729088 1.8964927e-38
0.11295033 0.083198041 0.032151103 7.087123e-39
0.11076275 0.03306134 0.045530498 1.878017e-38
0.1091285 0.035977796 0.043508351 1.7585225e-38
0.10910232 0.038634196 0.041840971 1.6755467e-38
0.1105848 0.079627573 0.033147156 5.8900484e-39
0.11102632 0.08248578 0.031965256 6.6275868e-39
0.10593808 0.036366075 0.043877065 1.786038e-38
0.106537 0.039164796 0.041247964 1.7401551e-38
0.10197785 0.036272436 0.043522239 1.795292e-38
0.102689 0.039484888 0.040469408 1.7768899e-38
0.098419338 0.036195472 0.042411208 1.7583797e-38
0.098771632 0.039530069 0.039973974 1.7493767e-38
0.098841026 0.042025402 0.039172947 1.7586304e-38
0.094044954 0.037359223 0.042512894 1.6846238e-38
0.094501227 0.039629027 0.040560484 1.7028837e-38
0.094809771 0.042768583 0.038262248 1.7030975e-38
0.091468364 0.037254974 0.042065918 1.7122441e-38
0.090638995 0.039957449 0.040389955 1.7766033e-38
0.090929776 0.04311347 0.038167357 1.7119233e-38
0.090503722 0.045494452 0.03683871 1.6749722e-38
0.086424291 0.040805116 0.039967597 1.8225579e-38
0.086860687 0.043088615 0.038124084 1.7397255e-38
0.08678399 0.046105221 0.036015809 1.7212847e-38
0.08601439 0.049119204 0.035172105 1.6937338e-38
0.083094493 0.040739238 0.039721429 1.8227742e-38
0.08330071 0.046566918 0.035734475 1.776495e-38
0.083128408 0.049319625 0.034597397 1.702882e-38
0.082166418 0.074339584 0.02858597 1.3163435e-38
0.07987377 0.044432029 0.03827101 1.7673492e-38
0.078998208 0.046680659 0.036311626 1.7398351e-38
0.078959748 0.050102547 0.033652246 1.6754404e-38
0.077035755 0.071594372 0.028287709 1.3625181e-38
0.078478754 0.074507564 0.027872205 1.334784e-38
0.077035755 0.077303991 0.026956022 1.2333331e-38
0.075002432 0.047085822 0.036463022 1.6754412e-38
0.074639678 0.050234511 0.033427238 1.6385616e-38
0.074213892 0.052955642 0.032118678 1.620051e-38
0.073187768 0.063825846 0.02939564 1.3808832e-38
0.073508427 0.066693619 0.028785467 1.353295e-38
0.074630767 0.070069641 0.028203368 1.3441835e-38
0.074738026 0.074293599 0.027535796 1.2704624e-38
0.074310094 0.077669501 0.026372194 1.1780157e-38
0.071499899 0.047916293 0.035926521 1.6200529e-38
0.071044266 0.050065398 0.034298956 1.6017563e-38
0.070878968 0.053074464 0.031480908 1.565057e-38
0.069981098 0.05862087 0.030023038 1.472754e-38
0.069981098 0.062427282 0.029135287 1.4358758e-38
0.07126376 0.066285595 0.028470039 1.3715195e-38
0.071138337 0.070556775 0.028642893 1.2705355e-38
0.071000785 0.074273944 0.028775156 1.1967428e-38
0.070562333 0.078200951 0.027648687 1.1964192e-38
0.070301771 0.080520719 0.024973929 1.2603137e-38
0.067576885 0.050771385 0.034334481 1.5558007e-38
0.067080557 0.053634077 0.032443643 1.5187078e-38
0.067058966 0.058102205 0.030652523 1.4543882e-38
0.066999555 0.062588185 0.029769242 1.3993194e-38
0.067306593 0.066643685 0.02986449 1.316202e-38
0.067240536 0.070620269 0.029591322 1.242661e-38
0.067030355 0.074468672 0.028800249 1.2150728e-38
0.067227408 0.078153223 0.027397394 1.2699978e-38
0.066845477 0.081557557 0.024360597 1.4819028e-38
0.064414307 0.051452696 0.033805609 1.426511e-38
0.064182028 0.054253399 0.032849133 1.4541714e-38
0.063215792 0.05835478 0.03171587 1.3991784e-38
0.063286066 0.062770098 0.030496061 1.3254564e-38
0.063125998 0.066693008 0.030015409 1.2610279e-38
0.063126013 0.070516095 0.029123724 1.2426233e-38
0.063126028 0.074339211 0.028232098 1.2886133e-38
0.063230157 0.078030959 0.026347041 1.3807019e-38
0.062893033 0.081258804 0.024280906 1.4451668e-38
0.061643809 0.083659589 0.02265805 1.3437872e-38
0.060549438 0.0595797 0.031203091 1.3624779e-38
0.060034096 0.062489897 0.030430079 1.3530072e-38
0.059261143 0.06738618 0.029146731 1.2701402e-38
0.05915916 0.070186079 0.028359234 1.2242581e-38
0.059629232 0.074379757 0.027582884 1.3070181e-38
0.059145957 0.077808961 0.026564419 1.3530434e-38
0.058686703 0.081561267 0.024170995 1.3070152e-38
0.058650911 0.084384352 0.021941543 1.2058899e-38
0.057795823 0.087310299 0.021102667 1.1507512e-38
0.05742541 0.099644601 0.019201219 1.2892264e-38
0.057972848 0.10344116 0.020501792 1.3073389e-38
0.056684554 0.067706719 0.028600633 1.2148567e-38
0.056684554 0.070255458 0.028006196 1.1686175e-38
0.056040436 0.072778121 0.0273 1.1876299e-38
0.055911601 0.078380138 0.025969803 1.2058892e-38
0.055294365 0.081294119 0.024432421 1.1320624e-38
0.054694563 0.08476153 0.022172868 1.1138751e-38
0.054213107 0.088713095 0.021163166 1.0768484e-38
0.054213703 0.092526346 0.020273983 1.1414256e-38
0.054391861 0.096537054 0.02006644 1.1783391e-38
0.055287898 0.1004114 0.02030009 1.21547e-38
0.056684554 0.10338904 0.020278335 1.2981199e-38
0.052175581 0.078993589 0.025143325 1.2151011e-38
0.052304387 0.081802398 0.024511755 1.1690478e-38
0.051167279 0.085469782 0.023031294 1.1783764e-38
0.051013231 0.089048833 0.022237837 1.1601154e-38
0.050495684 0.092754021 0.020931482 1.2426617e-38
0.051271319 0.096897602 0.020504117 1.2982289e-38
0.052819729 0.09940955 0.020499468 1.2614588e-38
0.12187129 0.070242345 0.013626873 6.9960428e-39
0.1527226 0.067889974 0.018170297 1.2427689e-38
0.16035789 0.072403342 0.017588735 1.316633e-38
0.14640155 0.067267582 0.019123554 1.4453473e-38
0.14346638 0.068638638 0.018062949 1.3717699e-38
0.15215963 0.035071656 0.036062121 1.8599028e-38
0.10973971 0.089266554 0.021597505 1.5282511e-38
0.17205985 0.012293577 0.065585375 8.3771892e-39
0.16807449 0.012212113 0.065396845 7.9165698e-39
0.16819036 0.13688301 0.035761178 2.2941233e-38
0.1644163 0.01303906 0.064336121 7.36591e-39
0.16426183 0.13743889 0.035144627 2.2847605e-38
0.1643732 0.14002728 0.035604239 2.2294048e-38
0.16050808 0.013357595 0.064023674 7.4580832e-39
0.15919669 0.015556999 0.062123537 8.2867789e-39
0.16189097 0.13380635 0.034515142 2.1183384e-38
0.16040558 0.1366954 0.035264432 2.1645466e-38
0.1575703 0.013816275 0.06379652 7.8272468e-39
0.1565304 0.016147777 0.061870575 8.9314252e-39
0.15543076 0.018517852 0.060222507 9.8537388e-39
0.15671101 0.13634363 0.034540296 2.0720622e-38
0.1526463 0.016949683 0.062164962 1.0034893e-38
0.15269308 0.019798569 0.060118437 1.1324924e-38
0.15283431 0.135923 0.033258796 2.06259e-38
0.15368295 0.14119697 0.033375919 2.3050348e-38
0.14914767 0.017320827 0.061438382 1.1600047e-38
0.14863035 0.019767642 0.060193658 1.2889757e-38
0.14832455 0.022064537 0.058095396 1.3993938e-38
0.14832455 0.13325739 0.032161474 2.0352885e-38
0.14944148 0.13557178 0.033564329 2.0535488e-38
0.14483441 0.019826785 0.059804082 1.3904961e-38
0.14497395 0.022655532 0.057866156 1.5558367e-38
0.14469214 0.13367116 0.033138871 1.9981254e-38
0.14202084 0.020236924 0.05945456 1.4087906e-38
0.14105359 0.022526085 0.057353139 1.6482458e-38
0.14137809 0.13234404 0.031520963 1.8879586e-38
0.1370479 0.023305431 0.056960046 1.8232042e-38
0.13704759 0.13255426 0.031479478 1.8971761e-38
0.13333827 0.024006695 0.056726217 1.9152921e-38
0.13256124 0.025441572 0.055467248 2.0437181e-38
0.12901536 0.025845438 0.054933012 2.0437913e-38
0.12553379 0.026376322 0.053616107 2.0437883e-38
0.12119327 0.026260465 0.053196847 2.0254613e-38
0.12183776 0.028661266 0.051711679 1.9427006e-38
0.11758745 0.026816085 0.052755237 1.979362e-38
0.11700618 0.028953843 0.051107287 1.9425912e-38
0.11351345 0.027415037 0.052565634 1.9975133e-38
0.11392638 0.029723085 0.050596356 1.9610292e-38
0.1100428 0.029832698 0.050454259 1.9517023e-38
0.10838884 0.033293292 0.048518836 1.8872361e-38
0.10599789 0.030443579 0.050484419 1.9517043e-38
0.1057044 0.033249229 0.048385799 1.8872372e-38
0.10185134 0.030788511 0.049645543 1.9426648e-38
0.10175702 0.033132121 0.04792273 1.8780554e-38
0.097738579 0.033055559 0.047669053 1.8505039e-38
0.095996976 0.035284117 0.045440018 1.7676e-38
0.093747914 0.033675984 0.046863914 1.8042993e-38
0.093412891 0.035818607 0.04484272 1.7029909e-38
0.089000046 0.034048706 0.046186566 1.7858596e-38
0.089294612 0.036180571 0.044265687 1.7490157e-38
0.088890761 0.038830817 0.043312848 1.822701e-38
0.086301893 0.034004688 0.046050906 1.8502158e-38
0.085442036 0.036267072 0.043975353 1.8502875e-38
0.085660666 0.03933917 0.042603493 1.8410329e-38
0.081229389 0.036936879 0.044091463 1.8041571e-38
0.081409439 0.039557233 0.042371035 1.8044096e-38
0.080492496 0.042964265 0.040812552 1.7766035e-38
0.077231348 0.036842138 0.043729961 1.6567508e-38
0.077682719 0.039791256 0.04173404 1.7396914e-38
0.077746913 0.043332458 0.040224493 1.7766049e-38
0.073991895 0.037351951 0.043018401 1.6661834e-38
0.073573023 0.039761662 0.041684449 1.7307569e-38
0.073879153 0.043428555 0.039958119 1.7493055e-38
0.073386282 0.045871913 0.038834453 1.6938087e-38
0.070752397 0.039784446 0.041858554 1.6755834e-38
0.069792792 0.043645814 0.040260792 1.6571446e-38
0.069821149 0.046732575 0.038428664 1.6108341e-38
0.066865042 0.044113412 0.040137708 1.574349e-38
0.065924227 0.047063515 0.038234532 1.5461903e-38
0.065634072 0.050031513 0.036446214 1.527748e-38
0.064988047 0.071093664 0.031415641 1.2424809e-38
0.062743545 0.047417104 0.03835243 1.4909042e-38
0.061835349 0.050605282 0.036790907 1.4171469e-38
0.061483562 0.054171652 0.035138547 1.4356966e-38
0.062403947 0.070989102 0.030967295 1.2427668e-38
0.061033994 0.107326 0.024327755 1.2329763e-38
0.058779955 0.051616177 0.036561131 1.4081804e-38
0.058368266 0.054568946 0.034971535 1.4451311e-38
0.05819571 0.058467805 0.033326626 1.3716268e-38
0.057558805 0.063444108 0.031840742 1.3621913e-38
0.058527827 0.066572025 0.031288564 1.3437164e-38
0.057235807 0.072058067 0.02977258 1.2149674e-38
0.057235807 0.073975176 0.029325485 1.2335487e-38
0.057917356 0.10645828 0.02361232 1.2611714e-38
0.058053672 0.10951263 0.023272574 1.2615306e-38
0.054295331 0.058990225 0.033610106 1.3622628e-38
0.054362357 0.06318149 0.032128572 1.3530809e-38
0.054490209 0.066674903 0.030525923 1.2886102e-38
0.054005682 0.070649296 0.029510379 1.1966678e-38
0.054467142 0.074867368 0.028610945 1.1875585e-38
0.054005712 0.07767871 0.027870774 1.2151096e-38
0.054005712 0.10260126 0.02205801 1.224545e-38
0.054116964 0.10562357 0.022416532 1.2520586e-38
0.054770976 0.10878164 0.022842646 1.1968843e-38
0.050275743 0.059565887 0.033238292 1.3714439e-38
0.050397277 0.06307438 0.031659961 1.3530439e-38
0.050733417 0.066709727 0.029946506 1.2887208e-38
0.050733417 0.070544586 0.029052079 1.1967378e-38
0.050733417 0.074379638 0.028157592 1.215142e-38
0.050591052 0.07781443 0.027214587 1.1968848e-38
0.049806595 0.081662565 0.026173472 1.1876677e-38
0.049483567 0.084525168 0.025446773 1.159979e-38
0.050377667 0.10152161 0.022298157 1.2706429e-38
0.050019771 0.10431676 0.023014843 1.3071238e-38
0.046986222 0.063384742 0.031798005 1.3805604e-38
0.046387464 0.066834211 0.030397296 1.270176e-38
0.046429873 0.07064946 0.029399216 1.1779079e-38
0.046720982 0.074738294 0.028714061 9.9323026e-39
0.047162592 0.078302503 0.027516544 1.0664822e-38
0.04699415 0.082242683 0.026268721 1.0299284e-38
0.04651469 0.085956499 0.025612891 1.0021277e-38
0.046728402 0.089650199 0.024211049 9.4692029e-39
0.046060741 0.093475491 0.023254693 8.9185164e-39
0.046868533 0.097185403 0.022537112 1.1040444e-38
0.046986222 0.10157166 0.022891521 1.0207125e-38
0.046132386 0.10480034 0.022190928 1.0575883e-38
0.043540806 0.089954913 0.025179327 8.640859e-39
0.043540835 0.093159392 0.024431884 8.8231104e-39
0.043540835 0.096363857 0.023684502 9.5631628e-39
0.15997641 0.073694736 0.017131925 1.2796812e-38
0.19376387 0.076659113 0.021117568 8.3757459e-39
0.09409374 0.066228852 0.028145671 1.3256715e-38
0.1673145 0.010190457 0.069553733 7.362708e-39
0.16406035 0.010703042 0.068838835 7.1818872e-39
0.16286632 0.011862904 0.067828417 7.0907664e-39
0.15993947 0.01069282 0.069130421 6.8120229e-39
0.15923609 0.012076989 0.067375124 7.088593e-39
0.15842533 0.13886839 0.036872566 2.1736237e-38
0.1595549 0.1417542 0.037217379 2.2484558e-38
0.15820493 0.14435089 0.036596477 2.3417687e-38
0.1556021 0.012934715 0.06677109 8.1935154e-39
0.15452671 0.01530277 0.064979076 8.7448942e-39
0.15517648 0.13809419 0.03645879 2.0902143e-38
0.15582626 0.14133424 0.035821915 2.2859127e-38
0.15690351 0.14429823 0.036370695 2.341769e-38
0.15241289 0.013772152 0.066687763 8.9310623e-39
0.15142946 0.015621789 0.065120399 9.7582838e-39
0.15127786 0.13857919 0.035632551 2.0529767e-38
0.15142421 0.14116977 0.035651207 2.2028283e-38
0.14795116 0.016805962 0.063773274 1.1324554e-38
0.14751706 0.137684 0.035501003 2.053801e-38
0.14770463 0.14132005 0.035773814 2.0919046e-38
0.14396907 0.017558321 0.063217044 1.2062856e-38
0.14386216 0.13737239 0.035716355 2.0446545e-38
0.14364833 0.14153293 0.035634041 2.0269728e-38
0.1403901 0.017637037 0.063934684 1.16966e-38
0.13968322 0.019782364 0.061963975 1.3717688e-38
0.13893223 0.13422315 0.034390152 1.8511528e-38
0.13992988 0.13725129 0.03514117 2.0540536e-38
0.13973847 0.14008549 0.035256326 2.1466434e-38
0.14104176 0.14400586 0.03458041 1.7235916e-38
0.1363468 0.020423859 0.062197447 1.3163449e-38
0.13568337 0.02225329 0.059911013 1.5742773e-38
0.13595471 0.13654023 0.034869671 1.998233e-38
0.13322201 0.021214604 0.061789036 1.3438986e-38
0.1317616 0.022889659 0.060714006 1.7126811e-38
0.1330843 0.13398652 0.033375621 1.9710413e-38
0.1320622 0.13700813 0.033990562 2.0174263e-38
0.13126707 0.14103194 0.033486009 1.9618216e-38
0.12842038 0.023814127 0.059410393 1.9244412e-38
0.12836084 0.13659376 0.032598794 1.5380862e-38
0.1282433 0.14060205 0.032105982 1.6764134e-38
0.12402813 0.023712762 0.05907768 1.9333013e-38
0.12463728 0.025662825 0.05709517 2.089922e-38
0.12442774 0.13647263 0.032023549 1.1052649e-38
0.1242778 0.14051864 0.031631827 1.1055167e-38
0.12076059 0.023629472 0.05842483 1.9243694e-38
0.12203822 0.025557652 0.056644201 2.0624819e-38
0.12071042 0.14008908 0.031774819 7.7261249e-39
0.11627924 0.024396673 0.057947576 1.9977285e-38
0.11655965 0.025516592 0.056694627 2.0252796e-38
0.1163727 0.13644885 0.031482637 1.8887435e-38
0.11758253 0.13918899 0.031412542 5.969736e-39
0.1126554 0.026001364 0.055867314 1.9976209e-38
0.10875168 0.026486963 0.055040061 1.9609219e-38
0.10774326 0.028835729 0.053264737 1.9518103e-38
0.10469827 0.027058907 0.054686546 1.9794333e-38
0.10474449 0.029082313 0.052919447 1.979398e-38
0.10104084 0.027279317 0.054226995 2.0161329e-38
0.10119507 0.029244527 0.052145362 1.9885459e-38
0.097381517 0.027499631 0.053766906 1.9974069e-38
0.097209603 0.02977775 0.051581681 1.9606361e-38
0.093029037 0.029775746 0.05174458 1.9792919e-38
0.09304443 0.032466754 0.04998976 1.8780555e-38
0.089298338 0.030448541 0.051183343 1.9608155e-38
0.089389816 0.0326882 0.049530387 1.868657e-38
0.085651904 0.030892625 0.050829887 1.8688715e-38
0.085092723 0.032913864 0.049362242 1.8502874e-38
0.081255898 0.03384006 0.048816919 1.8506114e-38
0.081102699 0.035470739 0.046843946 1.8410687e-38
0.077404946 0.034296259 0.047832251 1.7583824e-38
0.077517182 0.035522968 0.047218859 1.7211443e-38
0.073384106 0.034198716 0.047467053 1.6568223e-38
0.073558047 0.035758585 0.045813859 1.6476379e-38
0.070664063 0.034153789 0.047327578 1.5740613e-38
0.069827646 0.036684096 0.04567188 1.583387e-38
0.068640471 0.040176094 0.04381448 1.666328e-38
0.065711558 0.037305355 0.045686662 1.4820435e-38
0.065804228 0.040198058 0.043985963 1.5370379e-38
0.065638185 0.043329284 0.042182148 1.5463661e-38
0.062034994 0.040645987 0.044061184 1.3435004e-38
0.062019527 0.043836832 0.042097151 1.4634985e-38
0.060310066 0.047484383 0.04023838 1.4358738e-38
0.057869166 0.044287801 0.042474568 1.3715879e-38
0.057623863 0.04740712 0.040808022 1.371409e-38
0.056969523 0.050939232 0.039082348 1.3898137e-38
0.055761665 0.053727835 0.037950218 1.4449153e-38
0.056939006 0.11044027 0.0252859 1.2336192e-38
0.056694567 0.11320898 0.025290787 1.1874494e-38
0.053721309 0.048616424 0.04085511 1.3162014e-38
0.053650767 0.051297575 0.039956212 1.362084e-38
0.053564787 0.055075139 0.037929416 1.4913012e-38
0.051863074 0.057426572 0.036374331 1.4449502e-38
0.052417994 0.11141261 0.025970519 1.196955e-38
0.05068028 0.052253574 0.039450526 1.3807029e-38
0.05006811 0.055340901 0.038357735 1.5094875e-38
0.04913801 0.057821691 0.036131322 1.417326e-38
0.04952389 0.10669509 0.024455369 1.2427676e-38
0.05006212 0.11046879 0.025064409 1.251844e-38
0.046553195 0.056383938 0.037732244 1.5368574e-38
0.045934618 0.059080347 0.035715461 1.3988131e-38
0.04449898 0.06355609 0.033597648 1.3254221e-38
0.044065803 0.074465305 0.03097403 1.2147129e-38
0.044065803 0.078964546 0.029924631 1.084813e-38
0.044065803 0.082178295 0.029175103 9.2815606e-39
0.044065803 0.09953253 0.02512753 8.2742428e-39
0.044715583 0.10277256 0.024490654 9.6528851e-39
0.046283245 0.1076383 0.024685562 1.1041877e-38
0.046470195 0.10985328 0.024203181 1.2976901e-38
0.042288005 0.060380071 0.035721958 1.3530404e-38
0.041840374 0.063607439 0.03458941 1.3531147e-38
0.041625291 0.067431733 0.033836901 1.3253847e-38
0.041991681 0.072959065 0.03303194 1.2793571e-38
0.041625261 0.075677484 0.031913757 1.2424057e-38
0.041598558 0.079214081 0.030805886 1.2052759e-38
0.04179281 0.082951933 0.029448032 1.1400942e-38
0.041921914 0.08672747 0.028243423 1.0109138e-38
0.041466713 0.090428859 0.02677536 1.0016961e-38
0.041597039 0.094754726 0.026311755 1.0022681e-38
0.042989016 0.1025527 0.025964499 9.931602e-39
0.038081795 0.080536112 0.030549467 1.2702793e-38
0.038081795 0.08311455 0.029948175 1.2518386e-38
0.038168699 0.086924747 0.028843641 1.2514463e-38
0.03821215 0.090762094 0.027840674 1.2325761e-38
0.03821215 0.094627857 0.026939034 1.2053821e-38
0.038498878 0.09771274 0.02620244 1.2605201e-38
0.035475194 0.083009064 0.029495895 1.2335458e-38
0.034953892 0.087113455 0.028443336 1.0212841e-38
0.034823567 0.090717956 0.027578771 9.107581e-39
0.035149395 0.094276458 0.026808381 8.3757543e-39
0.15815473 0.07574603 0.015752017 1.3257798e-38
0.15362263 0.012043163 0.069745958 8.5694656e-39
0.15056691 0.013292074 0.069417119 9.2087324e-39
0.14827771 0.013846368 0.068869114 9.6675567e-39
0.14664251 0.016044669 0.068057299 1.0680272e-38
0.14300501 0.016895726 0.067367196 1.1138753e-38
0.13873345 0.017059937 0.066634417 1.0035277e-38
0.13932565 0.14219761 0.037221253 1.8885353e-38
0.13899854 0.14497148 0.037110448 1.732992e-38
0.13611196 0.017423496 0.065635502 9.7626614e-39
0.1344527 0.019455954 0.064510345 1.2428401e-38
0.13515526 0.13952285 0.037330508 2.0728161e-38
0.13533357 0.14145675 0.037259758 1.9520274e-38
0.13114285 0.020085916 0.064149022 1.252204e-38
0.12751821 0.020504393 0.063593388 1.3809561e-38
0.12682828 0.022595234 0.062383413 1.7222264e-38
0.1235607 0.021170095 0.062118113 1.4552869e-38
0.1242142 0.022489458 0.061929941 1.713185e-38
0.11819421 0.022979856 0.061235785 1.8231347e-38
0.11581162 0.023030616 0.060892403 1.9053926e-38
0.11194471 0.024132431 0.059719503 2.0160955e-38
0.10796262 0.024007052 0.059228897 1.9608874e-38
0.10656916 0.025654227 0.057964027 1.9518452e-38
0.10431227 0.024448767 0.058875322 1.9150764e-38
0.10395508 0.025548443 0.057510495 1.9609944e-38
0.10038552 0.026232034 0.057741106 1.9978377e-38
0.095959514 0.027255535 0.056171179 1.997551e-38
0.092191696 0.027658299 0.054866552 1.9698941e-38
0.088163376 0.02755674 0.054500997 1.9333736e-38
0.087943822 0.029102564 0.053752661 1.9425932e-38
0.08533299 0.027565114 0.054676652 1.9607428e-38
0.08406949 0.029599279 0.053226113 1.896459e-38
0.080426157 0.030244671 0.052707136 1.8044788e-38
0.080428332 0.032353982 0.05161953 1.8226305e-38
0.076497793 0.030768238 0.052313387 1.7492329e-38
0.076507211 0.032841779 0.050788462 1.7491637e-38
0.072710216 0.032894507 0.050498784 1.6382765e-38
0.068433046 0.034153163 0.049700916 1.5556581e-38
0.067357928 0.035703868 0.048447311 1.5188144e-38
0.06569925 0.034539312 0.049458504 1.5186725e-38
0.06423986 0.035999581 0.048329413 1.5187396e-38
0.06157437 0.037691712 0.047273338 1.4543156e-38
0.059831023 0.039776653 0.046468139 1.3898159e-38
0.056871176 0.041391507 0.046036839 1.4269794e-38
0.056248069 0.043011829 0.044710517 1.408685e-38
0.053591758 0.044731274 0.044866562 1.2885391e-38
0.052906036 0.047315329 0.043304086 1.316092e-38
0.053264529 0.11301734 0.028880119 1.1508157e-38
0.05261007 0.11428563 0.028464556 1.0958632e-38
0.049244672 0.048474997 0.042850494 1.2974747e-38
0.048560679 0.051356822 0.041531801 1.3067655e-38
0.047752321 0.054304332 0.040522635 1.5278545e-38
0.045506001 0.052440599 0.041328609 1.3898492e-38
0.045010686 0.055346176 0.040125728 1.5646265e-38
0.041484296 0.056865409 0.039821684 1.472499e-38
0.040800035 0.0585116 0.038686812 1.3254523e-38
0.039910078 0.069502026 0.035543442 1.3437869e-38
0.040199399 0.071991652 0.035641491 1.307016e-38
0.039910078 0.074673697 0.034337282 1.2978318e-38
0.039910078 0.10053207 0.028306186 1.2048452e-38
0.04043287 0.10288048 0.027854085 1.1682199e-38
0.040829837 0.10604031 0.028232753 1.1870584e-38
0.038080275 0.060817987 0.037755609 1.3165219e-38
0.038472712 0.064352795 0.036829114 1.371553e-38
0.037066698 0.076270103 0.034487784 1.3344225e-38
0.037183464 0.079440042 0.033024848 1.2885388e-38
0.036969244 0.10008985 0.02787137 1.1780133e-38
0.037339389 0.10287796 0.028331876 1.2422284e-38
0.034285247 0.077290475 0.033740997 1.3803423e-38
0.033841014 0.080068171 0.032803178 1.2977251e-38
0.032805711 0.083094954 0.031421185 1.2518769e-38
0.032394588 0.08697556 0.030093253 1.0028087e-38
0.032067806 0.091164321 0.029056549 9.017521e-39
0.032590628 0.095322818 0.028182268 8.6533992e-39
0.033611268 0.098698348 0.028103113 9.0218174e-39
0.030358493 0.083605453 0.031549811 1.2519108e-38
0.029915392 0.08767575 0.03031075 9.2008262e-39
0.030358493 0.091374114 0.029737949 8.7419921e-39
0.030131847 0.094854891 0.028623819 8.1913182e-39
0.1615545 0.062286928 0.018461943 1.5465473e-38
0.15663335 0.070678398 0.013857722 1.362514e-38
0.13387674 0.04600206 0.026848912 1.6387055e-38
0.10019924 0.050810024 0.037348807 1.7306127e-38
0.054973602 0.068542987 0.029796243 1.2886866e-38
0.14244325 0.015961379 0.069916129 1.0220391e-38
0.13719258 0.14494804 0.038871586 1.6040986e-38
0.13456725 0.01694116 0.068246901 8.3797158e-39
0.13509744 0.1450375 0.038989007 1.5222001e-38
0.13194843 0.017780438 0.068615079 9.210554e-39
0.13325459 0.14284095 0.038642704 1.7022395e-38
0.13273232 0.14466761 0.038468719 1.5221277e-38
0.1281379 0.018314779 0.068836331 9.9466379e-39
0.12669125 0.019219443 0.066274762 1.1503586e-38
0.12314138 0.019245289 0.066662371 1.0954729e-38
0.1239762 0.020032346 0.065936148 1.2333697e-38
0.11964706 0.020889737 0.065430999 1.2792882e-38
0.11881524 0.022796199 0.063999832 1.675981e-38
0.11591138 0.02090326 0.064953148 1.444556e-38
0.11139947 0.01910916 0.066632152 1.6848002e-38
0.11168364 0.020903535 0.065222621 1.8782339e-38
0.11225191 0.022530623 0.062861145 1.9701428e-38
0.11008118 0.1259878 0.041463256 7.3619709e-39
0.11083886 0.12911569 0.039307833 8.3775003e-39
0.11106464 0.1330587 0.038325191 1.3075175e-38
0.10810375 0.018975809 0.066060364 1.933696e-38
0.10864207 0.022709176 0.062159181 2.0069136e-38
0.10789618 0.12149563 0.040488899 8.1013436e-39
0.10797191 0.12538083 0.041218996 8.1024072e-39
0.10368666 0.021288469 0.064017653 1.9241893e-38
0.10437591 0.023510411 0.061191916 1.8963865e-38
0.10414636 0.11723384 0.040101647 9.5750136e-39
0.10411334 0.12116718 0.039294124 1.0586649e-38
0.104808 0.12447038 0.040852606 1.0492685e-38
0.10017432 0.021581031 0.063306928 1.9425927e-38
0.10023661 0.024110705 0.060989916 1.9425201e-38
0.099125251 0.025894925 0.059675276 1.9885106e-38
0.099125251 0.1141918 0.039081454 1.5093412e-38
0.10013619 0.11730409 0.039583504 1.18709e-38
0.10016356 0.12038121 0.039913774 1.2155032e-38
0.096898258 0.022434533 0.063203871 1.8964941e-38
0.096088201 0.024345219 0.061775684 1.9240453e-38
0.095749795 0.026314847 0.058959901 1.9699283e-38
0.097812578 0.11413869 0.038853705 1.5281373e-38
0.095910892 0.11665407 0.038298428 1.3714062e-38
0.095579967 0.12018484 0.040164053 1.3534019e-38
0.091611996 0.025205866 0.060756207 1.9238656e-38
0.091905594 0.026901275 0.058119833 1.9514185e-38
0.093564183 0.11817455 0.038178205 1.3997161e-38
0.091452584 0.12018675 0.038887143 1.4918037e-38
0.087988108 0.025153503 0.059896827 1.8779842e-38
0.088623911 0.026768483 0.05755055 1.9055721e-38
0.088426292 0.12066667 0.037700176 1.6022238e-38
0.084237069 0.025168262 0.059415877 1.7954026e-38
0.084115103 0.027047522 0.057442904 1.8964579e-38
0.083715335 0.12057412 0.037902892 1.5745648e-38
0.079760462 0.025653213 0.059318185 1.6387084e-38
0.08030811 0.027324855 0.057290196 1.7768201e-38
0.079435259 0.028993636 0.055350661 1.8044777e-38
0.076475114 0.028193161 0.056038916 1.7768176e-38
0.076809913 0.02932024 0.054794252 1.7768547e-38
0.075805575 0.11938468 0.036733389 2.3206975e-38
0.07207638 0.029130325 0.056406319 1.6659687e-38
0.072404385 0.030640222 0.054306269 1.6657547e-38
0.069214121 0.029138625 0.056576073 1.5378295e-38
0.06820181 0.031061903 0.054452419 1.5923574e-38
0.068933904 0.032896996 0.052519321 1.5740263e-38
0.064344496 0.032255419 0.05454123 1.4728998e-38
0.064227253 0.034138843 0.052672386 1.5370784e-38
0.060940415 0.034656018 0.051950574 1.5555849e-38
0.059482723 0.037015975 0.049829721 1.4452746e-38
0.05673033 0.035699382 0.051510692 1.4634624e-38
0.056190461 0.037941545 0.049793839 1.3529366e-38
0.056463599 0.039750472 0.048639655 1.3806667e-38
0.056274384 0.11599603 0.033255577 1.3904964e-38
0.054712921 0.11918323 0.03292197 1.3532942e-38
0.053394616 0.036322802 0.052006662 1.4082521e-38
0.052883029 0.039142624 0.050212443 1.3437153e-38
0.05269751 0.041539162 0.048159361 1.3621899e-38
0.051869243 0.04410927 0.046782613 1.2515557e-38
0.053181916 0.1159036 0.030277908 1.1692262e-38
0.051991254 0.11882649 0.031255722 1.2520599e-38
0.048334688 0.042519733 0.049039841 1.251377e-38
0.049270511 0.045114756 0.046519756 1.2237185e-38
0.047931254 0.04719612 0.045342326 1.3437875e-38
0.05055657 0.11547275 0.029898167 1.2153955e-38
0.045484841 0.043827027 0.048809528 1.2973649e-38
0.044600606 0.04615584 0.04691267 1.3803786e-38
0.04524231 0.048638195 0.044687867 1.3803427e-38
0.044649601 0.050958782 0.043864429 1.3527924e-38
0.041529953 0.047579154 0.047210932 1.4355542e-38
0.040839911 0.05028151 0.045262575 1.3619395e-38
0.041174591 0.05287692 0.043302834 1.3804867e-38
0.04110539 0.05523023 0.042219818 1.5278183e-38
0.039667964 0.10819168 0.030647457 1.2792527e-38
0.037575126 0.051331267 0.045612335 1.2790719e-38
0.037359089 0.054012075 0.044113278 1.3530436e-38
0.036842436 0.056827188 0.042632043 1.3068354e-38
0.03634721 0.059445277 0.040627062 1.3071923e-38
0.036117256 0.064247623 0.03920424 1.3716241e-38
0.036679804 0.068444088 0.038328409 1.3622261e-38
0.036773592 0.07206507 0.037500978 1.3528987e-38
0.036773592 0.074012801 0.037046731 1.3528633e-38
0.036492974 0.10723032 0.031160116 1.3624057e-38
0.033620238 0.057039455 0.043557584 1.2242567e-38
0.033566624 0.060279146 0.041540563 1.1967418e-38
0.033186704 0.064074054 0.040496647 1.2981556e-38
0.032741427 0.067817122 0.039724231 1.3714815e-38
0.033139139 0.071490124 0.037897348 1.4450233e-38
0.033278018 0.075039148 0.036298156 1.426763e-38
0.032179266 0.078371584 0.035189629 1.36212e-38
0.032179266 0.085513249 0.033523977 1.2147845e-38
0.032987922 0.10290836 0.029788554 1.0219649e-38
0.032567441 0.10648963 0.030639589 1.2798244e-38
0.029665351 0.069267884 0.039982021 1.4268338e-38
0.028812617 0.071816623 0.038449407 1.4082881e-38
0.029150784 0.075257033 0.036405087 1.3899219e-38
0.029442877 0.079326048 0.035092294 1.3438585e-38
0.028914571 0.082700133 0.034104347 1.2979374e-38
0.029225737 0.085718364 0.032935858 1.1689007e-38
0.028241247 0.091197073 0.031477928 8.6501412e-39
0.028241247 0.094443291 0.03072083 8.0065654e-39
0.029589772 0.10605012 0.029303432 1.2524175e-38
0.025710464 0.075628102 0.037775159 1.3532961e-38
0.025710464 0.080844298 0.036558568 1.2703526e-38
0.025786936 0.083514631 0.034906745 1.1875541e-38
0.025116205 0.087129474 0.033549845 9.6632211e-39
0.025252283 0.090673596 0.031980395 7.9147341e-39
0.024934411 0.09478119 0.031775415 6.2602518e-39
0.025507987 0.098602161 0.03154546 6.9052835e-39
0.025710464 0.10301311 0.031388044 1.1418525e-38
0.021755576 0.092420697 0.033135116 7.3608611e-39
0.021755576 0.093724757 0.032830954 7.0842644e-39
0.16620257 0.067746803 0.019348085 1.4453469e-38
0.15784125 0.055714935 0.020987511 1.6664358e-38
0.13252769 0.095559895 0.013742268 1.3076645e-38
0.1829195 0.037002385 0.044831157 1.7684647e-38
0.12994877 0.029305652 0.048724174 1.9516675e-38
0.056684554 0.10338904 0.020278335 1.2981199e-38
0.11758253 0.13918899 0.031412542 5.969736e-39
0.11054702 0.017617837 0.069953084 1.4550643e-38
0.11048582 0.12741143 0.042943656 7.5466985e-39
0.1067211 0.017815419 0.068685591 1.7128605e-38
0.10649472 0.12681726 0.041656852 9.3906125e-39
0.10250506 0.018001541 0.068740129 1.5749636e-38
0.1027706 0.12645869 0.041971743 1.1879498e-38
0.10232568 0.13105863 0.043555379 1.5471951e-38
0.10363391 0.13488215 0.042381465 1.9714009e-38
0.10297102 0.13747828 0.041654706 2.1923106e-38
0.098163277 0.018032625 0.06921351 1.3534399e-38
0.098252714 0.020545036 0.06528312 1.8141316e-38
0.098969772 0.12272565 0.041234672 1.2891167e-38
0.098664388 0.12645656 0.042278647 1.4275533e-38
0.098330736 0.1294217 0.042684913 1.5290417e-38
0.095374376 0.015368268 0.069788277 8.5568609e-39
0.094513372 0.018099278 0.068695903 1.1779815e-38
0.094724059 0.021267608 0.065425098 1.7771067e-38
0.093953133 0.02379635 0.063390613 1.9149322e-38
0.095273301 0.12244549 0.040623784 1.381349e-38
0.094489843 0.12650207 0.04219979 1.5285749e-38
0.092719048 0.12951995 0.042678535 1.6573622e-38
0.09027189 0.021612331 0.06670326 1.6297764e-38
0.09089455 0.023908481 0.064195633 1.905462e-38
0.09157683 0.12242651 0.03995204 1.5929664e-38
0.090480059 0.12637576 0.041611671 1.8231318e-38
0.090727538 0.12943937 0.042333007 1.8048734e-38
0.086744547 0.018959045 0.067372143 8.3646588e-39
0.086186677 0.021504767 0.066328704 1.4180521e-38
0.087036267 0.023693398 0.063192368 1.8873837e-38
0.086681589 0.1260432 0.040414929 1.9059649e-38
0.086080715 0.12925133 0.041526854 1.9891205e-38
0.082341045 0.021440588 0.065205574 1.2428804e-38
0.082737759 0.023845926 0.06237042 1.7401952e-38
0.082731709 0.11867325 0.039209425 1.8490964e-38
0.083391786 0.12152942 0.038663983 1.6295582e-38
0.082421213 0.12615687 0.040536106 1.8600471e-38
0.079108894 0.022093937 0.064896643 1.1230604e-38
0.078881472 0.024134934 0.062292993 1.509851e-38
0.07943128 0.11853969 0.038636804 2.0898508e-38
0.079284996 0.12128666 0.038432896 1.7393996e-38
0.078224406 0.12620021 0.040453672 1.7862901e-38
0.074798524 0.02516 0.062250614 1.5097052e-38
0.075140744 0.027279317 0.059136987 1.6940921e-38
0.076790959 0.11843286 0.038178742 2.3208075e-38
0.075515911 0.12150243 0.037676573 1.8500005e-38
0.074068144 0.12515877 0.039658129 1.7215746e-38
0.070812523 0.026194319 0.062770247 1.4177598e-38
0.071340084 0.027543247 0.058901668 1.5926788e-38
0.071476355 0.12537709 0.039758921 1.7860748e-38
0.068157181 0.026086867 0.062309563 1.2612824e-38
0.066857189 0.028291442 0.059471607 1.3902127e-38
0.063314438 0.028707385 0.059421837 1.2607409e-38
0.06317085 0.030759707 0.056396425 1.343969e-38
0.062182665 0.12434436 0.03829968 2.0536922e-38
0.059616208 0.028978005 0.059812009 1.426903e-38
0.059123933 0.032046705 0.057050645 1.4265134e-38
0.058968693 0.034133881 0.054579973 1.5003399e-38
0.05874896 0.12111154 0.036339521 1.8786307e-38
0.059764892 0.12403336 0.037234604 1.9063609e-38
0.055624217 0.031986862 0.057771683 1.4545309e-38
0.055426955 0.034554958 0.05452919 1.5095611e-38
0.056627393 0.11792929 0.03565073 1.5471239e-38
0.055683613 0.12069423 0.034833193 1.5196404e-38
0.055544317 0.12486374 0.036964238 1.5651636e-38
0.052568018 0.032834306 0.057536423 1.4177965e-38
0.051695049 0.035502285 0.054842353 1.3898847e-38
0.050704181 0.038218871 0.052463055 1.3252396e-38
0.05180636 0.12371133 0.035853863 1.4268354e-38
0.047702372 0.036575571 0.055773914 1.2425888e-38
0.047644198 0.03934297 0.052634418 1.2790348e-38
0.046427101 0.041461825 0.050576627 1.2883291e-38
0.049276382 0.12350237 0.035092115 1.3716254e-38
0.044027746 0.039325714 0.053615868 1.2977609e-38
0.043431163 0.042586312 0.050287783 1.288506e-38
0.042466611 0.045219287 0.048975766 1.3620841e-38
0.041321635 0.040557981 0.05298245 1.2609192e-38
0.03933233 0.043099493 0.052025676 1.2517366e-38
0.040123463 0.046295732 0.048921824 1.3805605e-38
0.039166182 0.049003452 0.047489464 1.3620464e-38
0.036956966 0.047807544 0.051536202 1.31595e-38
0.035739511 0.050648853 0.04752183 1.2423359e-38
0.034875631 0.053726971 0.045602918 1.2520239e-38
0.035865754 0.10894147 0.032906115 1.3992475e-38
0.035058558 0.1115436 0.033716083 1.4363075e-38
0.032507539 0.051457673 0.049349368 1.1871977e-38
0.032055497 0.054253742 0.045560122 1.1873419e-38
0.031045914 0.057277188 0.044595778 1.1414239e-38
0.030915141 0.060096234 0.043392897 1.1138382e-38
0.03058508 0.063674107 0.042498052 1.1967061e-38
0.032565355 0.10880792 0.032333553 1.3626568e-38
0.03188622 0.11225706 0.034359992 1.3809873e-38
0.028248787 0.05476211 0.047486782 1.0584812e-38
0.027601004 0.057593197 0.04597789 1.0584098e-38
0.027707756 0.060688943 0.043710828 1.0677712e-38
0.02772063 0.064343229 0.04239732 1.1322403e-38
0.027729213 0.067996189 0.041097879 1.2796464e-38
0.02662459 0.070696324 0.040135741 1.3255629e-38
0.025007963 0.055860654 0.047472119 9.480985e-39
0.024188668 0.057791874 0.046246052 9.4817193e-39
0.023590982 0.060702875 0.045338631 1.0034522e-38
0.023830056 0.064528763 0.043148994 1.1042581e-38
0.024012089 0.068374231 0.041093409 1.1875951e-38
0.023711711 0.072050512 0.039982259 1.2612786e-38
0.023512602 0.075985119 0.039115131 1.3072694e-38
0.023512602 0.079743773 0.038238466 1.2427676e-38
0.022946656 0.08350417 0.037101448 1.1414236e-38
0.02266407 0.086206913 0.035793662 1.0491541e-38
0.02278921 0.099742055 0.03318119 7.0878966e-39
0.023168445 0.10313775 0.034023046 1.0772814e-38
0.021024942 0.061609432 0.045402706 9.0182496e-39
0.020311028 0.064915136 0.043905199 9.5703472e-39
0.0198915 0.068409443 0.042696714 1.0766392e-38
0.019857705 0.072226942 0.040626824 1.1691927e-38
0.019720495 0.076235771 0.040014386 1.2335123e-38
0.019446045 0.080328345 0.039704978 1.1961685e-38
0.019752175 0.084080964 0.037395775 1.0954337e-38
0.019701719 0.087603912 0.035737097 9.3870041e-39
0.01954788 0.091348991 0.03480649 7.5445377e-39
0.019829899 0.095515907 0.034147084 6.3481427e-39
0.019582927 0.099911064 0.034815013 6.9942324e-39
0.021024942 0.10297912 0.035753906 8.9231926e-39
0.017041951 0.066044897 0.04363966 8.9246289e-39
0.015932143 0.068760112 0.042672932 9.4770754e-39
0.016038418 0.072376832 0.041168034 1.0952563e-38
0.016038418 0.076312885 0.040250003 1.2242563e-38
0.016084999 0.080221459 0.039230883 1.2055662e-38
0.015965819 0.083957985 0.038221836 1.0952176e-38
0.015550941 0.087556422 0.035452366 9.3870013e-39
0.015644103 0.091423541 0.034335732 8.0058549e-39
0.016070187 0.096023113 0.035166144 7.4526952e-39
0.015992463 0.099957302 0.03484273 7.8214539e-39
0.012013197 0.09979631 0.034152508 7.7310547e-39
0.18030798 0.08368136 0.016326249 1.1598994e-38
0.12954161 0.08667624 0.013949394 1.114055e-38
0.12351689 0.1144837 0.018521309 1.7865046e-38
0.07793805 0.084926456 0.021736264 1.242804e-38
0.062403947 0.070989102 0.030967295 1.2427668e-38
0.11655965 0.025516592 0.056694627 2.0252796e-38
0.12682828 0.022595234 0.062383413 1.7222264e-38
0.1000905 0.1317859 0.0455845 1.6118768e-38
0.10142192 0.13579087 0.04489398 1.9437066e-38
0.098166317 0.13203725 0.0453825 1.6487878e-38
0.099793226 0.13473882 0.045884371 1.8238517e-38
0.094279587 0.1307261 0.045290172 1.5563409e-38
0.089793518 0.13169642 0.044764757 1.786363e-38
0.086951151 0.1307593 0.043941855 1.9706104e-38
0.083287865 0.019242913 0.069281101 8.1859975e-39
0.081450626 0.020400852 0.068153501 9.9391311e-39
0.082855344 0.13049421 0.043358743 1.9889042e-38
0.078122079 0.020924687 0.06742245 8.8385289e-39
0.078744486 0.13077956 0.042659402 2.0071295e-38
0.075459242 0.022792488 0.06649971 1.1504679e-38
0.073462114 0.024028711 0.065846026 1.3711969e-38
0.074349716 0.12767124 0.041835487 1.7495566e-38
0.074793488 0.13023308 0.042153597 1.9243688e-38
0.070799276 0.024798982 0.065179288 1.3533308e-38
0.070130914 0.12727873 0.041572452 1.7955096e-38
0.070460752 0.12959525 0.041718304 1.8601197e-38
0.066690296 0.025570333 0.064595342 1.1873105e-38
0.066517919 0.12608519 0.041641891 1.8138738e-38
0.06257695 0.026342735 0.064010441 1.0582713e-38
0.062145054 0.027521878 0.062961102 1.1686866e-38
0.062460989 0.12597433 0.041099429 2.0166715e-38
0.059794396 0.026290372 0.06386131 1.1133711e-38
0.058305502 0.027787015 0.062718391 1.3072294e-38
0.058698654 0.12626714 0.039647579 1.8418223e-38
0.055307448 0.029313385 0.061813951 1.3715895e-38
0.053490847 0.031122796 0.060538173 1.2616383e-38
0.054137766 0.12662941 0.039076447 1.5378284e-38
0.053127944 0.12889391 0.03871125 1.5752856e-38
0.050706387 0.032389842 0.060080886 1.2427333e-38
0.049496561 0.034912273 0.058923662 1.297763e-38
0.051310837 0.12668124 0.038373411 1.4919112e-38
0.05112797 0.12881298 0.038364291 1.5383743e-38
0.046710253 0.035742089 0.05856806 1.1873444e-38
0.042879015 0.036869407 0.057882428 1.113876e-38
0.041508049 0.038540125 0.056616187 1.1139817e-38
0.039794981 0.037351117 0.057623148 9.1997991e-39
0.038875043 0.039851129 0.056350231 1.049338e-38
0.034617096 0.047607824 0.053866565 1.18727e-38
0.033519566 0.050070196 0.052465677 1.1779053e-38
0.03059414 0.051413372 0.052312553 1.1504624e-38
0.025840759 0.054223388 0.050440013 9.6653595e-39
0.022664726 0.05566971 0.049695492 8.5612007e-39
0.021536767 0.057487518 0.048543751 8.3779053e-39
0.019795597 0.056325182 0.049539328 6.5372451e-39
0.018530548 0.058214203 0.048693538 6.9020788e-39
0.018257469 0.061250418 0.047662258 7.8225791e-39
0.017542511 0.064569578 0.046161294 8.4672213e-39
0.018017828 0.10417287 0.038054466 8.9332357e-39
0.015795708 0.058801115 0.048230171 6.2556149e-39
0.015262365 0.061681092 0.047460914 6.8102124e-39
0.015162259 0.065010518 0.046248853 7.9129881e-39
0.013548255 0.067700535 0.044700384 8.654104e-39
0.014602125 0.1034977 0.037239373 8.6551844e-39
0.012795746 0.065603882 0.046094775 6.8981019e-39
0.01126948 0.06908752 0.044655383 7.4523378e-39
0.011551112 0.072887868 0.043125212 1.021677e-38
0.011632711 0.10415888 0.036194324 8.2860628e-39
0.17504221 0.06061691 0.020093501 1.316344e-38
0.097661555 0.13597578 0.047987282 1.8512592e-38
0.094741851 0.13299188 0.04745388 1.6577905e-38
0.092876256 0.13412713 0.047890782 1.6852356e-38
0.091176391 0.13240674 0.046938121 1.6757303e-38
0.088859499 0.1339646 0.047193944 1.7768927e-38
0.085828215 0.13219033 0.046010256 1.97047e-38
0.080480039 0.13197392 0.04508239 1.9887624e-38
0.081495434 0.1336666 0.045916319 1.8323169e-38
0.076139748 0.13344991 0.044987202 2.0714866e-38
0.073376864 0.022284776 0.069626987 9.5653222e-39
0.07346189 0.13334155 0.044522643 2.0165653e-38
0.069557369 0.023195565 0.069150448 1.159752e-38
0.069115162 0.02438359 0.068097174 1.3157681e-38
0.069647893 0.13113745 0.043713212 1.8598686e-38
0.070784077 0.13323319 0.044058025 1.9797951e-38
0.065265745 0.02464693 0.067853093 1.1593985e-38
0.065772533 0.12873361 0.043147743 1.8048347e-38
0.065848708 0.13063437 0.043500543 1.804551e-38
0.06152758 0.025518358 0.067139864 1.0674555e-38
0.062095672 0.12825418 0.042586982 1.9799016e-38
0.057269633 0.025863178 0.066211045 1.04012e-38
0.057750285 0.128409 0.041755974 1.7306127e-38
0.056413233 0.12967749 0.041215539 1.5561277e-38
0.054047585 0.026599713 0.065866947 9.9419996e-39
0.053404868 0.028707638 0.064214826 1.1783372e-38
0.055076182 0.12830079 0.041292071 1.5641956e-38
0.054047585 0.13056929 0.041617751 1.5939051e-38
0.051217377 0.028710365 0.064335465 1.1228038e-38
0.048390985 0.0328032 0.062342405 1.1780184e-38
0.04663834 0.033072397 0.062376201 1.0766042e-38
0.045048356 0.035313144 0.061145544 1.1317769e-38
0.043559372 0.033680573 0.062296987 1.0581634e-38
0.041997313 0.035383284 0.061614037 1.0767457e-38
0.038601518 0.036754385 0.059890807 9.4760118e-39
0.036357582 0.039590567 0.058558106 1.0214258e-38
0.034252584 0.044522956 0.05764842 1.0767796e-38
0.034158349 0.11570436 0.040924966 1.5189223e-38
0.031955391 0.045572579 0.057400584 1.002917e-38
0.030840427 0.048055157 0.05602169 9.7500638e-39
0.029672354 0.050562143 0.054776251 1.0492284e-38
0.031955391 0.11709306 0.040719628 1.4086455e-38
0.027938634 0.049383402 0.055777013 8.3671447e-39
0.026631355 0.051704779 0.054475069 9.7540028e-39
0.023453534 0.053065494 0.053576231 8.4657793e-39
0.022115588 0.054334879 0.053035438 8.4650577e-39
0.018491983 0.055180967 0.052398801 6.6258394e-39
0.019440532 0.10650638 0.040377975 1.2249026e-38
0.014918745 0.055760756 0.051460803 5.9757897e-39
0.014073491 0.058307424 0.05011636 5.2436168e-39
0.013627827 0.060493723 0.049524903 5.2464769e-39
0.014319003 0.10604148 0.0398103 9.6668533e-39
0.011871576 0.056017771 0.051290572 5.8793061e-39
0.01156503 0.058798715 0.050238192 4.6879459e-39
0.01071918 0.061827615 0.049261153 7.5366372e-39
0.010066867 0.065422758 0.047932386 4.2283957e-39
0.011077464 0.10649863 0.03884995 8.8385177e-39
0.0098631978 0.10924575 0.038508594 9.300907e-39
0.096142322 0.13774005 0.050253093 1.8974287e-38
0.094718426 0.14451605 0.051019728 1.7410897e-38
0.092783779 0.13694006 0.049825251 1.8140592e-38
0.092021823 0.1410726 0.051329494 1.924909e-38
0.09337014 0.14446148 0.05078584 1.7874766e-38
0.088790342 0.13665971 0.049681723 1.7768574e-38
0.088516265 0.14039728 0.050845861 1.8236037e-38
0.089325249 0.14363095 0.050239623 1.6861396e-38
0.084564388 0.13610896 0.049037158 1.9889061e-38
0.085040346 0.13967791 0.049682498 1.9894111e-38
0.081070364 0.13639501 0.049076259 1.9152566e-38
0.081235468 0.1399693 0.049613774 1.9343094e-38
0.077052563 0.13659938 0.049217463 1.9519903e-38
0.076845571 0.13879021 0.048042774 1.8054859e-38
0.07314235 0.13657555 0.048090518 2.0441514e-38
0.069630384 0.13583663 0.046219766 1.9526042e-38
0.069660276 0.13938674 0.046589255 1.5750745e-38
0.064740092 0.13231853 0.045251727 1.7768945e-38
0.06582205 0.13526666 0.046065748 1.7498116e-38
0.066404209 0.13936916 0.047040701 1.5754694e-38
0.061383426 0.024601482 0.069760919 1.0857859e-38
0.061577439 0.13185561 0.045406997 1.8506856e-38
0.061685175 0.13451016 0.04731077 1.6022287e-38
0.057791054 0.024574071 0.069805503 1.0307915e-38
0.057672262 0.13169532 0.045147181 1.7032828e-38
0.056966126 0.13431922 0.04649204 1.5195784e-38
0.053908944 0.025007352 0.068559766 8.6512902e-39
0.054984123 0.13225093 0.044525862 1.584257e-38
0.048444688 0.030146845 0.066622198 1.1226972e-38
0.048628032 0.032054327 0.065689325 1.1505379e-38
0.046429276 0.030065298 0.066272557 1.0400469e-38
