# .PCD v0.7 - Point Cloud Data file format
VERSION 0.7
FIELDS x y z rgb
SIZE 4 4 4 4
TYPE F F F F
COUNT 1 1 1 1
WIDTH 979
HEIGHT 1
VIEWPOINT 0 0 0 0 1 0 0
POINTS 979
DATA ascii
0.049756899 0.083348669 0.023238242 1.555801e-38
0.049831424 0.098114572 0.023171365 1.0029881e-38
0.050353821 0.10123526 0.024889469 9.7547623e-39
0.050941564 0.10408826 0.02571851 1.1416436e-38
0.045576982 0.077641435 0.024922073 1.6664321e-38
0.046528358 0.080734983 0.023805797 1.5557658e-38
0.047918979 0.083413795 0.02240032 1.5280704e-38
0.046644021 0.098735124 0.023495436 9.5692752e-39
0.046518832 0.10121386 0.025230229 9.7561468e-39
0.046403393 0.1037078 0.026853383 1.0680652e-38
0.042851545 0.077545933 0.025092006 1.556123e-38
0.042713933 0.080730923 0.023922205 1.4455267e-38
0.041544173 0.083377533 0.022966504 1.3348202e-38
0.04345661 0.098717004 0.023778439 1.0585926e-38
0.042743195 0.10122545 0.02489692 1.0494082e-38
0.042561434 0.10368595 0.02719456 1.0404415e-38
0.038719468 0.078002386 0.025892138 1.2703215e-38
0.038840961 0.080674037 0.024711013 1.2519172e-38
0.038484264 0.084126554 0.023287356 1.2058175e-38
0.038675513 0.098370455 0.024182618 1.0955769e-38
0.038850922 0.10116982 0.025911093 1.0494055e-38
0.038719468 0.10366409 0.027535796 1.0125315e-38
0.035073601 0.080737494 0.026015162 1.3161643e-38
0.035038814 0.084518835 0.024960995 1.2609169e-38
0.034935623 0.088398486 0.024631858 1.1871632e-38
0.035017394 0.093072318 0.024535298 1.1782314e-38
0.035010003 0.097551242 0.024456978 1.1874869e-38
0.034974806 0.10112558 0.026701152 1.1413888e-38
0.031355724 0.081488982 0.026772082 9.8354407e-39
0.03105823 0.084390178 0.026760995 1.0207467e-38
0.031126879 0.08828409 0.02633357 1.1318111e-38
0.031121053 0.092765585 0.026676953 1.0857489e-38
0.031103559 0.097241789 0.027132809 1.0952207e-38
0.031803951 0.10080197 0.027969122 1.3349651e-38
0.028474256 0.088850334 0.02750051 8.9134423e-39
0.028474256 0.092699587 0.027747095 7.7192348e-39
0.1087994 0.096168794 0.0064426064 1.6294516e-38
0.10715993 0.090875536 0.0063460469 1.7123189e-38
0.11895475 0.10127034 0.0079011321 1.4177602e-38
0.13814695 0.07798405 0.0087527037 1.7122125e-38
0.12383208 0.094800875 0.0084556937 1.7401942e-38
0.11699586 0.096889205 0.0080067515 1.6662917e-38
0.14889529 0.089889556 0.0047562718 1.7122813e-38
0.10502803 0.091292039 0.015669823 1.8689088e-38
0.10121611 0.093871325 0.01619339 1.5374357e-38
0.10827248 0.099705033 0.016450167 1.4363803e-38
0.14680687 0.074745715 0.014642239 2.128891e-38
0.1503706 0.08051607 0.013308287 2.0635979e-38
0.10121611 0.093871325 0.01619339 1.5374357e-38
0.1668829 0.1223378 0.01830864 2.0538407e-38
0.16700375 0.1247059 0.021341801 2.193214e-38
0.16630781 0.12872326 0.022792935 2.2861646e-38
0.16295986 0.06581492 0.018894434 2.32333e-38
0.16316919 0.069490977 0.016708076 2.2863441e-38
0.16431779 0.072208755 0.01532656 2.2402107e-38
0.16352502 0.12530844 0.019469082 2.2204778e-38
0.16326183 0.12872022 0.021499455 2.2766217e-38
0.16315225 0.13242558 0.022305489 2.258542e-38
0.1569543 0.058870226 0.01915282 2.2659991e-38
0.15837857 0.061762527 0.019099295 2.2575339e-38
0.15878297 0.065470681 0.018155038 2.266719e-38
0.15924668 0.068259358 0.016196489 2.257535e-38
0.16007218 0.12979242 0.019728839 2.2846902e-38
0.15842652 0.13359602 0.021393478 2.2752547e-38
0.15824443 0.13578664 0.023964405 2.2752197e-38
0.15411599 0.058337048 0.019371808 2.2750745e-38
0.15425172 0.061607026 0.018004239 2.3021584e-38
0.15485935 0.065431379 0.016138434 2.3020837e-38
0.15412776 0.1338301 0.021076441 2.0905727e-38
0.15399212 0.13673012 0.023649573 2.2196474e-38
0.15030584 0.057757474 0.019171476 2.2750371e-38
0.15042612 0.061607346 0.016640842 2.2928272e-38
0.14995323 0.13457735 0.020602345 1.9524594e-38
0.15025969 0.13751516 0.023655415 2.0720974e-38
0.14663318 0.054933742 0.019821107 2.2934037e-38
0.14655809 0.057643652 0.018883646 2.2747478e-38
0.14638531 0.061147757 0.016552627 2.209924e-38
0.14650601 0.1376524 0.023230493 1.9799024e-38
0.14534305 0.14088359 0.025441408 2.0444027e-38
0.14240967 0.05464527 0.019676328 2.2930456e-38
0.14261854 0.05776009 0.018012822 2.2652767e-38
0.14315572 0.060523495 0.016465247 2.2278619e-38
0.14272931 0.13778624 0.02233237 1.8786682e-38
0.14255239 0.141141 0.025275528 1.9800109e-38
0.1386005 0.054441452 0.019902349 2.2744227e-38
0.13870439 0.05785121 0.017361701 2.228326e-38
0.13872272 0.13776374 0.022813976 1.6945297e-38
0.13884223 0.14148471 0.025165319 1.8971785e-38
0.13824728 0.14407471 0.026278555 2.0074897e-38
0.13497123 0.054984801 0.019858479 2.2465861e-38
0.13488674 0.057753757 0.018366635 2.1821205e-38
0.13488674 0.13758257 0.02347976 1.6391393e-38
0.13499919 0.14146727 0.025954008 1.7589582e-38
0.135667 0.14406003 0.026507735 1.9430969e-38
0.13079523 0.054608554 0.020458221 2.2005963e-38
0.13103086 0.057088695 0.018667877 2.1822644e-38
0.13144527 0.13798989 0.023477435 1.6208421e-38
0.13129051 0.14128435 0.026217222 1.6945277e-38
0.12726144 0.05423595 0.021001041 2.1914831e-38
0.12735254 0.05736503 0.018822014 2.1546411e-38
0.12712383 0.13881645 0.02290976 1.6391759e-38
0.12724179 0.14141825 0.026083887 1.7036042e-38
0.12339387 0.054213941 0.021344483 2.1824439e-38
0.12289287 0.057685107 0.01943177 2.1178359e-38
0.12071109 0.13492501 0.023232341 1.5381889e-38
0.12287813 0.13751236 0.024099052 1.6208423e-38
0.1233864 0.14102939 0.026690245 1.7128577e-38
0.11915623 0.054290563 0.021655321 2.1640405e-38
0.11865704 0.057509385 0.020103097 2.0075967e-38
0.11814599 0.13491042 0.02346015 1.5104246e-38
0.11866564 0.13760972 0.025598764 1.6300993e-38
0.11887543 0.14072652 0.027037144 1.7589926e-38
0.11308957 0.050865158 0.022551835 1.6389598e-38
0.11462368 0.053541824 0.021882236 1.7494853e-38
0.1146301 0.056769766 0.019271731 1.6484302e-38
0.11429834 0.13488853 0.023801863 1.5471226e-38
0.11433902 0.1374681 0.025975466 1.6299918e-38
0.11420827 0.14118694 0.027734339 1.7406624e-38
0.11050928 0.050850481 0.022781014 1.4456704e-38
0.11048551 0.053632244 0.02128464 1.2978332e-38
0.11173324 0.056489788 0.019009054 1.298123e-38
0.10916813 0.13485934 0.024257541 1.446136e-38
0.11047652 0.1374456 0.026094913 1.6579369e-38
0.11050197 0.14068137 0.028032541 1.7867958e-38
0.10728394 0.050832137 0.023067415 1.7028821e-38
0.10677927 0.053842537 0.021041811 1.5926406e-38
0.10532048 0.056453303 0.019578576 1.4916966e-38
0.10788559 0.13485205 0.024371445 1.2341215e-38
0.1066186 0.13742296 0.026325703 1.2342355e-38
0.10689153 0.14053077 0.028244257 1.5013887e-38
0.1030897 0.054392248 0.023418009 1.3809173e-38
0.10292275 0.057615489 0.022256076 1.3162375e-38
0.10211702 0.061394259 0.021857381 1.1690847e-38
0.10198695 0.065089732 0.021233857 1.0218565e-38
0.10147375 0.069218226 0.021409929 8.0058998e-39
0.10147557 0.072958484 0.022990704 5.7964515e-39
0.10147284 0.13481557 0.024940968 1.2529204e-38
0.10275802 0.1373986 0.025997818 1.1972108e-38
0.10244381 0.14031239 0.028727472 1.3166714e-38
0.10018817 0.058547311 0.024194419 1.0124942e-38
0.099865772 0.061480306 0.024159431 1.0494471e-38
0.099060178 0.065241583 0.023969293 7.730759e-39
0.098899201 0.068977177 0.023971438 4.8770161e-39
0.099544361 0.072868682 0.023995459 3.5866571e-39
0.098683998 0.076692045 0.024820089 4.2298488e-39
0.097607896 0.11023621 0.027735233 6.347456e-39
0.097934276 0.11253243 0.026847243 6.9024305e-39
0.097618692 0.11611927 0.025596082 7.8225931e-39
0.098392978 0.12914124 0.025254607 1.1699825e-38
0.09878473 0.13304427 0.027079225 1.3630163e-38
0.099060044 0.13722561 0.028831482 1.4640716e-38
0.095673725 0.11281537 0.027905285 6.0733957e-39
0.095196351 0.11687548 0.027243793 7.8243868e-39
0.094669506 0.12077299 0.02723515 9.7604824e-39
0.09504465 0.12447453 0.026528478 6.9935429e-39
0.09503758 0.12833032 0.027782083 5.5223785e-39
0.095459744 0.13176857 0.028970718 8.012008e-39
0.096317753 0.13608065 0.02950567 1.2339802e-38
0.092447333 0.12507163 0.029145658 6.998575e-39
0.092447333 0.12830311 0.029352665 4.6032739e-39
0.082182296 0.077676937 0.025013447 2.0715907e-38
0.082875848 0.079455376 0.023053467 2.172683e-38
0.082784832 0.10758644 0.028384447 1.1875912e-38
0.078961641 0.10858721 0.027406216 1.2520938e-38
0.07438539 0.0739116 0.027479529 2.0895668e-38
0.075133055 0.076082885 0.024869263 2.2280395e-38
0.073684245 0.10595947 0.02557075 1.3258165e-38
0.0747196 0.10901894 0.027686417 1.2704983e-38
0.075675525 0.11140403 0.029765904 1.2151434e-38
0.070753992 0.076139346 0.026185513 2.2835715e-38
0.070818812 0.10521611 0.026533246 1.2983739e-38
0.070568949 0.10883656 0.02882731 1.2797915e-38
0.071160041 0.11137835 0.030166924 1.2153616e-38
0.066710189 0.076564878 0.026992559 2.3211701e-38
0.067485243 0.079367831 0.024420321 2.293297e-38
0.066816024 0.10540724 0.026722789 1.1965278e-38
0.06670548 0.10881458 0.029170394 1.2613881e-38
0.066644549 0.11135266 0.030568004 1.2429487e-38
0.064064279 0.076438069 0.028561771 2.3395018e-38
0.063151702 0.1057383 0.028306663 1.5464012e-38
0.06299758 0.10840534 0.029985905 1.3258874e-38
0.064064279 0.11133798 0.030797124 1.2430208e-38
0.053811993 0.10485998 0.030290544 1.4824046e-38
0.051289741 0.076352715 0.027934968 2.0899592e-38
0.051094815 0.10568739 0.028976262 1.2796837e-38
0.050934285 0.10791834 0.031346619 1.3715907e-38
0.046432376 0.073321722 0.029934466 1.9333334e-38
0.047376622 0.076302111 0.027135015 1.7950775e-38
0.047126856 0.10544227 0.029343128 1.1877036e-38
0.047331631 0.10803105 0.031574607 1.381025e-38
0.043292284 0.072637036 0.029793382 1.7306134e-38
0.042154882 0.075690024 0.02644366 1.537722e-38
0.04303278 0.10552958 0.029282629 1.1046568e-38
0.043497134 0.10866982 0.031566143 1.2889393e-38
0.04277698 0.11121689 0.032687724 1.3625901e-38
0.039551631 0.069835678 0.030324817 1.3900285e-38
0.039581522 0.072450653 0.030154288 1.3533655e-38
0.038566809 0.075932875 0.027449787 1.2981216e-38
0.038916338 0.10560385 0.029510796 1.0126038e-38
0.039428901 0.1085407 0.031305909 1.1046569e-38
0.039574057 0.11153025 0.032741904 1.2151818e-38
0.036126845 0.072847053 0.030655444 1.2979421e-38
0.034650512 0.076496363 0.028505862 1.344076e-38
0.033497684 0.079174489 0.027438879 1.2430917e-38
0.034715354 0.10485356 0.029645741 1.1506427e-38
0.035639659 0.10879987 0.03191191 1.1507529e-38
0.036027133 0.11151008 0.033056915 1.1968145e-38
0.033100933 0.07367675 0.031146109 1.1513291e-38
0.03100615 0.076530814 0.030366004 1.0748378e-38
0.030592911 0.079606935 0.028530419 1.0839498e-38
0.029970653 0.10132043 0.029171884 9.5689319e-39
0.03070309 0.10476322 0.031562686 1.1594663e-38
0.031866737 0.10859115 0.032933533 1.1600085e-38
0.029230505 0.076239914 0.031655431 1.278062e-38
0.026893012 0.080324546 0.031371057 1.4444066e-38
0.026914395 0.084161952 0.029910266 1.1858689e-38
0.026530571 0.087829649 0.030339181 1.0018034e-38
0.026251592 0.092518546 0.030700266 9.285148e-39
0.026901908 0.097035654 0.030847788 9.1032454e-39
0.027510121 0.1008882 0.031375706 9.1943676e-39
0.027488746 0.10443517 0.033013225 9.7450485e-39
0.029230505 0.10790835 0.033683836 8.0999255e-39
0.023277678 0.080255076 0.032317698 1.3337775e-38
0.022893757 0.084032655 0.031713665 1.1774405e-38
0.022957079 0.087943479 0.031399608 1.1866976e-38
0.022921979 0.092438281 0.031998038 1.2144975e-38
0.023481123 0.096915975 0.032989502 1.2884327e-38
0.024715021 0.099480838 0.033546746 1.1957727e-38
0.020199537 0.080712602 0.032747269 1.030363e-38
0.01908543 0.084108286 0.032938361 9.5699661e-39
0.019130461 0.087688886 0.032786489 9.4770362e-39
0.01966349 0.092075035 0.033379138 1.0028823e-38
0.11037827 0.098978624 0.0067612529 1.6572194e-38
0.10964829 0.097050726 0.0064792633 1.6942755e-38
0.10879159 0.10248122 0.009927094 1.5838923e-38
0.11016367 0.096052475 0.016004682 1.8971792e-38
0.10917772 0.095649421 0.016878843 1.519716e-38
0.11087792 0.090099931 0.021862149 1.4001137e-38
0.14240967 0.05464527 0.019676328 2.2930456e-38
0.16627398 0.13518739 0.02622807 2.2860909e-38
0.16320479 0.061653361 0.021288812 2.3046394e-38
0.16445249 0.064307183 0.020844519 2.3417689e-38
0.16488382 0.13388264 0.025262475 2.2865234e-38
0.16363609 0.1358213 0.026000917 2.2585778e-38
0.15898377 0.058072433 0.02153641 2.2482793e-38
0.16060024 0.0603595 0.021270573 2.2304868e-38
0.15957886 0.13693297 0.026308179 2.2484233e-38
0.15582627 0.057344034 0.021167755 2.2751822e-38
0.15517931 0.13771661 0.026373446 2.2658906e-38
0.15458575 0.13901372 0.027180135 2.2479903e-38
0.15194447 0.05602555 0.021429479 2.2849403e-38
0.15068728 0.14050457 0.027455628 2.1733356e-38
0.14942817 0.1428813 0.028223157 2.2286511e-38
0.14554068 0.053277045 0.022830486 2.3024798e-38
0.14702752 0.14130013 0.027329981 2.0995768e-38
0.14683652 0.14329934 0.028481007 2.164081e-38
0.14318296 0.052532382 0.022590637 2.302265e-38
0.1435339 0.14283592 0.027739823 2.0813563e-38
0.14266539 0.14465494 0.028537393 2.1366364e-38
0.13935728 0.052328274 0.022818148 2.2929709e-38
0.13932861 0.14508069 0.028258622 2.0907886e-38
0.1338782 0.050614119 0.023699999 2.2469824e-38
0.13512334 0.052688882 0.022715867 2.2558785e-38
0.13514869 0.14560553 0.029168069 2.0168889e-38
0.13582195 0.14799708 0.029764175 2.1180516e-38
0.13128655 0.050599381 0.023930132 2.237905e-38
0.13150032 0.052538633 0.023029327 2.209817e-38
0.1299476 0.14275864 0.028946459 1.7405196e-38
0.13158752 0.14439581 0.029408097 1.8969991e-38
0.12737346 0.05065918 0.023612261 2.2008459e-38
0.12735973 0.051996529 0.023363829 2.2008093e-38
0.12711629 0.14456373 0.029717028 1.8143085e-38
0.12317966 0.050259456 0.024379849 2.1918074e-38
0.12347793 0.051974446 0.023708582 2.1823742e-38
0.12347793 0.14272183 0.029521048 1.786506e-38
0.12351155 0.14468132 0.030649602 1.8602254e-38
0.11962406 0.050533041 0.024965942 2.2466213e-38
0.11959612 0.051952362 0.024053335 2.2282903e-38
0.11959612 0.14269975 0.029865801 1.8420023e-38
0.11961475 0.14465457 0.030660033 1.9247999e-38
0.11546889 0.050039321 0.024902463 2.0168894e-38
0.11700826 0.05193764 0.024283171 2.2194651e-38
0.11636129 0.14268135 0.030153096 1.8325699e-38
0.11572767 0.1445017 0.030929804 1.906362e-38
0.11119076 0.048837334 0.024938762 1.5837154e-38
0.111991 0.14454213 0.031556249 1.915544e-38
0.11184908 0.14786071 0.031893253 1.9615691e-38
0.10730887 0.048794731 0.025449812 1.6939542e-38
0.10536992 0.051750243 0.026315033 1.6666541e-38
0.10536285 0.14132239 0.031046867 1.4457455e-38
0.10731366 0.14329088 0.032005012 1.6762691e-38
0.10342453 0.052447967 0.026030183 1.4638949e-38
0.10148106 0.055738486 0.025911272 1.0490147e-38
0.10342196 0.14131135 0.031219244 1.362661e-38
0.10342617 0.14261962 0.032308698 1.4457079e-38
0.10018659 0.05431734 0.026941657 1.0212456e-38
0.099150516 0.05721274 0.026817143 9.7561482e-39
0.098115101 0.060602084 0.026925385 1.0126768e-38
0.097599253 0.063494757 0.02675426 1.0307547e-38
0.097597808 0.072539851 0.027669072 3.4011504e-39
0.097594932 0.075075269 0.028502405 3.4940677e-39
0.098026872 0.079405367 0.028741181 5.9747303e-39
0.098246224 0.10952032 0.029644549 6.7151498e-39
0.099215932 0.13999555 0.032013059 1.4272327e-38
0.096299097 0.062084973 0.027785897 1.0586661e-38
0.09597826 0.065054923 0.027501762 8.4650745e-39
0.096303254 0.068640776 0.027534842 5.5184241e-39
0.096299097 0.07117302 0.028367996 4.1354924e-39
0.095783263 0.080549158 0.028612196 6.0651336e-39
0.09436442 0.10625726 0.029781699 6.9024207e-39
0.095010698 0.10884933 0.030001938 5.6120336e-39
0.093717456 0.11273554 0.030254364 5.6113526e-39
0.093717456 0.11532832 0.030420423 7.1754343e-39
0.094145417 0.13304763 0.031852543 5.9808539e-39
0.096299097 0.1386842 0.032692194 1.3351073e-38
0.091119744 0.10621123 0.030738771 8.0040991e-39
0.091118425 0.10880215 0.031016648 6.8098621e-39
0.091117099 0.11269221 0.031377673 6.4410992e-39
0.091117099 0.11658645 0.031627119 7.2712172e-39
0.091119736 0.12048547 0.031653106 8.1031289e-39
0.090753153 0.12419467 0.031683862 7.548516e-39
0.090474755 0.12826926 0.03204155 7.0864742e-39
0.092090629 0.13184553 0.032377958 6.6226094e-39
0.092090622 0.13606262 0.032648027 7.3644764e-39
0.085943148 0.07699801 0.029161572 1.757873e-38
0.087235413 0.079587132 0.029379845 1.803825e-38
0.087230667 0.10877629 0.031473458 8.7434172e-39
0.086904332 0.11201578 0.031821847 7.8240112e-39
0.088524118 0.12046389 0.032218516 8.1899141e-39
0.083676875 0.076336451 0.029321313 1.878516e-38
0.084659912 0.079626039 0.028941333 2.0995694e-38
0.083543912 0.1091487 0.031219363 1.1137999e-38
0.083178803 0.11248144 0.032183886 1.0033837e-38
0.078821778 0.073714629 0.029586315 1.9700351e-38
0.080101207 0.074975751 0.030056059 2.0618722e-38
0.080131143 0.11006547 0.031294942 1.1969561e-38
0.079460576 0.11262987 0.032301426 1.141784e-38
0.075583607 0.073047057 0.029832363 1.9975142e-38
0.075584091 0.1132656 0.032408416 1.1785907e-38
0.0755658 0.115197 0.033036709 1.1603322e-38
0.071532182 0.072526038 0.030286014 1.9794715e-38
0.071699448 0.11324351 0.032753408 1.1877399e-38
0.07141915 0.11569273 0.033438265 1.1969592e-38
0.067989364 0.072706603 0.030703366 2.025317e-38
0.067838788 0.11323652 0.032594264 1.2153613e-38
0.067531645 0.11567061 0.033783555 1.2246153e-38
0.064578056 0.073633596 0.030851364 2.339787e-38
0.063310005 0.07496722 0.030546904 2.3393218e-38
0.062663041 0.1099661 0.032846332 1.2247608e-38
0.063756526 0.11292693 0.033225954 1.2612441e-38
0.063903317 0.11605801 0.034131885 1.29805e-38
0.059494663 0.10900652 0.033498585 1.3717339e-38
0.059780411 0.11239411 0.033862531 1.2705003e-38
0.060231801 0.11597531 0.034454048 1.3441119e-38
0.05353668 0.073526345 0.032332122 2.3116959e-38
0.05353668 0.074824639 0.03241533 2.1914143e-38
0.05353668 0.10598364 0.034411073 1.3805971e-38
0.054994483 0.10907538 0.034479141 1.2611711e-38
0.055303723 0.11260318 0.034677565 1.2430194e-38
0.055480424 0.11612138 0.034887075 1.3166341e-38
0.055480432 0.11897762 0.035070062 1.3901043e-38
0.050715268 0.07302653 0.032149315 2.2463001e-38
0.051322967 0.10956857 0.034083605 1.2888663e-38
0.050961364 0.11246796 0.034832537 1.2705352e-38
0.052240845 0.11506432 0.035108268 1.270788e-38
0.046193626 0.06915693 0.032707095 1.9976212e-38
0.047528617 0.071806505 0.032254815 2.0713065e-38
0.04711036 0.10986574 0.034562171 1.3717706e-38
0.047074717 0.11244585 0.035177708 1.4180829e-38
0.043050297 0.068483338 0.032441318 1.7306507e-38
0.044547968 0.07097131 0.031964064 1.8868785e-38
0.043403428 0.1128066 0.035176933 1.4180842e-38
0.043170024 0.11501272 0.035913885 1.4824039e-38
0.03932739 0.067651436 0.032720029 1.4177604e-38
0.039353922 0.11319812 0.035333216 1.279682e-38
0.039282534 0.11499061 0.036259174 1.3073762e-38
0.035874046 0.068713076 0.033095956 1.279719e-38
0.034595363 0.071315929 0.033209026 1.3528994e-38
0.035193093 0.11316846 0.035903513 1.2336198e-38
0.035395034 0.11496849 0.036604404 1.2703904e-38
0.032255605 0.072845973 0.033180356 1.0120298e-38
0.031707421 0.1122013 0.036378741 1.2242203e-38
0.032803364 0.11495374 0.036834598 1.3162336e-38
0.0274463 0.07630185 0.034031808 1.6104675e-38
0.02632422 0.10582884 0.036827922 1.1874854e-38
0.02799692 0.1087783 0.036364615 1.1041907e-38
0.028267957 0.11103307 0.036987901 1.1413207e-38
0.023769736 0.076630473 0.03485018 1.5919946e-38
0.02255109 0.078624532 0.034415901 1.4168979e-38
0.02362778 0.10102625 0.036042213 1.3343157e-38
0.0250284 0.10322489 0.036776662 1.2056381e-38
0.020104237 0.076711722 0.035517573 1.2426615e-38
0.01944565 0.079384699 0.03474158 1.1596499e-38
0.019910291 0.096735105 0.036258519 1.3345684e-38
0.019659929 0.10022683 0.03706336 1.4543848e-38
0.017253406 0.077214822 0.035804033 1.2329041e-38
0.01615005 0.079987019 0.035828531 1.0767443e-38
0.01567582 0.08356446 0.035632908 9.3877048e-39
0.015629165 0.088081002 0.035806596 8.7430599e-39
0.016253345 0.092028335 0.036540329 8.8352807e-39
0.016735069 0.096426591 0.037080824 1.1134817e-38
0.017253406 0.099934928 0.037259281 1.4271229e-38
0.013365917 0.084982455 0.036648214 8.6505153e-39
0.012718 0.086277068 0.03678894 8.0962723e-39
0.11048441 0.089629322 0.0055302978 1.7675662e-38
0.11518832 0.10413256 0.0090098381 1.7224019e-38
0.11420232 0.093137637 0.0086091161 1.6294853e-38
0.11149725 0.096143879 0.015247524 1.7218992e-38
0.10773184 0.099136844 0.01573807 1.7670961e-38
0.10105598 0.093581334 0.017437875 1.4084695e-38
0.080454208 0.10924061 0.021320879 1.0771752e-38
0.15458575 0.13901372 0.027180135 2.2479903e-38
0.090358987 0.11252588 0.027614772 1.2889034e-38
0.16377476 0.13777401 0.02762264 2.2677245e-38
0.16380039 0.1400204 0.030063629 2.2675438e-38
0.15939 0.14036565 0.030024111 2.2395988e-38
0.15445471 0.053344876 0.025560975 2.2479909e-38
0.15469065 0.055810183 0.023182809 2.2661063e-38
0.15476981 0.14098322 0.029637218 2.2665026e-38
0.15427642 0.14295633 0.031819642 2.2664662e-38
0.15101787 0.050219223 0.026170254 2.2482057e-38
0.151052 0.052876025 0.024576843 2.2573528e-38
0.1520952 0.14160815 0.028909743 2.2754327e-38
0.15092424 0.14422628 0.030906498 2.2753948e-38
0.14971444 0.14684808 0.03247571 2.2848655e-38
0.14689291 0.049315989 0.026049137 2.2752153e-38
0.1471917 0.052338541 0.02403152 2.2751801e-38
0.14716384 0.1449606 0.029564261 2.2383013e-38
0.14708565 0.14682727 0.032373488 2.293546e-38
0.14331082 0.049510255 0.025135517 2.2931898e-38
0.14430884 0.14546444 0.029851139 2.210213e-38
0.14282605 0.14729887 0.031308115 2.2472682e-38
0.13903958 0.049193785 0.025663733 2.3115169e-38
0.1393683 0.14768802 0.031583905 2.1735842e-38
0.13407341 0.046205141 0.027424216 2.3113388e-38
0.13546371 0.048847921 0.025960445 2.2837136e-38
0.13481642 0.14857714 0.033110261 2.072133e-38
0.13146657 0.046190307 0.027655721 2.2927549e-38
0.13137656 0.048399583 0.025793314 2.2560562e-38
0.13068268 0.14538692 0.031061292 1.8968195e-38
0.13157815 0.14786732 0.033026636 1.9616064e-38
0.12720098 0.045936167 0.02726537 2.2470167e-38
0.12745209 0.048461869 0.025476456 2.228577e-38
0.12873609 0.14537585 0.031234205 1.8603347e-38
0.12751107 0.14735422 0.033314526 1.8972117e-38
0.12388656 0.045702107 0.027696908 2.2375462e-38
0.12381893 0.048302725 0.025857329 2.2011338e-38
0.12359001 0.1473228 0.033159196 1.9061082e-38
0.11972182 0.045534953 0.028158128 2.2101389e-38
0.11965199 0.048459806 0.025836647 2.2102101e-38
0.11969388 0.14730391 0.033673048 1.9797574e-38
0.11582553 0.046101332 0.029044867 2.1182318e-38
0.1160953 0.048051074 0.02663064 2.1090126e-38
0.11575881 0.14530203 0.03238672 1.915617e-38
0.11580731 0.14729287 0.034689605 1.9154368e-38
0.11158114 0.045815118 0.028902054 1.7679252e-38
0.1105679 0.14527249 0.032847762 1.9892991e-38
0.11121676 0.14787658 0.03295666 2.0076304e-38
0.1079967 0.045637861 0.028908551 1.7217183e-38
0.10797244 0.14525773 0.033078253 1.8976104e-38
0.10813913 0.14770579 0.033723116 2.0538379e-38
0.10495898 0.04569073 0.029316902 1.6205559e-38
0.10392248 0.048685312 0.028637052 1.5283974e-38
0.10213266 0.052260719 0.027642429 1.1781261e-38
0.10343374 0.14437817 0.034265041 1.5563053e-38
0.10495898 0.14701644 0.035807014 1.8143097e-38
0.10105343 0.049499691 0.030579865 1.1401351e-38
0.10018596 0.05233372 0.029832721 1.0300375e-38
0.098239481 0.056139156 0.028237998 1.0214238e-38
0.098239481 0.14065169 0.033651173 1.4365218e-38
0.099924445 0.14341569 0.035488784 1.4367729e-38
0.097581968 0.053950325 0.030168474 1.1410949e-38
0.095626101 0.056489915 0.031008542 1.1224782e-38
0.094825901 0.060426019 0.029571474 1.0306839e-38
0.094216518 0.064307481 0.029119968 9.0146637e-39
0.094665721 0.068096414 0.029825568 6.6211815e-39
0.095500395 0.072473742 0.031339407 4.687569e-39
0.095353171 0.076141208 0.031357467 4.137642e-39
0.094021857 0.079843678 0.030132473 5.7903432e-39
0.094346292 0.082770959 0.030291021 8.0833313e-39
0.095540732 0.14018655 0.035442948 1.2798985e-38
0.097577646 0.1426338 0.036855221 1.4457035e-38
0.093667381 0.055769503 0.031640112 1.4815354e-38
0.092375875 0.061092682 0.0310902 1.0486215e-38
0.092367932 0.064285129 0.03196609 8.829562e-39
0.092146724 0.06860216 0.032597661 7.6328069e-39
0.091549329 0.071917914 0.032863319 7.3569164e-39
0.091227405 0.076507747 0.032934546 7.3522529e-39
0.091250852 0.079910584 0.031389832 9.1921956e-39
0.091737032 0.082680538 0.031523943 1.2416527e-38
0.090310775 0.13241345 0.034635425 8.6516279e-39
0.090445258 0.13573185 0.034534097 8.3772229e-39
0.093015678 0.13934311 0.03705126 1.077608e-38
0.086994678 0.068336256 0.032662868 1.1407761e-38
0.087169781 0.072147027 0.032262504 1.1130833e-38
0.087562844 0.075971104 0.031322718 1.242121e-38
0.087468326 0.11315635 0.032850623 7.8250608e-39
0.087208778 0.11653537 0.033090174 8.1917078e-39
0.087046571 0.12043503 0.033354402 8.3746585e-39
0.087181717 0.12431797 0.034932435 9.0225334e-39
0.087942898 0.1284796 0.036204219 9.7618837e-39
0.088459566 0.13213651 0.036660612 1.0221795e-38
0.08845371 0.13474652 0.037163675 9.7583146e-39
0.082588315 0.065500699 0.033251405 1.7397574e-38
0.083262622 0.068201877 0.032470047 1.6753647e-38
0.083276823 0.072164379 0.03216368 1.8411022e-38
0.08396446 0.074910745 0.030713379 1.8231277e-38
0.084613323 0.11392022 0.03315413 9.1126159e-39
0.083315596 0.11651322 0.033435941 9.7594006e-39
0.083303973 0.1204055 0.034133375 1.0772824e-38
0.083256185 0.12362731 0.036244333 1.1049415e-38
0.079329766 0.065482162 0.033540785 1.9978364e-38
0.079357207 0.06817966 0.032816887 1.9792175e-38
0.079582423 0.071835041 0.031769454 1.9515568e-38
0.079422407 0.11649108 0.033781707 1.0772481e-38
0.079360642 0.12035041 0.036046386 1.1234555e-38
0.079329766 0.12359452 0.037262976 1.1880627e-38
0.075093649 0.06513159 0.033896089 1.9793624e-38
0.07547234 0.068210535 0.032606423 1.9332996e-38
0.075853668 0.071289077 0.0312047 1.9147523e-38
0.075529233 0.11711903 0.034169137 1.1509335e-38
0.07545951 0.12033111 0.036281288 1.1600799e-38
0.075680196 0.12344316 0.037578762 1.1877748e-38
0.071362168 0.064331785 0.033800423 1.96085e-38
0.071598887 0.068252407 0.032283783 1.8591849e-38
0.072933771 0.070947416 0.031443179 1.8593653e-38
0.071960479 0.11742377 0.034506857 1.1785918e-38
0.071556628 0.12030976 0.036628008 1.2245444e-38
0.071509235 0.12289707 0.037915707 1.2704274e-38
0.067598984 0.060844794 0.034289896 1.9331194e-38
0.067614973 0.064143047 0.034164369 1.8224149e-38
0.067699812 0.068230219 0.032630146 1.7391504e-38
0.067093998 0.070914194 0.031961858 1.6649295e-38
0.06806729 0.11740163 0.034852624 1.2063184e-38
0.067668691 0.12029383 0.036638319 1.2981581e-38
0.067338303 0.12339571 0.038319647 1.4084707e-38
0.063688725 0.060332842 0.034605801 1.7488377e-38
0.063706607 0.064120814 0.034511507 1.6933763e-38
0.063778132 0.068165034 0.033422828 1.6011417e-38
0.063664272 0.071823388 0.032325983 1.9332304e-38
0.063849673 0.11770269 0.035248041 1.3073055e-38
0.063790046 0.12028127 0.036536276 1.3901743e-38
0.06370692 0.12351119 0.038315535 1.4731145e-38
0.060104318 0.061128631 0.034976423 1.7580909e-38
0.059798252 0.064098582 0.034858584 1.6933745e-38
0.059916507 0.068207808 0.033099234 1.7211454e-38
0.059956498 0.072011262 0.032668591 2.0810297e-38
0.059523918 0.11724468 0.035604477 1.3533673e-38
0.059890553 0.12025909 0.036882639 1.4362714e-38
0.059788033 0.12348612 0.038831055 1.5283598e-38
0.056519911 0.061434716 0.035315692 1.7670248e-38
0.05603902 0.064219549 0.035411119 1.8778378e-38
0.055948101 0.068078443 0.034562588 2.0715919e-38
0.056063302 0.072151639 0.033024788 2.145134e-38
0.054765582 0.074744642 0.033306599 2.117507e-38
0.054765582 0.10724947 0.035388589 1.2702488e-38
0.057361037 0.11766578 0.035824299 1.3900666e-38
0.056174897 0.12060915 0.037268341 1.4269809e-38
0.055868194 0.12346105 0.039346695 1.4730794e-38
0.051795013 0.06418287 0.03591305 2.0992541e-38
0.052013148 0.068013184 0.035356402 2.1637553e-38
0.052373849 0.071276382 0.034102559 2.2833208e-38
0.051737539 0.11676698 0.036268234 1.2799722e-38
0.052043743 0.12020081 0.038249254 1.4178699e-38
0.052283794 0.12311418 0.039644122 1.4824783e-38
0.046744265 0.061379112 0.036183894 1.8687976e-38
0.048098631 0.064066097 0.035564542 2.0346803e-38
0.048082639 0.067851558 0.034131765 2.0898905e-38
0.049574666 0.070814535 0.033517778 2.218499e-38
0.047805034 0.11619302 0.036582172 1.4179755e-38
0.048266642 0.11978953 0.039358318 1.4269457e-38
0.044137426 0.061364278 0.036415398 1.6848003e-38
0.043808218 0.064267874 0.034893036 1.684662e-38
0.044383757 0.066884428 0.033728957 1.7584192e-38
0.043652777 0.11691344 0.038004637 1.4917671e-38
0.044137426 0.11882368 0.040095747 1.5008086e-38
0.039966471 0.060818195 0.036752343 1.4543516e-38
0.039566878 0.064187251 0.034656405 1.417544e-38
0.039783794 0.11689951 0.038013458 1.3536168e-38
0.04022716 0.11880144 0.040443063 1.3904233e-38
0.036991499 0.060697176 0.036758423 1.3255644e-38
0.036051609 0.063859761 0.036146522 1.242625e-38
0.03465081 0.067479163 0.034635007 1.1967799e-38
0.035855018 0.11686908 0.038697124 1.2796107e-38
0.036363639 0.11944358 0.040325701 1.2888657e-38
0.033308022 0.064818487 0.037267029 9.9304949e-39
0.032147326 0.067748986 0.036743879 1.0485125e-38
0.031065315 0.071676001 0.036028385 1.0756319e-38
0.030108757 0.11361016 0.037994802 1.2424809e-38
0.031592868 0.11634722 0.039421082 1.3162713e-38
0.032472141 0.11877222 0.040462136 1.3348915e-38
0.027911156 0.071775168 0.037900448 1.6105059e-38
0.026755758 0.074498326 0.036794662 1.7303592e-38
0.026143111 0.10836306 0.038683116 1.3802707e-38
0.027622595 0.11251165 0.039554596 1.2425159e-38
0.028965808 0.11613493 0.040941179 1.2794298e-38
0.029799804 0.11874212 0.04136914 1.3439352e-38
0.024586126 0.072570823 0.038876712 1.7394008e-38
0.023471408 0.074450642 0.037419915 1.647669e-38
0.023667693 0.10440823 0.039488852 1.3715158e-38
0.023989685 0.10697573 0.040630639 1.3899199e-38
0.02132757 0.072987586 0.039193988 1.5465461e-38
0.019402482 0.07486853 0.036468089 1.3438969e-38
0.020375781 0.10185307 0.03810972 1.4544562e-38
0.020336948 0.10396323 0.040978909 1.4545642e-38
0.016183741 0.076202035 0.037511289 1.2977976e-38
0.014536001 0.078416377 0.037129343 1.1409212e-38
0.014536001 0.092718497 0.038045406 9.0199943e-39
0.014860429 0.096945971 0.038287282 1.1503956e-38
0.015337728 0.10066235 0.039488733 1.4271236e-38
0.016175799 0.10301645 0.041073859 1.4731491e-38
0.012855336 0.076857075 0.040197372 1.2691681e-38
0.012093075 0.079964712 0.039626002 1.012135e-38
0.011712618 0.083401248 0.038203299 8.8331255e-39
0.01171758 0.087853752 0.038272619 7.9136635e-39
0.01185292 0.092012256 0.038910031 8.8352611e-39
0.011890836 0.09635219 0.040148854 1.086145e-38
0.012897886 0.10038039 0.041364968 1.4271603e-38
0.0083266944 0.084031679 0.040809274 8.4643304e-39
0.0077161565 0.087312758 0.040766537 7.0867713e-39
0.0080983415 0.090770259 0.041345119 7.4541371e-39
0.0050348192 0.087259755 0.041561067 6.2581149e-39
0.10781449 0.088115066 0.0067970753 1.9897338e-38
0.099764094 0.12882069 0.023367941 1.2890086e-38
0.1599374 0.052126005 0.028179646 2.2394916e-38
0.1597618 0.14433797 0.034604609 2.2581814e-38
0.15475594 0.0489548 0.029109299 2.2393828e-38
0.15598494 0.051707134 0.02816999 2.2482795e-38
0.15531871 0.14467856 0.034423888 2.2391668e-38
0.155219 0.14694378 0.035679638 2.2575695e-38
0.15000072 0.04578054 0.030000687 2.2571736e-38
0.1512389 0.047883138 0.029018939 2.2481701e-38
0.15247202 0.14558919 0.03416115 2.2663566e-38
0.15122603 0.14800008 0.035265088 2.2848312e-38
0.14700107 0.045531705 0.029497743 2.2661053e-38
0.14793161 0.047272615 0.028771758 2.2752516e-38
0.14724316 0.14817883 0.034793317 2.2936539e-38
0.14338359 0.045214944 0.029548466 2.2933691e-38
0.14288577 0.047743931 0.02874887 2.3023374e-38
0.14462873 0.14816396 0.035025477 2.2842527e-38
0.13945626 0.045192599 0.029897332 2.3024781e-38
0.14070708 0.047294974 0.028914392 2.3116268e-38
0.13874626 0.1494402 0.035631835 2.1368147e-38
0.13885716 0.15079705 0.037720919 2.1366717e-38
0.13552141 0.044532955 0.030062377 2.3204487e-38
0.13556272 0.15077057 0.037677646 2.0997926e-38
0.1315791 0.044229925 0.030035198 2.3113015e-38
0.13024937 0.14939186 0.03638643 1.9523515e-38
0.1316316 0.15074821 0.03802675 1.9708983e-38
0.12794356 0.043658026 0.0310269 2.2837869e-38
0.12764741 0.14938419 0.03695339 1.9157234e-38
0.12343693 0.04339616 0.031713784 2.2652409e-38
0.12375876 0.14938343 0.038306117 1.8967097e-38
0.11984752 0.042982012 0.032510459 2.2193943e-38
0.11983757 0.14936826 0.03899014 1.9153642e-38
0.11589225 0.043746963 0.031906128 2.1825898e-38
0.11589225 0.14933157 0.03866899 1.8970329e-38
0.11222343 0.043621637 0.032024086 1.8878517e-38
0.10935944 0.04160884 0.033357739 1.8509002e-38
0.10848118 0.043399379 0.033215344 1.7773226e-38
0.10279787 0.045769624 0.032197297 1.5467268e-38
0.10312466 0.14792787 0.038711607 1.6945971e-38
0.10149339 0.0455046 0.034308732 1.5090217e-38
0.099920802 0.048010334 0.033402264 1.5462554e-38
0.098876223 0.051640958 0.032923102 1.0851348e-38
0.10018244 0.14530218 0.039476573 1.4458483e-38
0.10036904 0.14755969 0.040083587 1.5379381e-38
0.096578181 0.049119532 0.034727156 1.8229843e-38
0.096090674 0.051981315 0.034325182 1.5186309e-38
0.096255243 0.1437555 0.040063024 1.4361982e-38
0.092506737 0.052429795 0.03526628 1.8780869e-38
0.091679946 0.05612684 0.034355223 1.5646925e-38
0.091359727 0.059783809 0.034114957 1.2048838e-38
0.09103293 0.064038455 0.034416616 8.9192171e-39
0.091468669 0.067970023 0.034629583 7.7264304e-39
0.092013344 0.072229646 0.034853876 7.1739475e-39
0.092340142 0.074523471 0.034971654 6.6193416e-39
0.092002988 0.14001198 0.039950967 1.1602244e-38
0.093627334 0.14265877 0.041233122 1.3439304e-38
0.088645488 0.052787103 0.035920978 1.9889047e-38
0.0884009 0.056051701 0.035145879 1.7951826e-38
0.088402659 0.059998289 0.035286725 1.5557629e-38
0.088418499 0.064023584 0.034648895 1.2793526e-38
0.089289971 0.067084506 0.034767151 1.048831e-38
0.087111287 0.12688161 0.038791537 9.577484e-39
0.087104782 0.13211989 0.039463043 1.0497652e-38
0.087091781 0.13474014 0.040302694 1.0497624e-38
0.084450275 0.053288639 0.036327243 1.896529e-38
0.084462777 0.055978395 0.035939455 1.7860746e-38
0.084473558 0.05996415 0.035746694 1.6384911e-38
0.084651992 0.063799649 0.03534776 1.4630978e-38
0.083843246 0.12555332 0.038997889 1.0864313e-38
0.084491253 0.12817439 0.039331615 1.0864305e-38
0.084470555 0.13210231 0.040479302 1.150969e-38
0.084450275 0.13472557 0.041543365 1.2614951e-38
0.080517247 0.052609511 0.036634505 1.8318145e-38
0.080526888 0.055930547 0.036510885 1.8316343e-38
0.08054924 0.059953608 0.035984159 1.8317776e-38
0.07979089 0.063712567 0.035398364 1.9978351e-38
0.079921603 0.12553102 0.039346218 1.2065366e-38
0.080091953 0.12803036 0.039765596 1.2340882e-38
0.080543205 0.13207954 0.040828049 1.3168845e-38
0.079206228 0.13469574 0.042009115 1.4365961e-38
0.076846406 0.05271998 0.036968827 2.0528644e-38
0.076587856 0.055883318 0.037082732 2.0896743e-38
0.07661888 0.059919477 0.036444247 2.0991113e-38
0.075607806 0.06316489 0.035736322 2.0714148e-38
0.075019553 0.12517571 0.03976059 1.224582e-38
0.075770527 0.12812442 0.040217876 1.2800784e-38
0.076618887 0.13205737 0.041064799 1.3630179e-38
0.075928703 0.1346771 0.042300165 1.4827283e-38
0.072655872 0.055860952 0.037431896 2.13588e-38
0.072058454 0.059947163 0.036349773 2.0714155e-38
0.072731927 0.062624656 0.035958111 2.1173674e-38
0.071424708 0.12482783 0.04005897 1.3072345e-38
0.072052851 0.12810071 0.040841401 1.3534395e-38
0.072686858 0.13203485 0.041525781 1.4273038e-38
0.073306695 0.13466218 0.04253304 1.4919137e-38
0.067407146 0.053191684 0.037840843 2.1542108e-38
0.06809862 0.055907175 0.037198663 2.0621229e-38
0.067503057 0.058665819 0.03617084 1.9608507e-38
0.06782987 0.12513481 0.040399134 1.4271241e-38
0.068109661 0.12807417 0.041568518 1.4363065e-38
0.06872306 0.13200969 0.042660117 1.4179044e-38
0.064143509 0.05320248 0.037881017 2.0620892e-38
0.063545659 0.055947542 0.037020445 1.9053908e-38
0.063581429 0.058643512 0.03651911 1.7949009e-38
0.063581429 0.12543806 0.040797412 1.5008446e-38
0.063958824 0.12805019 0.042048931 1.4824051e-38
0.064785138 0.13132997 0.043079615 1.4733281e-38
0.059821088 0.051870257 0.03813082 2.0162063e-38
0.059620228 0.055925205 0.037369072 1.8320285e-38
0.059398334 0.059143588 0.036924243 1.7768521e-38
0.059659779 0.12541576 0.041145742 1.5192483e-38
0.05983891 0.12815543 0.042713702 1.5192121e-38
0.059541102 0.13064338 0.043503284 1.5283941e-38
0.055796321 0.052020356 0.038423955 1.8873121e-38
0.055687349 0.055890426 0.03782928 1.8318139e-38
0.055551391 0.059533328 0.037292242 1.7670965e-38
0.054430917 0.062520549 0.03758347 1.9144656e-38
0.055738136 0.12539345 0.041494012 1.482298e-38
0.055804219 0.12783617 0.043153644 1.546904e-38
0.055608075 0.130621 0.043852568 1.6298425e-38
0.051675048 0.053102188 0.039238095 1.8780194e-38
0.051745757 0.055843189 0.038401306 1.850324e-38
0.051808428 0.059874028 0.037759662 1.988868e-38
0.053123713 0.062513113 0.03769958 2.0079527e-38
0.051555056 0.12484577 0.04183203 1.5008806e-38
0.051518053 0.12760015 0.043592632 1.546906e-38
0.047775757 0.055756859 0.039308667 2.0069123e-38
0.048039377 0.059673637 0.038222671 1.9886896e-38
0.047241241 0.12141602 0.041996956 1.4732595e-38
0.047860667 0.12403302 0.042556524 1.4916601e-38
0.047754426 0.12729441 0.044172227 1.473364e-38
0.044031456 0.056108862 0.039681137 1.8231343e-38
0.043973211 0.059186816 0.0383026 1.6939155e-38
0.043973204 0.12074257 0.042245328 1.5008076e-38
0.043881968 0.12400013 0.043579876 1.5469051e-38
0.044136737 0.12694363 0.044639945 1.5099525e-38
0.03993481 0.056393936 0.039825141 1.6570357e-38
0.040356882 0.058811381 0.038852453 1.5559467e-38
0.040036935 0.12071709 0.042762399 1.3902817e-38
0.039934482 0.12397482 0.044153869 1.4823335e-38
0.035973676 0.05567731 0.040467799 1.5463294e-38
0.035587959 0.059248134 0.03925544 1.3165966e-38
0.036129914 0.12135281 0.04298377 1.3257068e-38
0.036020204 0.1232989 0.044291914 1.3901004e-38
0.033320911 0.056938283 0.041120529 1.3068033e-38
0.032074966 0.059629701 0.040733337 1.2329381e-38
0.031688936 0.063178197 0.040492058 1.1315554e-38
0.03215868 0.12066609 0.043797076 1.3900278e-38
0.032042317 0.12261151 0.045105636 1.4727159e-38
0.028783865 0.06484361 0.041528404 1.3896293e-38
0.028192766 0.067523465 0.041138053 1.481646e-38
0.027279519 0.11638504 0.043706357 1.3162717e-38
0.028181441 0.11975948 0.044596612 1.3623363e-38
0.024165578 0.068201207 0.042457223 1.757984e-38
0.024058923 0.070692763 0.041217804 1.7210355e-38
0.023655616 0.1088219 0.043796659 1.3991759e-38
0.024492972 0.11181705 0.044618011 1.3807008e-38
0.025491066 0.11601055 0.045267045 1.344002e-38
0.025454856 0.11862799 0.045773327 1.3714833e-38
0.02021081 0.068685189 0.043042123 1.5463673e-38
0.020189889 0.071066745 0.041759372 1.5096687e-38
0.019789733 0.10554349 0.043428361 1.4729324e-38
0.020513833 0.10775551 0.044511616 1.4637847e-38
0.0169333 0.068666548 0.043333113 1.5370749e-38
0.016532652 0.071522593 0.042797267 1.4727165e-38
0.01586809 0.074088454 0.041763306 1.3992117e-38
0.016460076 0.10484903 0.04418385 1.5190311e-38
0.0169333 0.10741477 0.045814991 1.5558e-38
0.012669638 0.075498655 0.043312609 1.3988521e-38
0.011292852 0.077991515 0.042421341 1.259984e-38
0.01122807 0.099576667 0.044312716 1.3901036e-38
0.013063125 0.10347484 0.045404732 1.4640384e-38
0.0085450634 0.076583005 0.043582201 1.5550443e-38
0.0084478706 0.079081155 0.043247879 1.1779409e-38
0.0080248043 0.08190202 0.042963266 9.0164532e-39
0.0077618435 0.093231745 0.044047773 8.6516111e-39
0.0082595721 0.096228018 0.045369089 1.0590965e-38
0.0097227469 0.098836005 0.04590857 1.3531529e-38
0.0045250431 0.076504685 0.044606328 1.4453844e-38
0.0046333894 0.079192556 0.04398644 1.1321684e-38
0.0047567561 0.083193123 0.043337405 8.7405838e-39
0.0037763491 0.087116644 0.043676078 6.8087579e-39
0.0046594441 0.091663912 0.044592917 7.4545183e-39
0.00059454888 0.076482326 0.044955373 1.2425826e-38
0.00070666522 0.07917022 0.044335186 1.0674882e-38
0.00083512813 0.083170816 0.043685734 9.2948127e-39
0.00083512813 0.08709991 0.043937385 8.005499e-39
0.00072275847 0.090980977 0.04497844 7.9144076e-39
0.11174953 0.087829232 0.0062937737 1.8691234e-38
0.11085039 0.085875191 0.0053907633 1.8041558e-38
0.11004616 0.10066968 0.0086663365 1.6107592e-38
0.10788375 0.10247363 0.0099368095 1.5651306e-38
0.10482492 0.092767641 0.0093939304 1.4450249e-38
0.10769442 0.10452204 0.0081604719 1.5374333e-38
0.11909831 0.090572111 0.014698505 1.8690523e-38
0.077766106 0.085619055 0.013843775 2.3117355e-38
0.15390402 0.11965524 0.012503743 1.6943842e-38
0.096411154 0.092622884 0.017841041 1.4083969e-38
0.11479123 0.099138074 0.015624881 1.6387785e-38
0.031092547 0.086337134 0.026547313 1.0762789e-38
0.08932028 0.1224414 0.029300034 1.1140918e-38
0.062477 0.10904354 0.034899652 1.3719144e-38
0.1542428 0.045289457 0.033614993 2.2483877e-38
0.156101 0.047471076 0.032079935 2.2395273e-38
0.15546967 0.14897963 0.038973391 2.2941232e-38
0.15226489 0.045278206 0.033790648 2.24817e-38
0.15211606 0.14960173 0.038473964 2.3123459e-38
0.15155727 0.15094686 0.039951384 2.2570632e-38
0.14758204 0.043401085 0.033082008 2.2569574e-38
0.14751425 0.14957555 0.038882673 2.3027661e-38
0.14760494 0.15158461 0.040344715 2.2291175e-38
0.14303471 0.041262388 0.034356534 2.2753603e-38
0.14359117 0.042807668 0.032729208 2.2842212e-38
0.14356984 0.14955311 0.039233029 2.2659589e-38
0.14382002 0.15183738 0.040362954 2.1645801e-38
0.13968182 0.04137782 0.033656895 2.2749638e-38
0.13962543 0.042829305 0.032748938 2.284075e-38
0.13971528 0.15220642 0.041356266 2.0996141e-38
0.13573173 0.041355349 0.034007668 2.2930777e-38
0.13699582 0.042814352 0.032982469 2.3020797e-38
0.13549879 0.1527105 0.041764617 2.0442236e-38
0.1315359 0.040749244 0.034745455 2.3021195e-38
0.13173661 0.042784438 0.033449531 2.3112299e-38
0.13204497 0.15267575 0.041466773 1.9523154e-38
0.1276319 0.040404879 0.034381747 2.3020467e-38
0.12781809 0.15145622 0.041430295 1.9065401e-38
0.12388141 0.15144223 0.042115688 1.8783421e-38
0.12071575 0.040240705 0.035074234 2.1914862e-38
0.11993132 0.15141974 0.04246664 1.8878852e-38
0.11564694 0.040944926 0.03552103 2.237726e-38
0.11632151 0.15108056 0.043269813 1.8787731e-38
0.11218765 0.040134132 0.035526097 1.9430252e-38
0.1133478 0.14940254 0.042924404 1.8696238e-38
0.11336625 0.15074512 0.044014812 1.8695147e-38
0.1067643 0.1493651 0.043509126 2.0171389e-38
0.1028142 0.043806508 0.037100196 1.6018295e-38
0.10478924 0.14935386 0.043684542 1.8972848e-38
0.10281747 0.1506851 0.044951677 1.8606229e-38
0.099521235 0.045042574 0.037976027 1.9237519e-38
0.098866522 0.04654935 0.036621928 1.9790691e-38
0.099523924 0.14930254 0.043144822 1.740661e-38
0.099916592 0.15117806 0.04443711 1.9343076e-38
0.095968217 0.04695826 0.037711442 2.1362705e-38
0.095575452 0.14533602 0.043745875 1.4642498e-38
0.096229643 0.14798617 0.04436028 1.6391372e-38
0.096224479 0.15130815 0.045579612 1.9988085e-38
0.092472367 0.048116818 0.038011134 2.1456012e-38
0.091635093 0.050460115 0.037517309 2.0439331e-38
0.091628209 0.14135879 0.043843091 1.297797e-38
0.092536777 0.14375177 0.045022011 1.3808437e-38
0.093587279 0.14732985 0.045559943 1.6209858e-38
0.088158824 0.047798291 0.039040089 2.2006309e-38
0.088014513 0.050738551 0.038109481 2.0625886e-38
0.088078097 0.13685651 0.04377079 1.0867887e-38
0.088658713 0.13903829 0.044462264 1.2981577e-38
0.084207065 0.047775805 0.0393911 2.0157021e-38
0.084403679 0.051077634 0.038201749 1.9516664e-38
0.084383726 0.1364226 0.044532418 1.3907115e-38
0.084357098 0.13869017 0.045829654 1.6025818e-38
0.080430292 0.047635511 0.039341629 1.9883301e-38
0.080459267 0.050396547 0.038509846 1.8959568e-38
0.080605745 0.13618878 0.044620752 1.5011672e-38
0.080406442 0.13932723 0.046055138 1.6760902e-38
0.076464362 0.047557808 0.04013747 2.1081121e-38
0.07618615 0.050701559 0.038910449 2.11733e-38
0.076693043 0.13637725 0.044640303 1.5470488e-38
0.07646285 0.13930273 0.04606992 1.6484647e-38
0.072819352 0.048459299 0.041079104 2.2187112e-38
0.072547391 0.051601931 0.039851546 2.1818706e-38
0.072376579 0.13635208 0.044880033 1.5195361e-38
0.0725099 0.13928024 0.046420991 1.5930758e-38
0.068533912 0.048765197 0.041480839 2.1912669e-38
0.068727285 0.051317453 0.04099834 2.1729008e-38
0.06859 0.13595624 0.045831084 1.5100287e-38
0.068863556 0.13893232 0.047226846 1.5744569e-38
0.064584091 0.047435299 0.041636169 2.1638251e-38
0.064647444 0.050884768 0.040621817 2.1454584e-38
0.064681619 0.13329673 0.045226753 1.519426e-38
0.064775296 0.13577068 0.046760142 1.5654525e-38
0.065896705 0.13858517 0.047469139 1.602043e-38
0.060642112 0.048100784 0.041806817 2.0902153e-38
0.062052015 0.050291829 0.040144682 2.0900347e-38
0.060891949 0.13233341 0.046077907 1.4824412e-38
0.060951967 0.13492399 0.04767561 1.5561625e-38
0.056496475 0.047788247 0.04220438 1.9703595e-38
0.056993 0.13246079 0.046864808 1.5008415e-38
0.053150266 0.047796942 0.042790771 1.8410702e-38
0.052557524 0.050716266 0.041420877 1.8595818e-38
0.052848388 0.12927751 0.046024561 1.5930023e-38
0.052502833 0.13137922 0.047397196 1.6389566e-38
0.050073538 0.048660181 0.043120384 1.8869177e-38
0.048646003 0.051217899 0.042657018 1.9423775e-38
0.048208367 0.12924755 0.046939433 1.5286105e-38
0.048947722 0.13172007 0.048163712 1.602331e-38
0.044851989 0.052011505 0.04313004 1.9423422e-38
0.04364476 0.054139018 0.042032599 1.9426287e-38
0.04455018 0.12889384 0.047745943 1.4916235e-38
0.045458447 0.13120283 0.048818946 1.5285739e-38
0.041173 0.052242585 0.044143558 1.8503957e-38
0.041015152 0.054124057 0.04226613 1.8599021e-38
0.040648352 0.12735264 0.048196495 1.5374331e-38
0.038206156 0.052555978 0.044428229 1.7859676e-38
0.038385559 0.054109097 0.042499661 1.7953276e-38
0.036366604 0.12522542 0.047737837 1.4545653e-38
0.036913462 0.12747714 0.04905498 1.5098823e-38
0.034250356 0.052533478 0.044779539 1.6566022e-38
0.031981371 0.055332221 0.043652117 1.3527208e-38
0.032765329 0.12467122 0.048526525 1.4545287e-38
0.033591054 0.12651145 0.049576759 1.5103119e-38
0.029635258 0.05580999 0.045400977 1.3343172e-38
0.028697811 0.05949115 0.045217395 1.2788904e-38
0.028498299 0.062589288 0.044176042 1.3345287e-38
0.027867116 0.1212316 0.047737002 1.3899227e-38
0.029044613 0.123634 0.049127281 1.4543867e-38
0.025459692 0.063492656 0.046265483 1.6386648e-38
0.023922719 0.066211864 0.044564605 1.776854e-38
0.023046173 0.11286128 0.047630787 1.3900288e-38
0.023922719 0.11593996 0.047749817 1.3808446e-38
0.024708055 0.12031966 0.048798621 1.3901391e-38
0.025679462 0.12250315 0.050025523 1.4177967e-38
0.021064363 0.064348392 0.04671222 1.6934126e-38
0.020195134 0.066612355 0.045325041 1.5923588e-38
0.019320883 0.10932728 0.047736645 1.509704e-38
0.020558514 0.111948 0.048464775 1.4820099e-38
0.021114573 0.11588351 0.04956156 1.4268356e-38
0.021522664 0.11940066 0.050029933 1.3901736e-38
0.016631268 0.06667006 0.045747161 1.5737742e-38
0.014719076 0.069782078 0.045614064 1.4820085e-38
0.015705176 0.10831874 0.047994435 1.574239e-38
0.017485321 0.1156623 0.050318182 1.4177602e-38
0.01344128 0.067230746 0.047375441 1.7398319e-38
0.012641154 0.071010962 0.046716392 1.5555485e-38
0.012089469 0.073719025 0.046100736 1.4176533e-38
0.010774679 0.10137486 0.047989368 1.4364876e-38
0.012089469 0.10445604 0.048069477 1.4640391e-38
0.012938261 0.10813557 0.04894805 1.4914793e-38
0.013441272 0.11107881 0.050183892 1.4453456e-38
0.0094038695 0.071277723 0.048052192 1.8415333e-38
0.0087145343 0.074300483 0.047109723 1.7399739e-38
0.0068302527 0.097400516 0.048086584 1.1417137e-38
0.0079133585 0.1001817 0.048671067 1.325924e-38
0.0086567625 0.10395001 0.049449801 1.3905319e-38
0.0094607323 0.1070861 0.050484419 1.3717349e-38
0.0052412003 0.071656547 0.048591435 1.6656831e-38
0.0047209337 0.074248768 0.047797859 1.6298085e-38
0.0028858408 0.093426183 0.048183739 8.3768641e-39
0.0041232035 0.096038073 0.048799634 1.0499494e-38
0.0042262152 0.099806443 0.049478829 1.2336572e-38
0.0048840344 0.1040846 0.0505566 1.2707864e-38
0.00095575303 0.07183034 0.048984647 1.4733625e-38
0.00077081472 0.074226305 0.048148513 1.4178981e-38
0.00025623292 0.093411222 0.04841727 8.6508993e-39
0.00031277537 0.095840484 0.049322248 9.9423415e-39
0.00090867281 0.10009222 0.050799131 1.123022e-38
0.0017249286 0.10343108 0.050940216 1.1509674e-38
0.1494261 0.11358406 0.0085738897 1.3810618e-38
