# .PCD v0.7 - Point Cloud Data file format
VERSION 0.7
FIELDS x y z rgb
SIZE 4 4 4 4
TYPE F F F F
COUNT 1 1 1 1
WIDTH 981
HEIGHT 1
VIEWPOINT 0 0 0 0 1 0 0
POINTS 981
DATA ascii
0.16167441 0.086285502 0.01838243 1.7863628e-38
0.17409514 0.063750997 0.025254667 2.2659981e-38
0.17620593 0.065953478 0.024052024 2.2754342e-38
0.17615795 0.11039442 0.018781602 1.8327824e-38
0.17534254 0.11385362 0.018723845 1.9156886e-38
0.16953447 0.058575016 0.02572602 2.2751445e-38
0.17067887 0.061458383 0.024962068 2.2567419e-38
0.17161526 0.11135361 0.018526137 1.6576147e-38
0.17096262 0.11398223 0.018446147 1.7127173e-38
0.17094187 0.1167134 0.018877089 1.8601234e-38
0.16497502 0.054045003 0.026120901 2.2656376e-38
0.16612434 0.057423886 0.025630236 2.2564535e-38
0.16654451 0.060603749 0.024384916 2.2008861e-38
0.1662595 0.11410999 0.018158257 1.5746022e-38
0.16639073 0.11670506 0.018736064 1.6851285e-38
0.16219495 0.053747345 0.025925577 2.2192889e-38
0.16258851 0.056995209 0.024689257 2.1917359e-38
0.16383184 0.11520942 0.0178262 1.5746012e-38
0.16250029 0.11717452 0.018357694 1.602153e-38
0.15831667 0.053534593 0.025847733 2.2006312e-38
0.15885407 0.056182113 0.024669111 2.1912683e-38
0.15733974 0.11519754 0.017625034 1.4822962e-38
0.15858878 0.1166908 0.018494427 1.5468349e-38
0.1545774 0.05336779 0.025764883 2.1270559e-38
0.1546336 0.055851888 0.024576604 2.0905743e-38
0.15409368 0.11519159 0.017524421 1.4824063e-38
0.15468779 0.11668366 0.018373549 1.5744227e-38
0.15069135 0.053336199 0.025423527 2.0531912e-38
0.15073833 0.055844765 0.024455905 2.0347162e-38
0.15084763 0.11518565 0.017423928 1.6113352e-38
0.15078682 0.11667652 0.018252671 1.6483931e-38
0.14679226 0.053329062 0.025302708 2.034714e-38
0.14814147 0.055840012 0.024375498 2.0163473e-38
0.14662716 0.11485544 0.017331362 1.5009533e-38
0.14662673 0.11718567 0.018062532 1.5561251e-38
0.14290151 0.053309914 0.025071621 2.0164218e-38
0.14164938 0.055828135 0.024174333 2.0440428e-38
0.14240074 0.11130016 0.0176211 1.3904252e-38
0.14285493 0.11414133 0.017802119 1.4640748e-38
0.14331055 0.11698581 0.017982721 1.5008452e-38
0.1390076 0.05345818 0.024876595 2.0439719e-38
0.13905253 0.055823382 0.024093866 2.0165994e-38
0.13977017 0.11461991 0.017649055 1.4735802e-38
0.13908389 0.11665511 0.017890096 1.4826911e-38
0.1352897 0.053666648 0.02480793 2.0437204e-38
0.13515726 0.055816259 0.023973167 1.9703233e-38
0.13487683 0.11498323 0.017705202 1.50113e-38
0.13518409 0.11729392 0.017692685 1.4732931e-38
0.13388972 0.12052134 0.017269671 1.4456724e-38
0.13121247 0.053928148 0.024577677 1.9519904e-38
0.13167283 0.11487783 0.017114043 1.4090797e-38
0.1313049 0.11788812 0.01727736 1.4088286e-38
0.13128906 0.12051657 0.017189085 1.4456717e-38
0.12726554 0.053976011 0.024952531 1.9706452e-38
0.12710799 0.056317534 0.023662686 1.9338772e-38
0.12745827 0.11453104 0.016939759 1.2985198e-38
0.12778208 0.11768436 0.017127633 1.3353241e-38
0.12336457 0.053968873 0.024831712 1.7310457e-38
0.12267231 0.056331825 0.02372402 1.5747782e-38
0.1218408 0.11040254 0.017086089 1.0773206e-38
0.12336381 0.11427082 0.016962826 1.1513259e-38
0.12434765 0.11705878 0.017382562 1.2065013e-38
0.11946418 0.05428471 0.024672627 1.5558021e-38
0.11858692 0.056402843 0.023962379 1.4913729e-38
0.11739483 0.10512684 0.017572761 1.0865401e-38
0.11836344 0.10912722 0.017240703 1.0681721e-38
0.11891157 0.11306421 0.017126799 1.1048683e-38
0.11562712 0.057772513 0.023635685 1.4081809e-38
0.1138037 0.061783027 0.023204029 1.0306128e-38
0.11310309 0.066096023 0.022066355 8.1878206e-39
0.11310785 0.068676069 0.021760643 8.7463781e-39
0.11444427 0.089318752 0.019354939 5.7056992e-39
0.11304166 0.097228855 0.019380748 8.6530559e-39
0.11343322 0.10133915 0.01840204 1.0678479e-38
0.11442037 0.10488085 0.017956913 1.1324928e-38
0.11436341 0.10885844 0.01804322 1.1324933e-38
0.114241 0.11299232 0.017549276 1.2708908e-38
0.11124524 0.063205361 0.023358524 8.3678356e-39
0.11059192 0.066332415 0.022589684 7.9987307e-39
0.11027361 0.069882452 0.022158861 8.0080648e-39
0.10966644 0.073654935 0.021667421 7.3615982e-39
0.10910381 0.077197105 0.02163291 5.6138146e-39
0.11053357 0.080926493 0.020227969 4.6933311e-39
0.11176006 0.085548148 0.020389915 4.0483344e-39
0.11045647 0.10562152 0.018305063 1.1504625e-38
0.11041225 0.10921654 0.017328024 1.3253851e-38
0.11081538 0.1137884 0.016900361 1.860295e-38
0.11056118 0.1177596 0.016197741 8.2763616e-39
0.11087108 0.12069887 0.016026735 6.8116992e-39
0.10779277 0.071381122 0.022281528 8.8349192e-39
0.10779634 0.073318988 0.022051871 8.0051767e-39
0.10661946 0.10552159 0.017693579 1.1776889e-38
0.10733622 0.10736595 0.016993463 1.1498188e-38
0.10666337 0.11775309 0.016076803 1.4162474e-38
0.10658347 0.12079434 0.016385376 7.2694081e-39
0.10134824 0.10237509 0.018405855 1.3345988e-38
0.10317475 0.10440899 0.017550051 1.2977903e-38
0.098789454 0.10015781 0.018253088 1.4545309e-38
0.094986938 0.09960328 0.017528594 1.7584855e-38
0.090767965 0.097858563 0.018006802 1.8411781e-38
0.086931601 0.097277164 0.018182695 1.8595453e-38
0.087196417 0.09958902 0.017287195 1.9976597e-38
0.083336733 0.096969411 0.018232942 2.1913728e-38
0.079525404 0.096357882 0.018236935 2.320343e-38
0.075001776 0.094252467 0.018546879 2.0805972e-38
0.075446218 0.09575437 0.017711043 1.9701106e-38
0.071054004 0.096497595 0.017351627 1.3063703e-38
0.070316918 0.099558145 0.016764224 9.5627914e-39
0.067538172 0.10145196 0.017460465 1.1596471e-38
0.066966861 0.10503955 0.017017245 1.1691561e-38
0.066065013 0.10791907 0.016244769 1.2430573e-38
0.062863827 0.10514688 0.016876578 1.0956159e-38
0.062599182 0.10873182 0.016275465 1.2520963e-38
0.063006461 0.11199424 0.016069174 1.3073065e-38
0.059094772 0.1061735 0.016637266 1.1047997e-38
0.059747338 0.10746661 0.016504288 1.1231311e-38
0.15898746 0.086242571 0.013329268 1.4270152e-38
0.15759401 0.08656238 0.013695657 1.436415e-38
0.15510833 0.072850183 0.014852107 1.6940603e-38
0.14177066 0.085346043 0.013626039 1.5100282e-38
0.13908535 0.07661441 0.013681829 1.5467276e-38
0.13922967 0.084015861 0.011185765 1.528179e-38
0.1212457 0.084550336 0.015598714 1.9612465e-38
0.095412925 0.1097779 0.0086535215 1.4267659e-38
0.07537014 0.12068346 0.0043424368 1.8969544e-38
0.15651178 0.10477991 0.015904546 1.5192842e-38
0.1655753 0.058494743 0.028778493 2.0362639e-38
0.15989944 0.10237932 0.01715368 1.8783799e-38
0.17023562 0.054219622 0.029286802 2.2755061e-38
0.17104617 0.057186272 0.02734834 2.2662853e-38
0.17275789 0.060637455 0.026589572 2.2663213e-38
0.1705204 0.11846615 0.019663632 1.933734e-38
0.17082441 0.12069747 0.022095263 1.9983769e-38
0.16479941 0.0512329 0.030478776 2.2565981e-38
0.16657147 0.053416621 0.028116405 2.274894e-38
0.16754064 0.05609962 0.026964843 2.3115201e-38
0.16635397 0.11884665 0.019488573 1.7772163e-38
0.16625795 0.12195352 0.02163595 1.8140937e-38
0.1655874 0.12400481 0.02187562 1.8232057e-38
0.16201532 0.050255094 0.030076027 2.2291182e-38
0.16297568 0.052209873 0.027283549 2.2286883e-38
0.16244788 0.11916295 0.01932919 1.6297782e-38
0.16240603 0.12163557 0.02004236 1.6667275e-38
0.16231814 0.1243237 0.021735787 1.7310484e-38
0.15694457 0.047320109 0.030697644 2.0999737e-38
0.15833253 0.049771708 0.028994977 2.1735136e-38
0.15972011 0.05220392 0.027182698 2.1914858e-38
0.15854061 0.11883235 0.019246459 1.5930051e-38
0.15847573 0.12169726 0.020248175 1.5838205e-38
0.15839371 0.12399165 0.021652699 1.5470156e-38
0.15432869 0.047315326 0.030616581 2.1089399e-38
0.15442955 0.049742188 0.028652847 2.1456768e-38
0.15489411 0.11869632 0.019148827 1.6853066e-38
0.15431997 0.12160894 0.021088541 1.7221483e-38
0.15446989 0.12398447 0.021531165 1.7036025e-38
0.15040487 0.047308143 0.030495048 2.0627695e-38
0.15054384 0.049689468 0.028090119 2.0810291e-38
0.15046653 0.11868821 0.019011736 1.6853052e-38
0.15077367 0.12160245 0.02097857 1.7405866e-38
0.15028544 0.12449661 0.021339893 1.7495211e-38
0.14648044 0.046976093 0.030411959 2.0350762e-38
0.14664699 0.049659539 0.027748168 2.034823e-38
0.14714669 0.11913496 0.018855155 1.6300247e-38
0.14673409 0.12167579 0.019884467 1.675836e-38
0.14662224 0.12397012 0.021288037 1.6941669e-38
0.14229468 0.046773512 0.030305386 2.0437927e-38
0.14273649 0.049652394 0.027626991 2.0439358e-38
0.14265363 0.11893266 0.018738925 1.5377928e-38
0.14284402 0.12159976 0.019436181 1.675944e-38
0.14272392 0.12389284 0.020839691 1.7403346e-38
0.13900504 0.04617345 0.030273914 2.0531195e-38
0.138826 0.049645234 0.027505815 2.0623394e-38
0.13888443 0.052165788 0.02653718 2.0624475e-38
0.13900715 0.11879662 0.018641293 1.4826565e-38
0.13895901 0.12152317 0.018988252 1.6392454e-38
0.13862386 0.1247935 0.020509064 1.7774668e-38
0.13601512 0.045982342 0.030203283 2.0439355e-38
0.13484845 0.049717549 0.028156817 2.0623404e-38
0.13432662 0.052157458 0.026395977 2.0625537e-38
0.13510165 0.11943638 0.018443584 1.454963e-38
0.13510641 0.122024 0.018137038 1.56549e-38
0.13508958 0.12549873 0.020171225 1.6851651e-38
0.13084117 0.049813252 0.029028058 1.9609593e-38
0.13107103 0.052151497 0.026295125 1.9795754e-38
0.13120091 0.12266374 0.01793927 1.5195001e-38
0.13097639 0.12578455 0.020081043 1.6117663e-38
0.1269529 0.049935181 0.028570354 1.9979831e-38
0.12716435 0.052144345 0.026174068 1.9887979e-38
0.12598485 0.11877279 0.018237889 1.3077008e-38
0.12743068 0.12190035 0.018164039 1.4272684e-38
0.12703839 0.12537989 0.020174146 1.5010247e-38
0.12309909 0.050350118 0.027771175 1.7862925e-38
0.12325767 0.052137207 0.026053011 1.7678895e-38
0.12305364 0.11812054 0.018223763 1.151289e-38
0.12311817 0.12123962 0.020446718 1.1604395e-38
0.12395205 0.1243618 0.020534337 1.1786663e-38
0.11947836 0.050442096 0.027345181 1.684768e-38
0.11935193 0.052647579 0.025870621 1.5927879e-38
0.11917037 0.11723398 0.019467056 9.7568769e-39
0.11947587 0.12034689 0.020870686 8.74276e-39
0.11640556 0.051144358 0.02897948 1.5375438e-38
0.11565486 0.053756069 0.027063251 1.4266935e-38
0.11433074 0.057113636 0.026443899 1.2886164e-38
0.11285651 0.061174762 0.024657071 9.1054286e-39
0.11290655 0.088344619 0.021437407 4.9699054e-39
0.11292084 0.096107438 0.020517468 8.0051907e-39
0.1168609 0.11422782 0.018492103 1.1879478e-38
0.11484687 0.11725318 0.018658221 9.2026269e-39
0.1149272 0.12028737 0.020483971 7.3634157e-39
0.11205932 0.058500078 0.027971804 1.1040444e-38
0.1107025 0.06158426 0.0262205 9.4756166e-39
0.10895697 0.065049022 0.024076045 9.9329472e-39
0.10898319 0.079280853 0.022389591 4.786233e-39
0.10945562 0.082096979 0.023581684 4.9706369e-39
0.10992928 0.085568532 0.024696171 4.3249171e-39
0.11211756 0.090120688 0.024224699 5.245063e-39
0.11256311 0.09531939 0.023622274 7.362331e-39
0.11126235 0.099215433 0.023119688 9.2011948e-39
0.11052503 0.10171612 0.021217167 1.0489053e-38
0.11033069 0.10386547 0.019516885 1.1318826e-38
0.11273056 0.12175131 0.019486248 6.9978799e-39
0.11273413 0.1236977 0.019255579 6.4475634e-39
0.10736731 0.063380718 0.026491106 1.2241445e-38
0.10635742 0.066658303 0.025063515 1.1411705e-38
0.10610151 0.070156932 0.024137139 1.0029142e-38
0.10588663 0.074404657 0.023734748 8.3750508e-39
0.10687746 0.078040972 0.024687409 6.6276373e-39
0.10796018 0.081666514 0.02509737 5.8918673e-39
0.10685529 0.10157289 0.021393061 1.0580515e-38
0.106424 0.10385832 0.019395828 1.1501754e-38
0.10335007 0.064115196 0.027034342 1.3902795e-38
0.10315884 0.066692278 0.026554883 1.3164512e-38
0.10246547 0.070573255 0.025953352 1.1873395e-38
0.10230045 0.074053124 0.025655448 1.0307164e-38
0.10468195 0.077112362 0.025534987 7.9158692e-39
0.10177916 0.098873213 0.022864461 1.067378e-38
0.10281432 0.10115299 0.020611465 1.1593951e-38
0.097259909 0.071467727 0.025972605 1.2520605e-38
0.097483478 0.074500233 0.025620043 1.1691578e-38
0.096867815 0.095290691 0.02313596 1.1777286e-38
0.097792126 0.098266318 0.022476196 1.2886147e-38
0.099905692 0.099965006 0.019654036 1.408359e-38
0.092893735 0.06799449 0.026248276 1.3439597e-38
0.094020292 0.070966765 0.025931001 1.2795033e-38
0.095519185 0.073197171 0.025713265 1.2150387e-38
0.09337917 0.094851136 0.023079216 1.4268719e-38
0.094499171 0.09759596 0.021109581 1.5465816e-38
0.089405082 0.067554936 0.026191473 1.4266573e-38
0.089847043 0.070804432 0.025819957 1.4268004e-38
0.088979475 0.073185205 0.025510669 1.5375791e-38
0.089665756 0.090729356 0.023452103 1.4359467e-38
0.0902761 0.094015911 0.022325754 1.5927518e-38
0.091034628 0.096476182 0.020294726 1.712426e-38
0.087669134 0.071883336 0.025624156 1.5376527e-38
0.086290449 0.090174928 0.023034632 1.6201198e-38
0.086767539 0.093582407 0.0206725 1.7030985e-38
0.088178471 0.096062168 0.019750893 1.7215389e-38
0.081136607 0.075769812 0.024959624 1.5100263e-38
0.081138998 0.077069283 0.024805546 1.4824401e-38
0.082733899 0.090846613 0.02322191 1.7583759e-38
0.082856625 0.093574852 0.020551443 2.0718093e-38
0.07819315 0.075439557 0.024906933 1.4544227e-38
0.078959897 0.077498451 0.024686694 1.4268719e-38
0.078549452 0.091358736 0.023030639 1.9981286e-38
0.078890331 0.093623012 0.020757794 2.2929353e-38
0.074916109 0.07153514 0.025267601 1.5003069e-38
0.074758291 0.074621096 0.024896741 1.353295e-38
0.074926883 0.077382788 0.024574637 1.36237e-38
0.074341938 0.090985402 0.022691727 1.8877074e-38
0.07527224 0.092806697 0.020540237 2.1820465e-38
0.07197383 0.071854621 0.025137901 1.445134e-38
0.071979821 0.075103313 0.024752915 1.3808471e-38
0.070759192 0.089990646 0.022614002 1.6845127e-38
0.071026884 0.093011916 0.019577444 1.6841569e-38
0.069956779 0.10120401 0.018572807 9.4727692e-39
0.06677559 0.090037733 0.022819996 1.7399043e-38
0.066946208 0.09378767 0.02148509 1.6568929e-38
0.067303628 0.097355694 0.019170165 1.3346362e-38
0.067351937 0.10098362 0.018517673 1.1318803e-38
0.066054866 0.10378447 0.018145144 1.1415336e-38
0.062192991 0.087430403 0.022986114 1.6665452e-38
0.062688261 0.090030253 0.022693276 1.6663301e-38
0.062858924 0.093928993 0.022236466 1.6200504e-38
0.063120469 0.097595885 0.020466506 1.4452016e-38
0.063445643 0.1011921 0.018371105 1.1874853e-38
0.064101517 0.1037809 0.018084586 1.1231651e-38
0.062279433 0.11402404 0.018492579 1.2706443e-38
0.058588371 0.083200529 0.023375094 1.5006997e-38
0.058920741 0.086124942 0.023038805 1.5006277e-38
0.058927923 0.090023383 0.022576809 1.4728586e-38
0.05897899 0.093884364 0.02189672 1.3808801e-38
0.059138805 0.09764801 0.020671844 1.2612067e-38
0.059538931 0.10118495 0.018249989 1.1692252e-38
0.0588945 0.10480642 0.01780057 1.0956489e-38
0.059064597 0.10878515 0.017334163 1.2429834e-38
0.059464812 0.11273861 0.018317282 1.3258866e-38
0.054826543 0.082381472 0.023354888 1.2886861e-38
0.055064127 0.086065829 0.022589624 1.2887593e-38
0.055071294 0.089962974 0.022127748 1.2520607e-38
0.055101156 0.093840182 0.021557093 1.187702e-38
0.055197999 0.09765996 0.020659387 1.1415315e-38
0.055227831 0.10153359 0.020089149 1.0955417e-38
0.054784179 0.1052416 0.018628299 1.150822e-38
0.055097505 0.10945456 0.019865751 1.2887928e-38
0.056353927 0.11275944 0.019800901 1.3257742e-38
0.0512297 0.082374886 0.023243368 1.2424798e-38
0.051095992 0.08609356 0.022686481 1.2519154e-38
0.051080272 0.090009019 0.022333741 1.1965996e-38
0.051156774 0.093851313 0.021544635 1.0954703e-38
0.051279455 0.097652793 0.020538032 1.1045085e-38
0.051216885 0.10160591 0.020403326 1.086285e-38
0.05134967 0.10537201 0.020142794 1.1690831e-38
0.051986545 0.10863645 0.020153522 1.1873797e-38
0.04847157 0.093902662 0.021790683 1.2610969e-38
0.048478737 0.097801089 0.021328628 1.2702427e-38
0.04848592 0.10169952 0.020866692 1.3071173e-38
0.16265438 0.088417724 0.013787568 1.4363082e-38
0.16147345 0.087675333 0.013871431 1.4731496e-38
0.15898201 0.07856451 0.014071465 1.5834967e-38
0.13919741 0.090150043 0.011003137 1.4453469e-38
0.13918628 0.098934546 0.011384845 1.3719848e-38
0.11638165 0.1088838 0.013700128 1.454745e-38
0.083049968 0.12260416 0.0043543577 1.9058576e-38
0.15733974 0.11519754 0.017625034 1.4822962e-38
0.10562223 0.07601288 0.022658169 1.3992858e-38
0.10502505 0.10443908 0.020199358 1.4271596e-38
0.1143022 0.11092538 0.017796278 1.1971003e-38
0.13510099 0.11740182 0.02031368 1.8049072e-38
0.17032859 0.047287729 0.034981072 2.1463221e-38
0.1705986 0.050200071 0.033300936 2.2200453e-38
0.17113635 0.1229136 0.024394512 2.0903197e-38
0.1707211 0.12595156 0.024827421 2.1547151e-38
0.16871844 0.12877333 0.025437891 2.0906461e-38
0.1658024 0.046514291 0.034343779 2.1277378e-38
0.16618758 0.049978267 0.032685876 2.2290467e-38
0.16633998 0.12616386 0.023945987 1.8785957e-38
0.16610868 0.12931404 0.024788558 1.9431702e-38
0.16066864 0.04380108 0.035260975 2.0631669e-38
0.16204594 0.046298157 0.033776522 2.1369949e-38
0.16274215 0.048831608 0.032714248 2.265997e-38
0.16222933 0.12650472 0.023489356 1.7865804e-38
0.16216487 0.12930681 0.024666369 1.8141674e-38
0.15803656 0.043273453 0.035241425 2.0447998e-38
0.1582849 0.12640288 0.023546338 1.6298128e-38
0.15853593 0.12902744 0.024838209 1.7311913e-38
0.15393442 0.042802211 0.034593642 2.07217e-38
0.15420049 0.045573685 0.033001959 2.0813532e-38
0.1543586 0.12636 0.02326107 1.712715e-38
0.15461989 0.12891223 0.024225891 1.731119e-38
0.15018402 0.042413395 0.034426808 2.0350752e-38
0.15027453 0.04555067 0.032714307 2.0534067e-38
0.15075189 0.1266792 0.023110569 1.7771075e-38
0.15007639 0.12913239 0.024209261 1.7861826e-38
0.14624883 0.042395841 0.034194052 2.0625541e-38
0.14633904 0.04541314 0.032607853 2.0442583e-38
0.1464881 0.12634559 0.023017168 1.730973e-38
0.1463896 0.12927794 0.024177611 1.7771438e-38
0.1425124 0.042741675 0.033812702 2.0625174e-38
0.14273137 0.045211043 0.032519162 2.0437911e-38
0.14255285 0.12633839 0.022895277 1.703456e-38
0.1424458 0.12927073 0.024055421 1.8142386e-38
0.13866216 0.043126617 0.033445418 2.0807767e-38
0.13715704 0.045526657 0.032307863 2.0438255e-38
0.13927469 0.126984 0.022716403 1.7775035e-38
0.13837929 0.12964468 0.023380578 1.8509366e-38
0.13441345 0.043037426 0.033860743 2.0439351e-38
0.13387886 0.046172287 0.032129049 2.0254613e-38
0.13461192 0.12977682 0.023135424 1.7955478e-38
0.13452119 0.1326319 0.023913622 1.8876714e-38
0.13047147 0.043683734 0.033661187 2.0071619e-38
0.13058907 0.046176832 0.03213793 1.988544e-38
0.13067159 0.12976961 0.023013294 1.7037488e-38
0.13057451 0.13262467 0.023791254 1.8971423e-38
0.12649606 0.043707501 0.033870041 1.9887979e-38
0.12663171 0.046190705 0.032236636 1.9978728e-38
0.12666905 0.048765611 0.031596601 1.9795803e-38
0.1255013 0.12695882 0.022289634 1.4456369e-38
0.12674189 0.12973797 0.022782445 1.5565595e-38
0.12662783 0.13261744 0.023669004 1.6393908e-38
0.1225912 0.046280246 0.03310746 1.8688354e-38
0.12273379 0.048758406 0.031474769 1.8230262e-38
0.12155887 0.12304184 0.022631049 9.7604656e-39
0.12243896 0.12608439 0.022297859 9.943073e-39
0.12280262 0.12973078 0.022660494 1.0775713e-38
0.1220234 0.13260901 0.023526311 9.9419954e-39
0.11882629 0.046655845 0.033041418 1.7859319e-38
0.11847121 0.049076419 0.031304002 1.7216822e-38
0.11867206 0.12251525 0.022603512 8.3754138e-39
0.11887926 0.12576182 0.022784829 8.2839188e-39
0.11880223 0.12984435 0.023081958 9.020786e-39
0.11594691 0.047640372 0.03341049 1.7583825e-38
0.11457137 0.049998302 0.032206535 1.5834974e-38
0.11355995 0.053303014 0.030649722 1.3990348e-38
0.11523898 0.12255067 0.022693694 7.5481698e-39
0.11489035 0.12584846 0.023097813 7.3677317e-39
0.1152971 0.12940258 0.023024976 9.0257606e-39
0.11200626 0.050900761 0.032901049 1.5648425e-38
0.11084352 0.054033685 0.03126204 1.4448079e-38
0.11050681 0.057424415 0.030065894 1.2422987e-38
0.10963792 0.060463753 0.029678404 1.0308592e-38
0.10968831 0.087832212 0.026435137 3.405116e-39
0.11016938 0.090765119 0.02650547 5.1532289e-39
0.11077186 0.094291642 0.026332855 6.7176805e-39
0.11020729 0.098032698 0.025443494 8.3735865e-39
0.10542967 0.051542249 0.032619774 1.8968157e-38
0.10687622 0.054050695 0.03136009 1.8324929e-38
0.10696755 0.057889711 0.030236125 1.6020377e-38
0.10682873 0.061389517 0.029480994 1.3257039e-38
0.10573866 0.080005452 0.027239859 6.7230671e-39
0.10653406 0.083148405 0.027563751 6.1677339e-39
0.10696412 0.086645395 0.027274549 5.8918561e-39
0.10694353 0.090594947 0.027029514 5.8904254e-39
0.10695074 0.094510406 0.026565552 7.1754034e-39
0.10704199 0.098310322 0.025446236 8.6483657e-39
0.10250252 0.05118401 0.032319069 1.9610687e-38
0.10293527 0.054043483 0.031238019 1.9245121e-38
0.10305991 0.057857659 0.029894114 1.7587033e-38
0.10308156 0.061755013 0.029320776 1.5557654e-38
0.10177701 0.065662384 0.02881676 1.4364837e-38
0.10310797 0.076090857 0.027621865 9.1097138e-39
0.1029159 0.078896463 0.027535141 8.3746865e-39
0.10298794 0.082757041 0.027835369 7.6421409e-39
0.10299537 0.086672276 0.027371347 7.0886e-39
0.10300257 0.090587735 0.026907384 7.3608877e-39
0.1030395 0.094465941 0.026224911 8.8327444e-39
0.10331691 0.097898632 0.025186956 9.6610827e-39
0.098933496 0.050944854 0.031883478 1.9336234e-38
0.099070549 0.053975623 0.030565679 1.9059289e-38
0.099139109 0.057838034 0.029662192 1.795511e-38
0.099147514 0.062399443 0.029121637 1.6020782e-38
0.099155918 0.066960856 0.028581142 1.4182245e-38
0.099162772 0.070684463 0.02813983 1.2983333e-38
0.099695489 0.075042024 0.027639866 1.1416757e-38
0.099131465 0.0787386 0.027519822 1.022038e-38
0.099047184 0.08274962 0.027713299 9.2984253e-39
0.099054396 0.086665064 0.027249277 9.2952023e-39
0.099092379 0.090544328 0.026566684 9.9401891e-39
0.099191256 0.094347626 0.02544719 1.085888e-38
0.099211723 0.097261637 0.02499032 1.0859622e-38
0.09497568 0.050817352 0.031875789 1.8506468e-38
0.095132753 0.053968426 0.030443728 1.8137331e-38
0.095203862 0.057830837 0.029540241 1.7028835e-38
0.095212251 0.062392246 0.028999686 1.5280717e-38
0.095220663 0.066953659 0.028459191 1.3811321e-38
0.095225468 0.06956017 0.02815026 1.3167036e-38
0.094448499 0.075032428 0.027477324 1.1965637e-38
0.095178604 0.0787476 0.027507365 1.1139095e-38
0.095106222 0.082742408 0.027591228 1.1046191e-38
0.095129572 0.086640403 0.027017891 1.1508225e-38
0.095216118 0.090465382 0.026007414 1.1869474e-38
0.09527038 0.09394975 0.02526015 1.242301e-38
0.091360874 0.051137496 0.031725049 1.8318494e-38
0.091162056 0.053985234 0.030541778 1.7766039e-38
0.090791836 0.057941239 0.02938956 1.6752602e-38
0.090621144 0.062383842 0.028857529 1.5002698e-38
0.090956576 0.066457137 0.028385043 1.3991047e-38
0.09085457 0.07042101 0.027911782 1.3254927e-38
0.090823025 0.074883625 0.027381897 1.4082886e-38
0.090626486 0.078698903 0.027091324 1.4176497e-38
0.090715125 0.082588643 0.027289271 1.3254914e-38
0.090616055 0.086545438 0.026328564 1.3070883e-38
0.091309644 0.090099201 0.025718927 1.3438583e-38
0.091989301 0.093012854 0.025268793 1.3991043e-38
0.087458663 0.054263223 0.031304777 1.8040494e-38
0.086825065 0.05772673 0.030154824 1.7029924e-38
0.086149581 0.062553391 0.028697908 1.6290917e-38
0.086038426 0.066936851 0.028174698 1.6198719e-38
0.08588136 0.070683435 0.027725577 1.5833177e-38
0.086052828 0.074756414 0.027248085 1.5281807e-38
0.086060025 0.078666195 0.026784778 1.4822621e-38
0.086314544 0.082721934 0.026412606 1.3898506e-38
0.086074419 0.086485758 0.025858104 1.3531164e-38
0.087390982 0.089094669 0.025589824 1.4631767e-38
0.08280836 0.054899167 0.031516075 1.8317789e-38
0.083237678 0.057922889 0.030163467 1.7582396e-38
0.082513362 0.062471237 0.028960586 1.6845893e-38
0.082103178 0.066929653 0.028052747 1.6660779e-38
0.082110375 0.070839435 0.02758944 1.592394e-38
0.082281239 0.0745866 0.027150512 1.5373993e-38
0.082289048 0.078822196 0.026648641 1.4729703e-38
0.082131982 0.08256878 0.02619952 1.3806669e-38
0.082139172 0.086478561 0.025736153 1.3162364e-38
0.081816651 0.089410275 0.025378466 1.5374355e-38
0.079144664 0.054257844 0.031351864 1.8410692e-38
0.078639895 0.057914477 0.030021071 1.7858953e-38
0.078438468 0.062243205 0.029069841 1.7398345e-38
0.078167923 0.066922456 0.027930856 1.6937719e-38
0.078175128 0.070832238 0.027467549 1.6109755e-38
0.078443237 0.073960543 0.027105033 1.5371476e-38
0.077971704 0.079085812 0.026482701 1.3898507e-38
0.078196719 0.082561567 0.026077628 1.3530439e-38
0.078166172 0.086506069 0.025832832 1.2885437e-38
0.078209922 0.089729503 0.025228143 1.6017591e-38
0.075341426 0.054264661 0.031358361 1.8319562e-38
0.074368134 0.058125403 0.030150592 1.7492322e-38
0.074122757 0.062423129 0.028925836 1.7216458e-38
0.07421317 0.066929147 0.027918637 1.6663643e-38
0.073976092 0.070042595 0.027430117 1.5648439e-38
0.072932936 0.073429152 0.026996076 1.362517e-38
0.07399337 0.079426065 0.026318192 1.3348196e-38
0.074261494 0.082554385 0.025955677 1.2796104e-38
0.074230082 0.086498871 0.025710881 1.3254218e-38
0.074536793 0.089592457 0.025129855 1.6201618e-38
0.071049631 0.058201265 0.030757785 1.7306854e-38
0.070079327 0.062486138 0.029379904 1.6940933e-38
0.070177376 0.066992208 0.028344929 1.6479252e-38
0.070140362 0.070654631 0.027237952 1.5004513e-38
0.0699367 0.074540749 0.02677083 1.4359495e-38
0.070319019 0.078637406 0.026297092 1.3991772e-38
0.070326224 0.082547173 0.025833786 1.3715556e-38
0.070333436 0.086456954 0.025370419 1.4911944e-38
0.067292973 0.059314709 0.030508459 1.6847687e-38
0.066171259 0.062935337 0.029741943 1.6479973e-38
0.066177011 0.067027703 0.028551817 1.5557657e-38
0.066369399 0.070810631 0.027101755 1.4911943e-38
0.066376597 0.074720412 0.026638448 1.4544237e-38
0.066383779 0.078630194 0.026175082 1.4637147e-38
0.066390991 0.082539976 0.025711834 1.5653076e-38
0.066398188 0.086449757 0.025248528 1.6572526e-38
0.062226579 0.063600004 0.029842436 1.5740238e-38
0.062214628 0.067034379 0.0285393 1.5832791e-38
0.062243268 0.07093595 0.027965665 1.5464738e-38
0.062313661 0.074804917 0.027173281 1.5742407e-38
0.062448531 0.078622997 0.02605325 1.6572884e-38
0.062455744 0.082532778 0.025589883 1.6388491e-38
0.062649652 0.086070538 0.025176525 1.6666524e-38
0.063781902 0.090354726 0.02470386 1.7122841e-38
0.061207592 0.11706677 0.021456599 1.2616009e-38
0.058312178 0.06727162 0.029033065 1.647781e-38
0.058302298 0.070928738 0.027843595 1.6385609e-38
0.058375046 0.074797511 0.02705133 1.6387418e-38
0.058513299 0.0786158 0.025931299 1.555802e-38
0.0587814 0.081744105 0.025568783 1.5190681e-38
0.057924613 0.11510587 0.021586657 1.2889726e-38
0.058321849 0.11732881 0.022678852 1.2798262e-38
0.054810837 0.067787617 0.029114485 1.6385617e-38
0.054270804 0.070980206 0.028159499 1.5740978e-38
0.054481149 0.074759588 0.02671051 1.5190668e-38
0.054578036 0.078608602 0.025809348 1.3622989e-38
0.055894583 0.081217512 0.025541067 1.3535452e-38
0.053326294 0.1111877 0.021907687 1.3437862e-38
0.054181203 0.1140662 0.022025049 1.2888628e-38
0.054901093 0.11680174 0.023306251 1.2797149e-38
0.050428897 0.071176887 0.028324068 1.4909786e-38
0.050542936 0.07475239 0.02658844 1.4175807e-38
0.049335837 0.081205517 0.025337934 1.2515561e-38
0.049383849 0.10727072 0.022249162 1.2242214e-38
0.050228968 0.11034511 0.022078931 1.2520599e-38
0.050611407 0.11387092 0.022764266 1.2796473e-38
0.047583684 0.072349042 0.028348267 1.4451332e-38
0.046544045 0.075054839 0.027491212 1.3899219e-38
0.046540484 0.078705847 0.026330709 1.3440368e-38
0.046595365 0.082586825 0.025648415 1.2516259e-38
0.046650082 0.086465478 0.024966359 1.2517714e-38
0.046657279 0.090377137 0.024502814 1.3072692e-38
0.046080485 0.094232127 0.023691952 1.2613851e-38
0.046087667 0.098141909 0.023228645 1.2335849e-38
0.04609488 0.10205168 0.022765338 1.2426949e-38
0.046710074 0.10600366 0.022539854 1.3163076e-38
0.046598822 0.11002003 0.022619963 1.270353e-38
0.046649531 0.11334966 0.0232566 1.2057474e-38
0.043651477 0.080184072 0.027296662 1.2150375e-38
0.043174028 0.083028331 0.026742995 1.0763867e-38
0.043114439 0.086640507 0.026010633 9.0081813e-39
0.043121651 0.090558797 0.025546312 8.450742e-39
0.043511525 0.094109297 0.024885714 8.3595917e-39
0.04313609 0.098395377 0.024617672 8.084081e-39
0.042546973 0.10226284 0.023860931 7.3501341e-39
0.042884067 0.10603189 0.023632526 8.1806207e-39
0.043223605 0.10994624 0.023553193 9.0060668e-39
0.039748117 0.10370363 0.024386466 1.0297153e-38
0.16537657 0.087006494 0.01416564 1.5006664e-38
0.16359526 0.080512002 0.014768124 1.6387429e-38
0.16282441 0.082448557 0.014066637 1.5373637e-38
0.13842013 0.10355522 0.011362672 1.2979771e-38
0.13453776 0.072858721 0.014545023 1.5377583e-38
0.098780856 0.10155518 0.015064657 1.59268e-38
0.11635891 0.094518453 0.01394397 2.0169594e-38
0.17101908 0.073445469 0.019391656 1.9980184e-38
0.14734009 0.086848736 0.018926978 1.6021162e-38
0.073623046 0.082330674 0.022839129 1.8135902e-38
0.10493647 0.081255123 0.022812903 1.5650216e-38
0.10891584 0.098008275 0.020650983 1.4268356e-38
0.11310309 0.066096023 0.022066355 8.1878206e-39
0.13926312 0.083713695 0.021107495 1.5837842e-38
0.16576025 0.039581869 0.039950073 1.7224028e-38
0.16582036 0.042746183 0.038233399 1.9526734e-38
0.16717158 0.045310091 0.037299871 2.1088694e-38
0.16601156 0.1318222 0.027006865 2.0443318e-38
0.16564396 0.13368277 0.027782261 2.1273443e-38
0.16146055 0.03990265 0.039777875 1.8418615e-38
0.1620079 0.042604987 0.03846705 1.9340929e-38
0.16205347 0.13181497 0.026884258 1.9150805e-38
0.1618097 0.13434948 0.02787149 2.0259642e-38
0.15782122 0.039567348 0.039704084 1.8879225e-38
0.15789041 0.041755371 0.038187385 1.9159419e-38
0.15783054 0.13128291 0.026815593 1.7771793e-38
0.15803124 0.1347283 0.027756691 1.9889059e-38
0.15389048 0.03950214 0.038917422 1.8968916e-38
0.15457365 0.041443933 0.038372695 2.0260366e-38
0.15387243 0.13127565 0.026692927 1.8141288e-38
0.15406552 0.13472083 0.027633905 1.9521352e-38
0.1533705 0.13749726 0.027954698 2.0625914e-38
0.14991389 0.039509129 0.038960457 1.9337326e-38
0.15050842 0.13146612 0.026565373 1.8602269e-38
0.15010002 0.1347138 0.027510941 1.9522429e-38
0.15072416 0.13749242 0.027872682 2.0629522e-38
0.14594722 0.039501887 0.038837671 1.9519213e-38
0.14622107 0.13178599 0.026393712 1.8785219e-38
0.14614177 0.1346817 0.027279377 2.0072359e-38
0.14195594 0.039523732 0.039046347 2.0808495e-38
0.14136097 0.041419759 0.037963331 2.0809565e-38
0.142263 0.13177876 0.026271105 1.9153651e-38
0.14218518 0.13464983 0.027047813 2.0165639e-38
0.14080036 0.13747427 0.027565241 2.0537646e-38
0.1380139 0.039487366 0.038591862 2.1176572e-38
0.13776928 0.041696221 0.037314832 2.0993602e-38
0.13962427 0.13177392 0.026189327 1.9152949e-38
0.13826555 0.13451818 0.026381254 2.0167793e-38
0.13400412 0.039523769 0.038966179 2.0993606e-38
0.13418022 0.041317265 0.036743999 2.0624461e-38
0.13430984 0.13515407 0.026126623 1.9709344e-38
0.130366 0.039845753 0.038814425 2.034609e-38
0.13017736 0.042010035 0.03704071 2.0162029e-38
0.13027248 0.13533399 0.026818812 1.9987362e-38
0.1260663 0.040166542 0.038642287 2.0254256e-38
0.12619981 0.04201765 0.037083685 1.9978751e-38
0.12664509 0.13498005 0.026663721 1.676448e-38
0.12341995 0.040161703 0.038560331 1.9978389e-38
0.12220498 0.042696174 0.037214458 1.9518479e-38
0.12275454 0.13414882 0.025885284 1.0865741e-38
0.1182044 0.042719688 0.037422657 1.9612095e-38
0.11769541 0.045219567 0.035767019 1.8411778e-38
0.11867284 0.13379365 0.026303768 9.4853655e-39
0.11417513 0.042763647 0.037851453 1.9705725e-38
0.11416221 0.046419706 0.036144137 1.8136978e-38
0.11019307 0.042766716 0.037838817 2.0071625e-38
0.11032082 0.046613831 0.036379218 1.8229169e-38
0.11005404 0.050275993 0.035073042 1.6477464e-38
0.10622354 0.042759452 0.037715852 2.0253868e-38
0.10635702 0.046606574 0.036256373 1.878234e-38
0.10660776 0.050316479 0.035194635 1.8322785e-38
0.10225403 0.042752188 0.037592888 2.0253157e-38
0.10239322 0.046599325 0.036133587 1.9609228e-38
0.1027424 0.049689297 0.035173655 1.9610327e-38
0.098285727 0.043402236 0.037391961 1.9699628e-38
0.098444916 0.046581123 0.035900652 1.9426262e-38
0.098572463 0.049444746 0.034669518 1.9426273e-38
0.094647616 0.04372422 0.037240267 1.887131e-38
0.094481312 0.046573039 0.035777986 1.868978e-38
0.094613761 0.049109798 0.034585655 1.8505391e-38
0.090347901 0.044045005 0.037068069 1.841141e-38
0.090501584 0.046577152 0.035765171 1.8502535e-38
0.090392753 0.049626406 0.034392774 1.8409985e-38
0.086378373 0.044037741 0.036945105 1.9147899e-38
0.086451791 0.046623584 0.036193073 1.9054272e-38
0.086613595 0.050462563 0.034735382 1.8869515e-38
0.085386649 0.053680796 0.033755839 1.8314916e-38
0.083732046 0.044032898 0.036863148 1.9885824e-38
0.082413718 0.046659704 0.036510587 1.9515608e-38
0.0825634 0.05051237 0.035162866 1.9147174e-38
0.083077163 0.053348865 0.033723176 1.8592935e-38
0.078633904 0.047028389 0.036349058 1.8595808e-38
0.078580894 0.050515857 0.03515023 1.8686207e-38
0.078788623 0.053013314 0.033629179 1.8502176e-38
0.074794158 0.050890539 0.035051644 1.8872727e-38
0.073511168 0.053003665 0.033465683 1.8778438e-38
0.070602424 0.051186945 0.035101533 1.8873456e-38
0.070874855 0.054309648 0.033228517 1.7765335e-38
0.069561526 0.057584304 0.032799363 1.7307932e-38
0.066845268 0.051342886 0.035268068 1.7768896e-38
0.066814512 0.054361958 0.033655405 1.7122456e-38
0.066708371 0.057875995 0.032819748 1.6939511e-38
0.06560947 0.060854126 0.032288373 1.6755528e-38
0.063237399 0.051883031 0.035293043 1.5647723e-38
0.062664017 0.054462869 0.03452158 1.6015772e-38
0.062818274 0.058315378 0.033285856 1.6015035e-38
0.062641501 0.061176408 0.03215754 1.5738076e-38
0.058943748 0.055490341 0.034731388 1.5372192e-38
0.058704704 0.0583965 0.033931673 1.5095233e-38
0.058693111 0.062581047 0.032170117 1.5552244e-38
0.058461607 0.11982803 0.025073469 1.3903539e-38
0.058073044 0.12154764 0.026872516 1.482873e-38
0.054651305 0.059754949 0.03409183 1.4448801e-38
0.054924399 0.062880099 0.032386541 1.6019707e-38
0.055064216 0.066078126 0.031340003 1.6939517e-38
0.05485791 0.11933769 0.025220752 1.2523099e-38
0.054831833 0.12147348 0.026444376 1.2152167e-38
0.050790891 0.062973186 0.033086181 1.6386685e-38
0.05103983 0.067423344 0.031390786 1.6015762e-38
0.050973609 0.11872807 0.026089728 1.261135e-38
0.046985611 0.06447351 0.033293307 1.7032424e-38
0.046938196 0.067500859 0.03192538 1.5645901e-38
0.046681464 0.070890963 0.030675888 1.463391e-38
0.047239766 0.11587504 0.025192022 1.2706059e-38
0.047031462 0.11791001 0.025951803 1.2515917e-38
0.044075623 0.064994022 0.033140779 1.7211373e-38
0.04294993 0.067769378 0.032650709 1.5921744e-38
0.042981654 0.071431756 0.03133589 1.417292e-38
0.042766795 0.075083449 0.030176699 1.3531511e-38
0.042378053 0.078929439 0.029622138 1.2702112e-38
0.04102236 0.083093122 0.028884709 1.1874146e-38
0.040589824 0.087024793 0.02840507 1.1410245e-38
0.040597081 0.090957269 0.027939022 1.0398648e-38
0.04113254 0.095152885 0.02745831 9.1961361e-39
0.040611535 0.098822236 0.027007043 8.9159703e-39
0.040627241 0.1073426 0.0259974 9.3766331e-39
0.041183293 0.11071643 0.026118517 9.5563609e-39
0.043195158 0.11460674 0.026828349 9.4677203e-39
0.04011336 0.068930596 0.032550454 1.5002685e-38
0.039016277 0.071688429 0.03193742 1.3897778e-38
0.038925663 0.075424269 0.031183779 1.334712e-38
0.03895773 0.079349175 0.030607522 1.2979051e-38
0.03856568 0.08311522 0.030244708 1.2427309e-38
0.038349122 0.087202191 0.029489517 1.196631e-38
0.038431093 0.091087669 0.028695524 1.1410291e-38
0.038401142 0.095052615 0.028392494 1.150176e-38
0.038519979 0.098904699 0.02743578 1.1408478e-38
0.038372293 0.10259539 0.027094364 1.1407074e-38
0.038347572 0.10692859 0.027318716 1.1959885e-38
0.039823517 0.11093421 0.027225614 1.0570146e-38
0.036158368 0.076810986 0.03149277 1.3715196e-38
0.03616564 0.080754817 0.03102541 1.3161292e-38
0.03617169 0.084041327 0.030635953 1.2795382e-38
0.035232961 0.087513939 0.030195057 1.2518085e-38
0.034937471 0.091215655 0.029411018 1.2425531e-38
0.034919515 0.095176101 0.029052973 1.2517014e-38
0.035105228 0.098984748 0.027823567 1.2058898e-38
0.034959272 0.10304147 0.028009653 1.132242e-38
0.033565268 0.10572754 0.027983546 9.2022906e-39
0.030892313 0.091262013 0.029615223 1.316127e-38
0.030899584 0.095205829 0.029147863 1.251807e-38
0.030906826 0.099149659 0.028680503 1.0400088e-38
0.031079188 0.10292946 0.0282377 8.9238848e-39
0.032242119 0.10572511 0.027942538 7.8200876e-39
0.028245971 0.091257155 0.029533148 1.3809153e-38
0.028253227 0.095200986 0.029065788 1.3255946e-38
0.027929097 0.09881556 0.028627157 1.1137264e-38
0.028266549 0.10243134 0.028209031 8.7444752e-39
0.071526624 0.10951495 0.0036996007 1.5281081e-38
0.069816723 0.11821558 0.0033283234 1.7864382e-38
0.13307592 0.089862555 0.01147604 1.8139137e-38
0.16536833 0.082537755 0.014695287 1.5926808e-38
0.1345578 0.078584656 0.013754904 1.4455286e-38
0.15885518 0.069281682 0.017295063 1.832138e-38
0.12864248 0.094583705 0.014597952 1.5284301e-38
0.12967511 0.095391959 0.014635324 1.4731486e-38
0.11408518 0.096316144 0.012469232 2.1927796e-38
0.17109466 0.084748283 0.016458869 1.684769e-38
0.13863192 0.058468018 0.021626234 1.7311187e-38
0.058073044 0.12154764 0.026872516 1.482873e-38
0.09415558 0.084028304 0.02744478 1.638635e-38
0.10068557 0.081457824 0.030565023 1.758525e-38
0.16563499 0.037860792 0.043172598 1.5566327e-38
0.16164589 0.036533218 0.043205559 1.6299541e-38
0.1619332 0.038347896 0.04259634 1.7498828e-38
0.16251814 0.13676326 0.030845761 2.0628426e-38
0.15766701 0.035852168 0.04299432 1.6026541e-38
0.15771365 0.037762608 0.041929603 1.7777207e-38
0.15766141 0.13891567 0.030271113 2.0719906e-38
0.15412323 0.035625637 0.042910635 1.6300994e-38
0.15373272 0.037755325 0.041806281 1.7866512e-38
0.15420777 0.13911447 0.030559599 2.0810661e-38
0.14970887 0.03780375 0.042346597 1.8875614e-38
0.14957435 0.13904864 0.030170977 2.1365977e-38
0.14437041 0.036501605 0.04267031 1.9425552e-38
0.14570172 0.037824322 0.042555034 1.9242601e-38
0.14593396 0.13867417 0.02993387 2.0903542e-38
0.14085148 0.0360278 0.042280793 2.1084001e-38
0.14174065 0.037789173 0.042099714 2.0625177e-38
0.14222637 0.13876864 0.029672742 2.0720245e-38
0.13772477 0.035829306 0.042542696 2.1543553e-38
0.13780895 0.03772619 0.041312933 2.1451713e-38
0.13793036 0.13889763 0.030127943 2.0537276e-38
0.13506702 0.03582444 0.042460263 2.163612e-38
0.13440621 0.037803654 0.042205036 2.1360957e-38
0.13432389 0.1383042 0.029531598 2.0629121e-38
0.129186 0.039028801 0.040889442 2.0254254e-38
0.13029519 0.13841057 0.029897034 2.0815678e-38
0.12586856 0.039022733 0.040786684 2.0437923e-38
0.12538475 0.13658255 0.029205024 1.4734758e-38
0.12595327 0.13812941 0.030046761 1.5841458e-38
0.12160214 0.03955939 0.040791452 1.9980172e-38
0.1220673 0.13657647 0.029102266 9.9452352e-39
0.12244413 0.13848726 0.029559016 1.0222559e-38
0.11785335 0.039710041 0.040958881 2.0531539e-38
0.11804928 0.13620484 0.029356718 1.0685331e-38
0.11381338 0.040406536 0.041253984 2.0992866e-38
0.10982671 0.040399242 0.041130483 2.0899603e-38
0.10550724 0.040061262 0.041035771 2.0899617e-38
0.10185342 0.040384654 0.040883482 2.0987859e-38
0.097866759 0.04037736 0.040759981 2.0530459e-38
0.098006822 0.041608527 0.039610863 2.0346428e-38
0.094544552 0.040371276 0.040656984 2.0439709e-38
0.093703739 0.042163756 0.039813757 1.9426279e-38
0.090047374 0.042912353 0.039207995 1.887059e-38
0.081859142 0.042766083 0.039347649 1.9610323e-38
0.078271702 0.043736976 0.039347291 1.8780898e-38
0.077445924 0.045526076 0.038504958 1.8135899e-38
0.074210666 0.047052037 0.038726747 1.7397629e-38
0.073472269 0.049473967 0.037912905 1.8412119e-38
0.069973581 0.047587868 0.039034903 1.7676026e-38
0.070154823 0.049467895 0.037810147 1.8136272e-38
0.066652581 0.048241924 0.038853705 1.739979e-38
0.065796435 0.049814697 0.037884831 1.7217533e-38
0.060905367 0.1227248 0.029339969 1.6119481e-38
0.058353752 0.051857498 0.038166046 1.583101e-38
0.057954848 0.053928096 0.036900759 1.5465094e-38
0.059670091 0.12064168 0.029044747 1.4088988e-38
0.058270156 0.12335891 0.029081881 1.565705e-38
0.054129213 0.054771651 0.037241042 1.4080744e-38
0.054246828 0.058008317 0.036301315 1.4449523e-38
0.054268137 0.12403202 0.028977931 1.2061419e-38
0.05005613 0.056133237 0.037400365 1.3711247e-38
0.050129712 0.058735307 0.036758244 1.4081829e-38
0.05052647 0.12259427 0.029132426 1.196921e-38
0.047404453 0.059429076 0.036926806 1.3530474e-38
0.046187133 0.06244738 0.036027253 1.6017204e-38
0.046771228 0.1202462 0.029024959 1.2336191e-38
0.047519952 0.12214255 0.02949518 1.2611008e-38
0.041963115 0.06449455 0.035552025 1.70288e-38
0.040992826 0.066553578 0.034874618 1.6473839e-38
0.041638672 0.11609289 0.029525101 9.6567793e-39
0.04374148 0.11797574 0.028863788 1.0387901e-38
0.038888291 0.065293044 0.035462141 1.611048e-38
0.038118824 0.067733467 0.03489691 1.5001611e-38
0.037019163 0.070501477 0.034282625 1.3898147e-38
0.037491083 0.11175057 0.030011356 1.2882184e-38
0.03923735 0.11451626 0.029469252 1.0947864e-38
0.035460293 0.067989051 0.035539329 1.4357313e-38
0.034616292 0.072079465 0.034596264 1.3531532e-38
0.034308955 0.075809926 0.03385663 1.3531891e-38
0.034129485 0.079614192 0.033489883 1.3713753e-38
0.033977047 0.083512589 0.032789052 1.316201e-38
0.033068582 0.086974084 0.032206357 1.306981e-38
0.034513071 0.107646 0.030178368 1.0402259e-38
0.035095945 0.11067742 0.030466914 1.132244e-38
0.030964449 0.080127388 0.033959925 1.3805934e-38
0.030369446 0.083969146 0.033359945 1.4081812e-38
0.030389547 0.087645456 0.032155097 1.3806288e-38
0.02912043 0.10476512 0.029973924 8.5576022e-39
0.030529514 0.10728756 0.03052479 8.0984471e-39
0.031551465 0.11023082 0.030409217 9.1097222e-39
0.0275186 0.085138142 0.033258319 1.4543865e-38
0.026420578 0.087902606 0.03264451 1.4360546e-38
0.025994092 0.091621041 0.031722605 1.3993564e-38
0.025785968 0.095530301 0.030964792 1.3534336e-38
0.025612578 0.099783331 0.030656517 1.0494798e-38
0.026050612 0.10365517 0.030153692 8.4682834e-39
0.026893064 0.10626148 0.030734479 8.2817342e-39
0.023545325 0.092392415 0.032274306 1.3625163e-38
0.02355139 0.095693126 0.03188324 1.2522736e-38
0.023558676 0.099653974 0.031413853 1.031112e-38
0.023121417 0.10273384 0.031035125 8.5594043e-39
0.072324842 0.10523695 0.0050712228 1.1577451e-38
0.071331993 0.11568369 0.0029773712 1.6388534e-38
0.14679107 0.088249505 0.013401091 1.4915543e-38
0.15285382 0.094499961 0.013894022 1.4547113e-38
0.12856196 0.088540226 0.014993787 1.3255303e-38
0.11985173 0.069303691 0.014844179 1.3531147e-38
0.1490512 0.089434817 0.016726732 1.4821544e-38
0.14417595 0.084422544 0.019916654 1.556271e-38
0.11376166 0.10136218 0.021503866 1.8047655e-38
0.14664699 0.049659539 0.027748168 2.034823e-38
0.11274257 0.095158055 0.022776008 1.7218266e-38
0.073137678 0.06474939 0.030230522 1.5097398e-38
0.090392753 0.049626406 0.034392774 1.8409985e-38
0.16340995 0.030296735 0.049037397 1.1235604e-38
0.16259176 0.032509003 0.047886074 1.2893337e-38
0.16231143 0.034806509 0.045445979 1.4827621e-38
0.16239792 0.13937035 0.033303499 2.1730814e-38
0.16234256 0.14267063 0.034295797 2.2568135e-38
0.1587292 0.032282773 0.048655868 1.2983029e-38
0.15821677 0.034042407 0.045408845 1.3910354e-38
0.1590782 0.13996898 0.032877147 2.099649e-38
0.15896943 0.14352992 0.034754395 2.2382301e-38
0.15897052 0.1458178 0.034531236 2.2663587e-38
0.15473258 0.032250088 0.048199296 1.3535826e-38
0.15488504 0.034036312 0.04530561 1.4549271e-38
0.15534791 0.14190766 0.033790231 2.1367425e-38
0.15074205 0.033102646 0.04763788 1.5652011e-38
0.15049149 0.03575347 0.04525286 1.7497367e-38
0.15098372 0.14166361 0.034102857 2.1366339e-38
0.14703462 0.033630479 0.046922266 1.7219333e-38
0.14701948 0.1415022 0.033326685 2.145996e-38
0.14281788 0.034092247 0.045930028 1.9611386e-38
0.14289387 0.03566945 0.044737875 1.9610668e-38
0.14303991 0.14141785 0.032876611 2.0903213e-38
0.13881409 0.034084912 0.045805931 2.1636104e-38
0.13889274 0.03400705 0.044810116 2.1635383e-38
0.1377527 0.13860591 0.032373428 2.0810981e-38
0.13895839 0.1416416 0.033730268 2.0353274e-38
0.13414301 0.03407637 0.045661211 2.1821563e-38
0.13445288 0.03532299 0.044515669 2.163684e-38
0.13375707 0.13992265 0.032092631 2.1181582e-38
0.13484 0.14194237 0.034909427 2.0353626e-38
0.13068518 0.034174062 0.046885073 2.2006664e-38
0.13085522 0.036018386 0.04482466 2.1727938e-38
0.1309039 0.037964623 0.044091761 2.117477e-38
0.13109168 0.13991776 0.032010078 2.1458522e-38
0.13094574 0.14162694 0.033482015 2.1091537e-38
0.12728041 0.034219842 0.047445059 2.2373644e-38
0.12675166 0.036381576 0.045733035 2.1265874e-38
0.12601736 0.037955679 0.043940306 2.0714145e-38
0.1262935 0.13964419 0.031892776 1.6486826e-38
0.12642938 0.14265932 0.033890426 1.667266e-38
0.12270115 0.036124274 0.046068907 2.1359855e-38
0.12224141 0.037948772 0.043823361 2.0625175e-38
0.12176161 0.13923867 0.031799495 1.0406568e-38
0.12288286 0.14267211 0.033586323 1.1600463e-38
0.11849908 0.0369667 0.046089828 2.1360591e-38
0.11872226 0.13959484 0.032669902 1.05899e-38
0.11904782 0.14244537 0.034357131 1.1601546e-38
0.11464632 0.037465278 0.04599452 2.1452063e-38
0.11424769 0.039258208 0.043418705 2.1269457e-38
0.11509084 0.13525428 0.032063842 1.1792386e-38
0.11590065 0.13863292 0.033451617 1.3353943e-38
0.11055648 0.037513588 0.046532869 2.1544252e-38
0.11091596 0.039252114 0.04331547 2.1271255e-38
0.10654128 0.037506241 0.046408415 2.163322e-38
0.10691789 0.039244797 0.043191612 2.1175122e-38
0.10256878 0.037471075 0.045952857 2.1728293e-38
0.10225346 0.039236266 0.04304713 2.1544979e-38
0.098510861 0.037491549 0.046159625 2.1451338e-38
0.098921731 0.039230164 0.042943835 2.108435e-38
0.094495647 0.037484195 0.046035171 2.0990364e-38
0.09492366 0.039222851 0.042819977 2.0898525e-38
0.090815656 0.037809905 0.045881867 2.1267306e-38
0.090926811 0.039877571 0.042617679 2.0624092e-38
0.090264127 0.041862451 0.042361677 1.9427713e-38
0.086508043 0.040087845 0.043462396 2.0161326e-38
0.087598741 0.041857578 0.042279124 1.9607789e-38
0.082666345 0.040006034 0.044023871 1.9700358e-38
0.078739949 0.039955746 0.043403625 1.9425227e-38
0.077270992 0.042169694 0.041919827 1.8964582e-38
0.074595317 0.040462416 0.044053853 1.8779464e-38
0.074373633 0.043440502 0.04188031 1.7582725e-38
0.070746943 0.041762397 0.044787109 1.7581294e-38
0.070512675 0.04393306 0.041787863 1.7214307e-38
0.070281051 0.045798074 0.041271627 1.7307219e-38
0.066497102 0.043764662 0.042402148 1.6384904e-38
0.066284209 0.046452802 0.041069329 1.6846613e-38
0.062677681 0.044594225 0.042632401 1.6750103e-38
0.062891901 0.047803279 0.041139126 1.610869e-38
0.05861868 0.045084883 0.043726921 1.5648418e-38
0.058860436 0.047811743 0.041180313 1.546044e-38
0.058627933 0.05007996 0.040400386 1.4541731e-38
0.058019221 0.12586929 0.032403469 1.6945301e-38
0.055028662 0.046055283 0.043787718 1.4360557e-38
0.0544561 0.048192617 0.042077243 1.4544234e-38
0.054964855 0.051066305 0.040169239 1.5466187e-38
0.055847272 0.12717073 0.034196317 1.520109e-38
0.050780952 0.049424257 0.042449772 1.4544932e-38
0.050797477 0.051806848 0.040790975 1.4269071e-38
0.050306559 0.054367941 0.03963238 1.3342099e-38
0.050553381 0.12629475 0.032522976 1.2428398e-38
0.046788245 0.053132143 0.042691648 1.2792861e-38
0.046905831 0.055280831 0.039753914 1.3804867e-38
0.045983195 0.05866323 0.038988233 1.4082562e-38
0.046716139 0.1235953 0.031564653 1.1780534e-38
0.047716767 0.12592183 0.032411575 1.2243642e-38
0.04283832 0.056797344 0.041558146 1.4910155e-38
0.042878017 0.059707891 0.039271355 1.4448448e-38
0.042325035 0.062297713 0.038443267 1.6017891e-38
0.041438282 0.11920118 0.033180416 1.0673084e-38
0.04407905 0.12288825 0.032993555 1.0490168e-38
0.038680077 0.060074251 0.041212618 1.5094147e-38
0.038454995 0.062848151 0.038976967 1.5649497e-38
0.037759349 0.11591388 0.031944096 1.2612785e-38
0.03865236 0.11829786 0.03370434 1.2608473e-38
0.034766093 0.063546374 0.039930522 1.5280367e-38
0.034332722 0.0664621 0.038304627 1.4546025e-38
0.033675954 0.069564223 0.037311912 1.3990696e-38
0.034199819 0.11281788 0.032200098 1.095114e-38
0.03501679 0.11531194 0.032265723 1.2795373e-38
0.034415677 0.11782336 0.034635842 1.4178343e-38
0.031193957 0.06418474 0.040894747 1.4726111e-38
0.030794322 0.067279011 0.039130151 1.3255651e-38
0.03091982 0.071200266 0.037434995 1.2887236e-38
0.030498251 0.075120568 0.036889851 1.2980141e-38
0.030137524 0.077943489 0.036208093 1.3530408e-38
