# .PCD v0.7 - Point Cloud Data file format
VERSION 0.7
FIELDS x y z rgb
SIZE 4 4 4 4
TYPE F F F F
COUNT 1 1 1 1
WIDTH 976
HEIGHT 1
VIEWPOINT 0 0 0 0 1 0 0
POINTS 976
DATA ascii
0.10421843 0.052342996 0.031590402 1.9887264e-38
0.10395395 0.082731217 0.028428793 8.1913672e-39
0.10389676 0.085422792 0.028632104 7.9144188e-39
0.10379541 0.089480698 0.029046476 7.5445615e-39
0.10383279 0.093398832 0.028473735 8.5561939e-39
0.10529569 0.095880963 0.027303398 8.4629109e-39
0.099731401 0.044870093 0.033036649 1.9239738e-38
0.099792622 0.048626125 0.032325864 1.9334446e-38
0.099679425 0.051695921 0.031041861 1.9150787e-38
0.099337384 0.08272326 0.028250635 9.9398276e-39
0.099968985 0.085385039 0.028259873 9.5721493e-39
0.099944413 0.089361906 0.028126299 1.0399731e-38
0.10126138 0.092661157 0.027937829 1.0218909e-38
0.095722444 0.044721685 0.033187628 1.8503963e-38
0.095829867 0.048619293 0.032172918 1.8689069e-38
0.096095577 0.05234769 0.03122133 1.8042281e-38
0.096039847 0.082717575 0.028123319 1.2795779e-38
0.096044391 0.085347079 0.02788806 1.2702842e-38
0.096577905 0.088766336 0.027602673 1.2334047e-38
0.091703691 0.044741958 0.033365011 1.9056411e-38
0.091867104 0.048612468 0.032020032 1.8870954e-38
0.09180662 0.052340299 0.031055868 1.8134831e-38
0.092742294 0.08271189 0.027996063 1.3900336e-38
0.093076035 0.085013278 0.027802944 1.353225e-38
0.087736346 0.045394391 0.033152878 1.951561e-38
0.087832004 0.048642829 0.032307565 1.9056057e-38
0.088019371 0.052494399 0.03085345 1.841213e-38
0.083503552 0.045518942 0.0329777 1.9057838e-38
0.083792254 0.048674233 0.03259474 1.8872745e-38
0.084155008 0.052361265 0.031134367 1.859509e-38
0.079799406 0.045380712 0.03284657 1.7583821e-38
0.079805113 0.048677057 0.032551646 1.8688355e-38
0.079898149 0.053003281 0.030980408 1.8597592e-38
0.078847155 0.056393094 0.029814124 1.8136275e-38
0.077153765 0.045376144 0.032744348 1.7677447e-38
0.076214924 0.048859239 0.032396257 1.8875614e-38
0.075993665 0.053207897 0.03116101 1.8136628e-38
0.075682886 0.057176486 0.029621363 1.7768582e-38
0.072531864 0.049983062 0.032152891 1.8686932e-38
0.071953133 0.053239197 0.03142029 1.7399071e-38
0.072192654 0.057728618 0.029771507 1.7491623e-38
0.06795539 0.053247802 0.031432092 1.6662935e-38
0.068169668 0.057754792 0.029948294 1.7124248e-38
0.067642346 0.060318008 0.029028535 1.7493385e-38
0.064255685 0.053767368 0.031381786 1.6199082e-38
0.064143732 0.057781167 0.030124903 1.5733419e-38
0.064345926 0.060969703 0.028842509 1.6104372e-38
0.063784197 0.11750267 0.023759067 1.270537e-38
0.063395232 0.12116833 0.025425434 1.8507972e-38
0.060237825 0.054708615 0.031253457 1.481938e-38
0.060135812 0.057795763 0.03019166 1.5276402e-38
0.0602552 0.06168896 0.029289424 1.7215742e-38
0.060065389 0.06457787 0.028353572 1.6752617e-38
0.060816973 0.11782625 0.023615241 1.3720214e-38
0.060417175 0.12017429 0.02539897 1.5931843e-38
0.057328522 0.055231005 0.031093895 1.463392e-38
0.056033164 0.057854675 0.030697167 1.5375073e-38
0.056201309 0.061728567 0.029575348 1.6940223e-38
0.056403697 0.064918272 0.028348744 1.5923935e-38
0.056390747 0.11761358 0.02413255 1.2798265e-38
0.05611743 0.11983725 0.025262535 1.3166707e-38
0.052490339 0.062254868 0.03027761 1.6476732e-38
0.052340329 0.06562335 0.028630495 1.5186006e-38
0.051773638 0.11314332 0.023684084 1.288652e-38
0.052310035 0.11705153 0.024583042 1.1875941e-38
0.053471774 0.11983268 0.025160432 1.1689766e-38
0.049405277 0.063128576 0.030079842 1.5923208e-38
0.048183858 0.065714009 0.029354453 1.4722864e-38
0.048029169 0.069365457 0.02803266 1.3712307e-38
0.047703698 0.073454991 0.027280807 1.4082149e-38
0.047227159 0.077374488 0.026710391 1.1597198e-38
0.048217401 0.10995971 0.024082482 1.4176826e-38
0.048339188 0.11309266 0.024783611 1.3440376e-38
0.048652336 0.11671744 0.025085151 1.2336548e-38
0.04449679 0.065945558 0.029637456 1.4172545e-38
0.044174969 0.069686323 0.029066741 1.3253842e-38
0.044231594 0.073613994 0.02849406 1.2886865e-38
0.044288442 0.077538915 0.027921498 1.1871994e-38
0.043935731 0.084956899 0.026908696 9.5613663e-39
0.043290555 0.089200392 0.025499046 8.6429945e-39
0.041980654 0.094457105 0.024977624 9.1922321e-39
0.041982934 0.095771849 0.024860024 8.825225e-39
0.04331328 0.10234785 0.024322867 8.0841063e-39
0.044274241 0.10528991 0.024975777 1.0303969e-38
0.044766605 0.10870783 0.025618315 1.0861066e-38
0.045523435 0.11322629 0.025443971 1.1778711e-38
0.041509375 0.086848646 0.027650177 1.1682537e-38
0.04076691 0.089982629 0.027139783 1.1038996e-38
0.040295944 0.093186647 0.026605129 1.048441e-38
0.04027015 0.097350076 0.026374876 1.0115978e-38
0.040987432 0.10127102 0.025836289 9.3780625e-39
0.041541308 0.10530822 0.025998592 9.3809407e-39
0.037554562 0.094753042 0.026789129 1.1778705e-38
0.14612663 0.084437251 0.018355429 1.7677802e-38
0.15144125 0.07605572 0.01823312 1.5282523e-38
0.12529539 0.083882093 0.015619278 1.6941672e-38
0.12034815 0.099526614 0.017345309 1.0033465e-38
0.14094464 0.10593189 0.020974696 1.4548907e-38
0.12885608 0.088759951 0.018760681 1.2888654e-38
0.14791818 0.053944878 0.026346147 2.0718094e-38
0.10536239 0.069864243 0.024405777 1.5744561e-38
0.085062519 0.077907845 0.026872873 1.5465098e-38
0.11107645 0.098966599 0.029595554 1.8503982e-38
0.16697863 0.041762233 0.039060235 1.7866509e-38
0.16264907 0.040781043 0.03923142 1.8327859e-38
0.16313756 0.13325679 0.031020939 1.9244777e-38
0.15901086 0.040425219 0.038871229 1.8784878e-38
0.1593933 0.13371791 0.030533135 1.7956904e-38
0.15484375 0.040696241 0.038613737 1.9615339e-38
0.1548595 0.13470247 0.030269384 1.813843e-38
0.15104537 0.040411495 0.038563788 1.9707183e-38
0.15089396 0.13464348 0.029869795 1.8600837e-38
0.14706263 0.040404625 0.038410068 2.0902864e-38
0.14722511 0.13435875 0.030004323 1.860012e-38
0.14307988 0.040397763 0.038256407 2.1911979e-38
0.14324236 0.13435189 0.029850602 1.8876721e-38
0.13904965 0.038441479 0.038777828 2.2096357e-38
0.13914117 0.040354922 0.037605226 2.1637536e-38
0.13925962 0.13434502 0.029696941 1.9335881e-38
0.13509813 0.040396653 0.038114607 2.1176216e-38
0.13525406 0.13472086 0.029759169 1.8693394e-38
0.1314413 0.042051017 0.037908614 2.0807064e-38
0.13200821 0.13488935 0.028864801 1.8508283e-38
0.13058366 0.13641982 0.029677391 1.9429855e-38
0.12709916 0.042062514 0.03799051 2.0807432e-38
0.12720722 0.043640181 0.036848724 2.0254966e-38
0.12729731 0.13634396 0.029221892 1.8333611e-38
0.12284752 0.04185655 0.037844241 2.0167084e-38
0.12322734 0.043633327 0.036695123 1.9612077e-38
0.12205849 0.1348722 0.028480887 1.0868293e-38
0.12327729 0.13673829 0.029365778 1.243275e-38
0.1194601 0.042049348 0.037695706 2.0807416e-38
0.11888672 0.043975882 0.036747456 1.9702859e-38
0.11807174 0.13089833 0.028682232 8.2864327e-39
0.11967688 0.13364963 0.029000401 8.9274623e-39
0.11550803 0.044008948 0.037115872 1.9887615e-38
0.11668387 0.13033628 0.029181123 9.2951827e-39
0.11115962 0.043690331 0.037227213 2.0252084e-38
0.10717174 0.042359225 0.037191868 2.0437205e-38
0.10726383 0.043631747 0.036411643 2.0163124e-38
0.10288877 0.042001814 0.036806762 2.0256029e-38
0.10328203 0.043624885 0.036257923 1.9979086e-38
0.099271983 0.041645542 0.036447287 1.9607438e-38
0.099348001 0.043592177 0.035773516 1.9146828e-38
0.095289238 0.04163868 0.036293566 1.914755e-38
0.09152507 0.041787393 0.036435902 1.924009e-38
0.087243751 0.042324886 0.036422849 2.034538e-38
0.087246016 0.043649115 0.036304355 1.9975517e-38
0.083677143 0.043934643 0.035638094 1.9241867e-38
0.078608282 0.042309999 0.03608954 1.7765327e-38
0.079391286 0.043583713 0.035335958 1.7397605e-38
0.075189397 0.044899747 0.03505528 1.7952239e-38
0.074150041 0.048176907 0.034386694 1.8691259e-38
0.071573019 0.045740873 0.035509765 1.79508e-38
0.071254581 0.048479132 0.034534633 1.8595452e-38
0.068651155 0.046265528 0.035349607 1.7303645e-38
0.067433015 0.048863813 0.034511447 1.656931e-38
0.063850418 0.049318023 0.034555256 1.5281793e-38
0.062659055 0.05190371 0.033607781 1.5834615e-38
0.060686827 0.050224483 0.034686506 1.5470137e-38
0.059287727 0.052440137 0.03385973 1.4727546e-38
0.059420079 0.12233433 0.02717638 1.7128258e-38
0.058157995 0.12437694 0.027949393 1.8233858e-38
0.05546841 0.054148056 0.033702374 1.4358761e-38
0.055887654 0.12214042 0.027458847 1.4272691e-38
0.052724794 0.055507675 0.03390497 1.4449894e-38
0.051495165 0.058109947 0.033177674 1.5466556e-38
0.050735414 0.061139479 0.03231889 1.7306134e-38
0.05137223 0.12107401 0.027379334 1.1783398e-38
0.047347307 0.062270053 0.032421291 1.6293061e-38
0.0468546 0.11843383 0.027038753 1.2150017e-38
0.048481748 0.12076639 0.027562737 1.2060697e-38
0.043512359 0.062739633 0.032565534 1.6109735e-38
0.042340651 0.065312393 0.031619966 1.417293e-38
0.043081731 0.11027295 0.027623236 8.6444743e-39
0.043307021 0.11269761 0.027414799 9.5696214e-39
0.044935569 0.11767229 0.027702391 1.2236843e-38
0.044865787 0.12038134 0.027792156 1.2975484e-38
0.039739043 0.066189155 0.031943083 1.3531148e-38
0.039617866 0.069974445 0.031432033 1.3164529e-38
0.0397522 0.073798753 0.031262279 1.2796456e-38
0.04014264 0.077997893 0.031403899 1.2608125e-38
0.039536119 0.081940003 0.030804038 1.214751e-38
0.039411828 0.085724525 0.030306876 1.1870537e-38
0.039065227 0.08910872 0.0293625 1.1780122e-38
0.038409933 0.093735754 0.028922796 1.1872703e-38
0.038419068 0.099025093 0.028449655 1.1869476e-38
0.038423657 0.10166977 0.028212965 1.1961684e-38
0.039016291 0.10569375 0.02821064 1.177515e-38
0.040586352 0.10940638 0.028357625 1.0306865e-38
0.035507679 0.086597383 0.030454338 1.2149647e-38
0.035618693 0.089843422 0.029721379 1.260848e-38
0.035590559 0.093565598 0.0288288 1.1964178e-38
0.035763532 0.097698182 0.028465569 1.1870175e-38
0.035638437 0.10175434 0.028655648 1.1228078e-38
0.035539731 0.10513665 0.028795779 1.1229524e-38
0.031362012 0.090066336 0.029983103 1.2333683e-38
0.031615153 0.093823552 0.029321551 1.06774e-38
0.031648502 0.097777322 0.028857172 9.019309e-39
0.031804264 0.10159362 0.028591275 8.5572827e-39
0.032882661 0.10513206 0.02869314 8.6534258e-39
0.028870732 0.089896515 0.029901803 1.306943e-38
0.028213337 0.093868077 0.02952075 1.0400811e-38
0.027935848 0.098029457 0.029137373 8.9267757e-39
0.028446987 0.10093103 0.028897464 8.5590848e-39
0.07736598 0.11413111 0.0038224459 1.6387418e-38
0.074775398 0.11089325 0.006031096 1.3711959e-38
0.0722069 0.11041303 0.0046252608 1.5286115e-38
0.1486624 0.079441898 0.014937818 1.5651643e-38
0.14874023 0.085102789 0.013540924 1.4730417e-38
0.10278175 0.10112719 0.016688824 1.315915e-38
0.12125116 0.086372271 0.016819298 1.5375794e-38
0.14505559 0.098596379 0.015265763 1.316705e-38
0.13279128 0.10961546 0.013881981 1.4088662e-38
0.071576774 0.11732431 0.0039821267 1.6669038e-38
0.14822431 0.11273918 0.018414676 1.3997165e-38
0.088140033 0.092280835 0.02156055 1.205997e-38
0.053831056 0.10334202 0.018612862 1.1691896e-38
0.081467636 0.08487539 0.026291013 1.0308603e-38
0.085201509 0.072398886 0.027250469 1.5097031e-38
0.085126854 0.068895742 0.026635885 1.4451665e-38
0.0924519 0.069166884 0.026120126 1.4634284e-38
0.093273878 0.088510059 0.027162611 1.7215025e-38
0.095872805 0.080805302 0.029278934 1.6480692e-38
0.047347307 0.062270053 0.032421291 1.6293061e-38
0.13760749 0.13292202 0.033235073 1.952137e-38
0.16419025 0.039953239 0.041626036 1.7866881e-38
0.16001344 0.036161207 0.044817984 1.5194976e-38
0.15988851 0.037861973 0.042249441 1.6854157e-38
0.15533026 0.03615313 0.044637263 1.7313319e-38
0.15617196 0.037970155 0.041827798 1.8234927e-38
0.15632325 0.13769074 0.033240378 1.9426667e-38
0.15131611 0.036146216 0.04448235 1.8049819e-38
0.15152957 0.037939385 0.041315794 1.9152933e-38
0.15197793 0.13766712 0.032547712 1.9153658e-38
0.15195414 0.14053904 0.034356594 1.9889066e-38
0.14797097 0.036140449 0.044353247 1.9704665e-38
0.14753255 0.0379325 0.041161537 2.0165648e-38
0.14766707 0.13764071 0.032741904 1.9152566e-38
0.14819928 0.14002766 0.034390867 1.9796868e-38
0.14401175 0.036089353 0.043534577 2.1548554e-38
0.14416146 0.037960835 0.041530728 2.2096717e-38
0.14433384 0.13763496 0.032613218 1.9796502e-38
0.14413731 0.140497 0.034861207 2.0350032e-38
0.14011505 0.035994098 0.042052507 2.2189285e-38
0.14051613 0.037605472 0.04117012 2.2371514e-38
0.14033397 0.13762808 0.032458782 1.9889419e-38
0.14015302 0.14075212 0.034349084 2.0258209e-38
0.13604979 0.036031358 0.042561412 2.2556623e-38
0.13592221 0.037793346 0.040925026 2.2555171e-38
0.13634935 0.13758579 0.032140791 1.979829e-38
0.13640542 0.14085734 0.033381164 1.9983037e-38
0.13210958 0.035980299 0.041743517 2.2096385e-38
0.13216184 0.037940159 0.04106766 2.1635737e-38
0.13132663 0.040339276 0.040318131 2.0991091e-38
0.13259117 0.13776878 0.032246768 1.9614259e-38
0.13212726 0.14073828 0.034039319 1.9983769e-38
0.12796912 0.036061712 0.042915404 2.2094922e-38
0.12812722 0.037956603 0.041244686 2.1542828e-38
0.12764704 0.040459417 0.040164888 2.0622327e-38
0.12828395 0.13837759 0.032427311 1.9804407e-38
0.12763488 0.14057972 0.034214437 1.9255193e-38
0.12388609 0.036098942 0.043423712 2.2004891e-38
0.12407124 0.037984088 0.041587532 2.154174e-38
0.12322138 0.040214643 0.040015221 2.0900696e-38
0.12494835 0.13837181 0.032298505 1.5842912e-38
0.12410402 0.14072447 0.033729732 1.4091921e-38
0.11987193 0.036092028 0.0432688 2.2281094e-38
0.12010486 0.037954487 0.041101635 2.1911963e-38
0.11933557 0.040318608 0.039855361 2.1176563e-38
0.1198125 0.13751209 0.032344043 9.2026185e-39
0.12012867 0.14064614 0.033247769 1.0679576e-38
0.11664726 0.036020055 0.04214555 2.209348e-38
0.11610212 0.037947595 0.040947139 2.200382e-38
0.11606148 0.041032314 0.039664626 2.1268025e-38
0.11667214 0.13399342 0.03270489 1.0124915e-38
0.11737112 0.13745002 0.034096897 1.0035954e-38
0.11209595 0.035945803 0.04097116 2.1729728e-38
0.11209939 0.037940696 0.040792704 2.1729016e-38
0.11223129 0.041191719 0.039501905 2.1084004e-38
0.1078295 0.036071271 0.042804062 2.2005949e-38
0.10809667 0.037933797 0.040638208 2.181977e-38
0.10842394 0.040805727 0.039389074 2.0714518e-38
0.10381535 0.036064349 0.04264909 2.1911619e-38
0.10405511 0.038231328 0.04074204 2.1544262e-38
0.10423633 0.040646732 0.039240956 2.0623386e-38
0.099801198 0.036057435 0.042494237 2.1266613e-38
0.10009122 0.037919998 0.040329218 2.1082929e-38
0.10023793 0.039843023 0.039157987 2.0807765e-38
0.095836185 0.03536161 0.042067945 2.1452439e-38
0.096162975 0.037878111 0.039678335 2.0901056e-38
0.0962409 0.039836138 0.03900373 2.044151e-38
0.091926441 0.035310596 0.041251183 2.1085439e-38
0.0921112 0.037894547 0.039854884 2.0623732e-38
0.092243895 0.039829247 0.038849473 1.9426997e-38
0.08808884 0.035477199 0.041690409 2.0806334e-38
0.087892905 0.038183957 0.03983295 2.0162769e-38
0.088470854 0.040929429 0.038604736 1.9794713e-38
0.084635861 0.035586722 0.041948736 1.9608156e-38
0.084044114 0.038572483 0.039872348 2.0070208e-38
0.084253304 0.04180751 0.038362741 1.988545e-38
0.080031462 0.038803436 0.040728807 1.9335518e-38
0.080033839 0.041578904 0.03821975 1.8409982e-38
0.076345235 0.039056905 0.040312111 1.8228813e-38
0.075503856 0.04182943 0.038524091 1.776641e-38
0.071829975 0.039962307 0.040391028 1.730794e-38
0.07217063 0.041823685 0.038395464 1.7583087e-38
0.071200281 0.044042654 0.037656903 1.7581656e-38
0.067694917 0.04000324 0.040896952 1.7121393e-38
0.067886159 0.04213924 0.03870368 1.6936281e-38
0.06760481 0.045098878 0.037423015 1.6843743e-38
0.0643498 0.039997481 0.040767848 1.675299e-38
0.063944086 0.042562172 0.039182842 1.6477105e-38
0.064242333 0.045770377 0.037400067 1.4910137e-38
0.062946215 0.047746889 0.037005365 1.4536669e-38
0.060019612 0.043426558 0.039891124 1.574061e-38
0.059887618 0.046115212 0.038037777 1.5556564e-38
0.060283437 0.048848987 0.036803484 1.5465456e-38
0.056191713 0.046674982 0.038095593 1.5740985e-38
0.056287944 0.049727455 0.036570072 1.4356977e-38
0.055625215 0.051718347 0.036366165 1.3714822e-38
0.056059524 0.12576589 0.031511486 1.6849123e-38
0.052086741 0.047379114 0.038827896 1.4174717e-38
0.052149117 0.049777873 0.037074983 1.3159836e-38
0.052103147 0.052885443 0.03625071 1.3898508e-38
0.05096893 0.055694394 0.035829782 1.4542806e-38
0.052136481 0.12434731 0.031067908 1.2151466e-38
0.048976064 0.047973275 0.039458036 1.4080739e-38
0.048677608 0.05013743 0.038582921 1.4171504e-38
0.048193917 0.053312942 0.037191391 1.4543874e-38
0.047863141 0.056854449 0.035892606 1.5094524e-38
0.047867805 0.060115784 0.035313725 1.6572182e-38
0.047086731 0.12208885 0.029734731 1.2060335e-38
0.049538314 0.12361272 0.030698061 1.2335838e-38
0.043782905 0.054570921 0.037996292 1.4634631e-38
0.043937594 0.057170317 0.037099779 1.5095604e-38
0.043934762 0.060425214 0.03513366 1.6384902e-38
0.041743621 0.11411151 0.030241966 1.0488719e-38
0.042412087 0.11544068 0.030148864 1.104299e-38
0.045753255 0.12142254 0.029742718 1.1967436e-38
0.040136695 0.057314187 0.036772132 1.5093823e-38
0.039774105 0.06147477 0.035324931 1.5185628e-38
0.039072022 0.11012284 0.030495584 1.1780907e-38
0.039379746 0.11322299 0.031234682 1.1688355e-38
0.040184811 0.1156171 0.031051517 1.2698903e-38
0.036952078 0.058622263 0.038038731 1.684157e-38
0.03614983 0.061628327 0.036733806 1.4542063e-38
0.035813749 0.065025963 0.034981251 1.3255643e-38
0.035591155 0.068986386 0.034378707 1.2612077e-38
0.035922438 0.073641606 0.034016669 1.2794315e-38
0.036092684 0.077332065 0.033603132 1.3160217e-38
0.035975814 0.080711275 0.033008993 1.2609195e-38
0.035696387 0.084220566 0.032683909 1.2148934e-38
0.036209255 0.10897745 0.030612767 1.2334783e-38
0.035941854 0.11246142 0.032174349 1.3719498e-38
0.032275826 0.06261535 0.037500083 1.2885789e-38
0.032062143 0.065441504 0.036951602 1.1873782e-38
0.032137036 0.069029197 0.036346316 1.169085e-38
0.031912446 0.073390439 0.036018789 1.2428043e-38
0.032112658 0.077035487 0.034193099 1.3347125e-38
0.032252625 0.080952331 0.033289611 1.3438215e-38
0.032199889 0.084712557 0.032504439 1.2701738e-38
0.031927958 0.087976806 0.032201648 1.2059256e-38
0.031069964 0.10546097 0.030602932 9.0196958e-39
0.032327756 0.10884053 0.030683994 9.7597944e-39
0.032156825 0.11267719 0.032008469 1.3073425e-38
0.028939903 0.06794446 0.036893666 1.0678851e-38
0.028421298 0.077546313 0.036013842 1.3440057e-38
0.027975991 0.081347525 0.034902692 1.3992481e-38
0.028314829 0.084901802 0.032560229 1.343967e-38
0.027931705 0.08841259 0.032007754 1.3255623e-38
0.027714998 0.091510944 0.031722009 1.1968116e-38
0.02806817 0.10313175 0.03069514 9.0175364e-39
0.028405294 0.10545637 0.030500114 9.5703206e-39
0.028082773 0.1090046 0.031509697 1.0308635e-38
0.027677983 0.11195488 0.032904327 1.1784127e-38
0.024951115 0.082608446 0.03542614 1.3992122e-38
0.024167374 0.085459903 0.033705175 1.3440403e-38
0.02404213 0.08903829 0.033140659 1.252202e-38
0.024273977 0.0928986 0.031910837 1.0863572e-38
0.024292558 0.097144008 0.031486809 8.835652e-39
0.024306297 0.10152501 0.031070054 7.8226043e-39
0.024051443 0.10507467 0.031119227 8.8356619e-39
0.024013922 0.1089873 0.032274485 1.095794e-38
0.019955143 0.093565516 0.033677459 9.9412415e-39
0.019795015 0.097167134 0.033253074 8.6515985e-39
0.019990236 0.10098661 0.032834888 7.1775754e-39
0.020440519 0.10500708 0.033245981 7.4552554e-39
0.015436292 0.093428478 0.034088731 1.0680611e-38
0.015610144 0.097263202 0.033752143 9.0189461e-39
0.015614763 0.099930644 0.033513486 7.9125621e-39
0.012253508 0.09058886 0.034219682 1.1695819e-38
0.011648387 0.093222357 0.033737123 1.0955038e-38
0.011774331 0.09715499 0.032943368 9.4781096e-39
0.012938663 0.099926032 0.033410192 8.2820565e-39
0.0080217272 0.093693569 0.033777714 1.0215697e-38
0.0089198947 0.097251676 0.033493936 9.5688941e-39
0.081111565 0.10334289 0.0058917403 1.9608511e-38
0.081846029 0.11503784 0.003728807 1.712643e-38
0.078434199 0.10830209 0.0056775808 1.4357348e-38
0.14864865 0.091721043 0.014284492 1.4177232e-38
0.14857052 0.098340988 0.014860928 1.3165964e-38
0.12952858 0.093263246 0.016546667 1.7770362e-38
0.12591369 0.088407531 0.017006814 1.629451e-38
0.13401511 0.086638741 0.016788423 1.3348566e-38
0.069568396 0.10543225 0.01200223 1.3252803e-38
0.16342451 0.052967086 0.030300081 2.2013517e-38
0.14035842 0.1166015 0.020359695 1.335072e-38
0.1282407 0.091681004 0.020748973 1.1871624e-38
0.088001303 0.065148205 0.027710497 1.5924995e-38
0.08778052 0.078922868 0.026147127 1.3440396e-38
0.088521406 0.085477084 0.026334703 1.0677758e-38
0.081850938 0.093059137 0.026338756 1.6019357e-38
0.082450606 0.074114539 0.027732551 1.6662214e-38
0.063803717 0.088707037 0.022654116 1.6569291e-38
0.076245032 0.074580327 0.027760267 1.4544953e-38
0.087326467 0.082889155 0.023585975 1.4268722e-38
0.088926539 0.061625093 0.027642965 1.7492332e-38
0.043512359 0.062739633 0.032565534 1.6109735e-38
0.15993384 0.03147807 0.049827337 1.252349e-38
0.15991136 0.034555495 0.046680272 1.3996801e-38
0.15553653 0.031444743 0.049229324 1.5285371e-38
0.15608844 0.034539685 0.046389997 1.5561969e-38
0.15604915 0.1419757 0.037311494 2.0167431e-38
0.15589352 0.14588334 0.039523363 2.1825523e-38
0.15172264 0.03102584 0.048640609 1.6298808e-38
0.15208451 0.034514628 0.045950055 1.6851274e-38
0.15235022 0.14300218 0.037215829 2.0444032e-38
0.15187471 0.14580305 0.03903985 2.1178732e-38
0.14767052 0.031032348 0.048706174 1.7772133e-38
0.14785537 0.034234561 0.046026587 1.9428808e-38
0.14801711 0.1425699 0.036668003 2.0628405e-38
0.14787242 0.14568578 0.038392901 2.1366343e-38
0.14358658 0.031733386 0.049099207 1.9154021e-38
0.14377931 0.034269907 0.046535254 2.0720607e-38
0.14398074 0.14273287 0.036664486 2.0627319e-38
0.14377081 0.14586273 0.039055347 2.0907883e-38
0.13959098 0.032367744 0.048385322 2.0173189e-38
0.13980992 0.034220695 0.045716107 2.1548228e-38
0.14004126 0.14304216 0.035479546 2.0442941e-38
0.14002189 0.14566328 0.038660049 2.0628066e-38
0.13514712 0.032069825 0.048993289 2.108977e-38
0.13578722 0.034213759 0.045560837 2.209995e-38
0.13530466 0.14314307 0.035789311 1.9891924e-38
0.13574883 0.1450306 0.038149238 1.9983046e-38
0.13108191 0.03207799 0.049086213 2.090502e-38
0.1316669 0.034269266 0.046400845 2.2099961e-38
0.13190421 0.14324631 0.036150634 1.9984133e-38
0.13167876 0.14509696 0.038320541 2.007596e-38
0.12872192 0.031066531 0.049085379 2.0352567e-38
0.12758681 0.034294493 0.046742916 2.2096713e-38
0.1280489 0.14245835 0.036574125 2.0173547e-38
0.12736505 0.14564146 0.038171649 1.9893374e-38
0.12198643 0.03239812 0.048705161 2.2192148e-38
0.12355553 0.03428755 0.046587348 2.2281102e-38
0.12385307 0.14323242 0.035839915 1.3905729e-38
0.12356472 0.14515634 0.03833586 1.4001167e-38
0.11898298 0.032041959 0.048369408 2.2098871e-38
0.11952425 0.034280606 0.04643178 2.228109e-38
0.11974992 0.14337082 0.036338389 1.0770702e-38
0.12046124 0.14552535 0.037847519 1.0498785e-38
0.11528789 0.031694748 0.048173726 2.2189979e-38
0.1154061 0.03450536 0.045390904 2.2095269e-38
0.11456022 0.13030992 0.035632074 9.9483965e-39
0.11456599 0.13364896 0.035333455 1.1879146e-38
0.11506038 0.13797317 0.03647244 1.2708912e-38
0.11616679 0.1416491 0.03709048 1.2246497e-38
0.11128768 0.030996634 0.047746301 2.1728652e-38
0.11160919 0.03419359 0.044960678 2.1637548e-38
0.11137082 0.12774704 0.039756835 7.0900489e-39
0.11152809 0.13018961 0.038316309 6.7252097e-39
0.11152084 0.13423608 0.038065374 8.5677056e-39
0.11224707 0.13814168 0.038458288 1.2065009e-38
0.10868496 0.13311522 0.039172173 3.5992379e-39
0.10340934 0.031363852 0.047360361 2.1358436e-38
0.10353671 0.034190431 0.04481566 2.1636466e-38
0.099148281 0.031656802 0.047384262 2.0990741e-38
0.099582791 0.03415136 0.044163585 2.1266979e-38
0.095075734 0.031374961 0.047467053 2.0621951e-38
0.095484421 0.033507802 0.044564843 2.1174056e-38
0.090991229 0.031673111 0.047569156 2.0346082e-38
0.091458857 0.033500865 0.044409454 2.0806698e-38
0.086949691 0.032337748 0.047353029 2.0068773e-38
0.086977609 0.033874005 0.044955909 2.0438258e-38
0.082962364 0.032310635 0.046866119 1.9607826e-38
0.082989641 0.034366235 0.043836296 1.9331953e-38
0.078864276 0.032323815 0.047041059 1.9150436e-38
0.079346061 0.034829937 0.044044316 1.8966384e-38
0.078220971 0.03742227 0.042540669 1.8413914e-38
0.076169156 0.032319158 0.046936989 1.7678191e-38
0.075121298 0.03489434 0.044991314 1.7767861e-38
0.074588701 0.037883982 0.042693555 1.7491981e-38
0.070987165 0.034923464 0.045386553 1.7399063e-38
0.071430713 0.038112529 0.042718172 1.721503e-38
0.067068711 0.035326757 0.045597494 1.5651655e-38
0.06740801 0.038105592 0.042562902 1.7029558e-38
0.063421294 0.035638586 0.045894563 1.5828832e-38
0.063012242 0.03844846 0.043294847 1.6293434e-38
0.059230968 0.039031319 0.043670177 1.620196e-38
0.059134111 0.041730113 0.041415393 1.5555859e-38
0.058643848 0.12582919 0.035373807 1.9619664e-38
0.055500954 0.040270641 0.044419467 1.5923187e-38
0.055290073 0.042783163 0.041953564 1.5187447e-38
0.054115653 0.045394398 0.040892839 1.4727224e-38
0.054256544 0.12686697 0.033603787 1.5007736e-38
0.054361984 0.1294165 0.036142647 1.6019699e-38
0.051926896 0.040336587 0.04527986 1.5002702e-38
0.0511491 0.043045342 0.043123305 1.4910139e-38
0.051048398 0.045742944 0.040994048 1.4262616e-38
0.051434964 0.12699239 0.034153104 1.2889383e-38
0.051513582 0.13023071 0.036712885 1.4364151e-38
0.047749549 0.043238133 0.044255376 1.4816118e-38
0.046977609 0.046651311 0.04175961 1.4356593e-38
0.046530277 0.049833365 0.040201604 1.4633543e-38
0.046087474 0.052058622 0.03998518 1.4635325e-38
0.045196027 0.04435458 0.044659317 1.5000533e-38
0.043081388 0.047157936 0.043465137 1.4542764e-38
0.043105915 0.050164856 0.041378856 1.5554416e-38
0.043297157 0.052766204 0.040316105 1.4912292e-38
0.039811969 0.047927178 0.044130862 1.4727528e-38
0.039199188 0.050366826 0.043637395 1.5094885e-38
0.039272159 0.053662091 0.040833414 1.4633918e-38
0.038054705 0.056051612 0.039316416 1.4357333e-38
0.039313808 0.11812636 0.035816789 1.3713038e-38
0.03712225 0.051056668 0.043746352 1.4172225e-38
0.035709873 0.053679615 0.042787135 1.4172209e-38
0.035444036 0.057446919 0.039760172 1.5189244e-38
0.033805296 0.060151681 0.039789379 1.463176e-38
0.035241976 0.11499202 0.034934998 1.4822958e-38
0.036121845 0.11713865 0.036786318 1.4822599e-38
0.031738952 0.055077001 0.043177903 1.5006261e-38
0.031813249 0.05749815 0.041959226 1.5279628e-38
0.031068563 0.061043784 0.0390293 1.3070178e-38
0.030029982 0.06471926 0.038229406 1.159715e-38
0.030039236 0.070061721 0.037751436 1.1599378e-38
0.030042693 0.072065145 0.037572205 1.2244383e-38
0.031098023 0.11440624 0.035329163 1.4084688e-38
0.033429742 0.1166869 0.036722481 1.5195676e-38
0.027998686 0.058098435 0.042331815 1.2703191e-38
0.027411729 0.061697975 0.039690256 1.1503225e-38
0.027214378 0.065441661 0.038613796 1.0861432e-38
0.027098253 0.069598719 0.038055658 1.1505016e-38
0.027309999 0.073422402 0.037568033 1.2518805e-38
0.026366502 0.07706736 0.036981881 1.3071269e-38
0.02603671 0.080071911 0.03670013 1.3624435e-38
0.027617276 0.11448911 0.035689294 1.3812051e-38
0.025008112 0.059094995 0.042557299 1.1417832e-38
0.023777485 0.061495632 0.041164339 1.0767451e-38
0.023319587 0.065735973 0.039457262 1.0494833e-38
0.023086622 0.069495767 0.038537383 1.104512e-38
0.023093551 0.073508307 0.038178444 1.2150376e-38
0.023239687 0.077451311 0.037272871 1.3256722e-38
0.023128167 0.081267811 0.036731541 1.3808821e-38
0.022693738 0.084072985 0.036212325 1.3807374e-38
0.022069961 0.11078414 0.033796608 1.1881328e-38
0.023646384 0.11376876 0.035348713 1.3627656e-38
0.020116776 0.061920404 0.04168421 9.2029968e-39
0.019652113 0.065552756 0.041018009 9.4781768e-39
0.019389421 0.069640554 0.039720833 1.0309702e-38
0.01917167 0.073698148 0.038260698 1.1691903e-38
0.019138858 0.081497036 0.037086606 1.4269096e-38
0.019260377 0.08544758 0.036291063 1.4175782e-38
0.019353092 0.089409679 0.035605073 1.2705322e-38
0.018036231 0.10276352 0.034358501 6.1648753e-39
0.018311635 0.10581087 0.034347475 6.8098747e-39
0.01951322 0.1094249 0.034824014 1.0315064e-38
0.020176589 0.11373433 0.036975622 1.3995341e-38
0.016079932 0.066225 0.041405499 8.5579876e-39
0.015825689 0.069723368 0.040356755 9.2047905e-39
0.015551686 0.073508069 0.039608657 1.0863238e-38
0.015217394 0.077674448 0.037500262 1.2152902e-38
0.015056312 0.081519514 0.037149727 1.3994284e-38
0.015151158 0.085486248 0.036463261 1.408397e-38
0.015333235 0.08940275 0.035449982 1.2794654e-38
0.016677812 0.092076287 0.035262704 1.1507871e-38
0.015267178 0.10214471 0.034641504 7.4509127e-39
0.015097931 0.10559475 0.034995794 7.0835665e-39
0.015615061 0.10951902 0.036386907 1.0038123e-38
0.011744171 0.070201516 0.041049063 8.0980856e-39
0.011824906 0.07372795 0.039731622 9.9416269e-39
0.011447042 0.07755959 0.039373934 1.1414607e-38
0.011064842 0.081744328 0.037477314 1.2613501e-38
0.011037692 0.08552511 0.036635399 1.2610621e-38
0.011121288 0.089013889 0.035321653 1.1969896e-38
0.011133388 0.10160313 0.034320414 8.4650422e-39
0.011192024 0.10551529 0.034405053 8.2824699e-39
0.011517465 0.10969146 0.035997391 9.3931502e-39
0.008858189 0.071155965 0.040851712 6.7072506e-39
0.008100912 0.074228406 0.040044904 8.0959528e-39
0.0077643842 0.077758558 0.039324999 9.5703486e-39
0.0074948817 0.081538759 0.038577557 1.0494076e-38
0.0071801245 0.085685655 0.036471546 8.8360108e-39
0.007049337 0.08951474 0.036011994 9.7608117e-39
0.0070767254 0.093172759 0.034792483 1.0032743e-38
0.0066373795 0.097401433 0.034396946 9.2966092e-39
0.0072531253 0.10144517 0.034281909 9.2923044e-39
0.0071994513 0.10549007 0.034141004 8.2842789e-39
0.0045598894 0.078168586 0.039806068 7.1725084e-39
0.0038285106 0.081978738 0.039059818 6.4381943e-39
0.0034264475 0.085573263 0.038202107 6.622594e-39
0.0035709888 0.089571573 0.036318719 7.4584293e-39
0.0021923631 0.1127837 0.036866307 8.4686744e-39
0.084743842 0.11896451 0.0053501129 2.2010275e-38
0.13276507 0.094032779 0.016323149 1.7310101e-38
0.11566032 0.080187738 0.018434703 4.9709802e-39
0.12462789 0.11286071 0.017489493 1.1694444e-38
0.10979317 0.10311691 0.022810817 1.0854259e-38
0.11698096 0.12785336 0.026903093 8.6494069e-39
0.10470068 0.084748924 0.029131055 1.6848399e-38
0.089827292 0.084961899 0.023876965 1.279575e-38
0.0036675632 0.091529794 0.035812199 8.0101611e-39
0.15953833 0.028598329 0.053514719 1.123275e-38
0.15892264 0.029889232 0.052370489 1.2060717e-38
0.15974595 0.14865008 0.042774081 2.2937644e-38
0.15547851 0.028591329 0.053358018 1.2986238e-38
0.1562199 0.029884571 0.052266181 1.3354309e-38
0.15570778 0.1485685 0.042289913 2.2933326e-38
0.15144235 0.028566023 0.052868903 1.4920554e-38
0.15230292 0.14863725 0.042486787 2.1741588e-38
0.14739519 0.028212653 0.052576244 1.6025818e-38
0.14761676 0.14847994 0.041649461 2.1275595e-38
0.14329901 0.028570341 0.052888036 1.6576464e-38
0.14338183 0.029862443 0.051770687 1.7310104e-38
0.143534 0.14854752 0.041820109 2.1089767e-38
0.13923919 0.028563341 0.052731335 1.5930415e-38
0.13931453 0.030538416 0.051720023 1.7313351e-38
0.138179 0.14704205 0.041077614 2.0625208e-38
0.13947481 0.14854051 0.041663408 2.1091906e-38
0.13517937 0.028556349 0.052574635 1.565417e-38
0.13554482 0.030387739 0.051420033 1.7682852e-38
0.13547626 0.1470374 0.040973365 2.0262154e-38
0.13111953 0.028549349 0.052417994 1.7036031e-38
0.13149069 0.03038075 0.051263571 1.9249456e-38
0.13139033 0.14710432 0.041143894 2.025245e-38
0.1270597 0.028542353 0.052261293 1.6575078e-38
0.12697271 0.031195389 0.051266789 2.044439e-38
0.12871939 0.14702573 0.040712535 2.0254603e-38
0.12730166 0.14851955 0.041193604 1.9710123e-38
0.12299987 0.028535357 0.052104652 1.5929689e-38
0.12324132 0.031027699 0.051262796 2.0073825e-38
0.1233139 0.14701644 0.040503919 1.4738019e-38
0.12324437 0.14851254 0.041037023 1.5562416e-38
0.11894004 0.028528357 0.051947951 1.8045165e-38
0.11928282 0.030382482 0.051192343 2.0999001e-38
0.11831931 0.14663281 0.040679634 1.0957965e-38
0.11988058 0.14846943 0.040743172 1.1788817e-38
0.11488022 0.028521365 0.051791251 2.1636123e-38
0.115003 0.029813541 0.050675511 2.2743876e-38
0.11452416 0.14363377 0.040466249 1.3718366e-38
0.11514442 0.14643982 0.040741384 1.3259591e-38
0.11373455 0.14857078 0.04099834 1.1879925e-38
0.1105488 0.027974335 0.051672339 2.1358782e-38
0.11003917 0.12688491 0.042294323 6.5383143e-39
0.11023666 0.13891192 0.040722847 9.5793211e-39
0.111064 0.14241505 0.04106909 1.1879174e-38
0.11158991 0.14609507 0.040935934 1.4362361e-38
0.1117058 0.14924173 0.04085964 1.131419e-38
0.10703028 0.027968274 0.05153656 2.1540274e-38
0.10689478 0.029799568 0.050362587 2.1080749e-38
0.10828646 0.12832801 0.042599618 5.8915184e-39
0.10795339 0.13136242 0.042315006 4.1477047e-39
0.10753849 0.13525863 0.041548312 5.2482943e-39
0.10836881 0.13834049 0.041203976 5.5159494e-39
0.10830978 0.14181696 0.041392863 8.8363709e-39
0.10314166 0.028122632 0.05061847 2.0714491e-38
0.10216497 0.029791413 0.050180078 2.1265513e-38
0.098640911 0.028493376 0.051164508 2.0527967e-38
0.098786525 0.02978559 0.050049663 2.0803834e-38
0.094309479 0.027946351 0.051045656 1.9978022e-38
0.094732411 0.029778605 0.04989326 2.0437917e-38
0.090521231 0.028479384 0.050851226 1.9703923e-38
0.090678297 0.02977162 0.049736857 2.007092e-38
0.087022699 0.030682283 0.049848437 1.9977298e-38
0.083443075 0.030561654 0.049959838 1.8596898e-38
0.079495996 0.030325295 0.049856722 1.7492713e-38
0.075710133 0.03112773 0.049638271 1.7125368e-38
0.071702629 0.032453142 0.049096406 1.7031363e-38
0.067522541 0.032486416 0.049601316 1.4726475e-38
0.066360563 0.033770695 0.048436522 1.4726131e-38
0.064139351 0.03248059 0.049470663 1.453921e-38
0.06365782 0.033766039 0.048332214 1.5276433e-38
0.06227389 0.12757425 0.040884376 2.2282904e-38
0.059879571 0.035335265 0.048619449 1.5925331e-38
0.059957564 0.12758829 0.040190458 2.1180154e-38
0.058894202 0.12959178 0.040572703 2.0902478e-38
0.056703314 0.036514446 0.04882139 1.6666133e-38
0.055205166 0.038358569 0.047995389 1.6936977e-38
0.057064012 0.12804431 0.039635599 1.9064324e-38
0.056289628 0.12948863 0.039978623 1.8418961e-38
0.051648185 0.03863588 0.048033714 1.445024e-38
0.047628567 0.040190235 0.047889471 1.4448793e-38
0.046671838 0.041855723 0.047452092 1.4818654e-38
0.043541491 0.043475255 0.047286272 1.5185649e-38
0.040477991 0.044579841 0.04747057 1.4269428e-38
0.039184496 0.046581022 0.046990097 1.4635696e-38
0.035863921 0.048576817 0.046431541 1.3622632e-38
0.034897208 0.050470814 0.046324968 1.3346046e-38
0.033960208 0.052572779 0.045497715 1.3712664e-38
0.035017341 0.11949596 0.040149629 1.5007353e-38
0.032370001 0.051310323 0.04655385 1.2244015e-38
0.031139418 0.053286001 0.045826852 1.3623348e-38
0.031235486 0.11867546 0.040047765 1.5470844e-38
0.027003109 0.054657809 0.045878768 1.2795029e-38
0.026534647 0.056600966 0.044849277 1.2522023e-38
0.027711496 0.11813524 0.039988339 1.5102797e-38
0.02289708 0.051293999 0.046188295 6.9009998e-39
0.02380468 0.054442979 0.045941532 1.095147e-38
0.022864208 0.057820931 0.045100212 1.0494792e-38
0.022736058 0.11768158 0.039986908 1.491878e-38
0.020203352 0.058708265 0.045419991 9.2951995e-39
0.017758906 0.061300322 0.044088542 8.2792567e-39
0.018667445 0.11501664 0.039649129 1.4549222e-38
0.020304829 0.11738525 0.040170431 1.4824751e-38
0.014882684 0.062036745 0.044580877 7.5424063e-39
0.014161795 0.065110609 0.04360801 7.8232868e-39
0.014467806 0.11180696 0.039438963 1.2438843e-38
0.015208125 0.11383443 0.040089905 1.4827274e-38
0.010736257 0.062064186 0.044752777 8.6440553e-39
0.010861665 0.066062376 0.043953061 6.5278844e-39
0.010339171 0.068696007 0.043138862 7.2661894e-39
0.01108937 0.11180115 0.039308548 1.0408733e-38
0.010824874 0.11332223 0.040166974 1.2155414e-38
0.0080296844 0.062059522 0.044648349 1.3436399e-38
0.0074958503 0.066375047 0.04424119 1.0303896e-38
0.0074485987 0.069791004 0.043129742 6.9838529e-39
0.0059760809 0.073217683 0.042899847 6.8934426e-39
0.0083866268 0.11179648 0.03920424 1.0129266e-38
0.0066047162 0.11378469 0.03956002 1.0129639e-38
0.0040830076 0.074152261 0.043077707 8.6372086e-39
0.0027825832 0.077500112 0.04256016 7.2603894e-39
0.0034149438 0.11428346 0.039190829 8.9325322e-39
0.084891587 0.1146228 0.0055213571 1.869092e-38
0.14851458 0.10298815 0.015279949 1.2614211e-38
0.13338362 0.093205042 0.017177224 1.8231686e-38
0.14813232 0.12078647 0.021625876 1.5470873e-38
0.096698068 0.069511153 0.027943432 1.4174728e-38
0.085165307 0.090540811 0.024442852 1.2703181e-38
0.044762865 0.089118078 0.030160189 1.1504296e-38
0.011648387 0.093222357 0.033737123 1.0955038e-38
0.081850938 0.093059137 0.026338756 1.6019357e-38
0.070987165 0.034923464 0.045386553 1.7399063e-38
0.024122804 0.078559726 0.04048723 1.1139454e-38
0.15933976 0.15108195 0.044951916 2.3218893e-38
0.15528607 0.027401494 0.056471288 1.1694088e-38
0.15525323 0.15112007 0.044991076 2.3213854e-38
0.15147692 0.15048142 0.044500113 2.2383358e-38
0.15285282 0.15314403 0.044114113 2.0910719e-38
0.14737163 0.15125699 0.044740558 2.2380124e-38
0.14735001 0.15336409 0.044885874 2.0264995e-38
0.14330962 0.15121236 0.044419587 2.1828384e-38
0.13761924 0.027371047 0.05578953 1.3999351e-38
0.13949811 0.15109292 0.044383049 2.1922709e-38
0.13490127 0.027366364 0.055684626 1.4547469e-38
0.13552114 0.14945069 0.044024348 2.0908595e-38
0.1308575 0.027341684 0.055195212 1.5188175e-38
0.13082267 0.14967938 0.043972611 2.1008398e-38
0.12685126 0.027637528 0.0543437 1.5006679e-38
0.12699635 0.15122187 0.043954313 2.2497183e-38
0.12277944 0.027292339 0.054216802 1.3347511e-38
0.12290254 0.15125246 0.043960214 1.8338692e-38
0.12288824 0.15332195 0.043941915 2.046961e-38
0.11870819 0.027285324 0.054059744 1.5461522e-38
0.11929838 0.15053196 0.043717802 1.3721341e-38
0.12017027 0.15331726 0.043836951 1.7427117e-38
0.11463694 0.02727831 0.053902566 2.0532262e-38
0.11552602 0.14902161 0.043036819 1.2341262e-38
0.11192277 0.027273631 0.053797841 2.1267297e-38
0.10941447 0.14630572 0.043043256 1.5014546e-38
0.10941914 0.14901111 0.042801201 1.0126102e-38
0.10513736 0.027261937 0.053535998 2.1541005e-38
0.10664611 0.12332593 0.045105219 1.0397182e-38
0.10666637 0.12668703 0.044693351 6.0773376e-39
0.10599368 0.13006757 0.044364572 6.2588379e-39
0.10531983 0.1327718 0.044096351 6.3524755e-39
0.10668743 0.13886125 0.043604136 6.4335855e-39
0.10669328 0.14224295 0.043301582 9.1983039e-39
0.10708803 0.14630172 0.042953432 1.7225443e-38
0.10235371 0.026606416 0.053989172 1.9981602e-38
0.10297735 0.1234922 0.044836402 1.2144237e-38
0.10327367 0.12668119 0.044562399 7.2661501e-39
0.10330565 0.12995027 0.045074701 7.8222134e-39
0.10473562 0.13432649 0.04493922 7.1789992e-39
0.10519449 0.13771372 0.044653714 7.4530385e-39
0.10520267 0.1424548 0.044229686 9.6575164e-39
0.10520737 0.14516397 0.043987215 1.7332006e-38
0.099351361 0.026471095 0.053985417 1.9428803e-38
0.099877454 0.12464629 0.044612944 9.1860958e-39
0.09973979 0.12686768 0.045413554 9.0132204e-39
0.10110231 0.12890188 0.045284152 8.6516447e-39
0.095819518 0.026465012 0.053849101 1.9243705e-38
0.096039422 0.12715203 0.044993341 1.1783003e-38
0.095667526 0.1295698 0.045013785 1.2337261e-38
0.091202006 0.026457051 0.053670943 1.8139164e-38
0.091314308 0.12698859 0.045076191 1.3530422e-38
0.091589391 0.12888549 0.044916987 1.3257093e-38
0.087161005 0.027793283 0.053193748 1.8967086e-38
0.087499961 0.029936912 0.05261308 1.9884015e-38
0.08784809 0.12650852 0.044984877 1.6650318e-38
0.088871427 0.1288808 0.044812143 1.4359132e-38
0.083724461 0.028252831 0.052868724 1.7399786e-38
0.079558007 0.028050723 0.052876115 1.6756902e-38
0.075874582 0.028591702 0.052785397 1.6297362e-38
0.07460767 0.029914694 0.05211556 1.6757652e-38
0.071125448 0.030613499 0.052420318 1.5741353e-38
0.067344427 0.030960338 0.052494049 1.4175074e-38
0.065959737 0.12999859 0.04281956 1.8417469e-38
0.0629462 0.031060426 0.052231014 1.4359456e-38
0.062557667 0.12458198 0.043172717 2.0077775e-38
0.063239709 0.12661219 0.043017387 2.1180873e-38
0.063367575 0.13021301 0.042951226 2.0442201e-38
0.059245348 0.032285303 0.051810384 1.5928253e-38
0.057652324 0.034619875 0.051037252 1.5650933e-38
0.059466258 0.13105172 0.042724848 2.0719525e-38
0.056089431 0.032648869 0.052157938 1.5097049e-38
0.054851547 0.035318777 0.05129689 1.4822609e-38
0.055783957 0.13133372 0.042305768 1.8141667e-38
0.055107743 0.13268526 0.042158484 1.7406593e-38
0.050799802 0.036659233 0.050924182 1.3712675e-38
0.047942549 0.036698587 0.051479757 1.2884711e-38
0.046694383 0.038693681 0.050750375 1.3161294e-38
0.043302789 0.040718287 0.050437629 1.371771e-38
0.041758925 0.042507827 0.050050199 1.4268731e-38
0.039235517 0.04409489 0.04997772 1.399464e-38
0.03731598 0.046082661 0.049223065 1.4821161e-38
0.037084714 0.044807374 0.050332963 1.3811685e-38
0.035353556 0.04703483 0.049731493 1.3253495e-38
0.035238355 0.12196897 0.043101609 1.5099557e-38
0.033014759 0.048864104 0.049812078 1.270355e-38
0.030479118 0.050826631 0.048784554 1.1595065e-38
0.029302105 0.1204666 0.04225266 1.5654164e-38
0.031382576 0.12243909 0.042558551 1.5838181e-38
0.026904017 0.051562749 0.049333692 9.7551056e-39
0.027149528 0.052828573 0.048225164 1.1414292e-38
0.026585609 0.11910923 0.042268932 1.5559456e-38
0.02358903 0.051077038 0.048913777 7.9126266e-39
0.023418725 0.053498492 0.048020601 9.5710731e-39
0.024549976 0.11910573 0.042190373 1.5008092e-38
0.021037966 0.050112672 0.048231542 6.8062608e-39
0.019808158 0.055035621 0.048345923 7.8215309e-39
0.018612638 0.057910159 0.04769057 8.5597952e-39
0.018185392 0.11792232 0.043054402 1.4731474e-38
0.015663922 0.058436513 0.047780335 7.0835749e-39
0.015637234 0.11644445 0.042418242 1.5194225e-38
0.015467435 0.11791763 0.042949498 1.4179351e-38
0.012232125 0.058889955 0.047104478 9.0102973e-39
0.011475563 0.11582007 0.042647779 1.270858e-38
0.0061322749 0.062937498 0.04650569 1.3807371e-38
0.0061357766 0.06496653 0.046324193 1.3441046e-38
0.0077444017 0.11590166 0.042227983 1.0590612e-38
0.0071517229 0.11864395 0.042160392 9.025783e-39
0.0073181838 0.12061276 0.042392552 8.4708226e-39
0.0047763586 0.063611507 0.046392798 1.4173658e-38
0.0047810376 0.066316888 0.046150744 1.4265071e-38
0.0041095018 0.070373788 0.045761526 1.0947826e-38
0.0041890293 0.11636525 0.041646779 9.394225e-39
0.0032419711 0.11873457 0.041685045 8.2889551e-39
0.0039207041 0.12060688 0.042261302 8.1052799e-39
0.085145324 0.10668123 0.0046792626 2.0528689e-38
0.085113816 0.11054845 0.0045550466 1.7395869e-38
0.14447528 0.066550843 0.017950296 1.8228819e-38
0.14468792 0.071857095 0.016579211 1.7309377e-38
0.13497338 0.085824229 0.017573297 1.8875985e-38
0.1369544 0.075692296 0.015824556 1.5285749e-38
0.069132641 0.10819948 0.011335731 1.5006655e-38
0.069043964 0.11115511 0.009208858 1.3534042e-38
0.085499682 0.073865093 0.02654916 1.3255283e-38
0.048217401 0.10995971 0.024082482 1.4176826e-38
0.084635861 0.035586722 0.041948736 1.9608156e-38
0.059649512 0.079849541 0.027544618 1.5555866e-38
0.028122172 0.078877464 0.040971577 1.1874146e-38
0.0066047162 0.11378469 0.03956002 1.0129639e-38
0.047942549 0.036698587 0.051479757 1.2884711e-38
0.15512541 0.026514316 0.059056461 1.1416789e-38
0.15667708 0.15270858 0.048320174 2.3398575e-38
0.15531591 0.15474664 0.048084974 1.9241508e-38
0.15154324 0.024932561 0.061571062 1.3167408e-38
0.15093161 0.026924482 0.060364306 1.3445789e-38
0.15060568 0.15247045 0.047101498 2.3393909e-38
0.15076771 0.15519226 0.047868907 1.7770332e-38
0.14675349 0.02492431 0.061386287 1.4271244e-38
0.14689255 0.026740132 0.059420526 1.5103866e-38
0.14764452 0.1552341 0.048146009 1.7402957e-38
0.14264798 0.024917232 0.061227798 1.3717714e-38
0.14283998 0.026841907 0.058718443 1.5378682e-38
0.14304638 0.15468787 0.047447324 1.7680281e-38
0.13840614 0.024285352 0.059512377 1.2154702e-38
0.13907696 0.026664792 0.057918727 1.4828397e-38
0.13765913 0.15244813 0.046601892 2.2108513e-38
0.13878059 0.15519957 0.047278106 1.3070149e-38
0.1345427 0.024163673 0.059809029 1.1233072e-38
0.13471508 0.026113926 0.057799041 1.3263196e-38
0.13466007 0.15189964 0.046534836 2.2666083e-38
0.13481556 0.15478848 0.047621787 2.1833397e-38
0.13535002 0.1572194 0.049099565 1.2048771e-38
0.1289205 0.00034031831 0.062896371 3.4951845e-39
0.13047054 0.023461754 0.059434891 1.0774994e-38
0.13062671 0.026106874 0.057641268 1.3814924e-38
0.13118528 0.15209739 0.046382427 2.3050348e-38
0.13075137 0.15470432 0.047136962 2.3417679e-38
0.12618348 0.00033559278 0.062790632 2.4853458e-39
0.12481969 0.003061397 0.062493861 1.5623301e-39
0.12631586 0.023481583 0.059830427 1.1418942e-38
0.12653834 0.026099829 0.057483494 1.3534408e-38
0.12276222 0.00032970496 0.062658668 2.9459189e-39
0.12253964 0.0035121515 0.062365115 3.4101845e-39
0.12268408 0.023924118 0.059538543 1.2062513e-38
0.12241296 0.026109805 0.057657659 1.3162025e-38
0.11888555 0.00019383058 0.062155187 2.3081109e-39
0.11934686 0.0037339982 0.062221527 4.4307894e-39
0.1191083 0.024058221 0.060392559 1.2062845e-38
0.1182468 0.02613678 0.058163583 1.4355498e-38
0.11789747 0.1517349 0.045900047 1.4278119e-38
0.11790098 0.15377247 0.045717776 1.687541e-38
0.11493872 0.00029724091 0.061018825 2.8591716e-39
0.11505201 0.0032662097 0.061762094 6.6467342e-39
0.11485624 0.0071364306 0.061742961 1.595556e-38
0.11561945 0.024529634 0.060215235 1.509882e-38
0.11483506 0.026130902 0.058031976 1.8414619e-38
0.11511178 0.15184347 0.046284795 1.2715106e-38
0.11486894 0.15437374 0.04621619 1.6877546e-38
0.11112994 0.00030965172 0.062209725 3.4981174e-39
0.11113465 0.0030378122 0.061965704 1.2170182e-38
0.11133656 0.0067406315 0.061641991 1.5856192e-38
0.1111724 0.024862988 0.060013056 2.071771e-38
0.11134173 0.026159042 0.058564007 2.0994286e-38
0.11300562 0.15195319 0.046695709 1.2342362e-38
0.10770867 0.00030375831 0.062077761 7.2730529e-39
0.10706688 0.024855914 0.059854627 2.0532629e-38
0.10732924 0.02611796 0.057742298 2.108471e-38
0.10274178 0.024283098 0.059336483 1.8694504e-38
0.10459985 0.026113262 0.057636976 2.0901043e-38
0.10219128 0.13201135 0.04705745 8.3746655e-39
0.1027141 0.13504168 0.047007322 8.3735851e-39
0.10307922 0.13914818 0.047170579 9.0185565e-39
0.1028228 0.14298667 0.046601653 1.500986e-38
0.10289616 0.14559634 0.045868397 2.0091424e-38
0.098912254 0.024276497 0.059188664 1.7222957e-38
0.099293292 0.13081777 0.047052026 9.666842e-39
0.099281549 0.13499482 0.048017204 9.9419772e-39
0.099509403 0.13897003 0.049344718 1.2521273e-38
0.1004296 0.14351852 0.048973143 1.8423619e-38
0.094849706 0.024801968 0.058716297 1.7033167e-38
0.095375896 0.13118458 0.046867371 1.2613848e-38
0.095120512 0.1350783 0.048295021 1.3444338e-38
0.090748012 0.024794901 0.058557987 1.5558052e-38
0.091286875 0.13080397 0.046743035 1.3718052e-38
0.090937637 0.13518365 0.048681736 1.4826897e-38
0.087223604 0.024821712 0.059088767 1.5554462e-38
0.086804032 0.026099673 0.05728364 1.72165e-38
0.087028153 0.13079664 0.046578705 1.5558746e-38
0.086677775 0.13498904 0.04845041 1.7035286e-38
0.082361668 0.026659274 0.057530284 1.5559467e-38
0.084467925 0.12790568 0.046738327 1.7298948e-38
0.083073176 0.13066345 0.046660542 1.7121038e-38
0.082898855 0.1349666 0.047384918 1.8693749e-38
0.081261121 0.1380292 0.04872191 1.9524582e-38
0.078503326 0.026572315 0.057589471 1.5466189e-38
0.07890062 0.13114162 0.046950638 1.7767132e-38
0.078858808 0.1348909 0.046900272 1.8875628e-38
0.078524105 0.13802448 0.04861623 1.9060025e-38
0.074370027 0.027721187 0.055568218 1.6018992e-38
0.075100601 0.13182379 0.047029257 1.8595437e-38
0.074530408 0.13515495 0.048048556 1.8322815e-38
0.070686966 0.02825175 0.056533456 1.5650583e-38
0.070665911 0.13215624 0.046827674 1.7579848e-38
0.070751324 0.13503063 0.048296094 1.7954396e-38
0.070997342 0.1380115 0.048325777 1.952349e-38
0.066393048 0.02876796 0.055918872 1.3990684e-38
0.065901086 0.030070463 0.054778457 1.3714821e-38
0.066711828 0.13166043 0.045965374 1.7955447e-38
0.067322373 0.13505273 0.04733187 1.8786635e-38
0.067234546 0.13834605 0.048150063 1.9526028e-38
0.062981308 0.028762082 0.055787206 1.3620742e-38
0.061131299 0.030062245 0.054594398 1.3991025e-38
0.06279099 0.13436779 0.046755135 1.8968162e-38
0.059860617 0.028866766 0.057666481 1.3899167e-38
