# .PCD v0.7 - Point Cloud Data file format
VERSION 0.7
FIELDS x y z rgb
SIZE 4 4 4 4
TYPE F F F F
COUNT 1 1 1 1
WIDTH 980
HEIGHT 1
VIEWPOINT 0 0 0 0 1 0 0
POINTS 980
DATA ascii
0.081104472 0.056612939 0.024721861 1.5280361e-38
0.076672181 0.04011561 0.031325102 1.7121032e-38
0.076741569 0.042657822 0.030281723 1.9705362e-38
0.076924175 0.046332791 0.028059363 1.9609953e-38
0.076988459 0.050189704 0.026826739 1.610867e-38
0.07707563 0.053340644 0.025526583 1.4911581e-38
0.073977247 0.040123388 0.03143394 1.9332657e-38
0.072702989 0.04266952 0.030445039 2.0623763e-38
0.072974861 0.04621394 0.027563691 1.7858602e-38
0.07303074 0.050089046 0.026441216 1.4265448e-38
0.071733259 0.053985596 0.025483251 1.2334046e-38
0.068678744 0.042660311 0.030498266 1.7396913e-38
0.06892091 0.046269134 0.027945995 1.3899222e-38
0.068937942 0.050213024 0.027152121 1.2428396e-38
0.069010504 0.054062381 0.025920391 1.150608e-38
0.068826467 0.057889476 0.02541846 1.0584115e-38
0.068814814 0.061873361 0.024844706 9.1068888e-39
0.067682661 0.064615265 0.024116695 9.2019977e-39
0.065264635 0.039641693 0.031522095 1.6752589e-38
0.064729646 0.042544797 0.030002058 1.3621923e-38
0.064717516 0.046542689 0.029426336 1.2521307e-38
0.064646743 0.050627634 0.029289961 1.1875932e-38
0.064722449 0.054488286 0.028056324 1.1691526e-38
0.064710736 0.058483243 0.027481079 1.1691889e-38
0.064699061 0.0624782 0.026905775 1.0212117e-38
0.064765312 0.065896213 0.024556756 8.3646434e-39
0.061249755 0.038732871 0.031648695 1.500485e-38
0.060787916 0.042429283 0.02950561 1.224185e-38
0.060621746 0.04664059 0.030028939 1.1415688e-38
0.060610048 0.050639316 0.029453158 1.2518794e-38
0.060598336 0.054638073 0.028877378 1.5284307e-38
0.060617909 0.058589086 0.02808243 1.509705e-38
0.060668722 0.062489882 0.027068675 1.5832788e-38
0.060810342 0.066235438 0.025399685 1.4077464e-38
0.060971729 0.06861645 0.023814142 1.177047e-38
0.05979114 0.10305388 0.020247459 1.0585217e-38
0.057819359 0.036165848 0.032664239 1.4174364e-38
0.056835212 0.03857553 0.031649292 1.3899222e-38
0.056660488 0.042568997 0.030328035 1.1870223e-38
0.056541465 0.050695807 0.02983588 1.4274482e-38
0.056561679 0.054649755 0.029040515 1.7030996e-38
0.056775481 0.058317021 0.026930332 1.610978e-38
0.056827173 0.062210277 0.025917768 1.6664002e-38
0.056864277 0.066122979 0.025015295 1.7306853e-38
0.05728621 0.068958938 0.023915291 1.6472797e-38
0.055596821 0.073941007 0.023266315 1.2971477e-38
0.055376567 0.099430129 0.020612955 1.040189e-38
0.053478584 0.035799623 0.03264147 1.3622988e-38
0.053244516 0.03866455 0.031479776 1.3805242e-38
0.053030781 0.042555436 0.03034997 1.2700669e-38
0.053221121 0.046662018 0.030328095 1.2062859e-38
0.053209439 0.050660759 0.029752254 1.4643268e-38
0.053197742 0.054659501 0.029176533 1.6847328e-38
0.052780628 0.058281809 0.026873946 1.5742415e-38
0.05283545 0.062172964 0.025861382 1.5742406e-38
0.053108364 0.065818846 0.024538457 1.62041e-38
0.053598665 0.06996505 0.023920894 1.6288766e-38
0.053577334 0.07726495 0.022869647 1.0668091e-38
0.052208379 0.087223276 0.021490395 1.0766718e-38
0.052626945 0.090171725 0.021553934 1.4085751e-38
0.053091951 0.093931183 0.021498799 1.3069444e-38
0.053117931 0.098556757 0.022516251 1.1134073e-38
0.049610801 0.035158917 0.032711148 1.1967404e-38
0.049949422 0.0385914 0.031175435 1.2335134e-38
0.049816132 0.042530835 0.030304134 1.3071615e-38
0.049891457 0.046628654 0.030244291 1.3809169e-38
0.049413219 0.050719455 0.029531121 1.5193911e-38
0.049833864 0.054669246 0.029312491 1.6020433e-38
0.048916556 0.058464572 0.027033448 1.4914806e-38
0.048845887 0.06213586 0.025804996 1.3347103e-38
0.048924722 0.064669609 0.024874985 1.2426608e-38
0.049055196 0.090660781 0.024157166 1.1502159e-38
0.050274596 0.094852492 0.024261653 1.3898814e-38
0.050902486 0.097586066 0.02409488 1.2153576e-38
0.045767002 0.034786239 0.032905817 1.1967069e-38
0.045671329 0.038708165 0.03117609 1.2980847e-38
0.045374788 0.042433307 0.029909849 1.4269076e-38
0.045926966 0.046552837 0.029967606 1.4365582e-38
0.045090839 0.050460428 0.028989196 1.5376857e-38
0.045593046 0.054466277 0.029110372 1.4915513e-38
0.04487212 0.058336243 0.02797544 1.4179766e-38
0.044823371 0.062147513 0.025967598 1.2332944e-38
0.044905171 0.064681247 0.025037527 1.0582645e-38
0.044686705 0.082101971 0.022535682 1.3346027e-38
0.044914976 0.086506799 0.024250925 1.3250607e-38
0.046883523 0.08958897 0.025411546 1.0763891e-38
0.041892029 0.035207033 0.033163965 1.1230949e-38
0.041680858 0.038484901 0.031724989 1.2335499e-38
0.040710092 0.042404339 0.029879808 1.3622649e-38
0.041278303 0.046501175 0.029827893 1.4362365e-38
0.040897168 0.05032219 0.029090583 1.4823699e-38
0.041087359 0.05459021 0.028577983 1.390245e-38
0.040737741 0.058269486 0.027142823 1.3073766e-38
0.040819436 0.062135085 0.026020586 1.1874478e-38
0.041219592 0.065023735 0.025138557 1.0583748e-38
0.042213805 0.068670779 0.024572313 9.2941149e-39
0.041415066 0.086726502 0.025204718 1.4361237e-38
0.037607387 0.03622438 0.0334813 1.0957219e-38
0.037770584 0.038709372 0.032105267 1.2060344e-38
0.037092514 0.042574048 0.029842615 1.3162392e-38
0.036747433 0.046318859 0.029028058 1.4271959e-38
0.036813304 0.050216705 0.028014243 1.4269438e-38
0.036762767 0.054247662 0.027660012 1.3072341e-38
0.036770128 0.058210179 0.026976287 1.2245454e-38
0.037041768 0.061883628 0.025761724 1.1046541e-38
0.037532113 0.066029862 0.025144219 9.2994945e-39
0.03707321 0.07023412 0.024557054 9.295554e-39
0.036800213 0.074048087 0.024243176 9.9409024e-39
0.036939725 0.078166172 0.025008202 1.0122051e-38
0.03723219 0.082922548 0.025899827 1.3442913e-38
0.038177058 0.086214691 0.026000559 1.4547441e-38
0.034912437 0.036232188 0.033590138 1.0130329e-38
0.033616066 0.038843513 0.032929718 1.1877005e-38
0.033263743 0.042492256 0.030530691 1.2704653e-38
0.032742262 0.046308532 0.029080749 1.4269054e-38
0.033247039 0.049954712 0.027780414 1.325814e-38
0.032818198 0.054166988 0.027383387 1.2430176e-38
0.032767043 0.058198392 0.027029097 1.1693348e-38
0.033237621 0.061870947 0.025918961 1.0127108e-38
0.033225402 0.066042334 0.025318325 7.6410605e-39
0.032731444 0.070153534 0.025307536 8.6537621e-39
0.032830894 0.074046671 0.025065541 1.0771735e-38
0.033492476 0.078815714 0.026247203 1.1417123e-38
0.033459485 0.082245797 0.026849627 1.3811678e-38
0.030196339 0.036245853 0.033780813 7.6342544e-39
0.029575586 0.03885521 0.033093035 9.4785089e-39
0.029242665 0.042494118 0.030644119 1.0495881e-38
0.028737664 0.046298221 0.029133379 1.1046537e-38
0.028869599 0.050127998 0.027789712 1.1413523e-38
0.029662654 0.053841978 0.027222037 1.1692958e-38
0.030188113 0.057424024 0.026684344 1.1324203e-38
0.0294891 0.067380384 0.025277972 7.3605192e-39
0.028647438 0.070242226 0.025798619 7.7325205e-39
0.029232726 0.074880078 0.02709657 1.1233428e-38
0.030315712 0.078548044 0.027072668 1.316701e-38
0.024756819 0.034337997 0.031876326 1.2145675e-38
0.025577515 0.038826302 0.033035755 7.1732552e-39
0.025481105 0.042577043 0.032049775 7.2701522e-39
0.024714097 0.046309873 0.029296041 8.3750551e-39
0.025186956 0.049475044 0.028034151 9.5746464e-39
0.024819165 0.070625022 0.02586782 7.6403332e-39
0.025694832 0.074419275 0.027740896 1.0868625e-38
0.021623835 0.038756147 0.032757998 1.1408834e-38
0.021612138 0.042754874 0.032182157 6.8977502e-39
0.02066794 0.04634352 0.029568851 7.4526994e-39
0.020497486 0.049488619 0.028223753 7.5466831e-39
0.020672411 0.070839673 0.025645137 7.9154726e-39
0.021423548 0.074196115 0.028164089 1.0129607e-38
0.017913759 0.039010182 0.033161819 1.353148e-38
0.017346621 0.042862177 0.032138646 1.0581911e-38
0.016621143 0.046377152 0.029841602 7.7274674e-39
0.016698614 0.050274536 0.02882731 6.1630438e-39
0.016358361 0.054204762 0.028002024 5.8904296e-39
0.015783742 0.057797551 0.027218759 6.25778e-39
0.015420645 0.067421138 0.02584666 7.4523519e-39
0.016408145 0.070440546 0.026255965 7.7318058e-39
0.017673835 0.074050173 0.028237164 9.482078e-39
0.014688775 0.040295124 0.033830523 1.3899173e-38
0.013568357 0.042750254 0.032366812 1.343784e-38
0.012991115 0.046648249 0.031299055 8.6494489e-39
0.012979418 0.050643846 0.030723572 5.8860855e-39
0.013105273 0.054499343 0.029488802 5.2446748e-39
0.012729093 0.05818446 0.028298914 5.1507079e-39
0.013021111 0.062053829 0.027296007 5.7024384e-39
0.012454629 0.066416427 0.027528107 6.2563128e-39
0.012836933 0.070048362 0.028354228 6.7162232e-39
0.014589235 0.074332461 0.028929114 8.1005799e-39
0.010634661 0.044311225 0.033417344 1.2887902e-38
0.010087073 0.047249347 0.033016205 1.1137292e-38
0.0094888806 0.050771594 0.032280207 5.2439517e-39
0.0094196647 0.054832026 0.031164229 4.2319676e-39
0.0085499436 0.05875127 0.029601395 3.8635648e-39
0.0087041408 0.062787995 0.029270589 4.6926066e-39
0.0091233104 0.066589385 0.029130757 5.0617171e-39
0.010018378 0.070741788 0.029633343 5.2428825e-39
0.0066665113 0.055564091 0.031452 2.5757001e-39
0.0067407936 0.066790164 0.029325485 3.8649844e-39
0.14844634 0.08764933 0.024576783 1.7218623e-38
0.14857572 0.09131597 0.023705959 1.6570413e-38
0.14843348 0.094997838 0.022911549 1.5835366e-38
0.1490072 0.098013803 0.022723138 1.6946368e-38
0.14904627 0.10229191 0.022441983 1.7499868e-38
0.14920415 0.10614522 0.021880209 1.7402651e-38
0.14874263 0.10972106 0.021383822 1.6758012e-38
0.14782746 0.11419187 0.020776808 1.6852008e-38
0.14781766 0.117543 0.020294189 1.7404809e-38
0.14520735 0.084709749 0.025132775 1.721719e-38
0.14520413 0.087334394 0.024529874 1.6756925e-38
0.14574876 0.090617284 0.023248017 1.5187828e-38
0.14654621 0.095166072 0.022559941 1.2242262e-38
0.14619568 0.099517405 0.021947086 1.2711831e-38
0.14607361 0.1027526 0.021485865 1.473764e-38
0.14532539 0.10615025 0.021405935 1.5380831e-38
0.1451373 0.11011562 0.021249354 1.6024048e-38
0.1451211 0.1141997 0.020886123 1.6484302e-38
0.14510934 0.11822107 0.020307124 1.6664737e-38
0.14442492 0.12090394 0.019948363 1.6110504e-38
0.14114782 0.084721506 0.025296867 1.7309723e-38
0.14115641 0.087233707 0.024260283 1.6850191e-38
0.14115679 0.089827448 0.023549378 1.6114778e-38
0.14136142 0.11076556 0.020725727 1.4185165e-38
0.14105573 0.11816739 0.020255566 1.4914109e-38
0.14070269 0.12124984 0.020050585 1.5559472e-38
0.13724911 0.087581202 0.025043905 1.5100256e-38
0.13663951 0.090818152 0.023928106 1.3626575e-38
0.13838378 0.11392953 0.020189106 1.3904259e-38
0.13803324 0.11828084 0.019576252 1.4548925e-38
0.1368213 0.12198667 0.019723654 1.4826941e-38
0.13437018 0.088762432 0.024991214 1.270602e-38
0.13301297 0.0914184 0.024551511 1.1324573e-38
0.13286033 0.095071062 0.023258924 1.1324935e-38
0.1320083 0.099223852 0.022568882 1.0774979e-38
0.13232683 0.10263798 0.022316635 1.0680272e-38
0.13219142 0.1059161 0.021596849 9.6647093e-39
0.13163917 0.10993339 0.02104044 9.2948295e-39
0.13293488 0.12214449 0.019789398 1.3262509e-38
0.13381198 0.12540282 0.019733548 1.4457814e-38
0.12914182 0.091841459 0.024761081 6.6251458e-39
0.12893984 0.094810173 0.024341464 6.2592583e-39
0.12893003 0.098161295 0.023858845 7.1847543e-39
0.12946111 0.10164492 0.02333504 9.0250501e-39
0.13025969 0.1062001 0.02264601 9.6650666e-39
0.12991865 0.11048602 0.021789372 9.5714094e-39
0.12889937 0.11413081 0.021154046 9.0189419e-39
0.12871683 0.11832488 0.020582318 8.6523538e-39
0.12905392 0.12190591 0.020431817 1.0591337e-38
0.12429389 0.063993439 0.028972387 2.0164204e-38
0.12429231 0.067306966 0.028326511 1.8598304e-38
0.12429698 0.071251199 0.027420819 1.6753327e-38
0.12393559 0.074994832 0.027148783 1.4363428e-38
0.12357418 0.078740403 0.02687645 1.3351793e-38
0.12624133 0.092137083 0.024836838 5.9747079e-39
0.12623546 0.094147786 0.024547338 4.3216675e-39
0.12617272 0.11559503 0.021458924 9.2948043e-39
0.12616488 0.11827593 0.021072865 8.5604931e-39
0.12615705 0.12095684 0.020686805 9.0233027e-39
0.12038183 0.059849396 0.029729366 2.0712025e-38
0.12092514 0.063284293 0.028987408 1.9610675e-38
0.12095425 0.067130521 0.027645528 1.7951873e-38
0.12094252 0.071146205 0.027067304 1.5833889e-38
0.12090736 0.075267062 0.026924193 1.4177964e-38
0.12041612 0.078972951 0.026972055 1.3074864e-38
0.11597218 0.056198299 0.030435741 2.1266967e-38
0.11687842 0.059275746 0.029730439 2.0898188e-38
0.11690587 0.06315057 0.028496802 1.970252e-38
0.11669454 0.071540996 0.02718395 1.5738835e-38
0.11685733 0.075252682 0.026979327 1.4543516e-38
0.11680634 0.079430223 0.027053475 1.2520239e-38
0.11612192 0.082113072 0.026694775 1.2244385e-38
0.11148381 0.048615456 0.031711876 2.2372603e-38
0.11147597 0.051296368 0.031325877 2.2005262e-38
0.11283214 0.055267602 0.030473351 2.1451011e-38
0.11323859 0.058990434 0.0294227 2.1082936e-38
0.11353595 0.062467039 0.028620601 2.0345011e-38
0.11384735 0.071501389 0.027305782 1.6202675e-38
0.11320866 0.075375512 0.026773632 1.5097413e-38
0.1127616 0.079388663 0.026999891 1.3900313e-38
0.1125664 0.083296284 0.026669443 1.3716624e-38
0.11127605 0.1196595 0.021481574 2.3317138e-38
0.11181025 0.12207073 0.021112204 2.284863e-38
0.11126036 0.12502131 0.020709455 2.0807711e-38
0.10877942 0.047953084 0.03191781 2.2283279e-38
0.10921667 0.050939038 0.030602872 2.2098894e-38
0.11017931 0.055114701 0.029817283 2.1361321e-38
0.11017148 0.057791829 0.02943176 2.0903562e-38
0.10943126 0.079880163 0.026278615 1.4546396e-38
0.10889692 0.083457485 0.026037753 1.4177964e-38
0.10866427 0.087328896 0.02624768 1.3902101e-38
0.10730277 0.090181276 0.025892198 1.4453123e-38
0.10726552 0.10291559 0.024058461 2.0988955e-38
0.10779621 0.10653323 0.023515403 2.1266616e-38
0.1079326 0.11023845 0.02280724 2.2188552e-38
0.10863233 0.11411163 0.021714926 2.3106575e-38
0.10950182 0.11733274 0.021552265 2.3207385e-38
0.10998163 0.12271242 0.020083249 2.3308583e-38
0.10926388 0.12554446 0.020209968 2.1360916e-38
0.10446063 0.04407829 0.032652497 2.0900365e-38
0.10491993 0.047052696 0.03182584 2.1547509e-38
0.10614115 0.049772173 0.030752122 2.1545723e-38
0.10468908 0.084244221 0.025843382 1.3993194e-38
0.10460426 0.087508217 0.026387632 1.3716614e-38
0.10459249 0.091529563 0.025808573 1.5097378e-38
0.1045827 0.094880715 0.025326014 1.8505393e-38
0.10445237 0.09844628 0.024615169 2.154677e-38
0.10474928 0.1023518 0.023989618 2.1916274e-38
0.10475752 0.10596719 0.023215413 2.228256e-38
0.10541044 0.10979809 0.022333384 2.2833215e-38
0.10068193 0.040604085 0.033307552 1.7952982e-38
0.1010951 0.04339315 0.032455504 1.8324267e-38
0.10074782 0.045772105 0.031548917 1.9062185e-38
0.10161898 0.08766295 0.025728822 1.3255255e-38
0.10056086 0.091455355 0.025646806 1.721717e-38
0.10095511 0.09521921 0.024847567 2.1826252e-38
0.10194641 0.097972363 0.023976922 2.2746398e-38
0.097979501 0.039271459 0.033609986 1.9150068e-38
0.097752586 0.042108372 0.032603741 1.832138e-38
0.097916089 0.089952692 0.025297284 1.6108681e-38
0.093927816 0.036602318 0.034160137 1.8692676e-38
0.093940422 0.039241821 0.033554435 1.9151867e-38
0.09332756 0.041777924 0.032427549 1.8507578e-38
0.089868285 0.036614075 0.034324229 1.8775883e-38
0.0898927 0.039232895 0.033608735 1.7860771e-38
0.089949384 0.041787714 0.032564104 1.7306882e-38
0.085132182 0.036627784 0.034515679 1.7575548e-38
0.085812509 0.039286032 0.03399235 1.6751524e-38
0.086164251 0.04233411 0.03263998 1.7028485e-38
0.081749231 0.036637604 0.034652531 1.8134104e-38
0.081789687 0.03923589 0.033826828 1.8043352e-38
0.081841737 0.041811198 0.03289187 1.7674201e-38
0.077691674 0.035979122 0.034913003 1.9974405e-38
0.077989921 0.038762823 0.033488512 1.7394029e-38
0.073969468 0.036325023 0.035015166 1.877622e-38
0.073498756 0.038853899 0.034092128 1.8593639e-38
0.070923835 0.036668941 0.03508997 1.8579672e-38
0.069646358 0.039230168 0.034098983 2.1179787e-38
0.065511145 0.036684632 0.035308838 1.9979492e-38
0.065942794 0.038221776 0.034311235 1.9792168e-38
0.061300419 0.035687834 0.035335422 1.6660798e-38
0.057403833 0.032686785 0.03621608 1.5008806e-38
0.057469182 0.034608021 0.035430908 1.4541723e-38
0.057933278 0.10694014 0.024987519 1.2521679e-38
0.053344309 0.032698542 0.036380172 1.3808454e-38
0.053727977 0.034432024 0.035305738 1.3717332e-38
0.053212732 0.10293531 0.025757492 1.0585545e-38
0.05388248 0.1049426 0.025440812 1.1413538e-38
0.049062848 0.032244802 0.035862088 1.2061419e-38
0.050110348 0.03387177 0.035331964 1.2245443e-38
0.048301794 0.095538393 0.026855528 1.2979384e-38
0.049129784 0.098660275 0.026793122 1.2154646e-38
0.050438032 0.10106952 0.026645362 1.1230192e-38
0.045684196 0.032254592 0.035998642 1.150862e-38
0.045121245 0.091591939 0.027795017 1.2051723e-38
0.045945756 0.094827145 0.027728498 1.0954334e-38
0.041275248 0.032617033 0.036210716 1.0401569e-38
0.040651441 0.033899158 0.035714328 1.0679949e-38
0.039815314 0.088782415 0.027838767 1.4546355e-38
0.041375384 0.090643376 0.028265178 1.417542e-38
0.037106223 0.03274557 0.037036598 8.9264352e-39
0.037271298 0.034578234 0.035754502 9.9423738e-39
0.036692776 0.087914482 0.028596938 1.4914782e-38
0.034399867 0.032753408 0.037145972 8.0988297e-39
0.032936439 0.035203561 0.036473334 8.0044747e-39
0.033070683 0.084786281 0.0286901 1.5006266e-38
0.033193961 0.086860746 0.029195011 1.5373978e-38
0.028018087 0.079781339 0.029617786 1.4179359e-38
0.026457205 0.035948113 0.035998762 8.2767161e-39
0.024310932 0.076780304 0.030201674 1.2803249e-38
0.02533631 0.079128608 0.030326962 1.4365902e-38
0.016441748 0.076586917 0.031056523 9.8494018e-39
0.012058526 0.072915748 0.031764567 6.7169378e-39
0.012442395 0.075667366 0.030846834 6.8109257e-39
0.013288453 0.079730049 0.03123796 5.0624598e-39
0.0088652372 0.044699684 0.035455883 1.3257413e-38
0.0079565495 0.047379419 0.035106778 1.0041375e-38
0.0074904561 0.052735016 0.034354031 3.2181912e-39
0.0074434876 0.068797827 0.032041013 4.5099852e-39
0.0077725053 0.071808621 0.031593621 4.2323305e-39
0.009450838 0.075484797 0.030995309 4.6000369e-39
0.010427922 0.079211906 0.031092286 4.1419496e-39
0.0073010921 0.044895872 0.036502719 1.2429477e-38
0.0062793493 0.047244623 0.036205947 8.3804234e-39
0.0059999079 0.051535442 0.03526181 2.2987601e-39
0.0059204847 0.054282963 0.035206199 2.0236109e-39
0.0058656037 0.073049322 0.032503903 3.6806001e-39
0.006534338 0.075728297 0.032090545 3.0359608e-39
0.0065265 0.07840918 0.031704426 2.4831583e-39
0.16004714 0.1029107 0.024937093 2.0075234e-38
0.16071478 0.10694705 0.024328113 1.9523149e-38
0.16093206 0.11008734 0.023866653 1.9339106e-38
0.15666962 0.096189991 0.026043594 2.0901425e-38
0.15666175 0.098882213 0.025655925 2.0348603e-38
0.15733062 0.10282765 0.024722934 1.961427e-38
0.15731925 0.10680224 0.02392596 1.8878151e-38
0.15691915 0.11072318 0.02365005 1.8048033e-38
0.15647861 0.11503592 0.023335338 1.8230258e-38
0.15626198 0.11941136 0.022713542 1.8232394e-38
0.15195091 0.083415702 0.028077304 2.0720266e-38
0.15227981 0.087116525 0.027530491 2.062986e-38
0.15261027 0.09077473 0.026821375 2.1089756e-38
0.15311024 0.094891265 0.025870562 2.1180869e-38
0.15327083 0.098684102 0.025036514 2.0258918e-38
0.15326029 0.10265763 0.0242396 1.9245859e-38
0.1532485 0.1066903 0.023658872 1.7677824e-38
0.1532367 0.11072299 0.023078203 1.7310833e-38
0.15322363 0.11482023 0.022712886 1.7681042e-38
0.15320866 0.11898522 0.022562563 1.8693382e-38
0.15292425 0.12231515 0.022431433 1.9519908e-38
0.14834078 0.080428764 0.028318048 1.9339837e-38
0.14940991 0.082826152 0.027886868 1.933875e-38
0.1496864 0.086172387 0.027098417 1.8692657e-38
0.1505817 0.09056747 0.026091337 1.9157974e-38
0.15056992 0.094600126 0.025510609 1.9438156e-38
0.15055616 0.099304929 0.024833143 1.8606249e-38
0.15055026 0.10132127 0.024542809 1.8512616e-38
0.14983246 0.11476547 0.022634506 1.7036404e-38
0.14952932 0.11899102 0.022037923 1.8141305e-38
0.14912762 0.1229001 0.021715701 1.8876356e-38
0.1486561 0.12667395 0.021808922 1.9244067e-38
0.14517382 0.080621853 0.028251112 1.804874e-38
0.1451754 0.083189934 0.02737534 1.7403726e-38
0.14525217 0.12322807 0.021601915 1.6942053e-38
0.14503491 0.12708236 0.021729469 1.8415377e-38
0.14502068 0.1298762 0.02166456 1.8967095e-38
0.14110002 0.080633655 0.028415859 1.6113737e-38
0.14110446 0.083201736 0.027539909 1.7035657e-38
0.14125752 0.12366211 0.021702588 1.6020092e-38
0.14096016 0.12709412 0.021894217 1.6850562e-38
0.14094205 0.13056104 0.02173239 1.7402651e-38
0.13718542 0.082861558 0.02838093 1.3627322e-38
0.13668738 0.085566893 0.027379453 1.4734711e-38
0.13827059 0.12420844 0.021745801 1.647891e-38
0.13690257 0.12693512 0.021521151 1.6572191e-38
0.13668351 0.1307288 0.02144891 1.7309015e-38
0.13162473 0.063956156 0.031711876 2.2009563e-38
0.13161686 0.066648379 0.031324208 2.1271259e-38
0.13160504 0.070686698 0.030742705 1.8687992e-38
0.13312149 0.083181813 0.02888 1.0490846e-38
0.13295273 0.086585879 0.027385175 1.0404037e-38
0.13226639 0.089276284 0.027025402 1.0682055e-38
0.13238117 0.127362 0.02153182 1.4457809e-38
0.13299756 0.13073947 0.021597862 1.6393164e-38
0.12872416 0.064286605 0.031493902 2.1731184e-38
0.12891431 0.067903087 0.030804336 2.0350388e-38
0.12873553 0.071758404 0.030199885 1.7676364e-38
0.12820496 0.075349614 0.029956698 1.4085758e-38
0.1284754 0.078772396 0.029705286 1.3258118e-38
0.12885185 0.082809582 0.029108107 1.2980453e-38
0.1288818 0.086597681 0.027549744 9.1090328e-39
0.12860097 0.089824602 0.027096093 7.3673869e-39
0.12815417 0.10340244 0.025157511 7.8258049e-39
0.12813704 0.10680941 0.024835646 8.4690359e-39
0.12798013 0.11064054 0.024526 9.389895e-39
0.12744422 0.11415821 0.023636401 1.0489397e-38
0.12809324 0.12423792 0.022157192 1.1327099e-38
0.128759 0.12695871 0.021850348 1.3353251e-38
0.1290528 0.13025896 0.0222615 1.4184103e-38
0.12349307 0.056576177 0.033107579 2.2836447e-38
0.12466769 0.060231045 0.032099545 2.1636825e-38
0.12541296 0.063261643 0.031256735 2.1085439e-38
0.12622286 0.067786381 0.030369401 1.9429837e-38
0.12621108 0.071819052 0.029788613 1.730758e-38
0.1255208 0.075853705 0.029235303 1.4086111e-38
0.12520632 0.079571411 0.029001296 1.3259585e-38
0.12499585 0.083065107 0.02865088 1.2613501e-38
0.12481084 0.086609468 0.027714252 1.0586643e-38
0.12462991 0.090474606 0.027164578 7.9161943e-39
0.12438487 0.094942987 0.026819527 5.4269431e-39
0.12514311 0.098628864 0.026401877 4.2355773e-39
0.1254032 0.10296588 0.026175439 5.2486783e-39
0.12606519 0.10637437 0.025825679 6.8113251e-39
0.12604748 0.11243184 0.024953365 9.6661302e-39
0.12471178 0.11515853 0.023940861 9.851941e-39
0.12432878 0.11887199 0.023084283 8.7463333e-39
0.12451626 0.12318546 0.022834241 9.6686679e-39
0.12465036 0.12720911 0.022768438 1.1143798e-38
0.12395796 0.12993719 0.022515893 1.2155791e-38
0.12079695 0.049180433 0.034283519 2.3392517e-38
0.12078907 0.051872686 0.03389591 2.3113395e-38
0.12064078 0.055950195 0.0326823 2.2374048e-38
0.12149898 0.05906269 0.031819463 2.1545341e-38
0.1216616 0.080793679 0.02868104 1.2985183e-38
0.12074973 0.083260685 0.028362691 1.2615309e-38
0.12073991 0.086621255 0.027878821 1.169406e-38
0.12072811 0.090653941 0.027298152 9.4817067e-39
0.12158875 0.093961582 0.027460277 7.5463468e-39
0.12150735 0.11603461 0.024619699 1.0493369e-38
0.12128024 0.1191266 0.024014711 1.1412431e-38
0.12128621 0.12306456 0.023109913 1.040439e-38
0.12090835 0.12725383 0.023027182 1.0862147e-38
0.12055682 0.13129315 0.022459447 1.215435e-38
0.11807919 0.049188316 0.034393489 2.2558066e-38
0.11741192 0.051815271 0.033705115 2.2373685e-38
0.11721302 0.055266485 0.032541633 2.1913421e-38
0.11701706 0.083607554 0.028465152 1.2336575e-38
0.11666897 0.086633056 0.028043389 1.1600789e-38
0.11665716 0.090665743 0.027462721 1.0219619e-38
0.11794928 0.093609929 0.027996778 8.283895e-39
0.11720257 0.12003584 0.024050295 1.7586675e-38
0.11721782 0.12305079 0.023193896 1.4727872e-38
0.11737335 0.12705824 0.022923946 1.2796778e-38
0.11784017 0.13091642 0.022624671 1.1693348e-38
0.11320215 0.044087276 0.035327733 2.1635383e-38
0.11386003 0.047948927 0.034365118 2.0900353e-38
0.11337872 0.051693037 0.033213198 2.1911988e-38
0.11341143 0.086911336 0.028136253 1.2613862e-38
0.11326471 0.090675548 0.027599752 1.2612041e-38
0.11368491 0.094546467 0.027891517 1.2428336e-38
0.11249799 0.099010125 0.027441144 1.4821132e-38
0.11248618 0.10304844 0.026859581 1.528387e-38
0.11290108 0.11605953 0.024967551 2.200378e-38
0.11343703 0.11907174 0.024078012 2.173041e-38
0.11350863 0.123272 0.022891998 2.0715178e-38
0.11343111 0.12724899 0.022611082 1.5834191e-38
0.11376436 0.13063978 0.022831082 1.2609182e-38
0.10969332 0.040560365 0.035777032 2.2007397e-38
0.11000249 0.04365842 0.034621477 2.1637555e-38
0.11034025 0.046661034 0.034062564 2.1453886e-38
0.11123908 0.087320879 0.028165936 1.4362341e-38
0.10987177 0.090853393 0.027712703 1.4731488e-38
0.10983808 0.094805464 0.027481675 1.6385618e-38
0.10980367 0.098928884 0.027225733 1.7490852e-38
0.10979947 0.10293502 0.026536286 1.8965636e-38
0.11001763 0.10695469 0.025891781 1.9056034e-38
0.11044706 0.11103596 0.0254547 2.043865e-38
0.11045778 0.11497575 0.024549365 2.2738852e-38
0.11114866 0.11823803 0.023713946 2.3106539e-38
0.11010241 0.12798661 0.022351682 1.6202264e-38
0.10941631 0.13051775 0.023026049 1.0848839e-38
0.10520519 0.037110716 0.036659718 2.1455298e-38
0.10593449 0.03965719 0.035476625 2.1269117e-38
0.10639255 0.043199927 0.034722567 2.1269488e-38
0.10728802 0.04633382 0.034234345 2.1917372e-38
0.10715437 0.092037454 0.027653039 1.4729696e-38
0.1071465 0.094725892 0.027265906 1.6476383e-38
0.1071347 0.098758578 0.026685178 1.9060006e-38
0.10712684 0.10144703 0.026298046 2.0533707e-38
0.10183517 0.037060365 0.036467552 2.1085425e-38
0.10204015 0.039482728 0.035562456 2.0439721e-38
0.10322886 0.04231295 0.034979582 2.0348982e-38
0.09760759 0.035864934 0.036643982 1.9981618e-38
0.093716003 0.035517618 0.036726594 1.8873821e-38
0.089642927 0.03552942 0.036891282 1.8691213e-38
0.085744195 0.035359651 0.037273765 1.7674908e-38
0.082115971 0.033139288 0.038175046 1.7583803e-38
0.081502736 0.035041556 0.03725189 1.8042634e-38
0.077021137 0.032817528 0.038429558 1.9424499e-38
0.077469803 0.034322277 0.037183166 1.9976251e-38
0.0732852 0.032491826 0.038629055 1.8871655e-38
0.073125899 0.034872532 0.037281275 1.8776959e-38
0.069229104 0.032474451 0.038628638 1.8040471e-38
0.069123305 0.035566762 0.037597537 1.9056799e-38
0.065131895 0.032515436 0.038958669 1.8596881e-38
0.065255016 0.035029754 0.037580073 1.9888719e-38
0.06132663 0.032661065 0.039093077 1.8871316e-38
0.061864518 0.034367457 0.037814021 1.8502571e-38
0.0566779 0.031487137 0.039199233 1.4912673e-38
0.05554387 0.10764538 0.027511418 1.2338736e-38
0.053266115 0.031234629 0.039021134 1.3255647e-38
0.051482759 0.10429661 0.028159857 1.095249e-38
0.054113612 0.10778965 0.028054595 1.2247259e-38
0.050873443 0.029191487 0.040019989 1.2152533e-38
0.049977861 0.03100951 0.039390147 1.2061783e-38
0.047425568 0.099603623 0.029001892 1.2156076e-38
0.049413137 0.10302705 0.028680146 1.1046128e-38
0.046796784 0.029203296 0.040184796 1.0218979e-38
0.045392208 0.030988596 0.039378166 1.0495916e-38
0.043706626 0.095245689 0.029781878 1.3069416e-38
0.045732267 0.098600373 0.029215634 1.2336882e-38
0.046584204 0.10189322 0.029717505 1.1878418e-38
0.04214365 0.031345062 0.039391994 1.0217527e-38
0.040662259 0.092230037 0.030340791 1.4175418e-38
0.041131809 0.094753221 0.030362546 1.3900615e-38
0.043198787 0.097864732 0.030436337 1.2701355e-38
0.038069494 0.031805567 0.039492071 9.1104565e-39
0.037907943 0.091630325 0.030792534 1.5282111e-38
0.039133959 0.093838215 0.031182647 1.4637109e-38
0.032693356 0.033107743 0.039186895 7.9086903e-39
0.033885211 0.089561239 0.031002164 1.5284639e-38
0.031336337 0.033111677 0.039241791 7.4527302e-39
0.029277518 0.087459922 0.031998754 1.5558721e-38
0.030992448 0.089823499 0.032093704 1.528143e-38
0.025185749 0.083028331 0.032973051 1.5008066e-38
0.027112097 0.085548222 0.031857193 1.5009491e-38
0.021266565 0.079636529 0.033453465 1.3353543e-38
0.018989861 0.078850672 0.03315413 1.1691524e-38
0.045374788 0.042433307 0.029909849 1.4269076e-38
0.11444881 0.10105218 0.025434017 1.3440756e-38
0.10950459 0.069291666 0.029559195 1.7861135e-38
0.11100335 0.069831327 0.029046595 1.7218623e-38
0.11162227 0.087494165 0.026928544 1.4270875e-38
0.10147222 0.083989471 0.027408719 1.2335485e-38
0.10537294 0.078050718 0.028007686 1.0681723e-38
0.12210618 0.088371068 0.031755865 1.8690872e-38
0.1203981 0.089906171 0.03062129 1.8322811e-38
0.11914052 0.097854465 0.029208839 1.8600118e-38
0.11939272 0.09417139 0.028774381 1.7770714e-38
0.15228057 0.11189301 0.026725948 1.8047296e-38
0.14977661 0.11370453 0.027174592 1.8139144e-38
0.16408674 0.13001761 0.025921166 1.7954756e-38
0.16011435 0.08461903 0.032626271 2.2660322e-38
0.16078863 0.088005885 0.032110572 2.283968e-38
0.16145875 0.091842771 0.030631423 2.2010278e-38
0.16144514 0.095788583 0.029613912 2.1364194e-38
0.16142793 0.099550277 0.027948976 2.0809581e-38
0.16209507 0.10345021 0.02679795 1.9983042e-38
0.16276456 0.10749789 0.026187241 1.9520287e-38
0.16161679 0.11204812 0.025746882 1.9244396e-38
0.16137819 0.11560109 0.025076032 1.8874914e-38
0.16136762 0.1197166 0.024708092 1.8323531e-38
0.16135931 0.12322579 0.024652004 1.7862203e-38
0.16135289 0.12684077 0.024917781 1.7586684e-38
0.16134557 0.1313125 0.025621772 1.7124628e-38
0.15718396 0.084266677 0.032507777 2.2564909e-38
0.15737127 0.087626323 0.030731976 2.2196102e-38
0.15735936 0.091570869 0.029714525 2.1550023e-38
0.15754515 0.095052928 0.028482914 2.1180883e-38
0.15870018 0.099410459 0.027518809 2.0533717e-38
0.15866268 0.11223428 0.025672138 1.8508998e-38
0.15831214 0.11560997 0.02519995 1.8413932e-38
0.15809669 0.11939026 0.024663925 1.8047296e-38
0.15726644 0.12371223 0.024074972 1.7955445e-38
0.15725525 0.12734187 0.024394989 1.7032427e-38
0.15724339 0.13104928 0.024928451 1.6481763e-38
0.15723285 0.13410403 0.025612235 1.6203752e-38
0.15260994 0.077185392 0.034004033 2.2203305e-38
0.15329413 0.079681769 0.032717466 2.2201147e-38
0.15368323 0.083173141 0.030641615 2.2013889e-38
0.15410224 0.087054983 0.029689491 2.2105356e-38
0.15463392 0.091407642 0.029175341 2.1367422e-38
0.1546279 0.094022751 0.028461516 2.1181942e-38
0.15351607 0.12473549 0.024080634 1.9429142e-38
0.15316753 0.12714988 0.023915529 1.8876691e-38
0.15314795 0.13092275 0.024664581 1.7034218e-38
0.15312766 0.13411592 0.025778174 1.6666167e-38
0.14903219 0.075833872 0.033586621 2.1182672e-38
0.14941126 0.078905448 0.031286657 2.0354709e-38
0.15044114 0.1277816 0.023767233 1.9798648e-38
0.14923418 0.13080925 0.023885846 1.8969967e-38
0.14883287 0.1349165 0.025260448 1.7677798e-38
0.14764215 0.13819838 0.025413752 1.6666168e-38
0.14509761 0.072462797 0.034991503 1.869159e-38
0.14511287 0.075539455 0.033199191 1.8599014e-38
0.14512785 0.078605756 0.031408548 1.832388e-38
0.14497852 0.13184702 0.023404419 1.8508263e-38
0.14495215 0.13486378 0.023981988 1.7770729e-38
0.14456226 0.1385462 0.025489509 1.7125704e-38
0.14009137 0.068636656 0.03574729 1.8232418e-38
0.1409944 0.071796909 0.035254955 1.7123915e-38
0.14102118 0.075499937 0.033147275 1.5008111e-38
0.14102621 0.078736722 0.032062709 1.5191063e-38
0.14086898 0.1347349 0.023717821 1.7033872e-38
0.14080708 0.13878934 0.02527076 1.6849486e-38
0.13693082 0.057575688 0.03747046 2.2750745e-38
0.1367541 0.060395643 0.036204576 2.2837885e-38
0.13694844 0.064091578 0.035317242 2.1822286e-38
0.13713112 0.067874238 0.034822464 1.9797909e-38
0.13693084 0.071505383 0.034114718 1.7402287e-38
0.13693789 0.07540895 0.032877743 1.4269082e-38
0.1369397 0.07935746 0.031859219 1.2331911e-38
0.13558576 0.081929103 0.030982137 1.1597225e-38
0.13696434 0.13473871 0.023315012 1.6389916e-38
0.1370037 0.13838759 0.024607718 1.6297746e-38
0.13351972 0.05419676 0.038096786 2.2568863e-38
0.13372487 0.056756154 0.036984026 2.2657469e-38
0.1328876 0.06055139 0.035184443 2.2931156e-38
0.13307351 0.06444259 0.033857763 2.2008476e-38
0.13316034 0.067986578 0.033495069 2.0812444e-38
0.13304952 0.071222797 0.03300792 1.8321361e-38
0.13287254 0.075239226 0.032281816 1.436344e-38
0.13286826 0.079237223 0.031481087 1.2704627e-38
0.13217902 0.081938967 0.031119823 1.3070511e-38
0.13252628 0.13483106 0.023735821 1.6022241e-38
0.13342011 0.13874978 0.024470568 1.6206268e-38
0.12990607 0.053239003 0.038382351 2.2199009e-38
0.12976956 0.056564242 0.03617537 2.2471629e-38
0.12950324 0.060418993 0.034667671 2.265349e-38
0.12950891 0.063048527 0.033951342 2.1825546e-38
0.13015473 0.075195476 0.032174349 1.4639299e-38
0.13014288 0.07924512 0.031591237 1.3348176e-38
0.12862623 0.13189439 0.024065435 1.4277405e-38
0.12928602 0.13469823 0.023971558 1.5008816e-38
0.12971845 0.13945444 0.024953544 1.6115866e-38
0.12500575 0.049039543 0.038682222 2.2653503e-38
0.1260488 0.052638605 0.037502885 2.2008134e-38
0.126087 0.056469694 0.035825729 2.2652411e-38
0.12665674 0.059817106 0.03453356 2.1912679e-38
0.12492512 0.10808462 0.028153598 6.3521406e-39
0.12512422 0.11149979 0.027552247 8.3800563e-39
0.12458949 0.1143578 0.026757658 9.851941e-39
0.12590185 0.13156483 0.024224222 1.3169235e-38
0.12587771 0.13470809 0.024109304 1.3629473e-38
0.12580481 0.13918939 0.024814546 1.5194973e-38
0.12573585 0.1423284 0.025713205 1.6574679e-38
0.12055559 0.042034581 0.040379047 2.2659984e-38
0.12180888 0.044672802 0.038683593 2.2752545e-38
0.12220967 0.048125193 0.036779344 2.3023737e-38
0.12272703 0.05226922 0.035781801 2.3113392e-38
0.12271915 0.054968983 0.035393059 2.2747847e-38
0.12099054 0.096457735 0.029821455 6.8112999e-39
0.12169699 0.099887371 0.029719591 5.2472041e-39
0.1219379 0.1082425 0.030022442 5.7056852e-39
0.12195839 0.11195707 0.028854191 7.6392627e-39
0.12125508 0.1147117 0.028056264 9.0211223e-39
0.12182857 0.12651461 0.025118351 1.0129973e-38
0.12215641 0.13090073 0.024472892 1.1969603e-38
0.12197472 0.13478212 0.023920953 1.3258907e-38
0.12170724 0.13920127 0.024980247 1.4272684e-38
0.12299906 0.14233634 0.025823891 1.5926829e-38
0.11765914 0.040968463 0.040073276 2.2842222e-38
0.11795627 0.044267535 0.037579358 2.2936558e-38
0.11797144 0.047558457 0.036654949 2.2559137e-38
0.1178008 0.09628588 0.030144989 7.27225e-39
0.11769946 0.10009429 0.031229377 5.6152594e-39
0.11729733 0.10338151 0.031670809 5.1492576e-39
0.1162522 0.10982329 0.030785203 6.6175633e-39
0.11717686 0.11221044 0.030066371 6.9816921e-39
0.11782558 0.11560218 0.028141499 1.1594667e-38
0.11810388 0.11876364 0.026387513 1.5931846e-38
0.11769488 0.13491379 0.024455965 1.1509667e-38
0.11777902 0.13897896 0.025654256 1.3259264e-38
0.11281454 0.037538588 0.041343093 2.2193975e-38
0.11382216 0.04039003 0.03920573 2.2471261e-38
0.11491624 0.04385516 0.037313521 2.2375114e-38
0.11524803 0.046891406 0.036862373 2.1082577e-38
0.11442062 0.096838936 0.029697716 1.0951056e-38
0.11436138 0.099761724 0.030121565 1.0763444e-38
0.11379786 0.10399918 0.030208051 1.1778653e-38
0.11360475 0.10810362 0.029792964 1.2051275e-38
0.11362037 0.11203636 0.028776109 1.4080707e-38
0.11411925 0.11538428 0.027374387 1.8694092e-38
0.1150388 0.11843507 0.026560068 2.0628431e-38
0.11354424 0.13506033 0.025573313 9.7590615e-39
0.11480054 0.1382935 0.026741326 1.0957607e-38
0.10826378 0.033937037 0.042048037 2.1454605e-38
0.10968529 0.036484078 0.040724039 2.1363141e-38
0.11016063 0.039144397 0.03818655 2.219072e-38
0.11098626 0.10629797 0.028474808 1.7758437e-38
0.11091125 0.1319457 0.024781525 1.1127207e-38
0.10966504 0.13453265 0.026684165 9.8479781e-39
0.10507348 0.033042595 0.042307198 2.0808503e-38
0.10585264 0.035936609 0.039980412 2.1456046e-38
0.10149691 0.032446235 0.041640341 2.0530499e-38
0.10162844 0.03551583 0.039395094 2.1175852e-38
0.096644267 0.02990412 0.043103814 2.1364905e-38
0.097491793 0.032266244 0.040706336 2.1176928e-38
0.098931268 0.034789845 0.039272726 2.0625192e-38
0.092988335 0.029304892 0.042935073 2.044369e-38
0.09344773 0.032182172 0.040321946 2.0714154e-38
0.088999316 0.028655648 0.043090284 1.9516342e-38
0.089335829 0.032232478 0.04070735 1.9793265e-38
0.085495025 0.028629646 0.042876065 2.0162776e-38
0.085243955 0.032244325 0.040872693 1.9148243e-38
0.081603751 0.025881112 0.044297874 1.9242269e-38
0.082163051 0.02833657 0.043415487 2.0256763e-38
0.080984287 0.03182967 0.040865719 1.9514519e-38
0.07794629 0.028670669 0.043640673 1.9334455e-38
0.077342696 0.03144528 0.041243136 1.9239744e-38
0.074761748 0.025900923 0.04457438 1.9056443e-38
0.07395836 0.02836033 0.043747127 1.9056814e-38
0.073012121 0.0308723 0.041233003 1.9058211e-38
0.069873527 0.028868526 0.043479562 1.6939173e-38
0.069645241 0.030825064 0.041040182 1.786074e-38
0.06594526 0.028524809 0.043882191 1.620123e-38
0.066238508 0.030834928 0.041177869 1.6018634e-38
0.061077736 0.02594056 0.045127511 1.5000906e-38
0.061904185 0.028462231 0.043606818 1.6386343e-38
0.062150434 0.030846775 0.041343153 1.7951149e-38
0.057773679 0.02851133 0.043993115 1.6388139e-38
0.058367409 0.03123793 0.041694105 1.6570028e-38
0.053787269 0.028392248 0.043386638 1.2980145e-38
0.052310407 0.10863286 0.031040192 1.1878125e-38
0.051931411 0.11204289 0.033092082 1.4177578e-38
0.051925465 0.11407618 0.032799304 1.5007701e-38
0.048762128 0.025976226 0.045625329 1.1322431e-38
0.04944019 0.028082311 0.043994188 1.1508618e-38
0.048306406 0.10512966 0.031203032 1.05873e-38
0.049964845 0.10765302 0.031782746 1.0956145e-38
0.050563015 0.11204685 0.033147454 1.408898e-38
0.050557077 0.11408015 0.032854676 1.5192109e-38
0.045341127 0.025986135 0.045763671 1.0124238e-38
0.045499921 0.027928174 0.043166041 9.6632547e-39
0.044232175 0.10041691 0.032048583 1.2246128e-38
0.04573039 0.10427581 0.032240152 1.1597527e-38
0.045787476 0.10731632 0.034024179 1.0863215e-38
0.041920125 0.025996044 0.045901895 9.6650288e-39
0.04149916 0.028429091 0.043883204 8.9267729e-39
0.041028723 0.030907944 0.042196929 9.8501669e-39
0.041516654 0.097050086 0.032644689 1.3440699e-38
0.041704074 0.099872753 0.035263777 1.2794989e-38
0.03814362 0.028788552 0.044440389 8.9238904e-39
0.037966207 0.031258672 0.044293761 9.1100753e-39
0.035906523 0.0932744 0.034429133 1.5374659e-38
0.037267163 0.09462221 0.03417933 1.5189195e-38
0.035750434 0.03008049 0.045565188 9.1993352e-39
0.035746463 0.031436026 0.045370042 8.190263e-39
0.033522397 0.092268452 0.034671545 1.5099519e-38
0.028979883 0.091826931 0.035527349 1.5189927e-38
0.02374503 0.084400982 0.035699069 1.4732191e-38
0.025640815 0.087959647 0.035867095 1.4914046e-38
0.025991276 0.091785148 0.03707099 1.4174721e-38
0.021123633 0.080910757 0.035803556 1.3723764e-38
0.021122098 0.08314167 0.036897659 1.4270126e-38
0.017620966 0.080366313 0.036530614 1.1873411e-38
0.018488824 0.083673701 0.038546383 1.353186e-38
0.014895648 0.079698309 0.036738157 9.5760323e-39
0.074355155 0.081506312 0.017028093 1.4272684e-38
0.10021104 0.095928222 0.017151952 2.1289268e-38
0.098019719 0.078896269 0.019658566 1.9712587e-38
0.096714288 0.08492595 0.018655717 1.8791729e-38
0.098121598 0.11092992 0.013123155 2.3325136e-38
0.097222067 0.11861481 0.012190878 2.1191296e-38
0.050892696 0.057435706 0.028800964 1.1781592e-38
0.067746162 0.077259585 0.023374915 1.6395705e-38
0.069488183 0.074676201 0.023382246 1.4452394e-38
0.062808953 0.073347926 0.023161471 1.3435732e-38
0.063765295 0.07091549 0.024167657 1.2611347e-38
0.064340316 0.069558933 0.024363577 1.2426598e-38
0.060407177 0.072494984 0.024378598 1.5375425e-38
0.059075378 0.080374464 0.021997273 1.4547452e-38
0.056539215 0.067085698 0.025794029 1.1412829e-38
0.046433881 0.048687652 0.028035104 1.2979776e-38
0.12382475 0.070764825 0.029616654 1.5833168e-38
0.12072751 0.074754804 0.028123915 1.4546393e-38
0.11544265 0.081718102 0.027426839 1.4361633e-38
0.12300265 0.079811141 0.026539564 1.7400136e-38
0.14574876 0.090617284 0.023248017 1.5187828e-38
0.14107046 0.11411487 0.02072674 1.5378306e-38
0.10258923 0.10121876 0.024878025 1.178448e-38
0.099054493 0.076495171 0.028858364 1.4732581e-38
0.097581662 0.072116151 0.02927196 1.4822616e-38
0.1216616 0.080793679 0.02868104 1.2985183e-38
0.097417951 0.097927928 0.015889406 2.1012335e-38
0.16151129 0.080719501 0.036726415 2.2481348e-38
0.16188799 0.084334552 0.035050511 2.2662837e-38
0.16284706 0.088250041 0.033002555 2.283861e-38
0.16153455 0.13633274 0.026704252 1.6297405e-38
0.16133839 0.14006642 0.028461337 1.5930781e-38
0.1573981 0.076567039 0.037155926 2.2390223e-38
0.15738933 0.080280185 0.035048187 2.2576416e-38
0.15806687 0.082834244 0.033978224 2.2478105e-38
0.15722293 0.13677238 0.02725035 1.5743847e-38
0.15721162 0.14007837 0.02862817 1.5192099e-38
0.15720101 0.14353934 0.028298318 1.5194641e-38
0.15191221 0.069949105 0.039120078 2.293765e-38
0.15328459 0.072544262 0.038128257 2.2567065e-38
0.15348597 0.075738728 0.035476983 2.266249e-38
0.15310951 0.13667829 0.027094901 1.6573591e-38
0.15308742 0.13998304 0.028473318 1.556087e-38
0.15307297 0.1435513 0.028465152 1.4731498e-38
0.15168898 0.14628145 0.028128266 1.5467631e-38
0.14848612 0.065188304 0.039946139 2.2665348e-38
0.14899331 0.068736926 0.039287627 2.1924571e-38
0.14918123 0.072202489 0.036772192 2.145928e-38
0.15055402 0.074711546 0.035455704 2.2105364e-38
0.14968626 0.13715489 0.026491821 1.6300255e-38
0.14898615 0.13985939 0.026804864 1.62059e-38
0.1491217 0.14361133 0.028238714 1.602043e-38
0.14824894 0.14629142 0.028267324 1.5927516e-38
0.14505605 0.061790571 0.040575862 2.2934784e-38
0.14573608 0.064514741 0.04015553 2.2380513e-38
0.14544271 0.068639725 0.038850844 1.9799743e-38
0.14508471 0.070655152 0.036263645 1.8875996e-38
0.14515394 0.1406973 0.026166499 1.6666877e-38
0.1451284 0.14346814 0.026779354 1.6666509e-38
0.14572492 0.14675309 0.028303862 1.6575751e-38
0.14162798 0.057711303 0.041303754 2.2487099e-38
0.14204524 0.060466543 0.040384114 2.2752541e-38
0.14163952 0.064256087 0.039096236 2.1821947e-38
0.14198878 0.067660689 0.037832797 1.9520289e-38
0.14076737 0.14125299 0.026265502 1.6665828e-38
0.1414201 0.1436692 0.027070343 1.666653e-38
0.14171189 0.14665112 0.028482437 1.7034939e-38
0.13683186 0.050909862 0.042479873 2.2677966e-38
0.13729396 0.053113282 0.04180634 2.248997e-38
0.13838905 0.056188509 0.040082633 2.2483146e-38
0.13958439 0.059552252 0.040110707 2.2659617e-38
0.13734162 0.1412629 0.026403964 1.6481781e-38
0.13768826 0.14408709 0.028005123 1.6573965e-38
0.13792685 0.14700282 0.028586328 1.6666518e-38
0.13392004 0.049676284 0.042523801 2.2676888e-38
0.13434272 0.052823409 0.040139019 2.2577488e-38
0.13391586 0.14127283 0.026542485 1.6482857e-38
0.1338421 0.14396273 0.028180182 1.6666123e-38
0.13380486 0.14695992 0.028592288 1.648211e-38
0.12963115 0.046452835 0.043163478 2.2585057e-38
0.1300142 0.049282998 0.041532159 2.2582534e-38
0.13075209 0.051692933 0.039581776 2.2575699e-38
0.1297729 0.14353923 0.027059197 1.6851268e-38
0.12967777 0.14697185 0.028759181 1.7311511e-38
0.12518331 0.042672202 0.043637276 2.2395991e-38
0.12573624 0.045374036 0.042214036 2.2579303e-38
0.12676954 0.048795581 0.040566444 2.2661409e-38
0.12568708 0.14367212 0.02653271 1.6759076e-38
0.12537174 0.14714286 0.028501153 1.7312611e-38
0.12035558 0.038690001 0.044913828 2.2936209e-38
0.12176767 0.041253403 0.04361999 2.257067e-38
0.12323924 0.04357022 0.041059256 2.2578571e-38
0.12031801 0.10534084 0.032276273 4.9670243e-39
0.12030809 0.1087344 0.031787574 5.7035216e-39
0.12128134 0.14361222 0.027125716 1.5561623e-38
0.12159783 0.14747898 0.028931797 1.6669035e-38
0.11719612 0.037640467 0.044351459 2.3028767e-38
0.1184002 0.03969425 0.042826593 2.265784e-38
0.11785106 0.10548373 0.032356441 5.2421623e-39
0.11756948 0.10806362 0.031996131 5.8846744e-39
0.11847573 0.1105496 0.031600833 6.4342707e-39
0.11678706 0.14132245 0.027234852 1.3996814e-38
0.11737026 0.14390129 0.028524697 1.4643258e-38
0.11749028 0.14730708 0.029232681 1.5471208e-38
0.11316057 0.034237191 0.0455966 2.2653866e-38
0.11406384 0.036534488 0.043459117 2.2747864e-38
0.11304095 0.13968955 0.028432131 1.0222167e-38
0.11318235 0.14359494 0.029863358 1.1422869e-38
0.1138486 0.14639105 0.029657841 1.5196775e-38
0.10799537 0.030547395 0.046592176 1.9980568e-38
0.10963819 0.032838002 0.044678211 2.1638627e-38
0.10917341 0.13724376 0.029481888 9.4788494e-39
0.10905115 0.14004396 0.030768514 8.1909973e-39
0.11007354 0.1433351 0.030252457 8.1038421e-39
0.10526861 0.030498952 0.046373427 1.9055727e-38
0.10632525 0.031968966 0.044096172 1.951922e-38
0.10187226 0.02974274 0.046115577 2.1078245e-38
0.09815149 0.028620884 0.045755148 2.1271645e-38
0.092322521 0.026258513 0.046333551 1.9148268e-38
0.093891077 0.02777002 0.045343935 1.9888356e-38
0.089394636 0.025730953 0.046023607 1.8964597e-38
0.090399593 0.027376413 0.04473424 1.9332671e-38
0.085926622 0.025338441 0.046944082 1.8593308e-38
0.082247712 0.025007084 0.047430933 1.8688395e-38
0.077720657 0.02512902 0.047219098 1.7211811e-38
0.073729381 0.025031753 0.047775328 1.8043356e-38
0.069665968 0.025642611 0.047347665 1.7026711e-38
0.070530184 0.027433969 0.045537472 1.7027433e-38
0.065546483 0.025654547 0.0475142 1.703243e-38
0.064179763 0.11336696 0.036445677 1.4547457e-38
0.065091796 0.11518176 0.036146939 1.5372538e-38
0.062314317 0.025421664 0.046163023 1.5921063e-38
0.062003754 0.11246455 0.036664665 1.3531877e-38
0.057516269 0.026114263 0.046259105 1.325639e-38
0.057531714 0.1124775 0.036845446 1.4087542e-38
0.054244272 0.025599979 0.048286915 1.2150735e-38
0.054509886 0.11302081 0.035879374 1.454457e-38
0.053147331 0.11435856 0.033719838 1.4915169e-38
0.049757265 0.025247812 0.048217654 1.1689759e-38
0.047681987 0.10894474 0.034723282 1.0772843e-38
0.048700787 0.11199597 0.034241974 1.3534741e-38
0.045872651 0.024790563 0.046925366 1.1689417e-38
0.045626529 0.1089507 0.034806371 1.1600427e-38
0.045940988 0.11164206 0.036765039 1.2429082e-38
0.041373841 0.10176434 0.037026942 1.2429803e-38
0.041715823 0.10481161 0.037440598 1.2337612e-38
0.042027488 0.10810532 0.037906528 1.1784086e-38
0.043085538 0.11183782 0.037527621 1.1879163e-38
0.036247335 0.09754543 0.039866626 1.4637106e-38
0.038344771 0.10019921 0.039145708 1.3625115e-38
0.03898342 0.10298976 0.038970292 1.2981901e-38
0.032652318 0.09405677 0.037482798 1.491728e-38
0.033583865 0.096741855 0.03958571 1.4732167e-38
0.030596837 0.094062716 0.037565887 1.5008071e-38
0.029548064 0.096623495 0.039261997 1.3255629e-38
0.029363289 0.098928422 0.039948463 1.0769528e-38
0.024442405 0.090008333 0.038401484 1.4268653e-38
0.025388613 0.093428642 0.038881123 1.169119e-38
0.025395334 0.096678421 0.039592147 7.4523196e-39
0.025783837 0.099715576 0.039475679 6.534727e-39
0.021028548 0.085945979 0.039126396 1.4820788e-38
0.021826118 0.088821888 0.04012388 1.35315e-38
0.021813124 0.092816502 0.041137636 8.6523244e-39
0.021805152 0.095542654 0.04074508 3.2181996e-39
0.016244397 0.081887618 0.039906621 1.1324554e-38
0.017311916 0.085306302 0.040887117 1.2338355e-38
0.01884307 0.088963091 0.041814268 9.5750458e-39
0.01418893 0.081893563 0.039989769 8.9252847e-39
0.014033332 0.084748462 0.042415917 7.2683151e-39
0.064871922 0.078206375 0.016205788 1.2793573e-38
0.064462498 0.085719347 0.015139759 1.2059968e-38
0.062522791 0.086547419 0.015099645 1.2798974e-38
0.097242907 0.065633193 0.021751583 1.5928609e-38
0.096871018 0.1051832 0.01462245 2.3047468e-38
0.094576135 0.081194982 0.019018531 1.3806314e-38
0.092583455 0.075885326 0.019893289 1.7867608e-38
0.093286291 0.097022951 0.015771508 2.3323334e-38
0.068976082 0.062183246 0.025214911 1.6294866e-38
0.074405506 0.074340776 0.022488594 1.4358399e-38
0.076613784 0.086362079 0.021600842 1.8600481e-38
0.053224668 0.085262403 0.020720303 1.1319158e-38
0.093119435 0.054037869 0.025163949 1.813554e-38
0.053963557 0.058910802 0.02577132 1.2980848e-38
0.053094313 0.067173183 0.023928404 1.1966329e-38
0.067609221 0.079301074 0.022340298 1.59286e-38
0.099691391 0.08209452 0.027445018 1.2429481e-38
0.099511176 0.095455363 0.026294947 1.1139465e-38
0.088399529 0.066982582 0.032790899 1.7127858e-38
0.15706758 0.070207208 0.041652977 2.2486387e-38
0.15775287 0.072201431 0.041084766 2.2393834e-38
0.15718473 0.14836496 0.029850543 1.6483238e-38
0.15717295 0.15204397 0.03010726 1.7679622e-38
0.15189622 0.066514134 0.042649209 2.2576069e-38
0.15344803 0.068937093 0.041604578 2.2574987e-38
0.15321749 0.14847328 0.029772222 1.5930781e-38
