# .PCD v0.7 - Point Cloud Data file format
VERSION 0.7
FIELDS x y z rgb
SIZE 4 4 4 4
TYPE F F F F
COUNT 1 1 1 1
WIDTH 984
HEIGHT 1
VIEWPOINT 0 0 0 0 1 0 0
POINTS 984
DATA ascii
0.12270236 0.060466617 0.01777494 1.0392935e-38
0.12268366 0.064571127 0.016844332 1.0307911e-38
0.12210929 0.068937913 0.015980601 9.1126117e-39
0.12223589 0.072650611 0.015056133 7.2690284e-39
0.12223588 0.076423407 0.014556706 4.9695537e-39
0.1216113 0.078924343 0.014115989 5.9851181e-39
0.11944795 0.070216335 0.015913308 8.281779e-39
0.11944795 0.076513767 0.015079618 6.0769788e-39
0.10630517 0.11714712 0.007394731 1.4913376e-38
0.09191069 0.10485348 0.0064974427 1.9885787e-38
0.093577772 0.10730971 0.0059527755 1.9057487e-38
0.093610674 0.11119154 0.0053421259 1.9980183e-38
0.093382329 0.11482127 0.0047532916 2.1549679e-38
0.089376807 0.10361981 0.0058323145 2.0253135e-38
0.090433031 0.10675697 0.0039385557 1.7394e-38
0.090326071 0.11158003 0.0032811761 1.620341e-38
0.089816466 0.11587942 0.0034189224 1.9801558e-38
0.089223504 0.11910667 0.0039343238 2.173043e-38
0.085976839 0.10373382 0.0051660538 1.8319911e-38
0.08695662 0.1056013 0.0034817457 1.8042229e-38
0.085954219 0.11586316 0.0030849576 1.6664757e-38
0.085965142 0.11888702 0.0035966635 1.9701793e-38
0.082354993 0.10401317 0.0043183565 1.4909074e-38
0.082588822 0.10612947 0.0026456714 1.5740615e-38
0.082588822 0.11303589 0.0017313957 1.5650573e-38
0.082242578 0.11575486 0.0023345351 1.7402656e-38
0.082011804 0.11903863 0.0025418401 2.0350036e-38
0.078494161 0.10434987 0.0031869411 1.4175823e-38
0.078805953 0.10669313 0.0020213127 1.5281418e-38
0.078488857 0.11108434 0.0013985038 1.4729327e-38
0.078517973 0.1152776 0.0021283627 1.6851987e-38
0.079093054 0.1187624 0.002066493 1.9707175e-38
0.075638682 0.11392827 0.0024418235 1.3812431e-38
0.17799583 0.098440044 0.014482856 1.2980868e-38
0.1629453 0.076553889 0.016040742 1.491517e-38
0.13446009 0.080211639 0.012487888 1.0682072e-38
0.15623191 0.09466283 0.01309377 1.2430554e-38
0.17377189 0.087974273 0.018398046 1.5099565e-38
0.18078095 0.051464319 0.029154003 2.1270574e-38
0.15480208 0.11316627 0.017565966 1.6944184e-38
0.1633659 0.11764799 0.020323336 1.8325671e-38
0.18785697 0.051892579 0.03272748 2.1642947e-38
0.18816954 0.053630188 0.032211006 2.164366e-38
0.18875542 0.11461703 0.02423948 1.8049819e-38
0.18783626 0.11763833 0.024133325 1.8694834e-38
0.18790765 0.1207671 0.025068343 1.9985225e-38
0.18393299 0.050629362 0.033035338 2.1826608e-38
0.18540756 0.053061843 0.03180176 2.1824812e-38
0.18457058 0.11789024 0.023072183 1.9524231e-38
0.18396015 0.12019804 0.023683369 1.9521373e-38
0.18071899 0.048064791 0.03317678 2.127415e-38
0.18028697 0.049842104 0.031841815 2.127129e-38
0.18164122 0.11866555 0.022455633 1.9061825e-38
0.17993672 0.12061302 0.022922695 1.8691972e-38
0.17631461 0.047330752 0.0325014 2.1180175e-38
0.17661944 0.049071491 0.030788541 2.1362754e-38
0.17253982 0.047244601 0.031850696 2.090321e-38
0.17222537 0.11845066 0.020832479 1.6484263e-38
0.17264426 0.12120618 0.02156502 1.6572888e-38
0.16624852 0.04330273 0.031269073 1.9429149e-38
0.16807823 0.046644635 0.031090617 2.0350745e-38
0.1678313 0.11456059 0.020576775 1.4914799e-38
0.1683072 0.11750033 0.020987868 1.5285389e-38
0.16852698 0.12082696 0.021788895 1.5745295e-38
0.16425061 0.040141039 0.031849027 1.8878844e-38
0.16369499 0.042628102 0.03108108 1.9061444e-38
0.16395397 0.045676723 0.029528439 1.9429162e-38
0.16379048 0.1174477 0.019924641 1.4826206e-38
0.16362101 0.1202669 0.021130502 1.4918054e-38
0.16008568 0.042700052 0.030395806 1.9060379e-38
0.16018482 0.045590706 0.028878689 1.9245479e-38
0.15904318 0.11436002 0.019061863 1.491912e-38
0.16017175 0.1170312 0.019475043 1.5561976e-38
0.16047299 0.11987829 0.020629764 1.55627e-38
0.157325 0.043784097 0.030151963 1.9059643e-38
0.15654501 0.046523765 0.028336167 1.8967448e-38
0.15653229 0.11430272 0.018629014 1.4826563e-38
0.15654342 0.11680512 0.018939674 1.5193912e-38
0.15263522 0.046927914 0.028503656 1.8596504e-38
0.15276594 0.048527099 0.026676655 1.8596532e-38
0.15276594 0.11421676 0.017979801 1.4365603e-38
0.15231332 0.11661437 0.018753111 1.4642172e-38
0.14851059 0.047384053 0.02812928 1.8413209e-38
0.1489996 0.04907278 0.025943816 1.8596884e-38
0.1489996 0.11381498 0.01737237 1.3904598e-38
0.14872751 0.11688811 0.018055439 1.4458139e-38
0.14851059 0.11960529 0.018567681 1.5104939e-38
0.144733 0.047297835 0.027478099 1.8872028e-38
0.14512187 0.04966525 0.025640249 1.8688714e-38
0.14397782 0.05211632 0.024659991 1.8321365e-38
0.14498253 0.11301205 0.017158031 1.3629486e-38
0.14507799 0.11667581 0.017585635 1.390607e-38
0.1453626 0.11953345 0.018025041 1.5102433e-38
0.1409554 0.047211625 0.026826859 1.8781285e-38
0.14082387 0.049713746 0.025169551 1.8321371e-38
0.1405881 0.053049572 0.023941934 1.7769633e-38
0.13937451 0.10970026 0.016228855 1.4089002e-38
0.14087003 0.11268035 0.016655147 1.3996805e-38
0.14124021 0.11664112 0.017172992 1.4272312e-38
0.14158499 0.11944723 0.0173738 1.5102431e-38
0.13655511 0.049732678 0.025081456 1.7860761e-38
0.13644513 0.053207681 0.023194313 1.7401585e-38
0.13619404 0.10954347 0.015691757 1.3996089e-38
0.13635455 0.11297494 0.016596556 1.418086e-38
0.13702039 0.11633384 0.016985357 1.4365239e-38
0.1324558 0.050502002 0.024900377 1.7863999e-38
0.1324991 0.053195514 0.023186326 1.7771435e-38
0.13205108 0.05563391 0.022102296 1.6482856e-38
0.13184182 0.10573855 0.01543206 1.2336195e-38
0.13252878 0.10881384 0.015714288 1.2520975e-38
0.13229038 0.11278541 0.016056716 1.2798269e-38
0.13214099 0.11543058 0.016249061 1.3076263e-38
0.12872623 0.053336576 0.023103058 1.5097398e-38
0.12891245 0.05556228 0.021561205 1.4359126e-38
0.12807548 0.10186282 0.015284538 1.1047271e-38
0.12844574 0.1051977 0.016059875 1.086286e-38
0.12912932 0.10892606 0.016070127 1.1417121e-38
0.12962261 0.11220551 0.016234338 1.0495563e-38
0.12584499 0.054469004 0.023215652 1.426441e-38
0.12492086 0.056074366 0.021612346 1.3623696e-38
0.12486564 0.09755297 0.016315997 1.1047237e-38
0.12545261 0.10101154 0.016575456 1.1324549e-38
0.12179121 0.057063825 0.021342039 1.1135491e-38
0.12036628 0.060136355 0.019712627 8.1863492e-39
0.12012433 0.064836189 0.018791974 6.8098887e-39
0.11811976 0.060879469 0.020500004 9.9319453e-39
0.11784115 0.064970799 0.01978153 8.4650787e-39
0.11799905 0.069013134 0.018275738 8.5630434e-39
0.11761343 0.07299009 0.017271996 7.7310953e-39
0.11761343 0.075516619 0.016937554 7.3644708e-39
0.1119938 0.10863557 0.013614774 1.3534067e-38
0.10922962 0.1088315 0.012990296 1.4087604e-38
0.10863593 0.11320476 0.012420893 1.9798272e-38
0.10801895 0.11542737 0.010994554 1.6107215e-38
0.10497823 0.10539839 0.012812912 1.2609572e-38
0.10509387 0.10823455 0.01180619 1.408437e-38
0.10530096 0.11212866 0.01121062 2.0906415e-38
0.1047464 0.11537698 0.009842217 1.8866215e-38
0.10380352 0.11815238 0.008870542 1.5463684e-38
0.10071363 0.10517764 0.011923373 1.6476018e-38
0.1010825 0.10811809 0.010404348 1.7950825e-38
0.10108271 0.11191188 0.0099021196 2.247378e-38
0.10118777 0.11563657 0.009086132 2.0253837e-38
0.10129261 0.11809507 0.0084376931 1.6376651e-38
0.096569538 0.10463525 0.011292696 2.1638239e-38
0.097490773 0.10792436 0.0092312098 2.182048e-38
0.097204834 0.11568779 0.0090632439 2.3023704e-38
0.092266321 0.10142781 0.011108756 2.1915195e-38
0.093324482 0.1042774 0.010234535 2.182263e-38
0.095015392 0.10784571 0.0086935759 2.1728292e-38
0.095015392 0.11100388 0.0082754493 2.2466235e-38
0.095015377 0.11542529 0.0076901317 2.3393561e-38
0.08946237 0.10051019 0.0098426342 2.2004514e-38
0.09083055 0.10311824 0.008585453 2.1728285e-38
0.085550591 0.097895771 0.010398448 2.0068426e-38
0.085926503 0.10022643 0.009018302 1.997873e-38
0.084344089 0.10254911 0.0075230598 1.7306852e-38
0.084344089 0.12086642 0.0050979257 1.9244741e-38
0.083032191 0.097838297 0.0099642873 1.4911985e-38
0.082364708 0.10068361 0.0089586377 1.3805265e-38
0.080804676 0.10283256 0.0071206689 1.2974431e-38
0.08246091 0.12145507 0.0046896935 2.1545313e-38
0.079254597 0.1015532 0.0088098645 1.223399e-38
0.078694567 0.10305181 0.0064655542 1.2419815e-38
0.076183677 0.11625877 0.0042765737 1.6394252e-38
0.076183677 0.11815366 0.0040257573 1.8047655e-38
0.074928224 0.11623012 0.0040602088 1.5381184e-38
0.074928224 0.11812501 0.0038093328 1.7128573e-38
0.16529375 0.087843344 0.014046431 1.3441489e-38
0.16109851 0.094192192 0.012931108 1.3350367e-38
0.15806346 0.084473655 0.016021073 1.3534389e-38
0.16833305 0.070106916 0.017094195 1.6019002e-38
0.17042756 0.084201276 0.012765229 1.3256376e-38
0.17067116 0.081454664 0.018011868 1.4823699e-38
0.17573741 0.089013964 0.019324005 1.5283609e-38
0.17320429 0.085234307 0.018667877 1.5007736e-38
0.1153578 0.1029384 0.012524605 1.3718072e-38
0.18680048 0.044868827 0.039273977 1.9618212e-38
0.18704891 0.047279418 0.037633359 2.1274875e-38
0.18735947 0.050282732 0.035583675 2.1828414e-38
0.18677148 0.12312047 0.027680278 2.0906112e-38
0.18743384 0.1251826 0.028752029 2.2016761e-38
0.18274704 0.04426647 0.038642704 1.9526761e-38
0.18338427 0.04712458 0.036328375 2.1367424e-38
0.18483731 0.049590707 0.035232902 2.1830201e-38
0.18322432 0.12292008 0.027118742 2.0074908e-38
0.17793354 0.040842675 0.038251638 1.9254477e-38
0.17904776 0.043766752 0.037913799 1.9342012e-38
0.17944349 0.046657108 0.03555274 2.1089044e-38
0.17991163 0.12297894 0.025676668 1.9428464e-38
0.17904778 0.12586993 0.027043879 2.0351119e-38
0.17666684 0.040813766 0.038033307 1.9154735e-38
0.17546786 0.043301255 0.037152469 1.9340563e-38
0.17600976 0.045582473 0.034215212 2.1087261e-38
0.17727086 0.12301582 0.024184704 1.8330008e-38
0.17552215 0.1257194 0.025183797 1.8693404e-38
0.17497788 0.12914696 0.026042402 1.998124e-38
0.17134666 0.040182516 0.037183702 1.8049827e-38
0.17176308 0.043171339 0.036064684 1.9064689e-38
0.17222653 0.045496128 0.033563077 2.0168523e-38
0.17204091 0.12563455 0.023830712 1.7126811e-38
0.1716 0.128645 0.025516391 1.8048755e-38
0.16783594 0.039958712 0.036426961 1.7956568e-38
0.16825351 0.04295662 0.034112394 1.9431671e-38
0.16907385 0.045424171 0.033019543 2.026214e-38
0.16781278 0.12279998 0.022554338 1.5931139e-38
0.16810928 0.12569363 0.023815811 1.6298125e-38
0.16779988 0.12855828 0.024861276 1.7586332e-38
0.16354889 0.038927227 0.034161985 1.8051977e-38
0.16592117 0.041545436 0.032980084 1.9061799e-38
0.16405565 0.12223329 0.022262871 1.5193204e-38
0.16360582 0.12567133 0.023398519 1.5654546e-38
0.16336642 0.1284571 0.024096966 1.7034949e-38
0.15918541 0.03903269 0.034065306 1.8876708e-38
0.1583547 0.041372754 0.031675756 1.8874551e-38
0.15924053 0.1218866 0.022049189 1.5379743e-38
0.15908468 0.12566158 0.023033559 1.6114442e-38
0.16019966 0.12838483 0.023551106 1.749735e-38
0.15588233 0.03965345 0.034029365 1.8599035e-38
0.15532413 0.042564616 0.032522082 1.8874182e-38
0.155202 0.045107581 0.030628264 1.887453e-38
0.15457147 0.118691 0.020775735 1.5560176e-38
0.15562481 0.12144808 0.021505535 1.5377596e-38
0.15528801 0.12493795 0.022463322 1.6021166e-38
0.15196607 0.040250041 0.03377533 1.9057497e-38
0.15141232 0.042752251 0.033005714 1.8780918e-38
0.15149425 0.045445077 0.030957043 1.8780184e-38
0.15267986 0.11864781 0.020449638 1.5192828e-38
0.15167795 0.1215039 0.021488488 1.5192481e-38
0.15133269 0.12435868 0.022528887 1.5929343e-38
0.14771353 0.043066353 0.03265661 1.8781266e-38
0.14802158 0.045683064 0.030316472 1.8873454e-38
0.14777708 0.12214652 0.021174192 1.5287548e-38
0.14753258 0.12427196 0.021873832 1.5746388e-38
0.14357412 0.042767033 0.031970203 1.8964949e-38
0.14423272 0.045596592 0.029663324 1.8780547e-38
0.14322178 0.11843197 0.018819273 1.4734756e-38
0.14394429 0.12166163 0.019981086 1.5563408e-38
0.14389984 0.12404107 0.020584583 1.6022243e-38
0.14011329 0.042892896 0.03134644 1.85958e-38
0.14047562 0.045973569 0.028826296 1.8503614e-38
0.13943855 0.11834562 0.018167078 1.4733639e-38
0.14044693 0.12133193 0.018241167 1.5470847e-38
0.14006023 0.12462774 0.020004034 1.6022228e-38
0.13676558 0.043726906 0.030648768 1.7853945e-38
0.13668171 0.046271667 0.028761387 1.7766772e-38
0.13565533 0.048468262 0.026754797 1.8045161e-38
0.13679981 0.12092108 0.017818272 1.5287903e-38
0.13670982 0.12412116 0.018971503 1.602438e-38
0.132465 0.046761215 0.028980792 1.8045519e-38
0.13226897 0.048942767 0.026507497 1.8046605e-38
0.13252628 0.11734337 0.017599285 1.3997866e-38
0.13262819 0.12114081 0.018536389 1.3260689e-38
0.13309804 0.12383154 0.018888235 1.4090448e-38
0.1297987 0.047391683 0.028941572 1.7036045e-38
0.12792909 0.049601309 0.026785314 1.5744194e-38
0.12682778 0.052073583 0.024729073 1.4915156e-38
0.12682776 0.10917534 0.017169237 1.114089e-38
0.12757114 0.11329964 0.017338634 9.9405759e-39
0.12794478 0.11713395 0.018615067 9.2051324e-39
0.1297987 0.12068075 0.019238591 9.7575705e-39
0.12408352 0.050274536 0.027147949 1.4453802e-38
0.12393789 0.053205103 0.024840236 1.3991769e-38
0.12304455 0.098937571 0.017861009 1.1692977e-38
0.12335983 0.10179985 0.017537355 1.1692986e-38
0.12424296 0.10535342 0.01744926 1.1326363e-38
0.12411803 0.10924846 0.017366767 1.1786256e-38
0.12388624 0.11299488 0.018341541 1.086358e-38
0.12093174 0.051013097 0.026906848 1.2694235e-38
0.12037149 0.0538553 0.025408447 1.2056043e-38
0.11943278 0.056724228 0.023328185 1.0486927e-38
0.12032461 0.097344354 0.018711746 1.0767454e-38
0.12026754 0.10158122 0.017933965 1.1874506e-38
0.12045848 0.10526621 0.016797006 1.1601538e-38
0.12020528 0.10924898 0.017135382 1.2247248e-38
0.11954919 0.11294338 0.018123925 1.1969569e-38
0.11839834 0.1159595 0.017863989 8.0991674e-39
0.11732465 0.057220586 0.024769723 1.1224141e-38
0.11586493 0.060456902 0.024767816 1.1592152e-38
0.11459821 0.067438252 0.023621321 1.0216075e-38
0.11459821 0.069987446 0.023283899 9.5721367e-39
0.1148915 0.072396882 0.021992445 8.7448927e-39
0.116254 0.098975673 0.019480407 1.0767069e-38
0.11615634 0.10169794 0.018335044 1.1502501e-38
0.11660925 0.10522139 0.016355276 1.1965636e-38
0.1165449 0.10907604 0.016061246 1.3257793e-38
0.11609116 0.11319697 0.017028689 1.4270473e-38
0.11206478 0.09924525 0.01896596 1.1224108e-38
0.11249429 0.10152913 0.017259896 1.1686155e-38
0.11295594 0.10505195 0.015281856 1.1872692e-38
0.11358649 0.10887313 0.014886618 1.3625516e-38
0.11269274 0.11284423 0.015114188 1.7865406e-38
0.10817501 0.098698258 0.017588139 1.1869121e-38
0.10876915 0.10140151 0.016395926 1.1962036e-38
0.10917272 0.10496561 0.014629722 1.2054593e-38
0.1091727 0.10750347 0.01429379 1.1962437e-38
0.10942492 0.11182359 0.01376605 1.9253371e-38
0.10501248 0.098626077 0.017042994 1.1962032e-38
0.10504651 0.10127435 0.015532255 1.1871997e-38
0.10538949 0.10392758 0.014103591 1.1965962e-38
0.10066444 0.098985076 0.017000794 1.288537e-38
0.10097733 0.10132538 0.014902711 1.3805943e-38
0.10097571 0.1035096 0.013384759 1.5187427e-38
0.096685544 0.098241672 0.015816212 1.4820437e-38
0.096671581 0.10096392 0.014083683 1.7216436e-38
0.097823024 0.10407212 0.012757242 1.9522695e-38
0.092487022 0.097884543 0.014688194 1.6655403e-38
0.093090653 0.10043149 0.012750506 1.9702883e-38
0.088338077 0.097310059 0.013524652 2.0991821e-38
0.090256572 0.099458188 0.012040913 2.0632721e-38
0.084504336 0.095973603 0.013157189 1.9976942e-38
0.081663847 0.093453057 0.014400303 1.7306496e-38
0.08080934 0.096398994 0.012631774 1.2508387e-38
0.080588281 0.099660531 0.010318339 1.1495336e-38
0.077863738 0.098464698 0.013070285 1.1040028e-38
0.077313095 0.1006321 0.012072444 1.1410308e-38
0.16869093 0.09259291 0.014554083 1.3626233e-38
0.16717643 0.087514751 0.01600188 1.5008802e-38
0.16477385 0.068745419 0.017081022 1.6295586e-38
0.16531727 0.078795649 0.01513952 1.4729712e-38
0.17518137 0.083268829 0.020498574 1.6205543e-38
0.1740046 0.070312694 0.021193147 1.6479978e-38
0.11219358 0.10448703 0.013692617 1.5284318e-38
0.17651264 0.049243771 0.037946641 1.26164e-38
0.18619415 0.12730718 0.030593634 2.2109669e-38
0.18532395 0.13062459 0.032268941 2.2665738e-38
0.18331666 0.02989592 0.045764446 5.4298396e-39
0.18204059 0.032434851 0.045204461 7.7314933e-39
0.18214723 0.036238883 0.044150651 9.1147697e-39
0.18257317 0.039884612 0.041467607 1.4645064e-38
0.18312554 0.042654112 0.039946437 1.7867605e-38
0.18268043 0.12672307 0.029420793 2.1459259e-38
0.18223315 0.13043959 0.031239271 2.2196855e-38
0.17821231 0.032347482 0.044544518 1.0127452e-38
0.17838837 0.036123164 0.043165445 1.307665e-38
0.17896459 0.039622016 0.040641904 1.7132178e-38
0.17963694 0.042255372 0.039387345 1.8882456e-38
0.17963694 0.1277796 0.028064489 2.1546788e-38
0.17849834 0.13089478 0.030068874 2.1364929e-38
0.17438404 0.029692058 0.04422462 1.0498057e-38
0.17451994 0.032206725 0.043232918 1.2706791e-38
0.17467779 0.035988607 0.041963637 1.5381173e-38
0.17488591 0.039504595 0.039686084 1.8143099e-38
0.17646548 0.12770721 0.027517796 1.9614999e-38
0.17507058 0.13103887 0.028538406 2.0534437e-38
0.17374599 0.13368425 0.030344903 2.0441893e-38
0.17055577 0.029604688 0.043564737 1.1695883e-38
0.17071801 0.032110602 0.042464972 1.3537262e-38
0.17095006 0.035864048 0.040871263 1.5379768e-38
0.17139503 0.038697295 0.039948523 1.6670141e-38
0.1711823 0.13100925 0.027177811 1.9244416e-38
0.17055577 0.13361144 0.029794931 1.9889429e-38
0.16800359 0.02954644 0.043124795 1.1971025e-38
0.16687009 0.032032136 0.041914225 1.3720245e-38
0.16701347 0.035823666 0.040754855 1.6024755e-38
0.16715644 0.03832823 0.039765894 1.712931e-38
0.16737093 0.13092226 0.026520789 1.8874899e-38
0.16672751 0.13352406 0.029134989 1.9154714e-38
0.16297291 0.032613054 0.041495085 1.4458519e-38
0.16338858 0.035659865 0.039230645 1.6391025e-38
0.16504824 0.038092986 0.037379503 1.7681035e-38
0.16352256 0.13087299 0.026022911 1.8232032e-38
0.16353728 0.13345125 0.028585076 1.8783426e-38
0.15944596 0.032860734 0.040929019 1.5835691e-38
0.1593816 0.035671324 0.038241923 1.7125346e-38
0.1590434 0.13023581 0.025151014 1.8140197e-38
0.16057092 0.13315025 0.027080774 1.9151484e-38
0.1552427 0.033107311 0.040415049 1.7126413e-38
0.1549295 0.035542153 0.038604379 1.7584886e-38
0.15429808 0.038650963 0.035829604 1.8415723e-38
0.15489957 0.12721504 0.023800254 1.6756578e-38
0.15473458 0.13030727 0.025204778 1.8414644e-38
0.15067637 0.035708748 0.039013684 1.8412835e-38
0.15057027 0.038808804 0.036207914 1.9150047e-38
0.15109383 0.12648994 0.023228705 1.6666198e-38
0.15056258 0.13018115 0.024922013 1.8231689e-38
0.14631008 0.036755554 0.038365185 1.9701424e-38
0.14669 0.039182756 0.036517799 1.9425197e-38
0.14665377 0.041502625 0.033701599 1.9148259e-38
0.14704357 0.12662323 0.023524463 1.7126084e-38
0.14655457 0.13026735 0.02500391 1.8326044e-38
0.14567202 0.13304353 0.025505424 1.9064322e-38
0.1424818 0.036668181 0.037705302 1.9793981e-38
0.14273193 0.039145239 0.036397278 1.9517041e-38
0.14475091 0.041459203 0.033373594 1.9241175e-38
0.1432322 0.12653625 0.022867441 1.6849496e-38
0.14270392 0.13020477 0.0244506 1.7957616e-38
0.14184377 0.13295616 0.024845481 1.9063954e-38
0.1391325 0.039199591 0.035502851 1.905605e-38
0.13904229 0.041328914 0.032389522 1.8596127e-38
0.13967657 0.12686762 0.02117604 1.6575049e-38
0.13910078 0.1299082 0.023616076 1.8327126e-38
0.13992962 0.13291247 0.02451551 1.9066122e-38
0.13504246 0.039627686 0.035155416 1.8777694e-38
0.13561438 0.042190805 0.031966686 1.8411062e-38
0.13460223 0.045057029 0.031117141 1.7393686e-38
0.13530232 0.12652805 0.021682322 1.584e-38
0.135849 0.12924352 0.023603022 1.722761e-38
0.13163504 0.040272735 0.035325468 1.822739e-38
0.13144121 0.042666599 0.033268154 1.7676011e-38
0.1317078 0.045130819 0.031964839 1.7494135e-38
0.13146369 0.12612259 0.021443129 1.1878105e-38
0.12721385 0.043364756 0.033969998 1.6019012e-38
0.12772539 0.046161696 0.031172454 1.5744932e-38
0.12699074 0.11891919 0.0200032 8.2810041e-39
0.12766209 0.12185794 0.020609558 7.3608485e-39
0.12753226 0.12591152 0.02190268 6.812739e-39
0.12589264 0.12874001 0.022605777 6.9963609e-39
0.1239785 0.043950096 0.033495665 1.6294143e-38
0.1237725 0.04634589 0.031549633 1.5465786e-38
0.12257537 0.049536675 0.02909708 1.4268284e-38
0.12318499 0.1150029 0.019854188 7.4462548e-39
0.12357298 0.11814311 0.021407962 6.1695556e-39
0.12389702 0.12183793 0.02112186 6.8141893e-39
0.12395969 0.12562975 0.020403326 5.9865853e-39
0.12435178 0.12932009 0.020415843 7.4559546e-39
0.11985646 0.046729125 0.031819582 1.518849e-38
0.11979818 0.049566053 0.029459238 1.3622958e-38
0.11874495 0.052992254 0.027285159 1.2147527e-38
0.11990483 0.11492203 0.020825267 9.8422173e-39
0.12013283 0.11783114 0.021376014 6.9035011e-39
0.12135234 0.12177986 0.020683169 7.6403473e-39
0.12135234 0.12498049 0.02025944 7.8232531e-39
0.11696002 0.047642022 0.031775773 1.4913355e-38
0.11661026 0.050089031 0.0303666 1.4358395e-38
0.1157743 0.053665556 0.029161453 1.3714109e-38
0.11518493 0.057542458 0.027423441 1.2331509e-38
0.11391386 0.061350442 0.026696324 1.1967726e-38
0.1143049 0.065017484 0.024914265 1.0674547e-38
0.11430492 0.074591093 0.023646832 8.377185e-39
0.11427513 0.078244835 0.026229441 7.4573727e-39
0.11440784 0.080968656 0.026915908 7.3640869e-39
0.11568391 0.095122144 0.025265932 8.8331381e-39
0.11545348 0.097187921 0.023196876 9.8440559e-39
0.11313173 0.055258855 0.030095875 1.4822917e-38
0.11216365 0.058118649 0.029108703 1.3164846e-38
0.11099875 0.061677113 0.027976155 1.2613125e-38
0.11107446 0.065898821 0.02662003 1.2151438e-38
0.11114046 0.070352353 0.025814414 1.0952194e-38
0.1111837 0.074092388 0.025725007 9.8497872e-39
0.11193971 0.078300536 0.026543736 8.5619098e-39
0.11249369 0.080924973 0.026585937 7.8250622e-39
0.11136614 0.094506331 0.02407825 9.3827148e-39
0.11166434 0.097099185 0.022158384 1.021318e-38
0.1078147 0.058133587 0.028782666 1.5556939e-38
0.10709694 0.061373681 0.027920544 1.3718058e-38
0.10697782 0.065930732 0.02683562 1.288901e-38
0.10695246 0.070431121 0.026320696 1.2242926e-38
0.10713536 0.074333481 0.026177406 1.1507502e-38
0.10712779 0.093571618 0.023560822 1.0856037e-38
0.10766655 0.096890494 0.02106595 1.1317378e-38
0.10292304 0.058235951 0.027911067 1.5001262e-38
0.10295729 0.06143222 0.027380168 1.4267999e-38
0.10367647 0.065906912 0.026643693 1.3163799e-38
0.10356107 0.070448838 0.026406109 1.2336571e-38
0.10419913 0.073031463 0.026176095 1.1875234e-38
0.10302581 0.093489707 0.02292043 1.1592902e-38
0.1034579 0.096839547 0.020590425 1.1868425e-38
0.10037085 0.061387792 0.027046144 1.4265497e-38
0.099094748 0.090891443 0.022916257 1.2240753e-38
0.099374026 0.093308657 0.021735132 1.2329717e-38
0.099931926 0.096843302 0.01954484 1.2607039e-38
0.095266491 0.09080407 0.022256315 1.3529347e-38
0.095692575 0.093145706 0.020655811 1.36219e-38
0.096225187 0.096059069 0.018657207 1.3897781e-38
0.092076272 0.090731263 0.021706343 1.4171127e-38
0.091763213 0.093115121 0.020311952 1.4724645e-38
0.092413798 0.095972084 0.018000185 1.5090938e-38
0.087794185 0.093102619 0.020072401 1.8412826e-38
0.08878997 0.095797807 0.017592371 1.8595794e-38
0.084255368 0.093268313 0.018078923 1.9885835e-38
0.08542721 0.095174387 0.016880274 2.0809237e-38
0.080467477 0.092554167 0.017893076 1.7857513e-38
0.078784585 0.094842374 0.014735281 1.1861927e-38
0.077206433 0.093696982 0.018023014 1.3240555e-38
0.07631126 0.096681952 0.016105652 1.0947825e-38
0.075548232 0.09897013 0.015668809 1.1135834e-38
0.073572978 0.10443336 0.016646743 1.2519884e-38
0.068468601 0.10688493 0.015426874 1.3445759e-38
0.17830604 0.07455647 0.016106606 1.6109771e-38
0.08542721 0.095174387 0.016880274 2.0809237e-38
0.18274641 0.026254855 0.049218118 5.613135e-39
0.18132848 0.028630629 0.048526883 5.6131336e-39
0.18159267 0.13311924 0.034185052 2.2562386e-38
0.17765278 0.029349457 0.047744334 8.2853649e-39
0.17739835 0.13467327 0.033414304 2.2285064e-38
0.17377438 0.026050095 0.047671497 8.9310903e-39
0.17387599 0.027947731 0.0469262 9.7605006e-39
0.17414513 0.13530219 0.033016384 2.1363476e-38
0.17121094 0.025991589 0.047229588 9.6693742e-39
0.17003363 0.027860042 0.046263874 1.0773216e-38
0.16971369 0.13578664 0.031918943 2.0167094e-38
0.16645811 0.028764855 0.045772851 1.1419652e-38
0.16619129 0.13602869 0.031269133 1.9890842e-38
0.16245902 0.030868411 0.044024944 1.399179e-38
0.16208403 0.13490933 0.030440807 1.9060023e-38
0.15827285 0.031320889 0.043640375 1.4637168e-38
0.15775289 0.13401914 0.030566931 1.8784147e-38
0.15466426 0.031375542 0.043102562 1.565203e-38
0.15454859 0.133946 0.030014515 1.8601555e-38
0.1511419 0.032906324 0.042282045 1.7861452e-38
0.14966059 0.034439757 0.041307271 1.8411393e-38
0.15070343 0.13385825 0.029351711 1.933552e-38
0.14813998 0.033203248 0.042228103 1.8965619e-38
0.14642021 0.03502436 0.040832162 1.9610298e-38
0.1470194 0.13404855 0.027997732 1.9245482e-38
0.14216879 0.034883738 0.040665746 1.9978392e-38
0.14255007 0.13465726 0.027611017 1.9156501e-38
0.13833408 0.036480285 0.039562285 1.9607443e-38
0.13686216 0.038011096 0.038589537 1.9054985e-38
0.13795018 0.13415369 0.026819646 1.9067556e-38
0.13468194 0.038054898 0.039225161 1.8962079e-38
0.13374454 0.13120696 0.026216209 1.5472323e-38
0.13532279 0.13350722 0.026700377 1.7229389e-38
0.13033038 0.039841462 0.037713408 1.8227386e-38
0.13028492 0.13073698 0.02584219 1.0037429e-38
0.12635076 0.040444162 0.037447512 1.8228078e-38
0.12653252 0.04167185 0.036634326 1.7215373e-38
0.12686856 0.13044406 0.025281727 8.010929e-39
0.12314647 0.040371034 0.036895156 1.8042958e-38
0.12264474 0.042673163 0.035990477 1.7033476e-38
0.1188024 0.043444641 0.035214424 1.7031334e-38
0.11830443 0.045314431 0.034367502 1.5651282e-38
0.11737873 0.091827348 0.029071033 7.175772e-39
0.11737873 0.094406746 0.028729498 8.3707377e-39
0.116097 0.044079244 0.035167694 1.6754767e-38
0.1152446 0.046833061 0.034039319 1.6202654e-38
0.11372784 0.050398074 0.033233106 1.6657512e-38
0.11489853 0.08306545 0.029503524 6.4432082e-39
0.11456771 0.085596263 0.029146969 6.5350619e-39
0.11491211 0.09364672 0.028056204 8.0040963e-39
0.11103553 0.050386816 0.033217311 1.7770324e-38
0.11106819 0.054017514 0.032074034 1.7031335e-38
0.11062539 0.056729473 0.03150934 1.5095974e-38
0.10998546 0.079895452 0.028330028 8.8384743e-39
0.11108245 0.082864068 0.028129518 7.8264986e-39
0.11100273 0.086504877 0.028543591 7.0893091e-39
0.11103594 0.090354472 0.027925968 7.362303e-39
0.11158526 0.093132019 0.026858211 8.6483727e-39
0.10648412 0.047728948 0.032998383 1.8043692e-38
0.10715841 0.050311029 0.03266108 1.8044415e-38
0.10715818 0.05417949 0.032148898 1.7398691e-38
0.10710582 0.05729305 0.03081733 1.6201596e-38
0.10614593 0.075944394 0.028179705 1.2059233e-38
0.10735869 0.078582332 0.028270721 1.0127809e-38
0.10715818 0.08254867 0.02839303 9.0225558e-39
0.10712498 0.086434543 0.027986467 9.0186126e-39
0.10729229 0.090211831 0.026946902 1.0032016e-38
0.10870561 0.09274435 0.02640444 9.7529084e-39
0.10456154 0.047685072 0.032666981 1.7860767e-38
0.1032798 0.050235219 0.032104492 1.758453e-38
0.10327981 0.054104313 0.03159225 1.7122114e-38
0.10390621 0.057220027 0.030265808 1.5922858e-38
0.10281833 0.074838214 0.027742505 1.1599007e-38
0.10351792 0.078494683 0.027608633 1.0861811e-38
0.10331365 0.082460925 0.027730286 1.0677763e-38
0.1032798 0.086346783 0.027323604 1.1045462e-38
0.10348409 0.090105921 0.026179254 1.1229133e-38
0.10028914 0.051026769 0.031475127 1.6935226e-38
0.099594861 0.054181427 0.030935705 1.6013243e-38
0.099246502 0.057626665 0.029833436 1.5183471e-38
0.098915994 0.061638989 0.029010296 1.4173655e-38
0.099538043 0.066225708 0.028989911 1.3071266e-38
0.099538058 0.070737451 0.028392553 1.2242224e-38
0.099677145 0.074541494 0.02745831 1.2056744e-38
0.099746704 0.078373984 0.026735663 1.1874525e-38
0.099469543 0.082372986 0.027067661 1.1875597e-38
0.099434644 0.08625903 0.02666074 1.2057107e-38
0.099840626 0.089646786 0.025552213 1.1963834e-38
0.096230358 0.055233128 0.030206323 1.5922129e-38
0.095589489 0.057797901 0.029754341 1.5461148e-38
0.095659882 0.061639838 0.029030561 1.4540628e-38
0.095589504 0.066180944 0.028644502 1.362084e-38
0.095589489 0.070694886 0.028046906 1.3346048e-38
0.095428646 0.074644223 0.027188718 1.3255287e-38
0.095730081 0.078368068 0.026600659 1.270463e-38
0.09569478 0.082251363 0.026194096 1.2520593e-38
0.095589504 0.086171277 0.025997937 1.2794661e-38
0.09549585 0.089339495 0.024684548 1.3160566e-38
0.093026072 0.055160001 0.029653966 1.6476034e-38
0.091927439 0.058082812 0.029074311 1.6291618e-38
0.091103464 0.061564617 0.028468788 1.5740232e-38
0.091103494 0.066078551 0.027871072 1.4820804e-38
0.091103479 0.070592508 0.027273595 1.4634636e-38
0.091106072 0.074263006 0.02622968 1.4175814e-38
0.091103479 0.078330696 0.026249111 1.3256372e-38
0.091103464 0.082199797 0.025736868 1.261208e-38
0.091103464 0.086068891 0.025224626 1.2979051e-38
0.090826079 0.089341156 0.024102867 1.4358021e-38
0.08661747 0.062751934 0.027524769 1.6291995e-38
0.086617455 0.06597618 0.027097881 1.546546e-38
0.08661747 0.070490129 0.026500285 1.4727191e-38
0.08669056 0.074327722 0.025777519 1.4175087e-38
0.08661747 0.078228317 0.0254758 1.3714849e-38
0.087044686 0.081677265 0.025094092 1.3347476e-38
0.08680056 0.085970692 0.024482846 1.3253117e-38
0.086801246 0.08974418 0.023414612 1.6199787e-38
0.082131445 0.062649556 0.026751459 1.6200522e-38
0.0827723 0.065888427 0.026435018 1.5465837e-38
0.082772315 0.070402369 0.025837421 1.4728984e-38
0.082772315 0.07427147 0.025325179 1.463498e-38
0.082932532 0.077983007 0.024861932 1.3899582e-38
0.084054023 0.080749214 0.024692416 1.3626223e-38
0.084054023 0.087197706 0.023838639 1.3525413e-38
0.083099604 0.090049729 0.022854984 1.8137349e-38
0.082468837 0.09214557 0.0218817 2.0162405e-38
0.079568014 0.062591054 0.02630955 1.5834233e-38
0.079567999 0.0658153 0.025882661 1.5098121e-38
0.079696178 0.07007423 0.025341332 1.426802e-38
0.080208868 0.073568113 0.024968684 1.4176164e-38
0.079040855 0.090249918 0.022213936 1.6110506e-38
0.077989399 0.09204334 0.021109521 1.5564837e-38
0.076363713 0.090891294 0.02200073 1.4447707e-38
0.074964717 0.093110166 0.021052063 1.3709421e-38
0.074149877 0.095819138 0.019936144 1.1958015e-38
0.071419924 0.097595446 0.020246029 1.2053854e-38
0.071120545 0.10090451 0.019627452 1.141353e-38
0.070891023 0.1047914 0.018347383 1.2428039e-38
0.07019192 0.10867397 0.017881334 1.399106e-38
0.069955111 0.11138022 0.018164039 1.3167759e-38
0.067551881 0.10116899 0.019094408 1.1593605e-38
0.06751132 0.10481077 0.018263876 1.2425524e-38
0.067616016 0.10878456 0.017457545 1.3717326e-38
0.06781891 0.11176136 0.017738879 1.3071616e-38
0.064828247 0.10094562 0.01864624 1.1689026e-38
0.064315557 0.10506095 0.01801151 1.2612051e-38
0.064828247 0.10803896 0.017707169 1.4180787e-38
0.160355 0.078738533 0.013883173 1.5834982e-38
0.17738152 0.11289698 0.01863271 1.5376889e-38
0.17799583 0.098440044 0.014482856 1.2980868e-38
0.1225369 0.09224689 0.015100658 1.6844796e-38
0.13943855 0.11834562 0.018167078 1.4733639e-38
0.17849834 0.13089478 0.030068874 2.1364929e-38
0.15945068 0.032871123 0.045023918 8.0980996e-39
0.18099524 0.13641566 0.036829233 2.275578e-38
0.18091172 0.14023745 0.037901282 2.3042072e-38
0.17682917 0.018635016 0.053284466 7.549239e-39
0.17696092 0.021187145 0.052287161 6.7187567e-39
0.17737763 0.02493117 0.049703002 6.8113055e-39
0.17742196 0.027499601 0.049143255 7.6389193e-39
0.17744155 0.1370528 0.035871327 2.3021913e-38
0.17553996 0.13925001 0.037089765 2.2843631e-38
0.17318794 0.021071199 0.051185548 7.2719235e-39
0.17357117 0.024182752 0.048906922 8.1009639e-39
0.17316473 0.13766149 0.035859585 2.22822e-38
0.16943772 0.02116378 0.050757289 7.9176376e-39
0.16955993 0.024575546 0.048151314 9.2080275e-39
0.17005171 0.1374719 0.034826756 2.0443308e-38
0.1678046 0.13907348 0.03575629 2.1087933e-38
0.1660843 0.021564856 0.049988031 8.7463095e-39
0.16565366 0.024720009 0.048470855 9.8537514e-39
0.16511962 0.027903855 0.047443807 1.1141993e-38
0.16529827 0.13893664 0.034993529 2.0812444e-38
0.16264769 0.025446244 0.049895227 1.0496959e-38
0.16172531 0.028536305 0.047617912 1.1783058e-38
0.16201881 0.13693297 0.031953216 1.9523875e-38
0.16157858 0.13869244 0.03369087 2.0075251e-38
0.15771559 0.029145408 0.047516525 1.3348584e-38
0.15794225 0.13643122 0.032328606 1.9618222e-38
0.15749079 0.13883808 0.033978403 2.0263221e-38
0.15434939 0.029332325 0.046133399 1.4730789e-38
0.15408584 0.1363432 0.031663835 1.9800454e-38
0.15018961 0.13629378 0.031157553 1.9521723e-38
0.1462121 0.031874932 0.044113576 1.9702116e-38
0.14653306 0.13639481 0.030741692 1.9245839e-38
0.14240606 0.031986848 0.043886125 2.0162045e-38
0.14226833 0.13695636 0.030533612 1.9340529e-38
0.13855338 0.032328453 0.043880343 2.0438639e-38
0.13763048 0.034986787 0.041172385 1.9886182e-38
0.13802025 0.13597654 0.028894365 1.9251574e-38
0.13557395 0.033260498 0.044111848 2.0253878e-38
0.13437295 0.035721906 0.04238081 1.9516317e-38
0.1324961 0.038098574 0.039859831 1.8783065e-38
0.13341448 0.13506062 0.028617322 1.381135e-38
0.13078058 0.036487296 0.042434335 1.9241518e-38
0.1294578 0.038620725 0.040076911 1.850504e-38
0.1299147 0.13469061 0.028081656 9.9441632e-39
0.12590477 0.036282957 0.042015672 1.9057845e-38
0.12571457 0.03871499 0.039953947 1.8505025e-38
0.12543632 0.13222331 0.026160061 8.1938812e-39
0.12568158 0.1345993 0.028345823 8.8396205e-39
0.12234408 0.036387354 0.04103601 1.9149678e-38
0.12160584 0.038920704 0.039449811 1.8504659e-38
0.12094373 0.041709684 0.037355423 1.7767088e-38
0.12351093 0.13217936 0.025828123 7.3634128e-39
0.11800465 0.039398916 0.039065599 1.8505735e-38
0.11837654 0.0416511 0.036912858 1.776674e-38
0.11494635 0.039924618 0.039611399 1.8413188e-38
0.11409049 0.04321181 0.037490308 1.749124e-38
0.11347571 0.045914471 0.036171436 1.7031698e-38
0.11478247 0.087549567 0.030205846 6.3503035e-39
0.11484665 0.089682147 0.029934764 6.6254611e-39
0.11107866 0.044376731 0.038343549 1.7767114e-38
0.11041237 0.046728931 0.035753787 1.767528e-38
0.10656637 0.044273749 0.037565708 1.8042617e-38
0.10670701 0.046286993 0.035276115 1.8044047e-38
0.10205409 0.044170767 0.036787868 1.7492679e-38
0.10254458 0.046386451 0.034404814 1.7401197e-38
0.098994166 0.046850093 0.033848703 1.6937708e-38
0.098694742 0.049812496 0.032380104 1.693663e-38
0.097838998 0.052806668 0.031833589 1.6473874e-38
0.094767183 0.047312126 0.034479618 1.7676364e-38
0.094989002 0.050257146 0.032581329 1.702918e-38
0.095088422 0.053666458 0.031237364 1.6383481e-38
0.091095671 0.047812425 0.034383595 1.7860395e-38
0.090809464 0.050274208 0.032869816 1.7488383e-38
0.091260582 0.053786673 0.030549943 1.7395838e-38
0.09077923 0.056520306 0.030103624 1.6935919e-38
0.088199675 0.05152376 0.032360435 1.7674542e-38
0.086984396 0.054059662 0.031583965 1.7397995e-38
0.087423623 0.057789482 0.029802024 1.6844088e-38
0.087056801 0.061343387 0.02881217 1.6477097e-38
0.086286649 0.086124279 0.025396228 1.2702101e-38
0.083297938 0.054615632 0.03191036 1.7399772e-38
0.083198577 0.057830587 0.03019315 1.7121748e-38
0.083334371 0.061258428 0.028170466 1.6751183e-38
0.08115226 0.079549164 0.025366127 1.3439687e-38
0.082820922 0.082428738 0.025277615 1.3164173e-38
0.08257848 0.085896134 0.024776042 1.2517017e-38
0.081794053 0.08860492 0.024279773 1.4087231e-38
0.079492629 0.055331133 0.031352937 1.6755131e-38
0.078999758 0.057894252 0.029698491 1.6569294e-38
0.078401685 0.061035156 0.027334869 1.6018628e-38
0.077301472 0.065899618 0.026497781 1.4913727e-38
0.077622369 0.070750393 0.025911868 1.4267654e-38
0.078218311 0.074500382 0.025520027 1.3808097e-38
0.078659996 0.07807821 0.025379658 1.3257067e-38
0.078771353 0.082290888 0.025950789 1.2520589e-38
0.079112828 0.086015657 0.024493575 1.1779072e-38
0.078585058 0.08853168 0.023726642 1.2518114e-38
0.076269567 0.055257574 0.030797362 1.6200526e-38
0.074991867 0.057598643 0.02975136 1.59268e-38
0.074902833 0.061581723 0.027233899 1.5282501e-38
0.074850962 0.065667562 0.026098728 1.4820093e-38
0.074807793 0.070237942 0.025741994 1.4359834e-38
0.075260177 0.074297152 0.025369287 1.3439683e-38
0.075255334 0.078485124 0.025642872 1.2521323e-38
0.075326204 0.082318678 0.026025295 1.2150023e-38
0.075248927 0.086239964 0.025720119 1.1964555e-38
0.07483232 0.08979398 0.023242533 1.3254567e-38
0.073450685 0.092289269 0.022328556 1.4545304e-38
0.072088659 0.058579616 0.029282928 1.5101694e-38
0.071170956 0.061384179 0.028451979 1.5004482e-38
0.070877969 0.066301487 0.027820706 1.4453842e-38
0.071096331 0.070748925 0.026815176 1.3715199e-38
0.071385607 0.074489325 0.026598275 1.2611344e-38
0.071268648 0.078426175 0.026397884 1.2335136e-38
0.071190953 0.082348071 0.026092529 1.2517721e-38
0.071112663 0.086273938 0.025786519 1.3346401e-38
0.071039617 0.089958653 0.025029898 1.4636428e-38
0.070847481 0.09390676 0.022827923 1.4726439e-38
0.070241719 0.096090794 0.021262407 1.389525e-38
0.06853421 0.062864549 0.028433442 1.4543506e-38
0.068104476 0.066530287 0.027872741 1.3992505e-38
0.067403689 0.070559077 0.026761472 1.3437895e-38
0.067244977 0.074510396 0.026665509 1.2886513e-38
0.067324117 0.078370169 0.025940895 1.2793971e-38
0.067094475 0.082371734 0.025291085 1.3530778e-38
0.067166269 0.085972235 0.024622262 1.4267626e-38
0.067004278 0.090080358 0.023910403 1.4450951e-38
0.067109197 0.093510047 0.022171557 1.3254926e-38
0.06703271 0.097309142 0.020538211 1.1874853e-38
0.065749124 0.099863023 0.019974947 1.1594697e-38
0.065749124 0.1121331 0.018350482 1.2980135e-38
0.064021915 0.078328587 0.025594652 1.2609572e-38
0.063261509 0.082020655 0.024844527 1.260956e-38
0.063306853 0.086216845 0.024168849 1.3163813e-38
0.06276089 0.089860462 0.023164153 1.2426254e-38
0.063181922 0.093346499 0.020387411 1.1231288e-38
0.063181922 0.097221255 0.019874394 1.1416034e-38
0.063021466 0.10109236 0.01933378 1.1691186e-38
0.062219203 0.10462591 0.018725216 1.2427289e-38
0.062889457 0.10899831 0.019083083 1.335034e-38
0.063068464 0.11240011 0.020575285 1.2887588e-38
0.060154259 0.07953757 0.024756134 1.196562e-38
0.060476542 0.081815116 0.024511158 1.1874874e-38
0.059877962 0.086202852 0.023825288 1.2241846e-38
0.059299409 0.089636944 0.022830427 1.1596472e-38
0.059083492 0.093370296 0.020347893 1.1412056e-38
0.059083045 0.097249255 0.019834399 1.1045096e-38
0.059166163 0.10108875 0.019113004 1.1782644e-38
0.058889478 0.10502627 0.019751966 1.2426929e-38
0.059509635 0.10871103 0.020780742 1.2428031e-38
0.056286573 0.087232813 0.023058951 1.3251951e-38
0.056010306 0.089821018 0.022667825 1.2608812e-38
0.055059671 0.093661636 0.021821976 1.196989e-38
0.054997325 0.097581409 0.021462739 1.1788063e-38
0.054644674 0.10131893 0.020109773 1.1510043e-38
0.056071699 0.10538945 0.020617425 1.3440748e-38
0.16293702 0.069983289 0.017599821 1.6112634e-38
0.16943069 0.076662339 0.016723275 1.5191038e-38
0.16824481 0.083682731 0.015710294 1.3809183e-38
0.17528704 0.073192999 0.019938409 1.4270152e-38
0.16783369 0.082138911 0.018254399 1.528396e-38
0.13446009 0.080211639 0.012487888 1.0682072e-38
0.11982656 0.10052156 0.017044187 1.7580567e-38
0.17451994 0.032206725 0.043232918 1.2706791e-38
0.10290161 0.087817252 0.027851343 1.4453459e-38
0.17901997 0.14110838 0.039501846 2.2948087e-38
0.17882612 0.14329919 0.040201664 2.3230015e-38
0.17626934 0.017715342 0.056209028 7.9176572e-39
0.17669259 0.14053488 0.03916961 2.2755785e-38
0.17599444 0.14358394 0.039959848 2.3130652e-38
0.17222466 0.017770693 0.05537039 7.549225e-39
0.17248701 0.14038906 0.038792491 2.2748571e-38
0.17202143 0.14359784 0.039700031 2.294088e-38
0.16843216 0.017991588 0.055139065 7.4573895e-39
0.16738316 0.019847162 0.053514838 7.9183691e-39
0.16885157 0.14045224 0.038214684 2.2008107e-38
0.16835104 0.14384812 0.0388605 2.2661425e-38
0.16825843 0.14656371 0.038939774 2.3307821e-38
0.16512337 0.017937191 0.054907084 7.8258049e-39
0.16419347 0.020581085 0.053267777 8.561928e-39
0.16465482 0.14094111 0.037686884 2.145458e-38
0.16566497 0.14454731 0.038751781 2.174197e-38
0.16086869 0.021875627 0.05353713 9.2069359e-39
0.16042224 0.024747889 0.052230179 1.0495888e-38
0.16091827 0.14069527 0.036381423 2.0719183e-38
0.16184753 0.14372689 0.037849486 2.1085467e-38
0.16112641 0.14835815 0.037451148 2.3234019e-38
0.15982968 0.15028577 0.036968529 2.341769e-38
0.15677816 0.025108606 0.052877903 1.1876307e-38
0.15703933 0.027417265 0.05069828 1.2706069e-38
0.15696469 0.14068532 0.036030591 2.0628417e-38
0.15666246 0.14230374 0.037128389 2.0536588e-38
0.15269764 0.026166521 0.05215013 1.390137e-38
0.15280887 0.027871758 0.050305605 1.4361287e-38
0.15296695 0.14006367 0.0359236 2.0167796e-38
0.15399438 0.14232376 0.036999106 2.0352523e-38
0.1491953 0.029000662 0.050282955 1.6387765e-38
0.14930938 0.13975421 0.035749614 1.9707183e-38
0.14505589 0.028928604 0.049858868 1.7953643e-38
0.14530256 0.13978222 0.035555005 1.9245832e-38
0.14131731 0.029075697 0.048574269 1.878774e-38
0.14144018 0.13902935 0.033526778 1.9248337e-38
0.13764934 0.029135607 0.048093617 1.9612847e-38
0.13687027 0.030901168 0.04721123 2.0896025e-38
0.13644288 0.13828567 0.033772528 1.9067926e-38
0.13389504 0.029651813 0.048390567 2.0255339e-38
0.1334414 0.031971835 0.04659611 2.0528675e-38
0.13247274 0.034662772 0.045429945 1.9697833e-38
0.13360293 0.13923359 0.033063531 1.4824429e-38
0.12953292 0.032757241 0.046531737 2.0161679e-38
0.12956353 0.034921631 0.044885337 1.9699984e-38
0.12939325 0.13881178 0.032380998 1.0865402e-38
0.12558231 0.032407645 0.046128809 2.0070198e-38
0.12591755 0.034542471 0.044637382 1.9609582e-38
0.12606075 0.13786097 0.031666398 1.0039212e-38
0.12171429 0.032592822 0.045352697 1.9793638e-38
0.12166697 0.034785371 0.044030249 1.9425197e-38
0.12228408 0.13571134 0.031288564 6.8044994e-39
0.11801007 0.032877497 0.045177221 1.9608158e-38
0.1179679 0.035721302 0.043769479 1.9426621e-38
0.11437112 0.036119353 0.043597758 1.942556e-38
0.11373802 0.038956709 0.041984856 1.8779462e-38
0.11307804 0.042026311 0.041053116 1.7768174e-38
0.10990548 0.036933154 0.043218791 1.970177e-38
0.11010081 0.039483156 0.042232811 1.8780189e-38
0.10962752 0.043105267 0.040743947 1.8042987e-38
0.10731202 0.036873959 0.042771637 1.9699262e-38
0.10611492 0.039423797 0.041882753 1.8871673e-38
0.10581741 0.042886242 0.040177703 1.8135526e-38
0.10244086 0.039703485 0.04110378 1.8501446e-38
0.10163608 0.042379476 0.039584577 1.7766751e-38
0.098883271 0.040596012 0.040800452 1.7581297e-38
0.097575605 0.043274425 0.039338887 1.7120679e-38
0.096915811 0.045560539 0.037750304 1.7029196e-38
0.093606144 0.042938471 0.039285421 1.7674196e-38
0.093121827 0.045877881 0.037810802 1.7767845e-38
0.08941713 0.043772466 0.038719475 1.8594013e-38
0.089342564 0.046406925 0.037187576 1.8318858e-38
0.086564302 0.044229276 0.038158596 1.822776e-38
0.085596532 0.046708763 0.03663677 1.7673487e-38
0.085722506 0.050360397 0.035279512 1.7582722e-38
0.081600428 0.047305867 0.03619808 1.7308298e-38
0.081786096 0.050506398 0.035238087 1.7585245e-38
0.081400067 0.053663112 0.033956051 1.7309015e-38
0.07813555 0.047298931 0.036273777 1.7492322e-38
0.077713579 0.050475925 0.035096586 1.7584534e-38
0.077982873 0.053863935 0.033330142 1.6384928e-38
0.074086547 0.050884418 0.034918308 1.6112274e-38
0.073953643 0.054039419 0.033112109 1.5833539e-38
0.070435584 0.054749928 0.033322453 1.5279997e-38
0.069861263 0.057560332 0.031757474 1.4725038e-38
0.066485971 0.058475368 0.032068133 1.4264757e-38
0.066145271 0.061689228 0.030857742 1.4541337e-38
0.065608948 0.065901548 0.029736638 1.4083246e-38
0.062664986 0.062570676 0.031282306 1.4726453e-38
0.062318861 0.066361777 0.029866576 1.408323e-38
0.062282443 0.07097657 0.028310657 1.3898842e-38
0.062651858 0.074702218 0.027882159 1.2795038e-38
0.061358869 0.078575782 0.027142465 1.2241514e-38
0.062328637 0.11470145 0.022529781 1.2612426e-38
0.062047303 0.11797404 0.023753583 1.2429094e-38
0.058423519 0.066716298 0.029528797 1.3622624e-38
0.058526903 0.070799679 0.028357863 1.3898486e-38
0.058772922 0.074613698 0.027213514 1.2794301e-38
0.058588207 0.07814084 0.026714146 1.2057796e-38
0.057997108 0.082662366 0.026011825 1.1875227e-38
0.057479948 0.085642911 0.025526464 1.2242192e-38
0.059467316 0.11348887 0.022956431 1.2429104e-38
0.059332907 0.11667688 0.023790598 1.2153242e-38
0.05485639 0.066969283 0.029415607 1.3713742e-38
0.054394901 0.070800476 0.028315544 1.3805937e-38
0.054519981 0.074664958 0.027484596 1.3070875e-38
0.05476892 0.078476302 0.026341081 1.1872344e-38
0.054852247 0.082347915 0.025615633 1.1412454e-38
0.054709256 0.085858487 0.025012016 1.2518774e-38
0.053601027 0.090107985 0.024254918 1.1234168e-38
0.053924263 0.10605296 0.022200644 1.2617106e-38
0.054980427 0.10865 0.023577809 1.3532216e-38
0.051552534 0.071483538 0.028409123 1.3071269e-38
0.050967097 0.074707165 0.027709067 1.2605981e-38
0.050607026 0.078398056 0.026815891 1.1779804e-38
0.051093042 0.082484066 0.026360154 9.5624845e-39
0.051606089 0.085998029 0.025473058 9.1868595e-39
0.051345497 0.090198368 0.024700582 9.1908196e-39
0.050634205 0.094120026 0.024227321 9.0082163e-39
0.050845683 0.097932525 0.023190856 8.9149403e-39
0.050114214 0.10186331 0.02276963 8.9113054e-39
0.051004827 0.10566914 0.022763371 9.8397497e-39
0.047662318 0.098143272 0.02419728 9.9255147e-39
0.047662348 0.10075288 0.023851752 1.0297873e-38
0.17240687 0.093200423 0.016035438 1.4916612e-38
0.17631619 0.077643044 0.018739104 1.6481057e-38
0.17760509 0.099271327 0.017628312 1.3258527e-38
0.16983528 0.080243617 0.019713163 1.5469421e-38
0.15707611 0.049625933 0.024898171 1.8870601e-38
0.10289031 0.063143335 0.030856311 1.3992128e-38
0.157625 0.02085821 0.056349933 9.7604768e-39
0.13045374 0.03028525 0.048726976 1.3257452e-38
0.17143735 0.014396671 0.060578883 7.364852e-39
0.17239244 0.016296703 0.058959007 8.2875089e-39
0.17239244 0.14584628 0.041807532 2.322034e-38
0.17167383 0.14722127 0.041840792 2.339567e-38
0.16817865 0.014978476 0.059930205 7.1804425e-39
0.1677705 0.016211081 0.058500946 7.366989e-39
0.16345331 0.017119281 0.058050036 7.7328988e-39
0.16353682 0.14418386 0.040620506 2.1457828e-38
0.16359949 0.14806738 0.040702522 2.266894e-38
0.15997823 0.018413324 0.058293104 8.1013296e-39
0.1596022 0.020290304 0.05669868 8.744541e-39
0.15923992 0.1444006 0.040374517 2.0811027e-38
0.15942922 0.14774351 0.039692044 2.2950588e-38
0.15698913 0.018689029 0.057988226 9.2058751e-39
0.15596059 0.021207172 0.056223035 1.0401899e-38
0.15483589 0.023747507 0.054893076 1.1966706e-38
0.1560235 0.14494166 0.039568067 2.0720616e-38
0.15593529 0.14830993 0.039504826 2.2583256e-38
0.15598525 0.15087554 0.03894639 2.341769e-38
0.15217185 0.021949805 0.056097209 1.1783733e-38
0.15211923 0.024375256 0.054845393 1.3164508e-38
0.15198514 0.14432773 0.038812876 2.0631652e-38
0.15205018 0.14821035 0.039462268 2.1286043e-38
0.14916371 0.022447512 0.056118011 1.2523801e-38
0.14801705 0.02499669 0.054896832 1.3810612e-38
0.14768322 0.027510017 0.053140342 1.5837111e-38
0.14768322 0.14135662 0.038067818 1.9708981e-38
0.14801726 0.14430839 0.039100766 2.0907515e-38
0.14785945 0.14761671 0.039317787 2.1004395e-38
0.14425574 0.025732692 0.054617405 1.3994305e-38
0.14430976 0.027471311 0.053065658 1.6021146e-38
0.14353821 0.14150286 0.038345277 1.9061444e-38
0.14459886 0.14439264 0.039172709 2.0999723e-38
0.14394675 0.14700247 0.03871274 2.1556488e-38
0.14003403 0.026176214 0.054022968 1.3439003e-38
0.14044842 0.027370427 0.052231133 1.5835376e-38
0.14044842 0.14127178 0.037151396 1.9156872e-38
0.13970797 0.14329675 0.038459837 1.9985923e-38
0.13677344 0.026101805 0.053460896 1.3994346e-38
0.13605055 0.027648248 0.052105546 1.7403398e-38
0.13678764 0.14068085 0.036655664 1.9342732e-38
0.13591161 0.14335841 0.037580967 1.9438515e-38
0.13278088 0.028278034 0.051243842 1.869341e-38
0.13230556 0.14370388 0.036083698 1.3811003e-38
0.13090436 0.14801717 0.036290705 1.4559726e-38
0.12847137 0.029795859 0.050833106 2.0068091e-38
0.12864879 0.031056169 0.050014734 2.0530118e-38
0.13012667 0.14095592 0.035041392 1.0955451e-38
0.1285021 0.14383584 0.03562659 1.1971375e-38
0.128948 0.14797252 0.035953522 1.1696633e-38
0.128948 0.15059724 0.035605967 1.2246607e-38
0.1262252 0.029637452 0.049094856 2.0439718e-38
0.12465209 0.030992363 0.049663424 2.0346791e-38
