# .PCD v0.7 - Point Cloud Data file format
VERSION 0.7
FIELDS x y z rgb
SIZE 4 4 4 4
TYPE F F F F
COUNT 1 1 1 1
WIDTH 977
HEIGHT 1
VIEWPOINT 0 0 0 0 1 0 0
POINTS 977
DATA ascii
0.067893922 0.12547682 0.038764536 1.2982293e-38
0.067874849 0.12933406 0.040013313 1.3534768e-38
0.068160728 0.13219063 0.042118967 1.4087954e-38
0.062631585 0.058814324 0.036395013 1.8130166e-38
0.063952364 0.061542958 0.035701096 1.8315267e-38
0.064011388 0.065747403 0.033827424 1.7390784e-38
0.064011395 0.06964016 0.034178674 2.0530812e-38
0.065305568 0.12285466 0.038829505 1.3257433e-38
0.064011395 0.12559853 0.039227843 1.3902083e-38
0.063972682 0.12927073 0.041023791 1.4086855e-38
0.065231286 0.13182493 0.042679965 1.4179422e-38
0.05977191 0.058263198 0.036678433 1.8315274e-38
0.060064204 0.061533898 0.035928667 1.739654e-38
0.060100123 0.06558615 0.035167038 1.7207124e-38
0.060121685 0.06957148 0.03485018 2.1365996e-38
0.059415221 0.071938172 0.036943078 2.2282179e-38
0.060313754 0.12576851 0.039673984 1.4178673e-38
0.060060829 0.12920125 0.0421471 1.4454199e-38
0.058732025 0.13175716 0.043431044 1.491519e-38
0.056399524 0.058256745 0.036868572 1.8500026e-38
0.056165896 0.061477512 0.036490083 1.8317409e-38
0.056212142 0.065545611 0.035616338 2.0071288e-38
0.056893438 0.069565937 0.035001159 2.0985323e-38
0.056246333 0.12600416 0.04016906 1.4455267e-38
0.056157663 0.12915182 0.042821944 1.4730456e-38
0.052437179 0.061746046 0.037413955 2.117655e-38
0.052305587 0.065445282 0.0365116 2.2650609e-38
0.053657994 0.068234622 0.035257995 2.2657427e-38
0.052169278 0.12544136 0.041351378 1.473151e-38
0.052232765 0.1284312 0.043888092 1.5101006e-38
0.048357904 0.06199263 0.037839293 2.1454221e-38
0.048163235 0.06554985 0.03686887 2.2189991e-38
0.047402814 0.12223546 0.040859222 1.445634e-38
0.048550509 0.12502606 0.042872548 1.4915896e-38
0.043996029 0.061836198 0.037954211 1.9057522e-38
0.044248655 0.064987212 0.036566615 1.9979463e-38
0.043285608 0.12152687 0.04161191 1.4271949e-38
0.044785678 0.12414227 0.043863237 1.42716e-38
0.040183686 0.061371304 0.037893176 1.6018276e-38
0.039422065 0.11869202 0.041469276 1.307412e-38
0.039985225 0.1212225 0.043021917 1.3904621e-38
0.041833967 0.12376131 0.044678152 1.3719869e-38
0.036306858 0.061361954 0.038119316 1.3345318e-38
0.035216011 0.11832377 0.041926026 1.2518085e-38
0.036555544 0.12132947 0.043810129 1.3441853e-38
0.032783024 0.061419427 0.039433479 1.0857126e-38
0.031295553 0.064365089 0.038019478 1.0760589e-38
0.031980582 0.11829003 0.042299926 1.3072315e-38
0.032630816 0.12079921 0.044921398 1.3257072e-38
0.030135304 0.062385321 0.040502965 1.1216867e-38
0.029068671 0.06668064 0.037982345 1.2968996e-38
0.027087584 0.069190003 0.038945019 1.6752946e-38
0.026480325 0.11401553 0.042554975 1.224256e-38
0.027637437 0.11717256 0.044437945 1.3165618e-38
0.029485375 0.12037436 0.045811117 1.3624379e-38
0.023980953 0.069746763 0.040873408 1.7949348e-38
0.022597797 0.071803518 0.039198458 1.693412e-38
0.022877753 0.10583135 0.042741656 1.3715887e-38
0.024439536 0.10937118 0.043552995 1.3072311e-38
0.025585815 0.11707551 0.045967758 1.3348199e-38
0.02053421 0.069608867 0.042071104 1.60197e-38
0.019677065 0.072192393 0.040382564 1.4177584e-38
0.019750603 0.10239685 0.042290628 1.4452735e-38
0.019858845 0.10538733 0.044232547 1.445453e-38
0.021036327 0.10855678 0.045729101 1.4177229e-38
0.022336185 0.11182852 0.045872867 1.3900997e-38
0.016486868 0.070062667 0.042785764 1.4638907e-38
0.015774712 0.072447486 0.041784286 1.3712621e-38
0.014832743 0.076264098 0.040505528 1.1324542e-38
0.015479825 0.098978594 0.042479694 1.4546008e-38
0.015916333 0.10170097 0.043179989 1.5006636e-38
0.016106501 0.10516968 0.044860661 1.5374703e-38
0.012837425 0.073540293 0.043187737 1.3620746e-38
0.012027502 0.076635733 0.042999864 1.1320228e-38
0.011597283 0.080123119 0.041230679 9.2022626e-39
0.011597298 0.093747772 0.042460024 1.0404055e-38
0.012013711 0.097078979 0.043814838 1.3626232e-38
0.012817748 0.10112414 0.045005083 1.5097762e-38
0.013237238 0.10391398 0.046218753 1.6477807e-38
0.0093376786 0.076504514 0.044199884 1.2047736e-38
0.0084556416 0.080831058 0.042292297 8.6483895e-39
0.0081769824 0.084258266 0.04200232 7.4494862e-39
0.0077147558 0.088516943 0.042440355 7.5456363e-39
0.0080906451 0.092482746 0.043765187 9.7608103e-39
0.0089026392 0.095860466 0.045188427 1.1971754e-38
0.004231751 0.081104249 0.044367433 8.4657961e-39
0.0042759776 0.084400304 0.044266582 7.0824749e-39
0.0042382777 0.088270098 0.044957042 7.3608541e-39
0.0051411167 0.091798291 0.045816004 9.1140298e-39
0.00088864565 0.080977887 0.045587778 9.0175294e-39
0.0010186136 0.084498085 0.045890272 7.9126027e-39
0.0015385598 0.086849406 0.046041906 7.6392346e-39
0.14279267 0.092996031 0.0056326985 1.6295593e-38
0.097450435 0.079125427 0.016329944 6.2545317e-39
0.15993443 0.14591806 0.035491824 2.2664987e-38
0.15795904 0.14837277 0.037413716 2.1922039e-38
0.15403679 0.047395259 0.02875936 2.2393107e-38
0.15570918 0.049701735 0.028098702 2.2392747e-38
0.1551685 0.14706028 0.0359357 2.3033785e-38
0.15512747 0.14928374 0.037536919 2.2656e-38
0.15109509 0.047036871 0.029069722 2.2391287e-38
0.15128909 0.048889145 0.027866542 2.2391298e-38
0.15169026 0.15007542 0.036612928 2.2293682e-38
0.15107054 0.15256348 0.038341582 1.9708606e-38
0.14742163 0.046805046 0.028634369 2.2570651e-38
0.14796263 0.048960321 0.02758652 2.2570647e-38
0.14705527 0.15253049 0.037795663 2.0353251e-38
0.14227001 0.04268454 0.029705107 2.2843287e-38
0.14365008 0.045810558 0.028526783 2.2751459e-38
0.14383724 0.15314746 0.038731575 1.980189e-38
0.1396369 0.042038627 0.029728889 2.2841839e-38
0.1401408 0.044957548 0.028136611 2.2842915e-38
0.13927813 0.1529084 0.038584232 2.0075582e-38
0.13602011 0.043030746 0.029958963 2.2932944e-38
0.13534796 0.045364603 0.029136121 2.2931867e-38
0.13566872 0.15404508 0.039679945 1.8048726e-38
0.13181067 0.043230906 0.030972958 2.2747827e-38
0.13170305 0.045440875 0.029668629 2.2655293e-38
0.13154033 0.15351559 0.039439261 1.7956901e-38
0.1278777 0.042562202 0.031202257 2.2838577e-38
0.12780094 0.044719234 0.030226648 2.2837495e-38
0.12798969 0.153687 0.040085018 1.7681028e-38
0.12394663 0.043204367 0.031549633 2.2655999e-38
0.12426232 0.15359609 0.041305184 1.7405483e-38
0.12129469 0.043287612 0.031192303 2.2563456e-38
0.11906537 0.045173489 0.030611336 2.2375841e-38
0.11930905 0.1519157 0.040719867 1.7680666e-38
0.11612163 0.043067321 0.032785952 2.2196467e-38
0.11602355 0.044706076 0.030923486 2.2195761e-38
0.11471991 0.15056524 0.040627182 1.7959052e-38
0.11606441 0.15253371 0.041490555 1.7866136e-38
0.11186214 0.042736784 0.032999575 1.8972131e-38
0.11211264 0.044665307 0.031375468 1.7683215e-38
0.11276446 0.15054484 0.040853143 1.7775383e-38
0.11233066 0.15277655 0.041827023 1.7775009e-38
0.10825825 0.042413078 0.033137441 1.7864357e-38
0.10794102 0.045144632 0.031904757 1.66662e-38
0.10820173 0.15049727 0.041380405 1.8509324e-38
0.10857475 0.15212482 0.042747319 1.8233462e-38
0.10432347 0.042455852 0.033094347 1.7771453e-38
0.10429083 0.044583745 0.032279313 1.6389971e-38
0.10387668 0.14957328 0.042474747 1.8971064e-38
0.10435484 0.15174644 0.043962896 1.8785233e-38
0.10168356 0.044556558 0.032580614 1.5653083e-38
0.10039717 0.14844683 0.042778552 1.7128569e-38
0.095817201 0.14644693 0.0424577 1.4824761e-38
0.096821688 0.14807394 0.043751001 1.639316e-38
0.09389548 0.050700769 0.036063969 1.7309995e-38
0.092197679 0.053289756 0.03534019 1.6012468e-38
0.091254473 0.056211457 0.0348472 1.3063347e-38
0.091254473 0.069282167 0.036026597 7.2650571e-39
0.091254473 0.14247814 0.042631149 1.3535847e-38
0.092306376 0.14535439 0.043374658 1.464075e-38
0.093241774 0.14769797 0.044892251 1.6207659e-38
0.088663928 0.053948261 0.036797941 1.8225897e-38
0.088467076 0.057011008 0.035966158 1.5924594e-38
0.089950845 0.069268569 0.036177218 7.632762e-39
0.088396162 0.14137974 0.043875873 1.2705727e-38
0.089973234 0.14438672 0.044974267 1.4270901e-38
0.08500503 0.054016314 0.037398815 1.9060348e-38
0.08474113 0.057256006 0.037047982 1.7675264e-38
0.084214851 0.060843505 0.036085308 1.5370704e-38
0.084084481 0.1319468 0.042516172 1.040479e-38
0.084736302 0.13736862 0.04292953 1.2432736e-38
0.084741727 0.14041257 0.044719696 1.5378302e-38
0.080494434 0.054165915 0.03793782 1.8777675e-38
0.080821969 0.057182804 0.037722588 1.8315607e-38
0.080563284 0.061402857 0.036965489 1.8501795e-38
0.080825396 0.063945144 0.036759973 1.905783e-38
0.079956308 0.13713205 0.043465018 1.4920194e-38
0.080561034 0.14024049 0.045090139 1.6668325e-38
0.076899037 0.053800702 0.03832376 2.0708735e-38
0.076903515 0.057158113 0.038064539 2.0991441e-38
0.076258041 0.06119892 0.037650883 2.1452758e-38
0.07544791 0.13724843 0.044000745 1.5563398e-38
0.076902881 0.14033084 0.045625508 1.6299897e-38
0.072976768 0.053759806 0.038776994 2.2372597e-38
0.072988667 0.057166211 0.038184464 2.2096708e-38
0.072441325 0.060642913 0.037727654 2.1544975e-38
0.070396312 0.13441822 0.044333816 1.4917702e-38
0.071862906 0.13688427 0.044385552 1.5469775e-38
0.072983459 0.14028996 0.046078444 1.6205898e-38
0.068891078 0.053225636 0.039204717 2.1911974e-38
0.068419397 0.05712235 0.038684726 2.1450987e-38
0.068440855 0.0598948 0.037837267 2.0069149e-38
0.06752374 0.13385874 0.04482013 1.4549278e-38
0.06803108 0.13711201 0.045762241 1.5193192e-38
0.069315992 0.14010765 0.046994686 1.5746357e-38
0.064878762 0.053195804 0.039366186 2.1082931e-38
0.064024672 0.056979582 0.038720489 1.9421603e-38
0.063701622 0.13318771 0.045508146 1.482444e-38
0.064220682 0.13674724 0.046418667 1.5194262e-38
0.066439666 0.13955331 0.047279775 1.491518e-38
0.060398921 0.052949399 0.039525926 1.9791829e-38
0.060284577 0.056178465 0.038704813 1.8498935e-38
0.060105942 0.13314137 0.046175599 1.5100647e-38
0.060289972 0.13631923 0.047271132 1.5652729e-38
0.056000993 0.053010523 0.04012537 1.9333728e-38
0.055720434 0.056130871 0.039232254 1.8871321e-38
0.056018315 0.13292705 0.046885133 1.509956e-38
0.055980325 0.13551167 0.048133612 1.5745648e-38
0.052431606 0.053077422 0.041108906 1.8778031e-38
0.052101098 0.056964159 0.040487289 1.8962779e-38
0.051493593 0.059718087 0.039795697 2.1273416e-38
0.052145414 0.13030672 0.046088994 1.5192095e-38
0.051895961 0.13249415 0.047759473 1.4547085e-38
0.048152238 0.056826003 0.041608632 2.1175838e-38
0.046930879 0.12633112 0.046337783 1.5005941e-38
0.048218049 0.1289456 0.046760738 1.546907e-38
0.048143707 0.13215902 0.048575461 1.5744198e-38
0.04423821 0.056801349 0.041950107 1.8686939e-38
0.044975422 0.059650123 0.040548861 1.9609265e-38
0.04406289 0.12577839 0.046622097 1.4177625e-38
0.044262454 0.12887195 0.048001051 1.5099563e-38
0.044213541 0.13145638 0.049138486 1.5561974e-38
0.040351994 0.056841023 0.041844904 1.6293437e-38
0.040219165 0.12509474 0.047513664 1.4087925e-38
0.040486462 0.1284274 0.049154937 1.4638575e-38
0.03643541 0.056800187 0.042297482 1.4082528e-38
0.036611885 0.12448922 0.048528969 1.4363801e-38
0.037676439 0.12745562 0.04953903 1.4730056e-38
0.032506168 0.057390407 0.042976916 1.28811e-38
0.031902082 0.059442967 0.04255867 1.1590725e-38
0.031213284 0.1221954 0.048806548 1.307411e-38
0.032736696 0.12401536 0.049399734 1.4179394e-38
0.029831909 0.057897978 0.044176638 1.2047671e-38
0.028831482 0.060855702 0.043953598 1.2881426e-38
0.027865931 0.06438458 0.043373585 1.4539516e-38
0.028232165 0.12133513 0.048233867 1.3900278e-38
0.029178195 0.12343442 0.05016619 1.4727529e-38
0.025051638 0.064861439 0.045193493 1.7675277e-38
0.024712846 0.067194395 0.044264138 1.8225578e-38
0.02346544 0.11432283 0.047987938 1.3441092e-38
0.023969829 0.11719237 0.048390269 1.3624046e-38
0.024675533 0.12081306 0.049555719 1.3901005e-38
0.020398617 0.067367598 0.045624614 1.629342e-38
0.020206347 0.10971409 0.047951758 1.4269071e-38
0.020616546 0.11309421 0.049093485 1.3625142e-38
0.020898372 0.11666653 0.049888372 1.3899576e-38
0.021481857 0.12048115 0.050594151 1.371736e-38
0.017132938 0.067882232 0.045343995 1.5005579e-38
0.016852491 0.10895679 0.049285054 1.5097056e-38
0.018065162 0.11348705 0.050563276 1.4360905e-38
0.013196647 0.069124855 0.046116829 1.5280665e-38
0.012133159 0.07146547 0.045778036 1.5002628e-38
0.011732727 0.10243685 0.048282266 1.5281436e-38
0.01269412 0.10526219 0.049233973 1.5467244e-38
0.013539389 0.10757672 0.050051808 1.5559421e-38
0.010220625 0.069491282 0.047507405 1.7859976e-38
0.0091820359 0.072387807 0.046878934 1.6663965e-38
0.0077858046 0.076214634 0.046712995 1.2876414e-38
0.008112967 0.097928539 0.049644947 1.3809539e-38
0.0094188005 0.10056166 0.04973042 1.4638224e-38
0.0053178146 0.073045038 0.04839921 1.6571767e-38
0.0051023364 0.076108843 0.047689974 1.2425853e-38
0.005176641 0.078803465 0.047250569 9.8447901e-39
0.0039108992 0.09255226 0.048301637 1.003959e-38
0.0053075999 0.095616475 0.049047172 1.1787711e-38
0.0017224029 0.073335268 0.048844278 1.4541688e-38
0.0011732876 0.07605508 0.048255146 1.1322035e-38
0.00097242743 0.079513669 0.048074067 9.4806515e-39
0 0.082708448 0.047869027 8.4618459e-39
0.00052145869 0.088203579 0.048304141 8.0984289e-39
0.0012377277 0.09181869 0.049108505 9.2984141e-39
0.001780659 0.095010385 0.050287783 1.0862861e-38
0.14159651 0.10290942 0.0069304109 1.5283953e-38
0.13129431 0.1146747 0.0091198087 1.3535111e-38
0.098768204 0.086455762 0.015934587 1.436092e-38
0.14243692 0.14077371 0.021914303 1.9432052e-38
0.10618936 0.13875763 0.02568239 1.5844314e-38
0.045084566 0.081165157 0.029084444 9.3791176e-39
0.075712018 0.12513715 0.037878931 1.3903909e-38
0.15054592 0.054588594 0.020970583 2.2662129e-38
0.15533549 0.045970343 0.030905426 2.2393827e-38
0.15621138 0.15095469 0.039871812 1.9519164e-38
0.15568531 0.15357082 0.041404605 1.3991755e-38
0.15196452 0.044817306 0.031598449 2.2391662e-38
0.15200533 0.15432243 0.04187876 1.4360529e-38
0.15116492 0.15615429 0.042950571 1.0490831e-38
0.14787745 0.042733029 0.033099413 2.2571379e-38
0.14772004 0.044323944 0.031576574 2.2570656e-38
0.14806414 0.15428174 0.042334139 1.6850534e-38
0.14761445 0.15664464 0.043408453 1.1321693e-38
0.14261749 0.038722828 0.033350348 2.3027309e-38
0.14382106 0.04191079 0.032234251 2.2845083e-38
0.14381476 0.15476601 0.042333782 1.8050162e-38
0.14391801 0.15673849 0.043679118 1.3808455e-38
0.13982134 0.15472777 0.042121649 1.8421093e-38
0.13994597 0.15669815 0.043801069 1.5379017e-38
0.1356557 0.040766783 0.032728612 2.2931532e-38
0.13597868 0.15665753 0.043922842 1.6671174e-38
0.13200164 0.040814787 0.033428073 2.2931874e-38
0.13185252 0.15710947 0.044149339 1.6300248e-38
0.1314401 0.15990399 0.045586765 1.3998927e-38
0.12808657 0.040059924 0.034152985 2.3022981e-38
0.12806456 0.15657629 0.044332147 1.7220047e-38
0.12378834 0.041086167 0.034240961 2.2747485e-38
0.12346055 0.15455462 0.044517517 1.7040672e-38
0.12390806 0.15639901 0.045541465 1.7497365e-38
0.12004386 0.041126862 0.035186172 2.2377634e-38
0.12018064 0.15386309 0.044837236 1.7588826e-38
0.11660971 0.040885136 0.035817206 2.2101764e-38
0.11626871 0.15447709 0.045853674 1.804946e-38
0.11664648 0.15612398 0.046969116 1.8233497e-38
0.11320544 0.040781833 0.035951734 2.0908619e-38
0.10835245 0.15308499 0.045639515 1.832531e-38
0.10414658 0.15237014 0.047833979 1.860156e-38
0.10048523 0.15037364 0.046311378 1.8328202e-38
0.10051908 0.15167679 0.047772825 1.9154719e-38
0.095935419 0.048783705 0.039696515 1.5371387e-38
0.096305527 0.14979556 0.047554791 1.7958702e-38
0.096855924 0.15216003 0.048917115 1.9432029e-38
0.092361391 0.049523294 0.038562417 1.9704985e-38
0.091306798 0.14633396 0.047016144 1.5651299e-38
0.092635483 0.14918269 0.048297763 1.7774286e-38
0.092647955 0.15158878 0.049355686 2.0262843e-38
0.088689044 0.04960078 0.039098263 2.1454566e-38
0.088684395 0.051651157 0.038778305 2.0258517e-38
0.08737319 0.14234897 0.047114849 1.4083621e-38
0.088318251 0.14515838 0.048269033 1.5465115e-38
0.090017982 0.14760602 0.049302697 1.694311e-38
0.084753208 0.049533606 0.039719164 2.0993243e-38
0.084422991 0.05193539 0.039300442 1.9611737e-38
0.084751368 0.14231423 0.047754109 1.6391336e-38
0.084944345 0.14454818 0.04918474 1.6941312e-38
0.080626696 0.049133889 0.040645123 1.9698906e-38
0.081079409 0.052097723 0.039704561 1.9146465e-38
0.081144936 0.14194982 0.048057139 1.7312978e-38
0.080649465 0.14471421 0.049754143 1.7774676e-38
0.076872617 0.048671454 0.041345596 2.0710908e-38
0.076883554 0.051528111 0.040142 2.0527581e-38
0.076883554 0.1422396 0.048326969 1.6852001e-38
0.076875396 0.14484903 0.049686491 1.7402658e-38
0.076210611 0.14746204 0.050898254 1.7678155e-38
0.07293079 0.048630357 0.041801095 2.2740653e-38
0.072949946 0.051487096 0.040596545 2.2465513e-38
0.072949946 0.14219858 0.048781514 1.6575049e-38
0.072932079 0.14480384 0.050366461 1.6850914e-38
0.068995357 0.04864119 0.041923702 2.2373299e-38
0.070327543 0.051459759 0.040899575 2.2095656e-38
0.068688534 0.14182548 0.049244344 1.5650937e-38
0.068987697 0.14410074 0.050930917 1.5927549e-38
0.065052688 0.048582442 0.042489946 2.2188195e-38
0.064906217 0.1409533 0.050111651 1.4451314e-38
0.065300785 0.14392436 0.051647902 1.5001646e-38
0.061101563 0.048489377 0.043278813 2.1821558e-38
0.061149113 0.13813156 0.049789369 1.5560895e-38
0.061551303 0.14029877 0.051117301 1.5188886e-38
0.057159536 0.048448272 0.043734312 2.0439348e-38
0.056924 0.13753934 0.051036775 1.6113713e-38
0.057143278 0.1393525 0.052387834 1.6298466e-38
0.053235672 0.048476659 0.043744743 1.9147164e-38
0.052626297 0.13409871 0.050418317 1.482227e-38
0.053070992 0.13686493 0.051753342 1.5837835e-38
0.049280211 0.048762493 0.044552267 1.9885084e-38
0.049184367 0.052389629 0.0434466 1.9977288e-38
0.048668005 0.13404065 0.051379681 1.556233e-38
0.045649953 0.049286976 0.045347333 2.0621924e-38
0.045378834 0.052412659 0.044565976 2.0440061e-38
0.045098536 0.13346042 0.052248538 1.5654159e-38
0.045965888 0.13593984 0.053382039 1.5378277e-38
0.042678408 0.049546868 0.045969725 1.9245119e-38
0.041571692 0.052449465 0.0456025 1.8691232e-38
0.040169857 0.13002485 0.05150193 1.4729655e-38
0.041402645 0.13240096 0.05292052 1.4915504e-38
0.03749077 0.052296594 0.04569906 1.7305785e-38
0.036236256 0.12603986 0.051600575 1.4639296e-38
0.037066437 0.12908956 0.052452981 1.4454176e-38
0.038337499 0.13171008 0.053215265 1.4362317e-38
0.033551283 0.052255526 0.046154261 1.5187445e-38
0.032958224 0.055014089 0.045573771 1.4080739e-38
0.032922678 0.12565418 0.052457273 1.4914436e-38
0.033946283 0.12814473 0.053573549 1.4728612e-38
0.030223481 0.052787766 0.047207713 1.343573e-38
0.029603913 0.055819616 0.047048092 1.2417973e-38
0.028973736 0.12505774 0.053031981 1.5099189e-38
0.030843519 0.1272122 0.054356277 1.4729341e-38
0.025895096 0.060266301 0.048285604 1.5462576e-38
0.023738094 0.063395232 0.047909558 1.7770353e-38
0.02505026 0.12392782 0.053218603 1.4361618e-38
0.021638595 0.061193563 0.049471676 1.8318858e-38
0.021102652 0.064008333 0.048398197 1.7398688e-38
0.019190595 0.11797418 0.052858591 1.3807369e-38
0.01951839 0.12093557 0.053087652 1.3439311e-38
0.021428682 0.12397861 0.05455476 1.3901727e-38
0.017693646 0.061152428 0.049927592 1.5649144e-38
0.017611027 0.06374006 0.049286246 1.5646627e-38
0.015256986 0.066661455 0.048686862 1.5097768e-38
0.015256986 0.1100452 0.052601397 1.491626e-38
0.016568184 0.11242526 0.052663445 1.4359474e-38
0.017192192 0.11661959 0.053306162 1.371556e-38
0.017145135 0.12053902 0.054170668 1.2887578e-38
0.019008629 0.12313344 0.055366993 1.3165207e-38
0.01379735 0.064474359 0.050175846 1.6939142e-38
0.013239972 0.066575266 0.049419522 1.7028449e-38
0.011323392 0.10606021 0.052700102 1.4824741e-38
0.012896806 0.10896887 0.052779257 1.5190294e-38
0.013683118 0.1125942 0.05402559 1.3807755e-38
0.013803229 0.11651988 0.054815114 1.3255293e-38
0.014406167 0.11978932 0.055601418 1.2428029e-38
0.011118703 0.065039232 0.051044226 1.8413593e-38
0.0095032677 0.067750208 0.050755024 1.8964526e-38
0.0073897541 0.070523404 0.049951851 1.9792536e-38
0.00782682 0.10164156 0.052708745 1.4544965e-38
0.0086532161 0.10468445 0.053336442 1.4083627e-38
0.0092514157 0.10859832 0.054181337 1.3441125e-38
0.010020815 0.11213393 0.055132806 1.3163826e-38
0.011118703 0.11579968 0.055624425 1.2979762e-38
0.0058862194 0.068312444 0.05169642 1.8594729e-38
0.0044600144 0.070968866 0.050737798 1.7767824e-38
0.0044395626 0.097771816 0.052754164 1.2800783e-38
0.0046800002 0.10066953 0.05377394 1.3350724e-38
0.0052561983 0.10456936 0.05478853 1.2889398e-38
0.0054830462 0.10867777 0.055638373 1.2614595e-38
0.0071737394 0.11114396 0.055663884 1.2521681e-38
0.0019137934 0.068898618 0.052464843 1.6199438e-38
0.0014021844 0.071025312 0.051452816 1.6387052e-38
0.0014017075 0.097347423 0.053827941 1.1509278e-38
0.0013144016 0.10057636 0.054887652 1.2338689e-38
0.0019138008 0.10449685 0.055676937 1.2058183e-38
0.0025712922 0.10714062 0.055838883 1.2891866e-38
0.11377227 0.10205546 0.0061349273 1.6388497e-38
0.10703566 0.055878304 0.018827498 1.224471e-38
0.02842053 0.096550703 0.030847311 1.0581961e-38
0.0015385598 0.086849406 0.046041906 7.6392346e-39
0.15685815 0.04425697 0.034212232 2.2392751e-38
0.15597896 0.15619808 0.044415236 8.6487385e-39
0.15141332 0.042354032 0.035180271 2.2662871e-38
0.15229282 0.15770227 0.045485735 7.7325415e-39
0.14745322 0.041650675 0.035578132 2.2571373e-38
0.14846686 0.15843414 0.046250165 8.0998653e-39
0.14542878 0.041052558 0.035254598 2.2754681e-38
0.14411001 0.15871882 0.046025395 1.0492987e-38
0.14419879 0.16004448 0.047145486 8.651974e-39
0.14015371 0.15867758 0.046482563 1.3160935e-38
0.14155746 0.16001692 0.047450662 1.0857469e-38
0.13619739 0.15863633 0.046939731 1.4643213e-38
0.13622318 0.15995966 0.047393084 1.2891867e-38
0.13355984 0.15860882 0.047244489 1.48251e-38
0.13355984 0.15993106 0.047363818 1.3351771e-38
0.12894413 0.15856069 0.047777891 1.6021519e-38
0.12498783 0.039517179 0.037497401 2.2929368e-38
0.12436806 0.15807262 0.048940837 1.7313684e-38
0.11905335 0.038133055 0.038063824 2.2097102e-38
0.12042683 0.15847246 0.049773037 1.7406223e-38
0.11644785 0.037991196 0.039028406 2.2194314e-38
0.11575642 0.039420918 0.038564146 2.2196831e-38
0.11644848 0.15754867 0.049816132 1.8234927e-38
0.11245948 0.038064294 0.03882581 2.0260736e-38
0.1118001 0.039379671 0.039021313 1.9707214e-38
0.11184251 0.15441054 0.050406516 1.8049793e-38
0.1138235 0.15575533 0.050297081 1.8418276e-38
0.1071844 0.15304482 0.049815178 1.8601542e-38
0.10586563 0.15303107 0.049967527 1.8601552e-38
0.10027353 0.15330029 0.051148713 1.9063957e-38
0.09599454 0.045665443 0.042440593 2.0996033e-38
0.096648611 0.047049336 0.042152345 1.7031988e-38
0.096314847 0.15392062 0.051665843 1.9339833e-38
0.096968614 0.15591255 0.051516712 1.9338383e-38
0.092692889 0.045631021 0.042822182 2.292752e-38
0.092677906 0.047113769 0.041946888 2.1546752e-38
0.091372214 0.15022466 0.052413583 1.9067542e-38
0.093010873 0.15223369 0.051645815 2.0261422e-38
0.088730894 0.045589708 0.043280065 2.3207732e-38
0.088721581 0.047072515 0.042404056 2.255913e-38
0.088946365 0.14888218 0.052069783 1.8325684e-38
0.090051562 0.15153503 0.052685678 2.0445464e-38
0.084108569 0.04554151 0.043814123 2.0988955e-38
0.084765278 0.047031268 0.042861223 2.1636106e-38
0.084105887 0.14619294 0.051885486 1.7589554e-38
0.084437355 0.14783874 0.052753448 1.8323157e-38
0.080807894 0.044898577 0.043803692 2.0526516e-38
0.081468344 0.046996891 0.043242216 1.9975127e-38
0.082127728 0.14617231 0.052114069 1.7957997e-38
0.080807932 0.14813557 0.052950382 1.8234573e-38
0.076851666 0.044938281 0.043762743 2.1446684e-38
0.076849736 0.14897856 0.053319156 1.8138068e-38
0.07305447 0.044348195 0.044488847 2.2739942e-38
0.073331751 0.14828044 0.053665996 1.7218606e-38
0.068920933 0.044721082 0.045509458 2.2556266e-38
0.068933018 0.14602925 0.053975284 1.6110148e-38
0.069589853 0.14735654 0.054187 1.638493e-38
0.064967178 0.045395479 0.045693934 2.2466934e-38
0.064972259 0.14532408 0.054541528 1.6014727e-38
0.061012149 0.044718951 0.0459252 2.2005234e-38
0.060137413 0.14152814 0.054593861 1.6113003e-38
0.061006762 0.14395615 0.055048525 1.6390296e-38
0.057365119 0.044931628 0.046874642 2.1176551e-38
0.057373665 0.14093821 0.055283666 1.6574358e-38
0.053072952 0.044886872 0.047370613 1.9792553e-38
0.053114742 0.13925856 0.054870248 1.6115147e-38
0.050431632 0.045190372 0.04770571 1.8223065e-38
0.049158424 0.046660006 0.046975851 1.9151138e-38
0.047839656 0.13788131 0.055360496 1.5380425e-38
0.049134225 0.13953511 0.055864275 1.537614e-38
0.044938348 0.047144897 0.04751122 1.9979813e-38
0.044663578 0.13704927 0.055857539 1.5008428e-38
0.046029426 0.1396001 0.056737304 1.482476e-38
0.041215912 0.048482597 0.048570991 1.8597253e-38
0.039927028 0.050530493 0.048400521 1.82299e-38
0.040586419 0.13383895 0.055840731 1.4915512e-38
0.041531384 0.13547833 0.056636691 1.5008426e-38
0.03726735 0.049128845 0.04892087 1.8412828e-38
0.036999539 0.13272995 0.056562901 1.3994635e-38
0.038545661 0.13510826 0.057203829 1.4637847e-38
0.033309124 0.049087584 0.049378276 1.7579138e-38
0.032429956 0.12933333 0.05672133 1.4176885e-38
0.033940405 0.13175923 0.057185411 1.3074478e-38
0.029350929 0.049046308 0.049835682 1.7211786e-38
0.02881825 0.051147163 0.050154686 1.4729691e-38
0.028058074 0.055034593 0.050189674 1.2511271e-38
0.029338904 0.12819205 0.057146907 1.4269802e-38
0.026349418 0.055899352 0.051224887 1.3615834e-38
0.024541341 0.058744296 0.050934076 1.5925359e-38
0.025420539 0.12574734 0.056877434 1.4084332e-38
0.025008857 0.12735328 0.05808109 1.3624435e-38
0.021434821 0.058885053 0.051645637 1.7764977e-38
0.021419682 0.12568314 0.057843089 1.3717709e-38
0.020056352 0.1269706 0.058623493 1.3257434e-38
0.017492734 0.12411456 0.057822108 1.2612772e-38
0.013807371 0.060401671 0.053092182 1.6752959e-38
0.013518088 0.062110022 0.052858889 1.7033852e-38
0.013003975 0.12084765 0.058083951 1.1599345e-38
0.013783216 0.1232638 0.059019864 1.1047244e-38
0.0095505863 0.063378215 0.053531766 1.8506488e-38
0.0082764998 0.066067442 0.053489685 1.9427337e-38
0.0089358911 0.11367522 0.057708561 1.2795401e-38
0.0092682093 0.11602342 0.05848819 1.1966706e-38
0.010862865 0.11961917 0.058525801 1.1415674e-38
0.0064094886 0.064152136 0.054545224 1.9058948e-38
0.0052812994 0.066334195 0.054115355 1.8957407e-38
0.0055836812 0.1120657 0.058459222 1.1968497e-38
0.002342023 0.1089786 0.058052957 1.2796457e-38
0.0022273958 0.11089497 0.059249997 1.1691176e-38
0.16492641 0.10609042 0.0044844747 1.5009892e-38
0.16492641 0.10734817 0.0045979619 1.5011679e-38
0.12841988 0.093937464 0.0057877302 1.602007e-38
0.12852269 0.10440424 0.0059527755 1.4360203e-38
0.12842754 0.11400118 0.0077095032 1.3164536e-38
0.10580207 0.094509959 0.006586194 1.6479263e-38
0.081040546 0.095558196 0.010653317 1.3073037e-38
0.1117548 0.096655577 0.012369096 1.7587034e-38
0.11397444 0.10107113 0.011795521 1.6576482e-38
0.099049062 0.10616584 0.013682067 1.84233e-38
0.085047007 0.099900961 0.023445666 1.3898499e-38
0.084945478 0.098620802 0.022482574 1.132098e-38
0.085670352 0.10127777 0.016620219 1.2519527e-38
0.073468298 0.10612228 0.031110287 9.2916248e-39
0.061148256 0.12221234 0.033664882 1.1874144e-38
0.056869969 0.103769 0.030937731 1.0027731e-38
0.066842467 0.1030661 0.03102684 1.3530801e-38
0.15377331 0.055916511 0.020714402 2.2658548e-38
0.06819395 0.11858714 0.03608644 1.1877378e-38
0.010020815 0.11213393 0.055132806 1.3163826e-38
0.15727878 0.16286054 0.050929725 5.0635514e-39
0.15374945 0.041796163 0.038395524 2.266395e-38
0.1549719 0.1575059 0.047683001 7.639613e-39
0.15342155 0.16029525 0.048789144 6.7198077e-39
0.15362093 0.16315582 0.051382542 5.1560707e-39
0.14977233 0.040424846 0.038735211 2.2663576e-38
0.14946702 0.16090378 0.04923737 6.3545971e-39
0.14929804 0.16277733 0.051851988 6.0773011e-39
0.14609985 0.16106853 0.049796045 7.4555903e-39
0.14597273 0.16274267 0.052236259 7.4573727e-39
0.14143926 0.16101883 0.050081849 1.0124925e-38
0.14331248 0.16271493 0.05254364 8.2867831e-39
0.13915971 0.1599994 0.050760806 1.288755e-38
0.13267148 0.034575537 0.042221189 2.2835037e-38
0.13363321 0.037005439 0.04182303 2.2930824e-38
0.1306763 0.034554735 0.042451739 2.2929731e-38
0.12992001 0.036777303 0.041392684 2.3206299e-38
0.12921216 0.15989569 0.051910341 1.4828694e-38
0.12562357 0.033409178 0.042648196 2.1646187e-38
0.1259177 0.036793552 0.041523516 2.329454e-38
0.12606546 0.15963948 0.05141151 1.6023303e-38
0.12201225 0.033856183 0.043061137 2.2197912e-38
0.12189873 0.036866978 0.041324377 2.265026e-38
0.12186068 0.1604805 0.051808774 1.5749202e-38
0.11798919 0.033931464 0.042862713 2.2194299e-38
0.11723737 0.036226556 0.041388512 2.2190724e-38
0.11771214 0.16015369 0.052551389 1.5560879e-38
0.1148749 0.034179866 0.042911053 2.210067e-38
0.113914 0.036235392 0.041523814 2.1548596e-38
0.11308885 0.15662418 0.053830504 1.8696987e-38
0.11465257 0.15974617 0.05426693 1.5100643e-38
0.10998116 0.15548529 0.053752661 1.8604049e-38
0.10601251 0.1556651 0.05456835 1.8785943e-38
0.10695574 0.1587795 0.056424022 1.5281056e-38
0.10201988 0.15562426 0.05458045 1.9063235e-38
0.1023914 0.15862033 0.056183279 1.5928914e-38
0.098067798 0.041029476 0.045936346 2.1544946e-38
0.098290399 0.044538788 0.044295251 1.840954e-38
0.098462097 0.15647404 0.054173172 1.9432359e-38
0.096696168 0.15822622 0.054536998 1.6758339e-38
0.092767753 0.038160354 0.047193348 2.3117714e-38
0.094079554 0.041024864 0.046175897 2.3209173e-38
0.094047271 0.043995872 0.044538498 2.2747777e-38
0.094047271 0.15554272 0.054603457 1.9798289e-38
0.095371723 0.15821239 0.054690063 1.6759785e-38
0.09010005 0.040909432 0.047078311 2.2935484e-38
0.090073928 0.043954447 0.044997633 2.3117703e-38
0.089747936 0.15250653 0.055335701 2.0536585e-38
0.090363815 0.1546986 0.057180107 2.0351481e-38
0.085922383 0.041278228 0.047405839 2.2929712e-38
0.086100593 0.044245005 0.045486748 2.3019037e-38
0.086100586 0.14882018 0.05492264 1.8785576e-38
0.086295329 0.15109184 0.055971324 2.0259626e-38
0.08229275 0.040758677 0.04738462 2.2002383e-38
0.082127236 0.043207616 0.045855999 2.1355218e-38
0.082317121 0.15105036 0.056431055 2.0349672e-38
0.076806262 0.03799393 0.049037814 2.2922534e-38
0.078144804 0.040230751 0.047736049 2.2278598e-38
0.078153886 0.042502224 0.046255231 2.2094913e-38
0.078416832 0.1508612 0.05640626 1.9796148e-38
0.074146003 0.037966192 0.049345195 2.319949e-38
0.074172556 0.040356956 0.047199309 2.3014375e-38
0.075504996 0.042474605 0.04656136 2.2551958e-38
0.074167751 0.15156446 0.057739675 1.8232771e-38
0.074944079 0.15506721 0.059818387 1.8694101e-38
0.07017529 0.04040058 0.048872292 2.3109437e-38
0.069324233 0.042410165 0.047275603 2.3015449e-38
0.070200838 0.14865017 0.057096481 1.6667606e-38
0.070434652 0.15049446 0.059122503 1.6851994e-38
0.066028059 0.040589087 0.049264133 2.2741014e-38
0.065571636 0.043698967 0.047829032 2.2647759e-38
0.064909413 0.14594333 0.057131767 1.647641e-38
0.066851296 0.14726235 0.059046149 1.6201619e-38
0.062396988 0.040319473 0.04977113 2.2373658e-38
0.061598293 0.042661585 0.048198342 2.2097786e-38
0.063584961 0.14592952 0.057284832 1.6845904e-38
0.061538368 0.14587522 0.059539914 1.7217544e-38
0.058023818 0.040226348 0.050561011 2.1084728e-38
0.057624944 0.042952135 0.048687398 2.1086877e-38
0.056962729 0.14187665 0.05769062 1.7218651e-38
0.057588845 0.14385624 0.058807075 1.7403374e-38
0.054240286 0.040995412 0.050782442 2.0439708e-38
0.054976046 0.043588489 0.049053431 2.1177633e-38
0.053651601 0.14051419 0.057953417 1.6206636e-38
0.054219477 0.14179632 0.060361445 1.6483589e-38
0.050249346 0.041215539 0.051411569 1.8869161e-38
0.049997978 0.043827936 0.049907625 1.8311309e-38
0.050781965 0.14092693 0.058324993 1.5652011e-38
0.051533893 0.14175352 0.061344326 1.601829e-38
0.046315894 0.042005792 0.050930321 1.7031344e-38
0.046358906 0.044135518 0.050275147 1.8130142e-38
0.046367139 0.14043824 0.058795214 1.4732205e-38
0.046213388 0.14169805 0.061959147 1.4363063e-38
0.043553144 0.04164809 0.053241432 1.6754768e-38
0.042268872 0.043769658 0.052740216 1.877913e-38
0.041731566 0.046106271 0.050823569 1.9334103e-38
0.041069344 0.13639918 0.059047937 1.5008062e-38
0.042354777 0.13949443 0.059851229 1.4455257e-38
0.042336866 0.14170198 0.060389459 1.4087197e-38
0.038232632 0.045148961 0.054177165 1.9244779e-38
0.03875155 0.047071151 0.051257789 1.878271e-38
0.038025312 0.1360057 0.060377777 1.4176875e-38
0.038788982 0.13843107 0.062125027 1.3902795e-38
0.035572402 0.045565769 0.05452466 1.8599782e-38
0.034447089 0.047358245 0.051785171 1.92426e-38
0.031798214 0.13165474 0.059699893 1.298195e-38
0.034536548 0.13480294 0.060802042 1.3626222e-38
0.030399799 0.04715918 0.053249478 1.9516306e-38
0.029663906 0.13122702 0.060112059 1.3254902e-38
0.030576333 0.13409352 0.062286019 1.3073781e-38
0.025924966 0.047894508 0.054511011 1.657358e-38
0.025954321 0.051488876 0.053349376 1.4544227e-38
0.025175959 0.054565251 0.053515553 1.4356988e-38
0.025838181 0.12827274 0.060089052 1.362443e-38
0.026575677 0.130729 0.061361909 1.3256352e-38
0.027591653 0.13350211 0.063389003 1.2888661e-38
0.022437416 0.048096076 0.056283176 1.5282138e-38
0.022327185 0.052194491 0.055991948 1.4910137e-38
0.022469878 0.055768296 0.054613233 1.6107241e-38
0.021821707 0.12688188 0.060936809 1.3532964e-38
0.023213513 0.12992628 0.06290251 1.3347839e-38
0.018613301 0.053057306 0.057176352 1.5191379e-38
0.018401474 0.055581018 0.056081057 1.6847667e-38
0.017229274 0.1255271 0.060844243 1.2794288e-38
0.015620522 0.053359509 0.057552278 1.4268736e-38
0.014322005 0.055838816 0.057590365 1.463861e-38
0.014580369 0.058217257 0.055079401 1.6110479e-38
0.013255924 0.12415773 0.061183572 1.0497652e-38
0.015620522 0.12537551 0.064050317 1.1874851e-38
0.010280721 0.059505023 0.056302965 1.7126748e-38
0.009282589 0.11747661 0.06104362 1.2055288e-38
0.009282589 0.11946852 0.061223388 1.1042933e-38
0.0099766776 0.12270784 0.063287914 9.8458285e-39
0.0089699104 0.12530616 0.064818859 1.0594886e-38
0.0062890872 0.059766009 0.057629108 1.629597e-38
0.006633684 0.062118217 0.056357205 1.8324267e-38
0.0062238574 0.11572047 0.061530292 9.7572594e-39
0.006470114 0.11891459 0.063017249 8.6508838e-39
0.0069747344 0.1226181 0.064808726 9.5677997e-39
0.0069747195 0.12528536 0.06504941 1.1244975e-38
0.0030970871 0.060699888 0.058662772 1.5190717e-38
0.0026221126 0.06358096 0.057293415 1.7674912e-38
0.0013358891 0.06560415 0.057288885 1.7303964e-38
0.0019981265 0.1120889 0.061406136 1.1042914e-38
0.0029091015 0.11449641 0.062672436 9.7543587e-39
0.0036494061 0.11724891 0.06471169 8.1841506e-39
0.16743529 0.10674545 0.0042513013 1.4183349e-38
0.12850089 0.12021367 0.0093286037 1.2797542e-38
0.12854761 0.12394844 0.010333955 1.3442928e-38
0.094796233 0.091842525 0.010683179 1.5191038e-38
0.12603621 0.079251505 0.01022476 2.0165269e-38
0.12446867 0.098988369 0.011071205 1.6020064e-38
0.1660898 0.083822988 0.0088377595 2.0907161e-38
0.16651855 0.087018602 0.0086429119 2.0352905e-38
0.044791363 0.095479369 0.023587286 9.2011765e-39
0.090002574 0.11877528 0.023253083 1.2980847e-38
0.13004777 0.062473066 0.014046252 2.1266254e-38
0.10251549 0.11417252 0.014403939 1.5559085e-38
0.061321735 0.12235992 0.033563197 1.1784463e-38
0.062275894 0.1215496 0.037590683 1.3718049e-38
0.051455677 0.10296209 0.035507441 1.3621189e-38
0.048388571 0.10354971 0.035820127 1.1690124e-38
0.028095722 0.11346911 0.040969789 1.2242932e-38
0.0606521 0.059190273 0.035547733 1.44513e-38
0.0042382777 0.088270098 0.044957042 7.3608541e-39
0.15432188 0.16497284 0.052475691 4.2373682e-39
0.15419149 0.16819714 0.054129481 6.5400996e-39
0.15458149 0.17186846 0.056388795 7.9183579e-39
0.150291 0.16451542 0.053337157 5.4319485e-39
0.15049157 0.16801056 0.055975676 6.0791284e-39
0.14610872 0.1647587 0.05391854 7.0889405e-39
0.14627364 0.16678661 0.055935383 6.997112e-39
0.14200658 0.16422196 0.055106044 8.284995e-39
0.14234996 0.16675767 0.057400644 8.101317e-39
0.1380713 0.16133103 0.054040313 1.0955755e-38
0.13828275 0.16402802 0.056954324 8.9300113e-39
0.13432129 0.029805228 0.045978606 1.3996487e-38
0.13445435 0.032403424 0.045734227 1.9989546e-38
0.13477901 0.035670221 0.043590665 2.2653165e-38
0.13407525 0.16128936 0.05450207 1.1783379e-38
0.13451877 0.16361016 0.058125257 9.8534039e-39
0.12874717 0.03435877 0.043669641 2.3298507e-38
0.13010183 0.16124941 0.055298269 1.3259198e-38
0.130317 0.16327927 0.05865705 1.1143403e-38
0.12741515 0.032341599 0.043642819 2.0455922e-38
0.12620579 0.1612161 0.057433724 1.4180817e-38
0.12722529 0.1630263 0.059499919 1.1878794e-38
0.12225688 0.029739946 0.047041297 1.5104291e-38
0.12210596 0.031558588 0.04452759 2.0270423e-38
0.11958149 0.029712051 0.047350466 1.6584032e-38
0.11875705 0.031583548 0.044583082 2.1646501e-38
0.11276297 0.15973163 0.056844354 1.5099923e-38
0.10943294 0.15702586 0.05698806 1.9062146e-38
0.11028923 0.15932426 0.057095766 1.5191751e-38
0.10524751 0.15920994 0.058683574 1.4728577e-38
0.10151653 0.036941975 0.049854636 2.1361306e-38
0.098331779 0.036469132 0.049804032 2.3016882e-38
0.09438172 0.036434993 0.050555944 2.3116611e-38
0.092782721 0.15551671 0.058791637 1.9889782e-38
0.090330832 0.036690257 0.050232589 2.2931531e-38
0.08879596 0.15614066 0.060323119 1.9615702e-38
0.086135514 0.036181562 0.051156759 2.2650996e-38
0.086788647 0.039263383 0.049000263 2.3017259e-38
0.085456632 0.15276927 0.059397221 2.0534782e-38
0.08612936 0.15477498 0.06084758 2.0073816e-38
0.082293697 0.036344923 0.051408529 2.227968e-38
0.081459552 0.15272409 0.060364187 2.0629151e-38
0.08212591 0.15473644 0.060299695 2.0443665e-38
0.078382924 0.036625996 0.052167475 2.274136e-38
0.078129224 0.15269053 0.060580671 2.0074162e-38
0.077848189 0.15454945 0.063072205 1.9983776e-38
0.072748847 0.03575778 0.054362714 2.338459e-38
0.072802469 0.15263733 0.060859501 1.8328545e-38
0.072802469 0.15464061 0.061040223 1.8232059e-38
0.070138447 0.037754238 0.0508039 2.2927212e-38
0.069773443 0.15225916 0.062947035 1.6945262e-38
0.070102155 0.15393451 0.06331265 1.7309728e-38
0.066108093 0.0367864 0.052702188 2.2744952e-38
0.0658032 0.14822072 0.06152904 1.6386718e-38
0.066252671 0.15104552 0.064005852 1.6203766e-38
0.061926425 0.036541544 0.052661896 2.2466937e-38
0.062121607 0.14784105 0.062513292 1.7126063e-38
0.062400848 0.15016344 0.064627707 1.685162e-38
0.058089249 0.035984918 0.05384481 2.1270906e-38
0.058277294 0.14673565 0.063896239 1.7311156e-38
0.059352994 0.14978287 0.066211879 1.7030275e-38
0.054428816 0.036999933 0.054082036 1.9335531e-38
0.054154247 0.038923115 0.052771389 2.0072363e-38
0.054147601 0.14375883 0.062400103 1.6482494e-38
0.054020926 0.14638017 0.065852106 1.5285396e-38
0.052655071 0.14971304 0.066985905 1.2796115e-38
0.050005659 0.036977194 0.05644834 1.8689808e-38
0.050127186 0.038768955 0.05390054 1.9516684e-38
0.049941041 0.14342135 0.063268781 1.5190314e-38
0.049990773 0.14633296 0.066654265 1.3719515e-38
0.051315494 0.15037063 0.067201257 1.1969571e-38
0.047296733 0.036835514 0.057425082 1.8416108e-38
0.046357557 0.039407976 0.055138588 1.7125357e-38
0.046727531 0.14364682 0.065107405 1.3993205e-38
0.042799056 0.039639689 0.057191193 1.6203756e-38
0.042708278 0.14259535 0.065733552 1.3716981e-38
0.039279461 0.040388368 0.058342755 1.6660435e-38
0.037890747 0.043261819 0.055259705 1.8782716e-38
0.037487909 0.1395756 0.064047635 1.2886149e-38
0.038683325 0.14221348 0.066420734 1.3350707e-38
0.034077272 0.043824472 0.056996644 1.8687642e-38
0.032841988 0.13619435 0.064031124 1.3532932e-38
0.034066729 0.13883883 0.065699339 1.2519875e-38
0.034581728 0.14281271 0.068300247 1.1322388e-38
0.03067486 0.044090405 0.05833137 1.804981e-38
0.029825971 0.13582157 0.0646016 1.2796817e-38
0.030624606 0.13876563 0.067553818 1.1877382e-38
0.031413071 0.14239222 0.068800032 1.0218594e-38
0.027989365 0.044259466 0.058828056 1.6293091e-38
0.024768345 0.13206813 0.065610111 1.3164514e-38
0.026635446 0.13503107 0.06565994 1.2888661e-38
0.027074635 0.13854624 0.068452954 1.0679555e-38
0.020766623 0.047768712 0.058469892 1.4637494e-38
0.020766623 0.12801413 0.065710485 1.3349278e-38
0.023434453 0.13205422 0.065764248 1.3164507e-38
0.023936488 0.13400038 0.067902982 1.3257777e-38
0.018607505 0.048144668 0.060524225 1.3625163e-38
0.017886609 0.051038437 0.058493972 1.3901388e-38
0.018513128 0.12753174 0.066266537 1.3073743e-38
0.015452147 0.048115492 0.061748326 1.2521333e-38
0.01413852 0.051775299 0.059170365 1.3254955e-38
0.012861736 0.054518878 0.058989108 1.3160631e-38
0.014516935 0.12602532 0.067472041 1.1325266e-38
0.011127941 0.048546411 0.062695384 1.1689049e-38
0.010874875 0.05122979 0.061667323 1.2335866e-38
0.010261618 0.055850178 0.060422897 1.4175821e-38
0.011127949 0.12510398 0.069603205 1.0036648e-38
0.0084487796 0.048518486 0.063004911 8.4657975e-39
0.0071557462 0.051257372 0.062953353 9.7532825e-39
0.0068788528 0.055229858 0.062349439 1.3256361e-38
0.0048696324 0.12187965 0.065998197 9.8433384e-39
0.003760241 0.05115582 0.063789189 1.0028761e-38
0.0028716102 0.058421299 0.060505092 1.279328e-38
0.0027383938 0.11878572 0.065967321 8.2734567e-39
0.0028147623 0.12183338 0.066738844 1.2066068e-38
0.11315092 0.12412032 0.014922738 1.2985199e-38
0.16694048 0.11515538 0.011132598 1.7035995e-38
0.1473286 0.099959865 0.0061354637 1.6020441e-38
0.057509221 0.069184989 0.035344362 1.2326857e-38
0.0042759776 0.084400304 0.044266582 7.0824749e-39
0.085456632 0.15276927 0.059397221 2.0534782e-38
0.1540969 0.17366809 0.060361981 7.6421325e-39
0.15544218 0.17503092 0.060328245 7.1825949e-39
0.14929406 0.16955581 0.059539676 6.8134579e-39
0.15073377 0.17093539 0.060507298 7.1826033e-39
0.14665201 0.16886239 0.060290277 7.0900265e-39
0.14293124 0.16869596 0.061214149 7.9176348e-39
0.13840024 0.16771868 0.061220646 8.4693722e-39
0.13384531 0.16535401 0.060960293 9.3938551e-39
0.13490807 0.16705817 0.061748326 8.6541349e-39
0.13048689 0.165319 0.061348379 9.0243649e-39
0.13122746 0.16668558 0.062396228 8.6544992e-39
0.12517379 0.16257605 0.06273061 1.243233e-38
0.12244491 0.16254342 0.062371731 1.2153935e-38
0.1009591 0.032838181 0.053845227 2.292971e-38
0.10283156 0.035085373 0.05342555 2.1730444e-38
0.096902676 0.034318626 0.053440571 2.3201627e-38
0.095578052 0.032782078 0.054467022 2.3114097e-38
0.094215937 0.034290612 0.053751051 2.3022633e-38
0.092887528 0.15684418 0.065974712 1.9336942e-38
0.090197027 0.03272596 0.055088937 2.2835731e-38
0.089514144 0.034241587 0.054294348 2.2836103e-38
0.090864055 0.15682375 0.065703213 1.9340534e-38
0.086161233 0.032683879 0.055555284 2.246552e-38
0.082798079 0.032648817 0.055943847 2.2465506e-38
0.080782242 0.034150541 0.055303395 2.2367186e-38
0.07943888 0.034136534 0.055458665 2.2649138e-38
0.07943888 0.15535836 0.066396594 2.0078487e-38
0.074737087 0.035434425 0.056123495 2.3384947e-38
0.0767444 0.15667586 0.067840159 1.8973877e-38
0.070706978 0.035392404 0.056589186 2.2834652e-38
0.067333929 0.034343332 0.057561338 2.2191075e-38
0.061946534 0.032431409 0.058353424 2.1364189e-38
0.063318446 0.033968449 0.057321489 2.2009899e-38
0.059928641 0.032410368 0.058586597 2.1088676e-38
0.057944976 0.1483997 0.06827271 1.7036004e-38
0.059267417 0.15065241 0.068995774 1.5928935e-38
0.053914875 0.035217315 0.058529675 1.8041569e-38
0.055258229 0.14837168 0.06858319 1.4549979e-38
0.05557508 0.15005371 0.069203436 1.3076288e-38
0.052529708 0.035030827 0.059684992 1.7394751e-38
0.051228128 0.14832966 0.069048882 1.3627302e-38
0.049884759 0.14966257 0.069325686 1.2336882e-38
0.046909228 0.14720164 0.069854617 1.2428018e-38
0.041824557 0.038458526 0.060230613 1.5834258e-38
0.043148935 0.14419857 0.069954276 1.2977634e-38
0.038466133 0.039096951 0.060679436 1.6568227e-38
0.035779379 0.039742395 0.061050713 1.7304713e-38
0.031005539 0.041550428 0.062780797 1.7677431e-38
0.013613798 0.046919286 0.06428051 1.123347e-38
0.010927059 0.046891272 0.064590991 1.1775494e-38
0.0066066831 0.04735399 0.065338194 1.1960923e-38
0.0035385266 0.047487691 0.065505564 1.4179721e-38
0.048622072 0.09111996 0.0096073151 1.3441104e-38
0.12096246 0.088129185 0.0069747567 1.6387785e-38
0.12106644 0.072121158 0.0092856884 1.9885824e-38
0.16643417 0.11984587 0.011614859 1.9251593e-38
0.073900782 0.10019305 0.021000564 1.2614225e-38
0.10029745 0.11218171 0.020153642 1.6205916e-38
0.1305756 0.14322527 0.022731006 1.7684291e-38
0.094827741 0.13018529 0.022911251 1.1701274e-38
0.004231751 0.081104249 0.044367433 8.4657961e-39
0.15362452 0.17573497 0.06262517 7.2751324e-39
0.15092643 0.17232534 0.062631845 7.3673561e-39
0.15060954 0.17485096 0.06361872 7.6475037e-39
0.14692461 0.17161711 0.063539505 7.0911041e-39
0.14764541 0.1736652 0.064145744 7.0028531e-39
0.14286047 0.17112029 0.063799679 7.3666078e-39
0.14426807 0.17362997 0.064535975 6.5415373e-39
0.13897395 0.17102183 0.064159393 7.1829452e-39
0.14021526 0.17358771 0.065004349 5.528456e-39
0.13406336 0.16809171 0.064214349 8.3789717e-39
0.13566178 0.16991709 0.064529717 7.5513676e-39
0.13069075 0.16760567 0.064563394 8.4704555e-39
0.13129908 0.17051484 0.065765798 6.8137802e-39
0.12637381 0.1647653 0.064810038 9.2998518e-39
0.12293375 0.16425601 0.065164864 9.6650204e-39
0.12265308 0.16595486 0.066361547 7.9216075e-39
0.11901663 0.16342887 0.065883458 1.0400781e-38
0.10509089 0.032353759 0.056352556 2.2837859e-38
0.10255061 0.030847415 0.05625999 2.3021556e-38
0.098999932 0.031700924 0.056497872 2.2929706e-38
0.095050819 0.031331792 0.057141364 2.3021183e-38
0.091846853 0.030390441 0.057314098 2.2928278e-38
0.0875213 0.030993789 0.057265937 2.2925752e-38
0.083474167 0.030951589 0.057733595 2.292362e-38
0.078077987 0.033600524 0.05860126 2.3018653e-38
0.079427034 0.15670122 0.069551587 1.9891184e-38
0.075708009 0.031370148 0.05968684 2.3294545e-38
0.075379901 0.033572391 0.058913052 2.3292747e-38
0.071317464 0.0320016 0.060255349 2.2747474e-38
0.071332768 0.033530191 0.05938071 2.2838226e-38
0.066821642 0.031110331 0.060361683 2.1268767e-38
0.068634667 0.033502065 0.059692502 2.2191091e-38
0.06339404 0.030483559 0.060536146 2.0258215e-38
0.059159026 0.027811334 0.061293662 1.4646861e-38
0.058993749 0.030284211 0.06066978 1.823136e-38
0.055118255 0.031891301 0.061795592 1.9338768e-38
0.054450691 0.0332672 0.06182909 1.9146827e-38
0.050809421 0.033787668 0.062199175 1.7491621e-38
0.047281042 0.034223102 0.063053846 1.8230984e-38
0.042985097 0.035883106 0.063232362 1.6662928e-38
0.040245913 0.035741113 0.064212501 1.4998062e-38
0.038955674 0.037250414 0.063488305 1.546477e-38
0.034598902 0.038186491 0.064686775 1.6202684e-38
0.029512376 0.041209742 0.064945638 1.7024166e-38
0.028988093 0.039235711 0.06583941 1.564911e-38
0.028163314 0.041195676 0.065101564 1.5006285e-38
0.014578097 0.04495497 0.068034172 1.0496638e-38
0.011876225 0.044926785 0.068346441 1.0769626e-38
0.0084988847 0.044891581 0.068736613 1.4170039e-38
0.055021942 0.099039428 0.0099132061 1.1780147e-38
0.12394799 0.081346691 0.0070257187 1.7031722e-38
0.12470138 0.088198848 0.0062459707 1.675621e-38
0.1245989 0.098071262 0.0055388212 1.4913728e-38
0.09643501 0.096570402 0.0120399 1.5190678e-38
0.094912015 0.085916154 0.011241853 1.4637503e-38
0.074221082 0.083224505 0.010292828 2.294698e-38
0.11344631 0.10061552 0.012102008 1.7316575e-38
0.11520171 0.093591832 0.012425303 1.796014e-38
0.070242032 0.054483548 0.039539814 2.0441132e-38
0.035572402 0.045565769 0.05452466 1.8599782e-38
0.14542878 0.041052558 0.035254598 2.2754681e-38
0.092835128 0.15618046 0.062383115 1.9613183e-38
0.15257016 0.1757969 0.065785944 7.5567248e-39
0.14711261 0.17549084 0.068126976 7.0046636e-39
0.14724192 0.17780592 0.06759876 7.0032749e-39
0.14181545 0.17230856 0.067734897 6.8151997e-39
0.14181545 0.17366877 0.067857623 6.1723554e-39
0.13410555 0.17089149 0.069768727 6.9052611e-39
0.12953988 0.16808614 0.067773163 8.4700911e-39
0.13103241 0.17085552 0.06987077 6.445362e-39
0.12713838 0.1672537 0.068584323 8.192812e-39
0.12141155 0.16528481 0.068467319 8.2910892e-39
0.082124479 0.028186306 0.061684489 2.2748934e-38
0.079413213 0.028247848 0.06150049 2.265711e-38
0.078737825 0.030369014 0.061265171 2.3110517e-38
0.074667916 0.028878465 0.062110186 2.3024435e-38
