# .PCD v0.7 - Point Cloud Data file format
VERSION 0.7
FIELDS x y z rgb
SIZE 4 4 4 4
TYPE F F F F
COUNT 1 1 1 1
WIDTH 988
HEIGHT 1
VIEWPOINT 0 0 0 0 1 0 0
POINTS 988
DATA ascii
0.186041 0.076472029 0.019240856 1.7030632e-38
0.18608855 0.08020547 0.018649518 1.537325e-38
0.18629748 0.084464863 0.017269254 1.3717344e-38
0.18625578 0.08887215 0.01701957 1.2981565e-38
0.18604079 0.092770047 0.017611623 1.2797204e-38
0.18596889 0.096580006 0.017558038 1.2613515e-38
0.18611224 0.10023995 0.016537607 1.2522768e-38
0.18592092 0.10414243 0.017020106 1.3444367e-38
0.18560505 0.10786966 0.017352998 1.4458883e-38
0.18176414 0.064881049 0.021038949 1.8966387e-38
0.18221089 0.068935804 0.019800425 1.8505416e-38
0.18238226 0.072613046 0.018670142 1.7953318e-38
0.18248008 0.076320529 0.017863691 1.7033149e-38
0.18252933 0.080049783 0.017272949 1.6020085e-38
0.18265149 0.084359713 0.016297221 1.4636792e-38
0.18265148 0.08873789 0.015859604 1.3810241e-38
0.18255407 0.092553988 0.015914083 1.3257447e-38
0.18245579 0.096375741 0.015967786 1.279791e-38
0.18243086 0.10014999 0.015699387 1.2522767e-38
0.18228379 0.10401543 0.015966713 1.3167067e-38
0.18211222 0.10790619 0.016340494 1.427341e-38
0.17772518 0.064527452 0.020051837 1.8781289e-38
0.17803337 0.068779364 0.018300891 1.7952246e-38
0.1782417 0.07243754 0.017037392 1.7583814e-38
0.17881501 0.076014169 0.016367257 1.6754772e-38
0.17910618 0.079755262 0.016051233 1.5559109e-38
0.17948052 0.08438655 0.015662909 1.4821182e-38
0.18018517 0.08868926 0.015373111 1.4177953e-38
0.1785036 0.09229511 0.014677644 1.3533673e-38
0.17833547 0.096158236 0.014257908 1.2889746e-38
0.17820364 0.10000101 0.014445245 1.2613868e-38
0.17805192 0.10386336 0.014711976 1.2890116e-38
0.17776772 0.10845797 0.015476644 1.3627691e-38
0.17827341 0.11169389 0.015766203 1.4637532e-38
0.17207964 0.061307989 0.019569159 1.88731e-38
0.17341574 0.064431526 0.019096315 1.8321355e-38
0.17386365 0.068622954 0.016802728 1.7860032e-38
0.17401943 0.07230588 0.015782595 1.7029567e-38
0.17525259 0.091093816 0.014150083 1.3442204e-38
0.1741956 0.09643402 0.01340574 1.2890113e-38
0.17396751 0.09986043 0.013245404 1.3073051e-38
0.17378595 0.10373837 0.013618469 1.3073783e-38
0.17345469 0.10835907 0.014542043 1.3810619e-38
0.16910663 0.06049541 0.019058108 1.8596886e-38
0.16980167 0.06431675 0.017960906 1.8136611e-38
0.17016047 0.068550356 0.016072273 1.7398328e-38
0.17031999 0.072232932 0.015052855 1.6568943e-38
0.17056662 0.075490162 0.014776409 1.5648788e-38
0.17056662 0.096755594 0.012650609 1.3442935e-38
0.17029321 0.099770188 0.012408555 1.3627663e-38
0.17005391 0.10368256 0.012994349 1.3167056e-38
0.16982161 0.10823058 0.013489664 1.3810626e-38
0.16836338 0.11149849 0.013811469 1.4179785e-38
0.16464712 0.057391655 0.018479943 1.9060736e-38
0.16588587 0.059929267 0.018473089 1.841357e-38
0.16606951 0.064252086 0.017309248 1.7584519e-38
0.1662394 0.068571605 0.016199708 1.6753686e-38
0.16653891 0.072196618 0.014644861 1.6110469e-38
0.16662055 0.075287268 0.014010608 1.5464029e-38
0.1664664 0.096080571 0.0119012 1.3811713e-38
0.16640225 0.099817194 0.012425601 1.3628416e-38
0.16610293 0.10376903 0.013223171 1.3536559e-38
0.16610928 0.10806427 0.013240099 1.4089348e-38
0.16588587 0.11144963 0.01332283 1.4824739e-38
0.16216961 0.05985599 0.017740071 1.7954382e-38
0.16229483 0.064203478 0.016818225 1.70335e-38
0.1625036 0.068510264 0.015575469 1.6479619e-38
0.16289349 0.072099239 0.013700545 1.5833514e-38
0.16333215 0.075430907 0.013341129 1.5188158e-38
0.1629211 0.080843404 0.012718141 1.3717713e-38
0.16279778 0.083843142 0.012393713 1.3258879e-38
0.16276696 0.088189445 0.011953056 1.3533317e-38
0.1629211 0.092727035 0.011530221 1.3166361e-38
0.16283761 0.095904142 0.011537433 1.3260332e-38
0.16253124 0.099846169 0.012334585 1.3443645e-38
0.16255906 0.10364181 0.01329428 1.3628391e-38
0.16299544 0.10678513 0.013213277 1.3904264e-38
0.15863031 0.060145229 0.01700604 1.7862189e-38
0.15847453 0.064172298 0.016487181 1.6849119e-38
0.15864208 0.068518437 0.014429688 1.6111564e-38
0.1586051 0.072001942 0.012742102 1.5374685e-38
0.15843692 0.075751349 0.01233381 1.4545657e-38
0.15835845 0.079752706 0.011918187 1.3808825e-38
0.1586051 0.083885565 0.011554122 1.316561e-38
0.15848178 0.088136226 0.011104703 1.2982655e-38
0.1586051 0.092016473 0.010741293 1.2800087e-38
0.15893669 0.09594591 0.011552989 1.2891911e-38
0.15862387 0.099892423 0.012348413 1.2707528e-38
0.15845335 0.10250692 0.012736082 1.2798642e-38
0.15424158 0.064223416 0.015724123 1.6663276e-38
0.15428287 0.068240598 0.014026821 1.583498e-38
0.15411273 0.071991071 0.012531281 1.5374694e-38
0.15425959 0.075682357 0.01162231 1.4638206e-38
0.15428907 0.079422288 0.011140525 1.3900644e-38
0.15428908 0.083800465 0.010702789 1.3532603e-38
0.15428907 0.088178642 0.010265172 1.3073422e-38
0.15408367 0.092041776 0.010634899 1.2705733e-38
0.15442334 0.095967114 0.011391759 1.2890106e-38
0.15420493 0.099857688 0.011813104 1.2706787e-38
0.15535647 0.10244586 0.012125254 1.2890829e-38
0.14978208 0.064638108 0.014794171 1.647818e-38
0.14990149 0.068360336 0.013990581 1.5834614e-38
0.15017027 0.072016746 0.012654066 1.5372914e-38
0.15034993 0.075699933 0.011638582 1.4729701e-38
0.15058962 0.079349339 0.010410845 1.4084706e-38
0.15054461 0.08374954 0.01013273 1.3808479e-38
0.15037984 0.088211611 0.010280013 1.3073424e-38
0.15029053 0.092015959 0.010223389 1.2429508e-38
0.15008117 0.095890388 0.010591269 1.2522407e-38
0.14993691 0.099668726 0.011323154 1.2523501e-38
0.14637551 0.065513387 0.014028013 1.6295202e-38
0.14609614 0.068322688 0.013577759 1.583496e-38
0.14621784 0.072042428 0.012774825 1.5191393e-38
0.14640103 0.075730741 0.011759579 1.4729337e-38
0.1466451 0.07938467 0.01053226 1.4636421e-38
0.14675248 0.08371979 0.0097218156 1.4177241e-38
0.14658464 0.088183843 0.0098682046 1.380954e-38
0.14640124 0.092037193 0.010129571 1.325817e-38
0.14621867 0.095898569 0.010390222 1.3073783e-38
0.1460658 0.099121183 0.010606766 1.3260328e-38
0.14284506 0.068773746 0.01299876 1.528179e-38
0.14234956 0.072031125 0.012574434 1.4544599e-38
0.14234956 0.075800903 0.012197614 1.399216e-38
0.14241146 0.07954327 0.011608183 1.390175e-38
0.14248897 0.083904393 0.01090306 1.426909e-38
0.14266048 0.088216081 0.0098801255 1.3901734e-38
0.14262994 0.091995277 0.0096101165 1.4177964e-38
0.14256763 0.095792472 0.0094457865 1.3810613e-38
0.1425973 0.098927125 0.0099351406 1.3445083e-38
0.13987204 0.069469087 0.012336969 1.4736496e-38
0.1386333 0.071957849 0.011841416 1.335109e-38
0.1386333 0.075727627 0.011464596 1.2705377e-38
0.13878813 0.079343393 0.011133969 1.2519903e-38
0.13888106 0.083900377 0.010696948 1.3257463e-38
0.13866529 0.088278301 0.01010251 1.3166333e-38
0.13882396 0.091968551 0.009196043 1.3441845e-38
0.13879198 0.095752135 0.0089253187 1.3994294e-38
0.13925266 0.098358542 0.0093256235 1.4088278e-38
0.13474005 0.076009892 0.010660768 1.0404401e-38
0.13491704 0.088220291 0.00947541 1.1420009e-38
0.13491704 0.091990076 0.0090985298 1.2063224e-38
0.13532993 0.095349148 0.0088450909 1.3075227e-38
0.13202661 0.076435089 0.010077655 6.9946457e-39
0.1307503 0.08825238 0.0086421371 7.9158173e-39
0.13155471 0.091744266 0.0084532499 8.8374485e-39
0.1260688 0.084635071 0.0080710649 5.6145489e-39
0.12624577 0.088049315 0.0077649951 6.5368443e-39
0.125007 0.091166377 0.0072066188 7.3648212e-39
0.12384535 0.083569549 0.0074785352 5.5198338e-39
0.12397388 0.087910376 0.0066432953 5.9797553e-39
0.12407666 0.091629431 0.0059505105 7.5456419e-39
0.17776772 0.10845797 0.015476644 1.3627691e-38
0.17517652 0.086500943 0.017667651 1.6755137e-38
0.16232267 0.064189911 0.016711295 1.7124983e-38
0.16311282 0.073765084 0.013520896 1.5464738e-38
0.18361767 0.06887757 0.024477482 1.6017916e-38
0.19262922 0.10878951 0.021477818 1.3260696e-38
0.1923233 0.11191371 0.02264142 1.5289687e-38
0.18861981 0.061383501 0.026784122 2.1183374e-38
0.18874197 0.065116748 0.025837541 1.8044065e-38
0.18900339 0.069403015 0.024180532 1.7679925e-38
0.1887549 0.10922627 0.020150065 1.4458864e-38
0.18861981 0.11193819 0.021730423 1.5561624e-38
0.18501335 0.060620118 0.025515914 2.1086882e-38
0.1852404 0.064934529 0.024048328 1.8966373e-38
0.18651842 0.068723828 0.023753405 1.8694834e-38
0.18651842 0.10968633 0.019658566 1.5102092e-38
0.18506177 0.11235453 0.020126045 1.6113729e-38
0.18359971 0.11566064 0.020528972 1.8234929e-38
0.18132785 0.060525328 0.024563432 2.0625894e-38
0.18279095 0.063608788 0.023522139 1.942951e-38
0.18152416 0.11212831 0.018533289 1.546944e-38
0.18108958 0.11597279 0.019357324 1.7037476e-38
0.17711931 0.057507202 0.025051296 2.0349679e-38
0.17774601 0.060390253 0.023180306 2.0254971e-38
0.17782098 0.11345354 0.017549276 1.4916263e-38
0.17741072 0.11711775 0.018253803 1.6205542e-38
0.17113744 0.054102398 0.024199963 2.0531543e-38
0.17312361 0.056623474 0.023831308 2.0439698e-38
0.1736417 0.060162842 0.022043884 1.9335511e-38
0.17372078 0.11296307 0.016781449 1.4178704e-38
0.17310208 0.11675228 0.01769793 1.519462e-38
0.16839573 0.053542666 0.023709714 2.0347158e-38
0.16891128 0.056484077 0.022379994 1.979433e-38
0.1697448 0.059570391 0.02132678 1.8781993e-38
0.16937205 0.11262524 0.015948892 1.4180148e-38
0.16873471 0.11577443 0.017171979 1.4733304e-38
0.16502874 0.05330579 0.022550344 1.9701797e-38
0.16539858 0.056232929 0.021434903 1.9242255e-38
0.16510706 0.11226413 0.015476882 1.4733281e-38
0.16561073 0.11587831 0.016581893 1.4733996e-38
0.16116762 0.053273726 0.022296607 1.9243326e-38
0.16147357 0.056326997 0.020800114 1.9059648e-38
0.16042612 0.1047605 0.014952898 1.3445463e-38
0.16125445 0.10834793 0.014759302 1.3628758e-38
0.16136183 0.11192599 0.015675247 1.3995017e-38
0.15867516 0.053224578 0.021804988 1.9058922e-38
0.15765639 0.05628195 0.020385623 1.8690868e-38
0.1573199 0.058695205 0.018939018 1.8321735e-38
0.15794113 0.10444143 0.01448983 1.2800437e-38
0.15779868 0.10795452 0.014679253 1.3076305e-38
0.15730517 0.11180202 0.015548229 1.3628044e-38
0.15386474 0.056227613 0.019863367 1.8136979e-38
0.15421367 0.059894342 0.018200338 1.758416e-38
0.15403616 0.10436442 0.013719559 1.2890825e-38
0.15400994 0.1079173 0.014155865 1.335108e-38
0.15358725 0.11149767 0.014673352 1.3810982e-38
0.15025467 0.056958728 0.019549251 1.786076e-38
0.15018407 0.059960067 0.017595828 1.7308296e-38
0.14986496 0.062329367 0.017090559 1.6846601e-38
0.14800122 0.10136454 0.012817144 1.3076291e-38
0.14986496 0.10392205 0.012932718 1.2983009e-38
0.15024839 0.10786177 0.013525963 1.3534392e-38
0.15020081 0.11108314 0.014332891 1.3995016e-38
0.14558978 0.057391178 0.018781602 1.7494487e-38
0.1456693 0.0597164 0.017633617 1.7032077e-38
0.14536093 0.063343391 0.016091943 1.6664348e-38
0.14551623 0.10131555 0.012327015 1.3352142e-38
0.14542446 0.10388958 0.012392819 1.3352143e-38
0.14568108 0.10790408 0.013408661 1.3536189e-38
0.14132148 0.059802189 0.017348707 1.7032441e-38
0.14178878 0.064060695 0.015308619 1.6202315e-38
0.14116754 0.067829601 0.014808059 1.537434e-38
0.14147815 0.10092083 0.01156199 1.3077352e-38
0.14166397 0.10383385 0.011763096 1.3352125e-38
0.14153294 0.10708615 0.012800694 1.3627657e-38
0.13799974 0.060158093 0.016651392 1.6848759e-38
0.13796583 0.06401927 0.014892638 1.6294143e-38
0.13790599 0.068237931 0.014117479 1.537613e-38
0.13681883 0.080977894 0.012627363 1.24277e-38
0.13681883 0.082238279 0.012501359 1.2428426e-38
0.13681883 0.086019427 0.012123346 1.3349998e-38
0.13784268 0.10028684 0.011047423 1.4087923e-38
0.13767976 0.10390082 0.011873424 1.408758e-38
0.1374893 0.10653429 0.012255251 1.4456724e-38
0.13437375 0.06096255 0.016190171 1.6481756e-38
0.13401778 0.064018905 0.014874518 1.5007698e-38
0.13433383 0.068325043 0.013397157 1.2887933e-38
0.13468882 0.07193315 0.01310724 1.2057464e-38
0.13495508 0.074639216 0.012889683 1.1598622e-38
0.13433383 0.079668507 0.012263179 9.8530466e-39
0.13433383 0.083449662 0.011885226 1.0683163e-38
0.13433382 0.085970439 0.011633277 1.1237769e-38
0.13350549 0.096877441 0.010377944 1.2432369e-38
0.13410684 0.099954121 0.010986865 1.3443638e-38
0.13394262 0.10375774 0.011698127 1.363017e-38
0.13020979 0.063970275 0.014376879 1.2610271e-38
0.13054013 0.068274461 0.012874067 1.0030585e-38
0.13060637 0.072032705 0.012283921 9.2937561e-39
0.13019219 0.075385563 0.011866271 7.9137084e-39
0.13060637 0.079595014 0.011527956 6.901727e-39
0.13060637 0.083376169 0.011149943 7.3623381e-39
0.13060635 0.085896939 0.010898054 7.3619555e-39
0.12936386 0.092804551 0.0099599361 8.37539e-39
0.13047364 0.09604542 0.010312319 9.7561776e-39
0.13073382 0.1000281 0.011218309 1.1047966e-38
0.13125819 0.1026189 0.011405289 1.1969934e-38
0.12733042 0.06434194 0.014244258 1.3807362e-38
0.12657547 0.068282314 0.012880266 1.3347479e-38
0.12681121 0.071983561 0.011760414 1.3072671e-38
0.12687889 0.07574036 0.011170685 1.1508583e-38
0.12687889 0.079521514 0.010792732 8.8359743e-39
0.12705638 0.08294607 0.010485828 7.2712144e-39
0.12812138 0.086478129 0.010344803 6.9045535e-39
0.12687889 0.092125364 0.0095327497 7.9158229e-39
0.12670419 0.095359325 0.01060909 9.3855734e-39
0.12378082 0.068338729 0.0133425 1.2518794e-38
0.12346625 0.072307944 0.012268305 1.0402215e-38
0.12295932 0.075800367 0.01153636 6.7190916e-39
0.1229105 0.079542354 0.010796905 5.8886135e-39
0.1225304 0.082465127 0.01031518 6.168443e-39
0.12439391 0.093336746 0.0089166164 8.1920707e-39
0.089509577 0.11190912 0.0021595359 1.5915704e-38
0.089456707 0.11414739 0.0017203689 1.5279323e-38
0.08608973 0.11073279 0.0014494061 1.601397e-38
0.086474389 0.1143374 0.0010843873 1.4729707e-38
0.082833335 0.1108745 0.0009329915 1.6016476e-38
0.082655311 0.11430231 0.00055480003 1.6201946e-38
0.080162868 0.11172482 0.00031590462 1.638522e-38
0.080162868 0.11488526 0 1.6292372e-38
0.17787927 0.066653408 0.019176364 1.832067e-38
0.17872095 0.076068997 0.016485274 1.6571101e-38
0.17938977 0.088456973 0.015237927 1.4177602e-38
0.17819701 0.10000753 0.01447171 1.2797909e-38
0.1629211 0.080843404 0.012718141 1.3717713e-38
0.16282861 0.088253215 0.011959016 1.3258175e-38
0.16283761 0.095904142 0.011537433 1.3260332e-38
0.13588531 0.071995273 0.012656331 1.2519526e-38
0.14484221 0.073352858 0.014851272 1.2151092e-38
0.1814158 0.1049601 0.018022358 1.5008082e-38
0.17531891 0.087422512 0.020089447 1.6943111e-38
0.1874963 0.054268807 0.031540394 2.1273803e-38
0.18802664 0.057208069 0.029986203 2.1642224e-38
0.18816583 0.059686307 0.029083133 2.1091561e-38
0.18816583 0.11420885 0.023632765 1.6666538e-38
0.18811949 0.11678451 0.023593783 1.7772877e-38
0.18769525 0.12066117 0.024430871 1.8971057e-38
0.18335909 0.050880663 0.031054914 2.1459253e-38
0.18393719 0.053550951 0.030390918 2.1364554e-38
0.18477306 0.11685902 0.022692025 1.8233495e-38
0.18392995 0.12036932 0.023636758 1.9433821e-38
0.18033578 0.050144263 0.030013919 2.1087967e-38
0.18049487 0.053262081 0.028994024 2.1087972e-38
0.18064173 0.057012018 0.027965486 2.0809939e-38
0.18191601 0.11788951 0.022019744 1.8880654e-38
0.18044583 0.120584 0.022482097 1.8602634e-38
0.17959799 0.12329663 0.023066521 1.8600855e-38
0.17668995 0.050031777 0.028786659 2.1271265e-38
0.17689121 0.053133532 0.02760601 2.1085094e-38
0.17722864 0.055983741 0.02727437 2.0717029e-38
0.17676534 0.12129512 0.021336257 1.7220431e-38
0.17615031 0.12450041 0.022259355 1.7588856e-38
0.17293444 0.049957726 0.028045893 2.0534785e-38
0.17314029 0.053059574 0.026866138 2.0900702e-38
0.17301171 0.12164418 0.020553529 1.6666874e-38
0.17301606 0.12475654 0.021609366 1.6850195e-38
0.16834439 0.049655158 0.027161717 2.0258921e-38
0.16920802 0.052127354 0.026062131 2.0532281e-38
0.16816641 0.1176184 0.019307673 1.4916975e-38
0.16877331 0.12078677 0.019726634 1.5653098e-38
0.16793858 0.12408414 0.02066505 1.5930401e-38
0.16442069 0.049493648 0.026103437 1.9244776e-38
0.16441652 0.051610224 0.02515918 1.9980179e-38
0.16316655 0.11625185 0.018448234 1.4734359e-38
0.16432762 0.12010731 0.0193187 1.510205e-38
0.16455358 0.12299999 0.020099044 1.5101701e-38
0.16052787 0.049041942 0.02521044 1.8967833e-38
0.16066661 0.051536284 0.024419546 1.9243338e-38
0.16063857 0.11622232 0.018061519 1.445636e-38
0.16051619 0.11953989 0.019230843 1.5837115e-38
0.15671691 0.04898449 0.024684668 1.8690506e-38
0.15655959 0.052542128 0.02350086 1.8689423e-38
0.15683135 0.1161879 0.017534077 1.4549278e-38
0.15640453 0.11965992 0.018809497 1.5286825e-38
0.15296346 0.049117487 0.024535537 1.8413551e-38
0.1530796 0.052682761 0.023135006 1.8320643e-38
0.15379182 0.11353107 0.016852617 1.4087573e-38
0.1530796 0.11611392 0.016794086 1.4456336e-38
0.15289417 0.11946352 0.018129826 1.4824416e-38
0.14888233 0.049564976 0.024318039 1.8412847e-38
0.14923874 0.052635774 0.022715986 1.8136988e-38
0.14910446 0.05542919 0.021726966 1.8046237e-38
0.14910446 0.11312165 0.01595974 1.4179401e-38
0.14932784 0.11603994 0.016054034 1.4363755e-38
0.14939623 0.1190652 0.01670444 1.45478e-38
0.14512123 0.049490817 0.0235762 1.8871298e-38
0.14545457 0.05257095 0.022082508 1.8412134e-38
0.14566705 0.055678405 0.021017313 1.8229534e-38
0.14563651 0.11212198 0.015482724 1.3904631e-38
0.14539415 0.11608241 0.01594913 1.3813855e-38
0.14512123 0.11880155 0.016647458 1.3995735e-38
0.14167355 0.049740776 0.022864342 1.8320286e-38
0.1415454 0.052541777 0.021875799 1.8411764e-38
0.14096877 0.056154102 0.02059263 1.7584526e-38
0.14035472 0.10914522 0.014614105 1.3812062e-38
0.14108233 0.11214446 0.015227735 1.3995386e-38
0.14134291 0.11561684 0.015700936 1.4272306e-38
0.1385393 0.052858368 0.02192831 1.7861106e-38
0.13650399 0.056263864 0.020613253 1.7307936e-38
0.13608401 0.059082016 0.018767893 1.703315e-38
0.13691729 0.10876045 0.013967872 1.4089022e-38
0.13659933 0.1121191 0.014707088 1.408902e-38
0.13670351 0.11554703 0.015295923 1.445742e-38
0.13284637 0.05658 0.020129383 1.7313684e-38
0.13298884 0.059504021 0.018109202 1.6299509e-38
0.13316742 0.10805253 0.013291597 1.3169182e-38
0.1327782 0.11208294 0.014177203 1.2981943e-38
0.13283497 0.11550708 0.014529169 1.3350702e-38
0.12892249 0.056770679 0.019279897 1.491159e-38
0.12941751 0.059161894 0.017431915 1.4358754e-38
0.12816757 0.10034615 0.013065815 9.7601041e-39
0.12922388 0.1043501 0.013004124 1.1140548e-38
0.1291199 0.10814277 0.01350075 1.086396e-38
0.13007683 0.11151025 0.014379263 1.2061406e-38
0.12568887 0.057374068 0.018916845 1.4359474e-38
0.12553242 0.059762444 0.017053246 1.3716959e-38
0.12495336 0.063874029 0.016071498 1.3719121e-38
0.12546512 0.097436622 0.013501346 1.0031635e-38
0.12622799 0.10050573 0.013944209 1.0677749e-38
0.12641603 0.10438875 0.014020383 1.0865399e-38
0.12631571 0.1082567 0.013955235 1.0679214e-38
0.1218724 0.060216807 0.017360151 1.0767104e-38
0.1217221 0.064359434 0.016403794 9.4749286e-39
0.12118934 0.068546042 0.015196085 8.3761312e-39
0.12066779 0.076106913 0.013994813 6.9956715e-39
0.11879352 0.0693198 0.016349018 8.0070096e-39
0.11847945 0.072375789 0.014956415 7.9140839e-39
0.11863583 0.076127976 0.014100194 7.17793e-39
0.10374911 0.11671403 0.0086141229 2.2932178e-38
0.10374911 0.11862166 0.008423388 1.7394377e-38
0.096226901 0.11147868 0.0076388717 2.1911608e-38
0.096226901 0.11465807 0.0073210597 2.2287611e-38
0.09326835 0.10815565 0.0068694353 2.0897809e-38
0.094069421 0.1112604 0.0062063932 2.0529051e-38
0.093894958 0.1149992 0.0063101649 2.1454621e-38
0.092465818 0.11903506 0.0061342716 2.2379069e-38
0.09309265 0.12222681 0.0059400797 2.1541343e-38
0.088704705 0.10497157 0.0067908168 2.1357732e-38
0.090185672 0.1077127 0.0056409836 1.9882592e-38
0.090736583 0.11090489 0.004809618 1.7763903e-38
0.090924829 0.11506052 0.0044683218 1.7860781e-38
0.090168104 0.11928215 0.0047204494 2.090503e-38
0.090181053 0.12331998 0.0046104193 2.0714833e-38
0.086197302 0.10492213 0.006296277 1.9975846e-38
0.086365834 0.10729071 0.0043234825 1.8870945e-38
0.087543756 0.11032284 0.0039755106 1.6753353e-38
0.086407006 0.11907629 0.0033131838 1.7310475e-38
0.083063066 0.10486033 0.0056780577 1.5828902e-38
0.082049787 0.10717548 0.0039925575 1.5093075e-38
0.081293941 0.10956563 0.0028061271 1.5647369e-38
0.082066149 0.11938006 0.0025644302 1.7400136e-38
0.078776702 0.10717702 0.0037388206 1.2977606e-38
0.077871889 0.11067337 0.0023979545 1.5282145e-38
0.077758193 0.11441222 0.0017637014 1.5004123e-38
0.078013241 0.11908942 0.0016275048 1.6758009e-38
0.07566911 0.11135667 0.0015065074 1.3162025e-38
0.07566911 0.11452658 0.0011896491 1.2889386e-38
0.07566911 0.11706251 0.00093615055 1.3719507e-38
0.18255407 0.092553988 0.015914083 1.3257447e-38
0.18239015 0.10018039 0.015878022 1.2798636e-38
0.18211222 0.10790619 0.016340494 1.427341e-38
0.16254514 0.10174399 0.012814403 1.3535838e-38
0.16299544 0.10678513 0.013213277 1.3904264e-38
0.145338 0.08865995 0.015279174 1.5007719e-38
0.14414318 0.093382262 0.014010191 1.4731856e-38
0.14392304 0.071185023 0.017369568 1.5744922e-38
0.12581217 0.088162675 0.01285553 1.878271e-38
0.18665724 0.046925753 0.036205411 1.9247281e-38
0.18714233 0.049914334 0.034865081 2.0538746e-38
0.18785152 0.052643765 0.032798231 2.0906828e-38
0.1887932 0.12239479 0.026013136 1.9063976e-38
0.18703997 0.12506235 0.027061999 2.0354379e-38
0.18564829 0.12801588 0.027898192 2.1644749e-38
0.18297672 0.046440154 0.035374522 1.9155447e-38
0.18358172 0.049466435 0.034021616 2.099757e-38
0.1850265 0.052269649 0.032272816 2.1367069e-38
0.18439871 0.12230814 0.025146306 1.9616786e-38
0.18350878 0.12507449 0.02594465 2.053516e-38
0.18312593 0.12796615 0.027400732 2.1273815e-38
0.17808126 0.043430377 0.034846365 1.8326037e-38
0.17939124 0.045997825 0.034623086 1.8971063e-38
0.1798584 0.048399232 0.032313168 2.0444405e-38
0.17999451 0.12529902 0.024848044 1.9522805e-38
0.1791788 0.12832159 0.026169002 2.0535156e-38
0.17555889 0.043380648 0.034348905 1.8420406e-38
0.17581025 0.045859605 0.033012688 1.9431675e-38
0.17623751 0.048275396 0.030921221 2.0445102e-38
0.176925 0.12568669 0.024002731 1.8966753e-38
0.17578635 0.12826431 0.024884164 1.9245837e-38
0.17152315 0.042789329 0.033603966 1.7955133e-38
0.17213577 0.045753881 0.031835914 1.9248011e-38
0.17247081 0.048201129 0.030178249 2.007524e-38
0.17184302 0.12588151 0.022287786 1.6850545e-38
0.17204489 0.12815782 0.02397871 1.7218626e-38
0.16736127 0.03938099 0.033115566 1.6669042e-38
0.16786413 0.042100608 0.032815874 1.7678175e-38
0.16822927 0.045719922 0.031630278 1.9430971e-38
0.16870409 0.048126854 0.029435277 2.0167794e-38
0.16870409 0.12581962 0.021668673 1.648214e-38
0.16811056 0.12821166 0.023872554 1.65747e-38
0.16366959 0.038644008 0.032069623 1.6115539e-38
0.16378105 0.041811101 0.031305611 1.8232084e-38
0.16410679 0.045550022 0.029630661 1.905968e-38
0.16305403 0.048015438 0.028320789 1.9151854e-38
0.16242625 0.12187488 0.020812333 1.4731479e-38
0.1637771 0.124975 0.021027565 1.5193918e-38
0.16411965 0.12791973 0.023106635 1.5563069e-38
0.15947893 0.038905732 0.031592786 1.6942045e-38
0.15930259 0.041741692 0.030704975 1.8694835e-38
0.15974814 0.045451596 0.028601468 1.8508639e-38
0.15960123 0.12150076 0.020286918 1.5744924e-38
0.15952463 0.12466466 0.021549106 1.5469424e-38
0.15916362 0.12749366 0.022674263 1.5837499e-38
0.15584287 0.042127147 0.030375659 1.8506119e-38
0.15577745 0.045431748 0.028609216 1.8323522e-38
0.1561484 0.12175111 0.019574106 1.5194634e-38
0.15563621 0.12467305 0.021228909 1.5285406e-38
0.15506482 0.12773268 0.021833777 1.5838934e-38
0.15159658 0.042908162 0.029622436 1.8782715e-38
0.15174177 0.045427464 0.02883029 1.8507913e-38
0.15059897 0.047927171 0.027897358 1.8414664e-38
0.15206781 0.12135223 0.018800974 1.5009905e-38
0.15182902 0.12461957 0.02058959 1.5377596e-38
0.15159658 0.12734446 0.021181703 1.5838577e-38
0.14784276 0.045384284 0.028513193 1.8597241e-38
0.14808038 0.047877513 0.027400553 1.8413926e-38
0.14804313 0.12130813 0.019232988 1.4917683e-38
0.14785731 0.12404063 0.020596147 1.5744576e-38
0.14428954 0.045453887 0.027527988 1.8780195e-38
0.1446676 0.047705345 0.025371909 1.8871659e-38
0.14457537 0.12107466 0.018360615 1.4732212e-38
0.14428179 0.12387395 0.020071328 1.5745288e-38
0.14033917 0.045858949 0.026743293 1.8503601e-38
0.14060691 0.048145223 0.024655521 1.8228104e-38
0.1404538 0.11762067 0.016860306 1.372058e-38
0.1407713 0.1203825 0.017785728 1.4456717e-38
0.14033888 0.12386064 0.018945575 1.5377233e-38
0.13730328 0.046037897 0.026462078 1.7948275e-38
0.13687186 0.048896886 0.02461046 1.740119e-38
0.13656154 0.052332941 0.02261138 1.7677079e-38
0.13731489 0.11755878 0.016241193 1.4181918e-38
0.13712548 0.12022807 0.016619563 1.4734012e-38
0.13680474 0.12401949 0.017981887 1.5470502e-38
0.13394016 0.046398021 0.025756001 1.7768183e-38
0.13294482 0.049066313 0.024906814 1.7862894e-38
0.13316189 0.052634358 0.023269951 1.804514e-38
0.13166481 0.055038422 0.021365404 1.758775e-38
0.13292038 0.1168353 0.01543802 1.3445047e-38
0.13300112 0.12037431 0.017035484 1.418154e-38
0.13330957 0.12314586 0.017958224 1.4547465e-38
0.12973623 0.049726702 0.024585843 1.6390306e-38
0.12857126 0.052765258 0.023584247 1.5927547e-38
0.12832901 0.055032674 0.021384478 1.5280744e-38
0.12791136 0.11261207 0.015740395 1.1140909e-38
0.12838304 0.11645133 0.016507626 1.0403332e-38
0.12926507 0.11966555 0.017090619 1.0957924e-38
0.12511194 0.053899974 0.023247361 1.4543522e-38
0.12414643 0.055929087 0.021242201 1.4176164e-38
0.12350363 0.098181672 0.015426755 1.040367e-38
0.12388396 0.10080054 0.01565057 1.1231287e-38
0.12382673 0.10472026 0.015861988 1.150791e-38
0.12422234 0.1085971 0.015809298 1.1234539e-38
0.12431073 0.11239966 0.016215265 1.15104e-38
0.12074339 0.056721088 0.021241248 1.2053887e-38
0.12015542 0.059056997 0.018670917 1.0763519e-38
0.11973691 0.062445141 0.018248737 8.2692122e-39
0.1208511 0.098515548 0.017426193 1.0034887e-38
0.12079999 0.10109803 0.017328739 1.1321684e-38
0.12037861 0.10505763 0.016678095 1.1783047e-38
0.12016964 0.10875792 0.016437292 1.1878462e-38
0.12006724 0.11201039 0.016433358 1.1880276e-38
0.11738569 0.060414881 0.020544648 1.1040068e-38
0.11730498 0.064488687 0.019352913 9.3816077e-39
0.11659595 0.068899632 0.018343806 9.1079482e-39
0.11502255 0.072251432 0.019402862 9.4756475e-39
0.11659902 0.10586514 0.016356707 1.187343e-38
0.11628371 0.10873744 0.016006768 1.1968514e-38
0.11612606 0.11241243 0.015608013 1.371843e-38
0.11502254 0.1163886 0.014990687 1.5098807e-38
0.11565314 0.11959937 0.014795303 1.1036862e-38
0.11250019 0.10610416 0.015516281 1.1595051e-38
0.11257142 0.10862611 0.015050709 1.1594329e-38
0.11267775 0.11240757 0.014352322 1.4639666e-38
0.11257163 0.11629983 0.014283597 1.7217152e-38
0.11260612 0.12011673 0.013795078 1.2420859e-38
0.10871667 0.10602955 0.014769912 1.1873426e-38
0.10889736 0.10849692 0.013990164 1.1778718e-38
0.1090419 0.11225733 0.013187647 1.4730427e-38
0.10911462 0.11605044 0.012595177 1.9155426e-38
0.1090419 0.11928327 0.012485325 1.4448751e-38
0.10493316 0.10595495 0.014023662 1.205745e-38
0.10515368 0.10840425 0.013139784 1.2056744e-38
0.10526398 0.11218284 0.01244247 1.491231e-38
0.10563201 0.11582004 0.011013806 2.1000429e-38
0.10592565 0.11885034 0.0098587275 1.5828478e-38
0.10241081 0.10590521 0.013526142 1.2609169e-38
0.10137391 0.10832972 0.012394249 1.3990693e-38
0.10113928 0.11195572 0.010789633 1.6661538e-38
0.10117644 0.11555445 0.0098008513 2.2384433e-38
0.10090338 0.1187513 0.0088680983 2.0253449e-38
0.097050816 0.10547969 0.012500882 1.6936948e-38
0.097079128 0.10818849 0.011211157 1.9148951e-38
0.097764447 0.11168432 0.0089492202 2.1176923e-38
0.097495407 0.11568192 0.0084959865 2.2848314e-38
0.096908659 0.11943381 0.0086870193 2.2195714e-38
0.09650889 0.12184878 0.0076829791 1.9051016e-38
0.092800364 0.10504841 0.011526525 2.0626629e-38
0.093384743 0.10750315 0.0099290013 2.2191048e-38
0.093369961 0.11669227 0.0075731277 2.2284744e-38
0.093997747 0.11925196 0.0074423552 2.302838e-38
0.094625533 0.12181164 0.007311523 2.2917457e-38
0.088537887 0.10147382 0.011205375 1.9885824e-38
0.089452565 0.10398276 0.010317206 2.0992894e-38
0.090231061 0.10644117 0.0079725981 2.1725419e-38
0.085151255 0.10115108 0.010153174 2.0252099e-38
0.085596055 0.10327369 0.008048892 2.0159878e-38
0.081369236 0.10107651 0.0094071627 1.3985658e-38
0.081785277 0.10340974 0.0068858266 1.3892402e-38
0.078314468 0.10424115 0.0078675151 1.1408873e-38
0.1766293 0.088393845 0.01415354 1.3073418e-38
0.17600909 0.093947023 0.013825953 1.3350371e-38
0.17361508 0.082350709 0.014979661 1.5376154e-38
0.17202094 0.078858227 0.014141321 1.5466909e-38
0.18021321 0.083046034 0.015942752 1.3810253e-38
0.17733425 0.068417497 0.018603265 1.5099187e-38
0.17735539 0.078381971 0.01623255 1.2612426e-38
0.1769872 0.086469822 0.016494691 1.1691197e-38
0.14907818 0.093937069 0.014894903 1.4732214e-38
0.145742 0.071664982 0.016145527 1.5466547e-38
0.14463764 0.090468466 0.013136744 1.371808e-38
0.14675094 0.088289008 0.017710865 1.9612837e-38
0.13730328 0.046037897 0.026462078 1.7948275e-38
0.16919331 0.12864596 0.027175367 1.98995e-38
0.18205094 0.028398275 0.042262614 5.339425e-39
0.18212262 0.030959304 0.041679323 5.4305248e-39
0.18238561 0.034758598 0.04009974 7.3655765e-39
0.18267247 0.042386368 0.038028359 1.4184809e-38
0.18354246 0.044890381 0.036812961 1.6577581e-38
0.18266042 0.1303083 0.029293716 2.1553624e-38
0.18205094 0.13279225 0.031826794 2.2382299e-38
0.17828824 0.030889697 0.041036189 8.1009681e-39
0.17846002 0.03471373 0.039891303 9.7612335e-39
0.17863201 0.038528282 0.03874743 1.2340514e-38
0.17911424 0.042130906 0.036975086 1.7037835e-38
0.17921697 0.13052738 0.028415084 2.1273462e-38
0.17845999 0.1325196 0.030114233 2.1640806e-38
0.17442787 0.030825581 0.040501237 9.8516131e-39
0.17465407 0.034638681 0.039140582 1.2524908e-38
0.17470434 0.0384859 0.038538337 1.5655245e-38
0.17510647 0.041588243 0.036487043 1.7406596e-38
0.17518312 0.13070148 0.027252555 2.0071291e-38
0.17427942 0.13280982 0.029508352 2.043899e-38
0.17087041 0.031528741 0.039722323 1.1417491e-38
0.1707449 0.034586668 0.038822353 1.3720586e-38
0.17097732 0.038390614 0.037463903 1.5471931e-38
0.17185931 0.041136622 0.03486073 1.703461e-38
0.17154355 0.13049643 0.025864899 1.786185e-38
0.17053416 0.13339925 0.029032648 1.8969248e-38
0.16744001 0.031976625 0.038994133 1.2336932e-38
0.1668839 0.034523383 0.038287222 1.3813857e-38
0.16735855 0.037950799 0.036770761 1.6022948e-38
0.16901746 0.040760279 0.034332216 1.6755495e-38
0.16743663 0.13068205 0.026394248 1.6942042e-38
0.1668537 0.13344297 0.027837694 1.8414658e-38
0.16302055 0.034784436 0.03695488 1.4734017e-38
0.16347924 0.036930591 0.035660863 1.5931854e-38
0.16328502 0.13031322 0.025774777 1.6114767e-38
0.16315545 0.1335735 0.027301252 1.7955113e-38
0.15957573 0.034716509 0.036275387 1.5560902e-38
0.15936223 0.037170656 0.034816623 1.6756932e-38
0.15956639 0.12972808 0.0245803 1.6208064e-38
0.15948512 0.13282245 0.027123332 1.777252e-38
0.15575084 0.035275452 0.036079526 1.6574687e-38
0.15565667 0.037914705 0.034260094 1.7401207e-38
0.15410998 0.040938269 0.032027662 1.9055692e-38
0.15541531 0.13001794 0.024065793 1.6665459e-38
0.1553701 0.13226616 0.026564062 1.8137697e-38
0.15282908 0.035554972 0.035725653 1.7675998e-38
0.15125594 0.038339719 0.034826517 1.8045126e-38
0.15107316 0.041114356 0.031746566 1.8781989e-38
0.15094201 0.12974888 0.023372233 1.6667239e-38
0.15075548 0.13257115 0.025443554 1.8324235e-38
0.14692731 0.038950153 0.03369832 1.9610289e-38
0.14718872 0.041701652 0.031255484 1.9150051e-38
0.14754574 0.12617955 0.021515667 1.5743511e-38
0.14704083 0.12910764 0.02305758 1.6758735e-38
0.14661014 0.13263692 0.02426964 1.8233485e-38
0.14266495 0.039220996 0.033334315 2.0252084e-38
0.14324071 0.041662447 0.03104198 1.9333014e-38
0.14249358 0.044080984 0.028716207 1.8872405e-38
0.14330348 0.1258727 0.021213472 1.6019011e-38
0.14308928 0.12913892 0.022836387 1.6940603e-38
0.14296341 0.13285559 0.023594439 1.8232056e-38
0.13897699 0.041694526 0.031896949 1.887169e-38
0.13996749 0.044031173 0.028217971 1.868693e-38
0.13996749 0.12603012 0.020020843 1.592897e-38
0.1393799 0.12900019 0.021769822 1.6389235e-38
0.13916284 0.13242176 0.02311486 1.7864721e-38
0.13540922 0.04240042 0.031161249 1.8411054e-38
0.13542555 0.044880908 0.028423488 1.8135532e-38
0.13554683 0.12594295 0.019148886 1.5656328e-38
0.13566145 0.12881862 0.021317542 1.6115162e-38
0.13142282 0.04281839 0.030052066 1.7952944e-38
0.13172387 0.045118585 0.028259873 1.7493048e-38
0.1311262 0.047700543 0.026089787 1.7308663e-38
0.13183546 0.12520383 0.019800723 1.3352532e-38
0.13147113 0.1284091 0.021334767 1.2340889e-38
0.12868926 0.042811871 0.030191123 1.7493034e-38
0.12772453 0.045493431 0.029218614 1.6477444e-38
0.12778497 0.048593707 0.026701033 1.5927538e-38
0.12798807 0.12181848 0.019079924 9.484229e-39
0.12771368 0.1250848 0.020747721 8.094878e-39
0.12741876 0.12784858 0.021437287 7.363396e-39
0.12487772 0.046603158 0.029052794 1.6202296e-38
0.12399125 0.049262807 0.027841926 1.5374712e-38
0.12391672 0.05254849 0.024754465 1.4635713e-38
0.12228489 0.11415035 0.017685771 1.2155404e-38
0.12395281 0.1168824 0.018513322 9.3902229e-39
0.1241416 0.12100904 0.019646704 6.7209035e-39
0.12384169 0.12505099 0.020207405 6.0777005e-39
0.12268257 0.12825255 0.018575132 7.4555847e-39
0.11994892 0.04968679 0.027250409 1.4819383e-38
0.12021163 0.052631952 0.025599599 1.3805237e-38
0.1191273 0.055791967 0.022890508 1.1871653e-38
0.11883356 0.097883984 0.021697879 8.9274819e-39
0.11849576 0.1012633 0.018219173 1.0861421e-38
0.11849576 0.10382576 0.017962992 1.1506804e-38
0.11975881 0.11410055 0.017187476 1.2524936e-38
0.11993052 0.11693884 0.018474758 1.0125657e-38
0.12045261 0.12080362 0.019088864 7.5488551e-39
0.12120649 0.12453815 0.018993855 7.4573699e-39
0.11683112 0.049881339 0.02712208 1.5004141e-38
0.11682653 0.05283004 0.026143432 1.4173667e-38
0.11629198 0.056591172 0.024636447 1.3067662e-38
0.11502761 0.059844822 0.024742246 1.1685452e-38
0.11439076 0.066053629 0.021945715 1.1045051e-38
0.11470664 0.067876518 0.020801842 1.0581977e-38
0.11470664 0.074282683 0.02016145 8.9274847e-39
0.11407486 0.075792171 0.021933734 8.651244e-39
0.11502761 0.081722446 0.022555232 7.2715774e-39
0.11756492 0.097858965 0.021447659 8.9274721e-39
0.11620393 0.10072684 0.020597219 1.0307527e-38
0.11544454 0.10414056 0.018348217 1.159612e-38
0.11723273 0.11405073 0.016689241 1.3901415e-38
0.11678317 0.11683962 0.016613722 1.2428349e-38
0.11755396 0.12000835 0.017182231 9.29341e-39
0.11344308 0.06184347 0.025251329 1.2518434e-38
0.11182404 0.06532535 0.023658633 1.2152507e-38
0.11146924 0.069340095 0.02228725 1.1874153e-38
0.11161882 0.073042676 0.021975338 1.0858569e-38
0.11217219 0.077384144 0.022932231 9.2948211e-39
0.11241037 0.080962479 0.02287817 8.2835713e-39
0.11164409 0.10081431 0.020427942 1.0671654e-38
0.11185895 0.10385621 0.01848197 1.1502139e-38
0.10804421 0.065404043 0.023673475 1.3165935e-38
0.10733017 0.069267236 0.023035228 1.242982e-38
0.10799801 0.07351955 0.022999346 1.1967773e-38
0.10963152 0.077234082 0.022953451 1.0675946e-38
0.10963154 0.079811715 0.02269578 1.0036315e-38
0.10730731 0.10028204 0.019503415 1.1410651e-38
0.10790357 0.10411453 0.017360747 1.1781952e-38
0.10327895 0.064220682 0.022988796 1.390136e-38
0.10454947 0.097754911 0.019889653 1.1775845e-38
0.1034995 0.10020696 0.018752337 1.2053148e-38
0.10410604 0.10403965 0.016611695 1.1965257e-38
0.099579543 0.10018179 0.018315375 1.2607025e-38
0.10027014 0.10413717 0.015604973 1.2884345e-38
0.095769882 0.10010667 0.017563939 1.3806293e-38
0.096712291 0.10345724 0.015068889 1.5003756e-38
0.092479557 0.097516917 0.017508864 1.3989269e-38
0.092452705 0.10046004 0.015416384 1.500377e-38
0.093866438 0.10398074 0.0130409 1.8595826e-38
0.088527501 0.100053 0.015033722 1.8689062e-38
0.083585948 0.097341552 0.01575464 2.0160967e-38
0.084630385 0.099236481 0.013577938 2.0252447e-38
0.080301702 0.096700244 0.014754713 1.748836e-38
0.080963582 0.09903802 0.011732936 1.5275318e-38
0.07786864 0.096584409 0.014691353 1.4349059e-38
0.076974839 0.099654838 0.012285411 1.1590735e-38
0.076443434 0.10251611 0.010740936 1.1412797e-38
0.074057102 0.10488655 0.013102114 1.20571e-38
0.07263875 0.10825932 0.011897027 1.3073055e-38
0.18629748 0.084464863 0.017269254 1.3717344e-38
0.15672742 0.11269985 0.016496003 1.4641091e-38
0.1457603 0.086106136 0.012985289 1.4547454e-38
0.15226732 0.112516 0.015333176 1.6481052e-38
0.18154866 0.13454659 0.033941984 2.2658168e-38
0.17731418 0.02746693 0.044229567 6.9964254e-39
0.17732236 0.13511689 0.033726037 2.2284002e-38
0.17378724 0.027725037 0.043586552 8.6541419e-39
0.17409456 0.13523066 0.032661796 2.0901053e-38
0.17055893 0.028316692 0.043054998 1.0034209e-38
0.16983411 0.029869817 0.041730762 1.0774281e-38
0.17078979 0.13555914 0.031355858 2.0256017e-38
0.16992086 0.13704216 0.032059073 2.0165974e-38
0.16649017 0.030534908 0.041408002 1.1235261e-38
0.16760416 0.13549632 0.030727506 1.9887972e-38
0.16589263 0.13718258 0.030730247 1.9702517e-38
0.16250715 0.031987403 0.040059447 1.1967802e-38
0.16314429 0.033292577 0.040055871 1.3073781e-38
0.16234513 0.13747084 0.030165553 1.9151138e-38
0.15881649 0.031631526 0.040128171 1.2980869e-38
0.15804727 0.033192072 0.039050519 1.4272301e-38
0.15836583 0.13499102 0.028937578 1.8322811e-38
0.15874034 0.13729799 0.029601216 1.9522049e-38
0.15445426 0.033671815 0.038901448 1.5930757e-38
0.15473452 0.13469909 0.028755665 1.8140565e-38
0.15090895 0.03458795 0.03800118 1.7491967e-38
0.14976463 0.03690657 0.037029147 1.7769265e-38
0.15093493 0.13473287 0.027892888 1.869445e-38
0.14703915 0.035600036 0.037299871 1.9426622e-38
0.14645155 0.037358291 0.036324024 1.9518452e-38
0.146579 0.13508175 0.026580393 1.9521343e-38
0.14849037 0.13641205 0.02682817 1.943022e-38
0.14248425 0.037795499 0.036514461 2.0069489e-38
0.14148198 0.13498124 0.025574982 1.934092e-38
0.13829635 0.039265648 0.034508646 1.9423774e-38
0.13829635 0.13427213 0.025011241 1.878883e-38
0.13546558 0.039275229 0.034968317 1.9056064e-38
0.13415504 0.040799752 0.033530235 1.8594736e-38
0.13319933 0.13094011 0.024328947 1.5289689e-38
0.13457906 0.13273494 0.025192738 1.6854519e-38
0.13050595 0.041084595 0.033287108 1.832067e-38
0.13055363 0.13095461 0.024141908 1.1601536e-38
0.1303611 0.13237861 0.024644256 1.1139104e-38
0.126847 0.041938975 0.03278017 1.7859664e-38
0.12555382 0.044184815 0.031478345 1.6568915e-38
0.12663084 0.1302973 0.02376771 7.5484893e-39
0.12398049 0.042932272 0.032314718 1.7122463e-38
0.1230669 0.04546582 0.031367123 1.6385967e-38
0.12173106 0.047987256 0.030336678 1.5650203e-38
0.12270437 0.13352215 0.023004591 6.9975044e-39
0.1220663 0.13609856 0.022619963 9.3891467e-39
0.118876 0.046715118 0.030919611 1.5927504e-38
0.11918256 0.047937006 0.029833972 1.5466169e-38
0.11759987 0.097175479 0.025621116 8.4665136e-39
0.11512569 0.048886411 0.029699326 1.629557e-38
0.11408554 0.053006921 0.028311729 1.6847311e-38
0.11408554 0.055592135 0.028053343 1.5924979e-38
0.1141969 0.084594876 0.026200771 7.1782691e-39
0.11512569 0.097735792 0.024815977 8.7419991e-39
0.11408554 0.09954071 0.023659945 9.5703164e-39
0.11217636 0.053055521 0.028951108 1.7400848e-38
0.11211132 0.057159483 0.028118014 1.4913735e-38
0.11117846 0.060604431 0.027613461 1.3440748e-38
0.11089991 0.063284948 0.026649654 1.288865e-38
0.11026278 0.082661465 0.024585724 8.7481059e-39
0.11109152 0.097762823 0.023855984 9.3837741e-39
0.11201623 0.099577129 0.023756385 9.844388e-39
0.10713568 0.057616331 0.027491033 1.6664683e-38
0.10757077 0.060676854 0.026702583 1.4639268e-38
0.10771427 0.063222133 0.026021302 1.371873e-38
0.10707714 0.077428237 0.024474323 1.1325262e-38
0.10743326 0.081523091 0.024520159 1.0036676e-38
0.10802898 0.084689006 0.024962604 8.838875e-39
0.10755259 0.097548336 0.023069978 1.057873e-38
0.10898852 0.099440202 0.022654593 1.057802e-38
0.10361737 0.057401869 0.026640773 1.6478885e-38
0.10378227 0.060591727 0.025842488 1.5189583e-38
0.10431623 0.06530948 0.025135756 1.3532215e-38
0.10352743 0.069787271 0.024531007 1.2521312e-38
0.10389149 0.07348761 0.024233639 1.2152894e-38
0.10389149 0.077365428 0.023845971 1.1507868e-38
0.10363543 0.081338115 0.024194658 1.0585557e-38
0.10356255 0.083953686 0.024146318 1.0582698e-38
0.10352121 0.096832767 0.022411644 1.1592526e-38
0.10005595 0.057457961 0.025891483 1.5830655e-38
0.099919438 0.060526405 0.025193334 1.5001253e-38
0.10000157 0.064889573 0.024877012 1.3807381e-38
0.10053858 0.069599114 0.024466574 1.2612818e-38
0.099946871 0.07395789 0.024425268 1.2058557e-38
0.099808097 0.077380195 0.023827851 1.1781588e-38
0.099734187 0.080512494 0.023727655 1.1507153e-38
0.098458067 0.094209038 0.022104263 1.2238623e-38
0.09988308 0.096758544 0.021677911 1.2053508e-38
0.096543878 0.063103288 0.024832428 1.4447358e-38
0.096862912 0.077025458 0.023504257 1.2611354e-38
0.095905811 0.092864215 0.021730244 1.2885046e-38
0.09600167 0.096312977 0.020636201 1.3068696e-38
0.092077449 0.092788726 0.020975113 1.3805937e-38
0.091091216 0.096110605 0.020062327 1.4264406e-38
0.087090701 0.096523046 0.019266903 1.7952208e-38
0.081868485 0.093881927 0.018832028 1.9519561e-38
0.083480954 0.0960683 0.018495679 2.0162401e-38
0.079316244 0.093831599 0.018328607 1.7128576e-38
0.079999268 0.095313936 0.017291903 1.8779814e-38
0.076764017 0.093781278 0.017825186 1.435155e-38
0.075398207 0.096293129 0.016960502 1.3249182e-38
0.072935641 0.1014728 0.016293585 1.1048328e-38
0.072760075 0.10394967 0.01532799 1.1598273e-38
0.071209311 0.10653383 0.0149315 1.1874526e-38
0.06859681 0.10760085 0.014816642 1.2151463e-38
0.069107264 0.11045881 0.014632642 1.4268715e-38
0.17773782 0.082185775 0.015327036 1.5282159e-38
0.16711032 0.079419218 0.011646032 1.4268368e-38
0.16104738 0.053057902 0.024001837 1.9428443e-38
0.13942803 0.11384469 0.014201641 1.7768211e-38
0.090546474 0.11717133 0.0045943856 1.9336987e-38
0.16347924 0.036930591 0.035660863 1.5931854e-38
0.11255053 0.07268922 0.026117682 1.2426957e-38
0.11024469 0.074874841 0.025702119 1.0399383e-38
0.17733696 0.020831194 0.049251735 7.9169159e-39
0.17716523 0.023817193 0.04772377 6.5372227e-39
0.17735699 0.025906276 0.045674801 6.5361745e-39
0.17863497 0.13612512 0.034911275 2.3115171e-38
0.17701486 0.13901302 0.035893559 2.2745697e-38
0.1761646 0.14179507 0.036413729 2.2753976e-38
0.17295748 0.023978729 0.047552407 6.8138362e-39
0.17352301 0.025830679 0.044918537 7.5488999e-39
0.17332195 0.13880059 0.034496069 2.1642213e-38
0.17289463 0.1430919 0.035917282 2.2661764e-38
0.17156078 0.14571714 0.035616696 2.3124908e-38
0.16910949 0.023902856 0.046793401 8.1953077e-39
0.16944024 0.0266889 0.044312119 9.2998686e-39
0.16945721 0.13939649 0.033780456 2.0720628e-38
0.16884306 0.14265692 0.035234988 2.2195744e-38
0.16552259 0.024168305 0.046308398 8.9310847e-39
0.16545875 0.027044415 0.044898272 9.850897e-39
0.1645771 0.030191667 0.04270041 1.1419288e-38
0.16582575 0.13949679 0.033251941 2.0074531e-38
0.16539952 0.14247066 0.034713805 2.1273434e-38
0.16180059 0.027453177 0.045153141 1.0771767e-38
0.16193949 0.0301564 0.042519927 1.1601529e-38
0.16169581 0.13996208 0.032519281 1.9982707e-38
0.16161291 0.14259133 0.033947408 2.0535499e-38
0.15758383 0.029994469 0.042761326 1.2981588e-38
0.15749466 0.13959038 0.031890213 2.0536229e-38
0.15782382 0.14181226 0.033014357 2.1085807e-38
0.15439099 0.031038664 0.041171968 1.4179046e-38
0.15401356 0.13851337 0.031133592 1.9797573e-38
0.15487406 0.14148188 0.032715797 2.0538372e-38
0.15004186 0.031298306 0.041572511 1.6755106e-38
0.1498802 0.033142868 0.039477527 1.730901e-38
0.15012944 0.13782181 0.030599654 1.9338747e-38
0.14627567 0.031598441 0.041731358 1.8784107e-38
0.14650764 0.033761855 0.039426863 1.9426264e-38
0.14633253 0.13749471 0.029705286 1.9522782e-38
0.14242858 0.034381006 0.039462984 1.9979454e-38
0.14221227 0.036880858 0.037576258 2.0069139e-38
0.1432192 0.13693075 0.028799891 1.9522086e-38
0.13875286 0.034797795 0.039656699 2.0253522e-38
0.13837831 0.037453461 0.036755204 1.9792196e-38
0.13718224 0.13571906 0.02874285 1.8972867e-38
0.13497832 0.035620954 0.039334655 2.0434688e-38
0.13412991 0.037903644 0.03703475 1.9514885e-38
0.1339649 0.1350548 0.027758479 1.6761253e-38
0.13056251 0.038211368 0.036787331 1.9146827e-38
0.13002394 0.13490479 0.026812673 1.0494099e-38
0.13048574 0.13709474 0.028295755 1.0217911e-38
0.12629761 0.03879597 0.036673188 1.8871288e-38
0.1253854 0.040870387 0.033825219 1.8227722e-38
0.12590881 0.13401714 0.025756419 8.5615749e-39
0.12663496 0.13701881 0.027536213 9.943087e-39
0.12194227 0.041572478 0.034093618 1.786038e-38
0.12112543 0.044891641 0.032574594 1.6755467e-38
0.12318295 0.1340768 0.025776625 5.6181769e-39
0.11800161 0.041915424 0.034682989 1.8227004e-38
0.11836383 0.044886481 0.032707989 1.6756546e-38
0.1144408 0.043028489 0.034502745 1.7766409e-38
0.11414501 0.045542367 0.033054173 1.7214655e-38
0.1134575 0.048629634 0.030673325 1.7122818e-38
0.11411116 0.086832196 0.029033661 6.6240163e-39
0.11404201 0.089787632 0.028952122 6.3478232e-39
0.11397281 0.0937199 0.02877295 7.1746986e-39
0.11394772 0.096505038 0.027521968 8.0969912e-39
0.11010709 0.046159863 0.032814145 1.7584159e-38
0.11054803 0.04930871 0.03116411 1.7490534e-38
0.11013472 0.053101502 0.029564321 1.7860039e-38
0.10994302 0.056662809 0.029170096 1.6204806e-38
0.11090152 0.086822912 0.026346087 7.8250902e-39
0.11061946 0.089535251 0.026929557 7.6360411e-39
0.11033702 0.093551114 0.027382374 8.1859807e-39
0.11106306 0.096299358 0.02594322 9.0157161e-39
0.10609743 0.046119176 0.032531619 1.7585225e-38
0.10642081 0.049300201 0.031253457 1.7584859e-38
0.10677971 0.053110741 0.02980566 1.7860035e-38
0.10738704 0.055964217 0.02873075 1.7492672e-38
0.10655636 0.085959397 0.025566757 9.2040674e-39
0.10678011 0.089459538 0.026172161 9.2937295e-39
0.10670868 0.093382061 0.025993466 1.0212108e-38
0.10706756 0.095822081 0.024682701 1.0394693e-38
0.10288846 0.046055906 0.031898677 1.7401207e-38
0.10257563 0.049224384 0.030495048 1.730973e-38
0.10294074 0.053035051 0.029048502 1.7307579e-38
0.10323358 0.055558216 0.027943909 1.7031704e-38
0.10323358 0.085537374 0.024946988 1.0768869e-38
0.1030882 0.089323983 0.02499485 1.1227687e-38
0.10323359 0.093153693 0.024185658 1.1503569e-38
0.10451156 0.095771685 0.024178505 1.1316643e-38
0.099166036 0.049498126 0.030812979 1.7120679e-38
0.098767415 0.053039636 0.029241204 1.6751541e-38
0.099080116 0.055800419 0.027092218 1.6199072e-38
0.098121613 0.067124985 0.025769234 1.316344e-38
0.098121613 0.069717772 0.025510013 1.2703555e-38
0.099399611 0.082382828 0.024498582 1.150753e-38
0.099399611 0.085299723 0.024206996 1.1598648e-38
0.099177375 0.089277826 0.024448037 1.1873776e-38
0.099559352 0.092919201 0.023477137 1.1963476e-38
0.094833106 0.053188227 0.02919668 1.68423e-38
0.095235348 0.056579873 0.026760578 1.6383097e-38
0.095565647 0.060592607 0.02591306 1.5184917e-38
0.095437825 0.06551639 0.025395393 1.3988529e-38
0.095565647 0.069667377 0.025005877 1.3253481e-38
0.095565647 0.073556565 0.024617076 1.3069822e-38
0.094798848 0.077689908 0.02405113 1.3073045e-38
0.095565647 0.081334934 0.023839533 1.2429101e-38
0.095565647 0.085224122 0.023450732 1.2153253e-38
0.095565647 0.08911331 0.023061931 1.261097e-38
0.095565647 0.093002498 0.02267319 1.297724e-38
0.090792805 0.053325698 0.028469563 1.7854656e-38
0.091077879 0.056787945 0.02733463 1.7211077e-38
0.091269374 0.060638051 0.026418686 1.6291263e-38
0.091731668 0.065054394 0.024703205 1.5554772e-38
0.091731682 0.069591776 0.024249613 1.4726456e-38
0.091731668 0.073480964 0.023860872 1.435948e-38
0.091731668 0.077370152 0.023472071 1.3716271e-38
0.091731668 0.08125934 0.02308327 1.3071615e-38
0.091731668 0.085148528 0.022694468 1.2520229e-38
0.091731668 0.089037716 0.022305727 1.2887208e-38
0.091731682 0.092926905 0.021916926 1.3989966e-38
0.088127106 0.054228373 0.028140962 1.8133052e-38
0.087026864 0.057182863 0.027626455 1.7673499e-38
0.086960018 0.060683232 0.02692169 1.675298e-38
0.087897718 0.07340537 0.023104608 1.445134e-38
0.087897718 0.077294551 0.022715807 1.3990714e-38
0.087819219 0.081211045 0.022536278 1.3346412e-38
0.087740719 0.085129641 0.022356629 1.2979425e-38
0.087662607 0.089049526 0.022176981 1.2975808e-38
