# .PCD v0.7 - Point Cloud Data file format
VERSION 0.7
FIELDS x y z rgb
SIZE 4 4 4 4
TYPE F F F F
COUNT 1 1 1 1
WIDTH 983
HEIGHT 1
VIEWPOINT 0 0 0 0 1 0 0
POINTS 983
DATA ascii
0.12218753 0.10250759 0.01930815 1.0492994e-38
0.12096789 0.10525855 0.019202709 1.1413516e-38
0.12101465 0.10847614 0.017075539 1.1689761e-38
0.12130132 0.11316549 0.016123474 1.2612437e-38
0.12106682 0.11648036 0.01736927 1.3625115e-38
0.12043518 0.12018253 0.018388093 1.0217842e-38
0.11746141 0.070556536 0.022287369 1.17837e-38
0.11777681 0.072802976 0.022146523 1.0584467e-38
0.11809221 0.076329909 0.021889925 9.0186126e-39
0.11619981 0.10254656 0.01914686 1.0581266e-38
0.11707814 0.10500704 0.018301845 1.1502481e-38
0.11771429 0.10854665 0.016060829 1.1870911e-38
0.11820319 0.1163827 0.015221596 1.675658e-38
0.11872652 0.1196852 0.015026271 1.316308e-38
0.11304578 0.10249079 0.018529892 1.1136244e-38
0.11336938 0.10490883 0.017351866 1.1594692e-38
0.11401653 0.10844738 0.015113056 1.2240051e-38
0.10937008 0.1023775 0.017473936 1.177977e-38
0.10980965 0.10474551 0.015982211 1.1963088e-38
0.11009157 0.10821861 0.014359593 1.2240737e-38
0.10547616 0.10235693 0.017049015 1.2331131e-38
0.10569936 0.10482212 0.016187966 1.2698878e-38
0.10585256 0.10830301 0.013515949 1.4266189e-38
0.10169134 0.10229 0.016308546 1.4081078e-38
0.10146004 0.10467282 0.014853597 1.5375031e-38
0.10187525 0.10780773 0.012776256 1.8046119e-38
0.09744969 0.10171571 0.015012145 1.5276372e-38
0.09758468 0.1042831 0.013015926 1.8225602e-38
0.09342286 0.10132955 0.014179707 1.9056419e-38
0.093779922 0.10355893 0.011972964 2.0348949e-38
0.089913815 0.10110504 0.011705101 2.0619799e-38
0.090466589 0.10325041 0.010938048 2.0896743e-38
0.085938811 0.10091108 0.012010694 1.4816896e-38
0.084395468 0.10311786 0.011799037 1.2214597e-38
0.082876176 0.10422093 0.010376394 1.0946122e-38
0.078096807 0.10939945 0.009988904 1.3259228e-38
0.19117799 0.088260971 0.01748991 1.3164157e-38
0.19092558 0.095981814 0.016969562 1.2521693e-38
0.18951818 0.093630955 0.017018318 1.5192483e-38
0.18735264 0.074576885 0.018256605 1.7861846e-38
0.16793326 0.095899425 0.011760056 1.3167416e-38
0.16323878 0.080319874 0.017230809 1.6480331e-38
0.16588777 0.071382783 0.017366171 1.6479619e-38
0.16387694 0.093651608 0.015556812 1.4547828e-38
0.1706214 0.068770826 0.021365285 1.6848752e-38
0.14539002 0.10464133 0.011156619 1.5283962e-38
0.14287046 0.10933421 0.015621901 1.4363433e-38
0.13928756 0.096070401 0.018499076 1.6388502e-38
0.13219352 0.10914455 0.016499996 1.5928604e-38
0.18678449 0.031948168 0.044310808 5.4280249e-39
0.18662722 0.034815069 0.043253124 6.8102349e-39
0.18679291 0.038644407 0.042143881 8.3754222e-39
0.18658707 0.13432416 0.033227086 2.238015e-38
0.18260105 0.032206334 0.043718159 7.7339666e-39
0.18279545 0.034751803 0.042616785 8.9321385e-39
0.18289295 0.038596608 0.041833699 1.1140164e-38
0.18333201 0.041717917 0.03959173 1.4551815e-38
0.18352035 0.13457671 0.031831861 2.1641854e-38
0.18207598 0.13658917 0.033667386 2.1273776e-38
0.17847048 0.031810794 0.042939246 9.9445247e-39
0.17901275 0.034680415 0.041763425 1.1234178e-38
0.17931272 0.03848476 0.040114522 1.4458146e-38
0.17968628 0.041618206 0.038199484 1.7037465e-38
0.17797004 0.13494194 0.03147161 2.0346817e-38
0.17869499 0.13675573 0.032473862 2.1361318e-38
0.17497537 0.032071479 0.042226315 1.1144129e-38
0.1752055 0.034613084 0.041018605 1.2431283e-38
0.17558903 0.038402662 0.039046407 1.4552873e-38
0.17589587 0.040909983 0.037515938 1.6575782e-38
0.1757437 0.13464871 0.029694676 1.8510467e-38
0.17516744 0.13704726 0.03192234 1.9796885e-38
0.17179799 0.03201529 0.041604698 1.1419285e-38
0.17131926 0.03455808 0.040598214 1.3075927e-38
0.17176475 0.038340162 0.038411438 1.5563412e-38
0.17210545 0.04084295 0.036774397 1.6573995e-38
0.1717899 0.13470572 0.029591799 1.7958353e-38
0.17135864 0.13697991 0.031177163 1.9059677e-38
0.16607872 0.031914148 0.040485799 1.1876677e-38
0.16745713 0.034498993 0.040069163 1.2983009e-38
0.1679128 0.038282312 0.037884295 1.5931486e-38
0.16763715 0.13434342 0.028976083 1.7218644e-38
0.16751087 0.13694453 0.030592024 1.8690536e-38
0.16364637 0.034431603 0.039323628 1.4176886e-38
0.16379964 0.03819713 0.036807895 1.6389929e-38
0.16395195 0.13374367 0.027645707 1.7127876e-38
0.16353682 0.13635746 0.030543447 1.8232065e-38
0.15976575 0.035020068 0.038789332 1.5742436e-38
0.15929089 0.038003389 0.036243021 1.7125334e-38
0.15820724 0.040597171 0.034055412 1.786147e-38
0.15954199 0.13390329 0.027053773 1.7954728e-38
0.15972397 0.13629004 0.029797494 1.8233837e-38
0.15718207 0.035626758 0.038395464 1.6942398e-38
0.15499359 0.038292225 0.036955416 1.776784e-38
0.15524504 0.040631291 0.035173416 1.841249e-38
0.15533391 0.13377354 0.026430368 1.7865042e-38
0.15534112 0.13616446 0.02868849 1.9061427e-38
0.15114506 0.03906744 0.036893725 1.9150439e-38
0.1510524 0.041097797 0.034850061 1.9333027e-38
0.15188988 0.13025281 0.024705052 1.7403004e-38
0.15144715 0.13312581 0.026063383 1.7770355e-38
0.15073249 0.13653165 0.027388334 1.915509e-38
0.14828542 0.039339364 0.03630513 1.9977289e-38
0.14755604 0.041635662 0.033907235 1.9609596e-38
0.14809945 0.13018578 0.023963511 1.6666528e-38
0.14770788 0.13301736 0.025108337 1.7310474e-38
0.14715008 0.13661653 0.026776373 1.9154012e-38
0.14361688 0.042399142 0.033572912 1.9240444e-38
0.14304556 0.044176213 0.030741453 1.8870221e-38
0.14557251 0.13014108 0.02346915 1.611408e-38
0.14387819 0.13323912 0.025029242 1.749629e-38
0.1439746 0.13591537 0.026213408 1.906145e-38
0.13957676 0.042373486 0.033631086 1.8686203e-38
0.14001477 0.04510498 0.031229138 1.8412113e-38
0.13925514 0.13002935 0.022233248 1.5840342e-38
0.13974231 0.132478 0.024921954 1.6579358e-38
0.13589366 0.042667665 0.033560216 1.8505025e-38
0.13624808 0.04543566 0.03099227 1.8043694e-38
0.13672818 0.04791167 0.029157758 1.7952571e-38
0.13626735 0.12974827 0.022180974 1.363126e-38
0.13618127 0.13213965 0.024505913 1.3353235e-38
0.13303402 0.042939588 0.032971621 1.8228075e-38
0.13205636 0.045441911 0.031529248 1.7307563e-38
0.13212442 0.048770197 0.029536426 1.6204463e-38
0.13230604 0.12605929 0.021221519 7.724641e-39
0.13222849 0.12912694 0.022847474 7.6375096e-39
0.13195822 0.13180469 0.024044394 7.8251127e-39
0.1282585 0.045565881 0.031280637 1.7213953e-38
0.12854797 0.049179137 0.029476285 1.5833878e-38
0.12726197 0.05249235 0.027558804 1.4634627e-38
0.12746271 0.12127154 0.020699024 7.2722766e-39
0.12820464 0.12497777 0.020851493 7.088628e-39
0.12850615 0.1287947 0.021555007 5.9847706e-39
0.12864161 0.13260326 0.022721171 5.9858818e-39
0.12413737 0.04665219 0.030881286 1.7031728e-38
0.12440778 0.049178556 0.0297966 1.6017909e-38
0.12447752 0.052501224 0.027861476 1.3989994e-38
0.12346172 0.056012601 0.025808871 1.2423382e-38
0.12472519 0.11823089 0.020433962 1.0680572e-38
0.12472519 0.12079567 0.0202021 7.3630401e-39
0.12524527 0.12486609 0.021164596 7.4584867e-39
0.12568565 0.12740551 0.02081728 7.2748003e-39
0.12096 0.050465938 0.029909849 1.619872e-38
0.12108552 0.05314073 0.028377235 1.4636792e-38
0.12049368 0.056591772 0.027510047 1.4174355e-38
0.12007228 0.060263906 0.026546717 1.1964166e-38
0.11929357 0.064087555 0.025075495 1.1228788e-38
0.11903957 0.066834718 0.023958445 1.0585907e-38
0.11903957 0.080941014 0.022683322 7.827244e-39
0.12041375 0.085252449 0.02636528 6.351056e-39
0.12031144 0.10112365 0.023156345 9.4763453e-39
0.11904301 0.10336233 0.022021532 1.048978e-38
0.11663738 0.061450027 0.027655005 1.3258161e-38
0.11579683 0.064614519 0.026333451 1.298012e-38
0.11587715 0.06846711 0.024824262 1.22436e-38
0.1156266 0.073484041 0.023093522 1.1136915e-38
0.11569579 0.077371195 0.023808241 1.0030238e-38
0.11619303 0.081228986 0.025165558 8.8377988e-39
0.11689194 0.084402874 0.025630414 8.0091228e-39
0.11602071 0.10066292 0.023374796 9.7525777e-39
0.1177761 0.10271931 0.020465493 1.0306475e-38
0.11248702 0.061495915 0.027241647 1.5558002e-38
0.11206685 0.064438954 0.026210546 1.4086826e-38
0.11191294 0.068867959 0.024927139 1.2889363e-38
0.11203888 0.073336788 0.024150074 1.2151807e-38
0.11182275 0.077263854 0.024434566 1.1967061e-38
0.11269885 0.080956839 0.025524259 1.0401548e-38
0.11396979 0.083881766 0.02551055 9.1140326e-39
0.11169395 0.097578406 0.02365303 1.0580169e-38
0.11211142 0.10031933 0.021497905 1.0767081e-38
0.1075387 0.060688626 0.026082754 1.5922845e-38
0.10776135 0.064382777 0.025593758 1.445274e-38
0.10788906 0.068860963 0.024816275 1.3440749e-38
0.10794425 0.07335414 0.024250388 1.2428759e-38
0.10772437 0.077286206 0.024533808 1.1692638e-38
0.10697958 0.07988821 0.0244928 1.150718e-38
0.10772477 0.09662535 0.022785723 1.150212e-38
0.10841951 0.10020681 0.02043879 1.1687584e-38
0.10400268 0.060636614 0.025517941 1.5462224e-38
0.1038022 0.064352274 0.025270402 1.4358032e-38
0.10405639 0.068613701 0.024935365 1.3440036e-38
0.1047554 0.073076494 0.024669886 1.2427689e-38
0.1038022 0.081766993 0.023696303 1.1875598e-38
0.10295489 0.084116966 0.023316741 1.1876313e-38
0.10380219 0.094021782 0.022588551 1.2146059e-38
0.1041 0.096486457 0.021514833 1.2143554e-38
0.10458401 0.10015529 0.019800663 1.2146762e-38
0.10075191 0.060686395 0.025000215 1.5645181e-38
0.1012603 0.063662335 0.024831474 1.4724989e-38
0.09998934 0.093954355 0.021842599 1.3253486e-38
0.10032976 0.096404955 0.020664871 1.334496e-38
0.10097313 0.10001286 0.018532932 1.3527554e-38
0.096430689 0.093375437 0.021193027 1.4173641e-38
0.096599191 0.096308477 0.019710422 1.4356604e-38
0.097444445 0.099547878 0.017619133 1.4355522e-38
0.092698097 0.096498221 0.019662917 1.7214636e-38
0.093066856 0.099356614 0.017942488 1.7766398e-38
0.088729411 0.096911542 0.018842816 1.997731e-38
0.088991195 0.099143937 0.016134501 2.0344648e-38
0.085022867 0.096462533 0.017348349 1.8594004e-38
0.084925786 0.0989324 0.014328539 1.6285891e-38
0.081532359 0.09656959 0.017454207 1.416899e-38
0.081141204 0.099665515 0.016000807 1.2323644e-38
0.081396788 0.10286298 0.014300466 1.0944671e-38
0.07912755 0.10811339 0.014401555 1.2706403e-38
0.078383207 0.1038921 0.016682804 1.15032e-38
0.077025086 0.1076872 0.015730798 1.1784809e-38
0.073273361 0.1093839 0.014564693 1.2427316e-38
0.073774427 0.11135184 0.013820469 1.3533302e-38
0.070757508 0.11085213 0.014549613 1.3813469e-38
0.19110671 0.082060777 0.018377483 1.5096676e-38
0.16773993 0.099122971 0.012226403 1.3260329e-38
0.16391379 0.068750709 0.014217198 1.6571813e-38
0.16397108 0.081635125 0.019714952 1.7034588e-38
0.15933606 0.083993904 0.016029418 1.59286e-38
0.14155193 0.094641097 0.013739288 1.8323523e-38
0.094781026 0.1194196 0.0045598745 1.9059698e-38
0.094441384 0.12251327 0.0048643947 2.2472685e-38
0.15725151 0.043464519 0.037354946 1.2151105e-38
0.11929357 0.064087555 0.025075495 1.1228788e-38
0.18231769 0.028098062 0.046847701 6.4396769e-39
0.18216319 0.030335203 0.045847595 6.9024417e-39
0.18198048 0.13874006 0.036865056 2.2377624e-38
0.17811464 0.028355885 0.046251118 8.1949504e-39
0.17859407 0.030142706 0.045161009 8.929661e-39
0.17848991 0.13909373 0.03605932 2.1636836e-38
0.17428496 0.02828816 0.045501888 9.4828221e-39
0.17451507 0.030199949 0.044351339 1.022039e-38
0.174439 0.13958776 0.034789383 2.0623767e-38
0.17173184 0.028243009 0.045002401 9.85052e-39
0.17057283 0.030579541 0.044051051 1.0771764e-38
0.17069103 0.13945612 0.03372097 1.9061478e-38
0.16981702 0.14093241 0.034438312 2.0167452e-38
0.1672114 0.031592432 0.043125927 1.1323149e-38
0.16686696 0.1393885 0.032972813 1.9150068e-38
0.16662562 0.14087597 0.033813953 1.96139e-38
0.1630429 0.031937726 0.04193145 1.2981884e-38
0.16291942 0.13876984 0.032761812 1.9426998e-38
0.16279595 0.14080825 0.033064783 2.0168844e-38
0.15921883 0.033163875 0.041066408 1.4270545e-38
0.15909255 0.13870218 0.032013118 1.9244756e-38
0.15520114 0.035065781 0.040869474 1.6942405e-38
0.15526569 0.1386345 0.031264424 1.9337671e-38
0.15194522 0.03566711 0.040428698 1.8873819e-38
0.15075275 0.037422232 0.03921634 1.9242258e-38
0.15220806 0.13783547 0.030221939 1.9338044e-38
0.14668168 0.038144212 0.038728237 1.9977654e-38
0.1436476 0.039407384 0.038454056 1.9697844e-38
0.14264789 0.040633466 0.037122786 1.9518112e-38
0.14255561 0.13729829 0.028707862 1.8971059e-38
0.13854137 0.04061275 0.037337959 1.8962439e-38
0.13836348 0.13477486 0.028279543 1.6492212e-38
0.13981792 0.13651487 0.02892077 1.8244638e-38
0.134572 0.13453278 0.027655959 1.0681742e-38
0.13407344 0.13641328 0.027796924 9.3917097e-39
0.13053837 0.04300686 0.034519851 1.8413903e-38
0.13102886 0.13432172 0.026873946 8.1960294e-39
0.13152032 0.13636816 0.027297437 9.3005791e-39
0.12735164 0.042950504 0.033896387 1.8596507e-38
0.12847763 0.1342766 0.026374757 5.9833707e-39
0.1278403 0.13620692 0.026074588 6.9899472e-39
0.12449926 0.042955771 0.034356534 1.8321727e-38
0.123478 0.045010779 0.033969402 1.7676727e-38
0.12194613 0.098624416 0.028820872 8.373232e-39
0.1222529 0.099786334 0.027753174 8.8349318e-39
0.12024406 0.046335638 0.033211768 1.7214293e-38
0.11983463 0.049053006 0.032271445 1.6385621e-38
0.11842883 0.052496009 0.031273663 1.6478519e-38
0.11842883 0.086780988 0.02817452 7.0861127e-39
0.11946243 0.089483462 0.028929949 6.1655703e-39
0.11923346 0.093555726 0.028744042 6.5336214e-39
0.11946243 0.097254537 0.028227508 7.7282143e-39
0.11970352 0.099741258 0.027254403 8.7405711e-39
0.11556336 0.050571762 0.031905651 1.740226e-38
0.11559828 0.053155635 0.031565309 1.7400478e-38
0.11577389 0.057002582 0.030683756 1.7122428e-38
0.11587946 0.059890117 0.030102432 1.4729663e-38
0.11556078 0.08640682 0.027642667 8.0094899e-39
0.11559826 0.089428909 0.028286457 7.5485174e-39
0.11556336 0.093328856 0.028040648 7.4541273e-39
0.11573917 0.097143143 0.027162135 8.4629137e-39
0.11715415 0.099696167 0.026755631 8.9220996e-39
0.11237197 0.050515324 0.031281292 1.7952954e-38
0.11191605 0.05346879 0.03092438 1.7768557e-38
0.11189327 0.057147168 0.030587375 1.7676343e-38
0.11165583 0.059835516 0.029530168 1.6664349e-38
0.11129056 0.08173842 0.027222455 1.0863959e-38
0.11181539 0.085562043 0.027236164 9.205522e-39
0.11173369 0.089374132 0.027642787 8.4668849e-39
0.11176965 0.093247153 0.027186155 9.386651e-39
0.11231032 0.096246712 0.026112139 9.9380297e-39
0.10790402 0.053675484 0.030114412 1.7309721e-38
0.10778558 0.057064716 0.029656827 1.6940233e-38
0.10897264 0.059902586 0.029080212 1.6570022e-38
0.10950601 0.063335285 0.028533995 1.4731115e-38
0.10823131 0.081795216 0.026613951 1.0954359e-38
0.10819516 0.085319601 0.026401937 1.0401892e-38
0.10797694 0.089280561 0.026682973 1.0952193e-38
0.10808606 0.09312395 0.026015997 1.1045081e-38
0.10950601 0.095679604 0.025610268 1.0858894e-38
0.10435876 0.056984499 0.028732419 1.6476382e-38
0.10313258 0.074219644 0.026293039 1.2335133e-38
0.10376991 0.077465348 0.026125371 1.1874868e-38
0.10466219 0.081362449 0.025949121 1.1599367e-38
0.10456657 0.0854038 0.025564969 1.1507162e-38
0.1042593 0.089173697 0.025618255 1.1688686e-38
0.10449448 0.092670299 0.025186241 1.1780147e-38
0.10041392 0.057390805 0.027789652 1.6291273e-38
0.099053562 0.060045391 0.026769817 1.6105444e-38
0.098944306 0.064627111 0.026334107 1.4998343e-38
0.099798769 0.069035366 0.026104152 1.3804146e-38
0.10054538 0.073538467 0.025958061 1.2976182e-38
0.1002267 0.077563576 0.02572459 1.3070541e-38
0.099945843 0.081279039 0.025026441 1.288866e-38
0.099695578 0.085169293 0.024739146 1.2520592e-38
0.1003945 0.089118712 0.024974704 1.2335842e-38
0.099945843 0.092276111 0.024032354 1.2794298e-38
0.09667033 0.0574934 0.027553618 1.7029198e-38
0.095176682 0.060567245 0.026867509 1.6750455e-38
0.095138445 0.06446293 0.026621461 1.5922133e-38
0.095334828 0.069150746 0.026236475 1.500413e-38
0.095776737 0.073543899 0.025926471 1.4359844e-38
0.095633924 0.077300712 0.025465786 1.4085418e-38
0.095393747 0.081181578 0.025160551 1.3441115e-38
0.095393762 0.08532773 0.024785757 1.2887577e-38
0.095776737 0.089091934 0.024521053 1.2519873e-38
0.095078826 0.091898538 0.023362279 1.3438585e-38
0.091308773 0.063099533 0.025989354 1.6656111e-38
0.091308773 0.068930045 0.025462329 1.5740973e-38
0.091308773 0.073464893 0.025052369 1.5003059e-38
0.091308773 0.077351898 0.024701059 1.435769e-38
0.091308773 0.081238911 0.024349689 1.3806304e-38
0.09173429 0.084701553 0.024120629 1.3530798e-38
0.091308773 0.089012928 0.023646951 1.3162361e-38
0.091425553 0.092858352 0.022981346 1.4633893e-38
0.090385705 0.095341474 0.0218696 1.8045465e-38
0.086202562 0.065600574 0.024756134 1.6203392e-38
0.087538809 0.068847135 0.024555743 1.5739188e-38
0.087598175 0.073365532 0.023988485 1.4820106e-38
0.087479115 0.077284172 0.023951828 1.4450263e-38
0.087638676 0.081012048 0.023646295 1.399069e-38
0.088755667 0.087672107 0.023264587 1.3345682e-38
0.087479115 0.093480043 0.022487819 1.6203395e-38
0.087836325 0.09529639 0.021370828 1.8782005e-38
0.08301115 0.065544128 0.024131835 1.5926786e-38
0.083765477 0.068973333 0.023970664 1.5282497e-38
0.083809018 0.073170304 0.023599803 1.4544231e-38
0.084415376 0.07697086 0.023375869 1.4084704e-38
0.083649427 0.093412317 0.021738589 1.472793e-38
0.084649622 0.095240034 0.020747423 1.8416457e-38
0.081096351 0.065510273 0.023757219 1.555943e-38
0.081096351 0.06896539 0.023444891 1.4914063e-38
0.081096351 0.072636455 0.023113012 1.4544574e-38
0.080075085 0.093478672 0.021027625 1.3433197e-38
0.07921499 0.095619678 0.019982278 1.3897795e-38
0.077266663 0.096538626 0.020197093 1.4637846e-38
0.076242715 0.10053398 0.019378185 1.2514849e-38
0.075664103 0.10416169 0.018339276 1.1230195e-38
0.075089455 0.10671493 0.01782459 1.0772462e-38
0.07258594 0.10077474 0.018890977 1.1781968e-38
0.072244585 0.10419079 0.01828748 1.1230571e-38
0.072540045 0.10731674 0.017267406 1.132167e-38
0.07088387 0.11326946 0.017425835 1.3625849e-38
0.069607317 0.10029018 0.018347263 1.1785189e-38
0.068490326 0.10415743 0.017777383 1.1232363e-38
0.068501323 0.10797668 0.016979575 1.1968123e-38
0.068884671 0.11188634 0.016815484 1.3444331e-38
0.065777659 0.10087029 0.017539501 1.040439e-38
0.065777659 0.10734864 0.016953886 1.1968127e-38
0.19196759 0.091562659 0.017688334 1.5558016e-38
0.16343552 0.072209597 0.013810217 1.5650585e-38
0.16362667 0.075877361 0.012748897 1.5187458e-38
0.16613367 0.10873113 0.016100526 1.3719865e-38
0.15824825 0.092804797 0.014848053 1.4824052e-38
0.16289137 0.060091652 0.019459844 1.832209e-38
0.19306557 0.06093581 0.029200494 2.1457121e-38
0.12406303 0.080853954 0.018224478 1.6755135e-38
0.13379897 0.11663472 0.01278609 1.3995728e-38
0.15078367 0.11418454 0.016876817 1.5100284e-38
0.10513401 0.082859181 0.024620414 1.1138746e-38
0.18300381 0.14006603 0.038140833 2.2934035e-38
0.18161592 0.14257529 0.03815192 2.2845083e-38
0.17744106 0.023888025 0.049592018 7.1807872e-39
0.17789011 0.026438501 0.047403455 7.5492082e-39
0.17789011 0.13997561 0.037140429 2.1545005e-38
0.17741549 0.14298514 0.038935006 2.2471984e-38
0.17764455 0.14620695 0.039598525 2.2849398e-38
0.17359456 0.023820005 0.04883945 7.7339624e-39
0.17397812 0.026379038 0.046978295 8.4711757e-39
0.17369664 0.14280918 0.037648916 2.0816067e-38
0.17464846 0.14637119 0.038992763 2.2476298e-38
0.1698159 0.023904361 0.048905194 8.470803e-39
0.16982354 0.026812062 0.046801984 9.4835228e-39
0.16894114 0.029524159 0.045359492 1.0865022e-38
0.16986594 0.14294648 0.036824167 2.0905366e-38
0.16628811 0.027382527 0.047246933 1.0126761e-38
0.16628699 0.030010182 0.045201361 1.1046552e-38
0.16646346 0.14289388 0.0356462 2.0353258e-38
0.1619316 0.030137978 0.046479642 1.2520928e-38
0.16223148 0.14292398 0.035101116 2.0352173e-38
0.16309218 0.14551517 0.036790848 2.0535489e-38
0.15846466 0.031489987 0.045162022 1.3993581e-38
0.15855804 0.14231792 0.034394801 2.0442222e-38
0.15538797 0.031995509 0.045532763 1.6384502e-38
0.15442882 0.033504881 0.042648971 1.6757983e-38
0.15440449 0.14187244 0.034212828 1.9797938e-38
0.15055853 0.034065474 0.042492807 1.9244036e-38
0.15104318 0.13950083 0.031888187 1.9431674e-38
0.15076928 0.14156482 0.033949971 1.9246927e-38
0.14680287 0.035035986 0.042029798 1.9979084e-38
0.14592947 0.036902618 0.040153801 2.0254596e-38
0.1472079 0.139433 0.031137824 1.9521353e-38
0.14704177 0.14132157 0.034004211 1.9429157e-38
0.14293692 0.035348199 0.042518079 2.0621587e-38
0.14224122 0.038001649 0.039966583 1.9977669e-38
0.14231953 0.13931629 0.031719148 1.9065408e-38
0.13854876 0.038164631 0.040630519 1.9516691e-38
0.13844603 0.13841796 0.030817091 1.6765918e-38
0.13472216 0.038848728 0.039960146 1.9239738e-38
0.13405198 0.041125059 0.037838757 1.8505032e-38
0.13475205 0.13860869 0.030119956 1.0497344e-38
0.13355942 0.14108315 0.031366587 1.0220403e-38
0.13053608 0.038844265 0.039807379 1.9426632e-38
0.13004899 0.041259699 0.038503826 1.8689776e-38
0.13015398 0.13837266 0.028747201 9.2076744e-39
0.13042274 0.14097819 0.030501544 1.0864662e-38
0.1261715 0.041372836 0.038717926 1.8965647e-38
0.12739229 0.13843378 0.027319849 4.0461891e-39
0.12713927 0.1409696 0.030110538 5.9697879e-39
0.12230802 0.042649709 0.037021875 1.8412835e-38
0.12163939 0.04425846 0.034698009 1.7952941e-38
0.11943507 0.043089025 0.03743881 1.84114e-38
0.11806288 0.045626648 0.036171317 1.7583796e-38
0.11780411 0.048732121 0.033537149 1.7305763e-38
0.12036096 0.092245825 0.030108094 5.702437e-39
0.11425096 0.045949914 0.035719156 1.8228082e-38
0.11524725 0.048686907 0.033036947 1.749374e-38
0.1107682 0.045674719 0.034983933 1.8135902e-38
0.11122933 0.048893902 0.032225847 1.7861467e-38
0.11077276 0.051851697 0.031868339 1.7953325e-38
0.11013356 0.055733092 0.031391442 1.7861456e-38
0.10724282 0.046188969 0.033525884 1.7308268e-38
0.10750355 0.049212813 0.031689465 1.7584164e-38
0.1075767 0.051795173 0.031243086 1.7493035e-38
0.10885513 0.055710483 0.031141341 1.7494833e-38
0.10338464 0.046714962 0.033945322 1.6937349e-38
0.10327698 0.049407482 0.032529533 1.7028482e-38
0.1035926 0.053053368 0.030798316 1.7120648e-38
0.10246301 0.055597443 0.029890776 1.6750455e-38
0.099906147 0.055552226 0.029390574 1.6659338e-38
0.095751271 0.055803142 0.028548419 1.7396902e-38
0.090719193 0.054274138 0.030252337 1.7948635e-38
0.092079729 0.056744572 0.028193951 1.7672777e-38
0.09159638 0.060595542 0.027295709 1.7119949e-38
0.091724217 0.064750016 0.026945412 1.6383118e-38
0.090957165 0.086535573 0.024824798 1.3714823e-38
0.087716609 0.056978278 0.029287755 1.7490537e-38
0.088002115 0.060693879 0.026987195 1.7028819e-38
0.087935433 0.064305536 0.026238263 1.6751537e-38
0.085843474 0.08255244 0.0241763 1.3623352e-38
0.087586761 0.085296363 0.024272084 1.3622638e-38
0.086962104 0.089222252 0.023793995 1.27003e-38
0.087121904 0.091658011 0.023605347 1.2047787e-38
0.083810747 0.057561137 0.02889961 1.6935558e-38
0.083863795 0.060418569 0.027321517 1.6568931e-38
0.083469242 0.063973784 0.025387466 1.6110113e-38
0.082008183 0.066913813 0.024833441 1.565234e-38
0.082008183 0.074699216 0.024129689 1.4176533e-38
0.082327798 0.077624388 0.023928344 1.3808108e-38
0.08365187 0.081030749 0.023881614 1.3440044e-38
0.08356297 0.085225552 0.024508178 1.2887948e-38
0.083548218 0.088849746 0.023446739 1.2056708e-38
0.083286613 0.091590188 0.022854984 1.1035417e-38
0.080272049 0.058035549 0.028363407 1.6384521e-38
0.079874009 0.060579762 0.027372718 1.6200854e-38
0.079296589 0.064357415 0.025553048 1.5557647e-38
0.079025179 0.068735324 0.024080455 1.4637846e-38
0.079238266 0.073352665 0.023705065 1.4452388e-38
0.080090523 0.077260435 0.023519933 1.3992129e-38
0.0800201 0.08148443 0.024659157 1.2796819e-38
0.079996616 0.085280783 0.02482295 1.2336558e-38
0.079836339 0.089344703 0.024423957 1.178228e-38
0.079131722 0.091841102 0.02201283 1.2055658e-38
0.07663396 0.061446566 0.027337492 1.5558035e-38
0.076115668 0.064448699 0.026622832 1.5464019e-38
0.075508565 0.068934411 0.025415361 1.4726821e-38
0.075942993 0.073640198 0.024637222 1.4176516e-38
0.076066971 0.077426679 0.024985254 1.3438954e-38
0.076031238 0.081391521 0.025159895 1.2426963e-38
0.075777918 0.085324496 0.025010288 1.2150757e-38
0.076066971 0.089142732 0.023926258 1.2427689e-38
0.075682342 0.092947423 0.021488309 1.4543868e-38
0.074976861 0.096633501 0.020760179 1.4820441e-38
0.074337661 0.099217333 0.020400524 1.4631742e-38
0.073209882 0.065730207 0.026274979 1.4541706e-38
0.072953075 0.069114134 0.025918424 1.4358399e-38
0.072051346 0.073495731 0.025003433 1.3528994e-38
0.07235384 0.07787881 0.025007963 1.2793234e-38
0.071925819 0.081346601 0.024610102 1.2426961e-38
0.072086364 0.085422114 0.024273336 1.261173e-38
0.072009414 0.089185968 0.022996902 1.3715556e-38
0.071870327 0.09279988 0.021403551 1.4542086e-38
0.071780801 0.096576981 0.020134866 1.3529724e-38
0.071567714 0.10024966 0.019760847 1.205819e-38
0.071141601 0.1153804 0.018309116 1.3348915e-38
0.069357783 0.073481634 0.024814487 1.3626229e-38
0.068929762 0.078252673 0.024298787 1.2793949e-38
0.06807372 0.081278481 0.023856521 1.2242926e-38
0.069036782 0.084879465 0.02372092 1.2796112e-38
0.067801118 0.089077465 0.022969842 1.3073058e-38
0.067470133 0.092723005 0.021577239 1.2887591e-38
0.06794551 0.096509159 0.019384563 1.2149315e-38
0.06778571 0.10039902 0.019001424 1.1048343e-38
0.06666708 0.10427196 0.01843071 1.1508954e-38
0.06698671 0.1123874 0.017760158 1.2981203e-38
0.067815185 0.1153549 0.018678665 1.2980491e-38
0.065505683 0.081233054 0.023354053 1.1507847e-38
0.065184653 0.084811337 0.022967279 1.1967776e-38
0.064221621 0.088812687 0.022415638 1.2242925e-38
0.064034402 0.092784107 0.020825922 1.131991e-38
0.063587844 0.096612595 0.019879997 1.1413172e-38
0.063073277 0.10037217 0.019828618 1.1134743e-38
0.063587844 0.10441318 0.019174874 1.1505724e-38
0.063184947 0.1085057 0.018823087 1.2334707e-38
0.0640347 0.11230263 0.019061625 1.2519509e-38
0.063579649 0.1150837 0.019914269 1.2978692e-38
0.061011553 0.09027639 0.021650195 1.2426601e-38
0.060530066 0.0930373 0.021305621 1.1690114e-38
0.059508741 0.096746773 0.02062279 1.2059607e-38
0.059859067 0.10063536 0.020145416 1.2059626e-38
0.059349209 0.10448499 0.019355714 1.2057457e-38
0.059443533 0.10825514 0.01920414 1.316523e-38
0.061653584 0.11113987 0.019890904 1.279497e-38
0.056517452 0.10388111 0.019533992 9.3726478e-39
0.056517452 0.10779089 0.019180596 1.0117797e-38
0.1947962 0.092736103 0.018140197 1.1969234e-38
0.19602603 0.09587846 0.018098712 1.1325653e-38
0.16364795 0.081479445 0.012161434 1.3716998e-38
0.16143234 0.081568211 0.015638947 1.5651649e-38
0.16321856 0.099871308 0.013620377 1.2892277e-38
0.15228836 0.12806395 0.02344656 1.5286122e-38
0.17640264 0.019568972 0.054510176 7.3684449e-39
0.17676748 0.021994434 0.052700102 7.0903979e-39
0.17626338 0.14709535 0.041633427 2.2940866e-38
0.17589813 0.14897057 0.042074025 2.3406848e-38
0.17276677 0.020332035 0.054107845 7.274436e-39
0.17282683 0.021932565 0.052269578 7.4580972e-39
0.17220277 0.14678857 0.040774882 2.1925273e-38
0.17214522 0.14880046 0.040837586 2.3028371e-38
0.16921513 0.02059694 0.05338341 7.7303709e-39
0.16842331 0.022203431 0.05231452 8.1006009e-39
0.16902222 0.14657596 0.040788233 2.1277037e-38
0.16525933 0.023405399 0.052144647 8.7456298e-39
0.16423795 0.026139416 0.050195277 9.9438059e-39
0.16477498 0.14632007 0.040119767 2.0534776e-38
0.16469485 0.1509462 0.040709138 2.2862731e-38
0.16107485 0.027372595 0.050872982 1.1507861e-38
0.16090849 0.14679149 0.038905323 2.0443653e-38
0.16185024 0.14986086 0.039990246 2.1835994e-38
0.16211182 0.15286678 0.040026009 2.341769e-38
0.15694579 0.027917325 0.050301731 1.3348915e-38
0.15700223 0.029831398 0.048604965 1.4176522e-38
0.157086 0.14633632 0.038309455 2.0351464e-38
0.15313619 0.030602418 0.048412263 1.5743815e-38
0.15371591 0.14492825 0.037808597 1.9983053e-38
0.14958853 0.030867156 0.047688603 1.6389578e-38
0.14868288 0.14335343 0.037725627 1.8876712e-38
0.14997438 0.14468616 0.037859917 1.9338783e-38
0.14563401 0.031445477 0.047547102 1.7493786e-38
0.1455916 0.03324711 0.046557188 2.0071643e-38
0.14547217 0.14272001 0.035870492 1.9432738e-38
0.14467645 0.14469334 0.037325978 1.9431652e-38
0.14273919 0.031926345 0.04713732 1.8598011e-38
0.1417233 0.034050703 0.045721591 2.0436477e-38
0.14186016 0.14237934 0.035444736 1.980261e-38
0.14080194 0.14462483 0.036567926 1.9713301e-38
0.13799405 0.035054009 0.044383764 2.0530104e-38
0.13799405 0.14231101 0.034688413 1.6299918e-38
0.13757315 0.14456776 0.035936356 1.5558069e-38
0.13403189 0.034998402 0.043948412 2.016026e-38
0.13427104 0.036927536 0.042968452 1.9792905e-38
0.13441449 0.14235839 0.033875704 1.104727e-38
0.13369861 0.14449924 0.035178363 1.0586654e-38
0.12994915 0.034677386 0.043927431 2.025281e-38
0.13001284 0.037190553 0.042360544 1.9793973e-38
0.1302138 0.14286023 0.03327477 1.2518039e-38
0.13111562 0.14445356 0.034672976 1.2339363e-38
0.12594956 0.035561975 0.043497205 2.0343556e-38
0.1261971 0.037957553 0.04192239 1.9609937e-38
0.12689182 0.14286813 0.032959878 1.1696281e-38
0.12689182 0.14417708 0.032841563 1.6967552e-38
0.1222432 0.038090754 0.041969061 1.9608159e-38
0.12235916 0.040964801 0.040254056 1.933622e-38
0.11830309 0.038687192 0.041365385 1.9516691e-38
0.11814174 0.041740052 0.039991736 1.8964212e-38
0.11688614 0.044462409 0.038858414 1.8137333e-38
0.114326 0.03928896 0.040867746 1.9977631e-38
0.11410624 0.041869625 0.039908826 1.9239716e-38
0.11431059 0.044416863 0.038354576 1.8594709e-38
0.11109722 0.039231852 0.040235996 1.9793236e-38
0.11027077 0.041795816 0.039045393 1.905533e-38
0.10851562 0.044314384 0.037220836 1.8319919e-38
0.10609485 0.042392652 0.038452029 1.8505384e-38
0.10561815 0.044589907 0.036624432 1.758272e-38
0.10270241 0.043015935 0.038238227 1.8690857e-38
0.10185482 0.045324516 0.036497951 1.7213215e-38
0.10078901 0.048098899 0.035354793 1.6202675e-38
0.097997427 0.045386884 0.036481977 1.7673106e-38
0.097820103 0.048594531 0.035133719 1.785751e-38
0.093833923 0.046105519 0.035698116 1.8778739e-38
0.094158739 0.049324289 0.034504831 1.8594003e-38
0.093706265 0.051894799 0.033614695 1.8498928e-38
0.090284616 0.046370462 0.034974098 1.7858948e-38
0.090292513 0.049255915 0.033748448 1.7950433e-38
0.090670794 0.052774731 0.032936513 1.80419e-38
0.086558551 0.046662979 0.034724414 1.6382037e-38
0.08626774 0.049213499 0.033413231 1.6662216e-38
0.086583823 0.053083565 0.032216132 1.7764608e-38
0.085335761 0.055667929 0.031622648 1.7583084e-38
0.082428783 0.049548104 0.033064365 1.6939517e-38
0.082559466 0.05304347 0.031880796 1.7493041e-38
0.08243826 0.055943452 0.031026304 1.6938428e-38
0.079455256 0.049814478 0.033038497 1.6570734e-38
0.078507781 0.053203013 0.032033682 1.6479964e-38
0.078555286 0.056513909 0.030647457 1.6018628e-38
0.075580716 0.054333922 0.031865776 1.537685e-38
0.074775636 0.057037517 0.030567229 1.5279995e-38
0.074541986 0.060282968 0.029247165 1.491049e-38
0.073745817 0.063958809 0.028587282 1.4822219e-38
0.073745817 0.081604004 0.026992261 1.224256e-38
0.071706206 0.058197942 0.030752301 1.4543139e-38
0.070811331 0.060915776 0.029690564 1.4448773e-38
0.070725024 0.064461023 0.028713584 1.4083233e-38
0.070434391 0.069035098 0.027475357 1.4082527e-38
0.070311725 0.076750755 0.026753664 1.316022e-38
0.069882512 0.084149785 0.026000142 1.2887588e-38
0.069768935 0.1184626 0.024922669 1.2888308e-38
0.067831665 0.062061958 0.029638827 1.3899159e-38
0.06701842 0.064830869 0.02893585 1.4358744e-38
0.067050725 0.06913089 0.027481437 1.3991761e-38
0.067146003 0.073644981 0.026410043 1.3625146e-38
0.066877693 0.077125713 0.026042521 1.3071609e-38
0.066534281 0.085659042 0.025203407 1.2428047e-38
0.066019177 0.089309677 0.02477175 1.28858e-38
0.066796362 0.11829954 0.023668885 1.2888653e-38
0.066711009 0.12095445 0.023639441 1.2429824e-38
0.067831665 0.12367172 0.024069667 1.2341576e-38
0.062752306 0.069815978 0.02770865 1.4082133e-38
0.063054621 0.073673867 0.026623726 1.3807013e-38
0.06327033 0.077544704 0.025747895 1.2979746e-38
0.062799752 0.081410438 0.024850845 1.1782611e-38
0.062671006 0.085590728 0.02444762 1.1967043e-38
0.062799752 0.08925274 0.024141908 1.2242919e-38
0.063249111 0.11744518 0.022193789 1.2703883e-38
0.062536955 0.12055791 0.023160636 1.2335426e-38
0.059287041 0.06997849 0.027067423 1.4081452e-38
0.059053779 0.073636435 0.026179075 1.3713395e-38
0.059229374 0.077520974 0.025407791 1.3253831e-38
0.059404552 0.081400029 0.024636924 1.2057066e-38
0.059492201 0.085299179 0.024074376 1.168936e-38
0.059396386 0.088819124 0.02350992 1.2060683e-38
0.058292568 0.091787137 0.023023844 1.1423971e-38
0.059172481 0.11297847 0.021921396 1.2980498e-38
0.05920136 0.11649754 0.022431254 1.307088e-38
0.055562347 0.074298024 0.026112795 1.3345657e-38
0.055695117 0.077541523 0.025504708 1.3251682e-38
0.055761516 0.081454888 0.024993539 1.1503559e-38
0.056473672 0.085376821 0.02460891 9.0125029e-39
0.055827916 0.089294463 0.024127424 9.8347288e-39
0.05574137 0.093347244 0.023256838 1.0204903e-38
0.055355251 0.097031333 0.022482097 9.6560576e-39
0.055583 0.10093562 0.022003591 9.4680889e-39
0.054550171 0.1051921 0.021585703 8.0891411e-39
0.054993451 0.10919969 0.021822453 9.6578976e-39
0.055695117 0.11291794 0.022306979 1.0663046e-38
0.055661947 0.11620637 0.022088349 1.0203528e-38
0.052333564 0.10111328 0.023052096 9.19366e-39
0.052333564 0.10373496 0.022815049 9.1911965e-39
0.052333564 0.1076675 0.022459626 9.3762786e-39
0.19858675 0.088372745 0.018770576 1.0587729e-38
0.19684592 0.089443699 0.018842101 1.1783763e-38
0.19481337 0.086172707 0.018651545 1.2428053e-38
0.1636025 0.08991652 0.01157093 1.307414e-38
0.16366082 0.086554468 0.01576674 1.5651659e-38
0.15865903 0.075607553 0.015247047 1.6019713e-38
0.16328736 0.10385948 0.013989866 1.2983752e-38
0.12705249 0.051060408 0.030735731 1.8412119e-38
0.17586939 0.018128455 0.05696547 7.7361498e-39
0.17282236 0.016791657 0.05853188 6.9088891e-39
0.17158577 0.018589217 0.056692958 7.2744374e-39
0.16786216 0.019100774 0.056321502 7.5456265e-39
0.16405421 0.020262297 0.056488752 8.1935252e-39
0.16338259 0.022855125 0.05484283 8.7445438e-39
0.16421215 0.14938629 0.04280138 2.1280651e-38
0.16113149 0.019221783 0.056006372 9.5749939e-39
0.16038901 0.023589801 0.054953396 9.9412793e-39
0.15955438 0.025742341 0.053570986 1.1230921e-38
0.15935057 0.15104616 0.042511165 2.2023615e-38
0.15943092 0.15411708 0.042453945 2.3417316e-38
0.15593556 0.024403635 0.054513156 1.1231669e-38
0.15628915 0.026213374 0.052986741 1.2244371e-38
0.1564445 0.15033695 0.041914284 2.1282068e-38
0.15761058 0.15397832 0.041595876 2.2035093e-38
0.15333758 0.024357691 0.054004908 1.1603685e-38
0.15235393 0.026938386 0.052326977 1.3074497e-38
0.15219225 0.14741546 0.041018069 2.0536926e-38
0.15229838 0.15011793 0.04243201 2.1554333e-38
0.14853436 0.027046073 0.051919162 1.2802214e-38
0.14737394 0.029456291 0.050321221 1.4824404e-38
0.14829521 0.14699772 0.040608764 2.0171392e-38
0.14840543 0.14931422 0.040713429 2.302369e-38
0.14450446 0.027629409 0.051967025 1.2247604e-38
0.14432448 0.02974844 0.050204992 1.4915185e-38
0.14503293 0.14662227 0.040291607 1.9524221e-38
0.14036255 0.031209908 0.049803078 1.7956929e-38
0.14025009 0.033274226 0.048570991 2.0253529e-38
0.14066826 0.14673075 0.039250433 1.9895179e-38
0.13663782 0.031288005 0.049402535 1.8970337e-38
0.13701198 0.033216964 0.047937512 2.0805253e-38
0.13687198 0.14703363 0.038133204 1.5101773e-38
0.13264859 0.031889547 0.048902392 1.9338404e-38
0.13312623 0.033148248 0.047177315 2.0346803e-38
0.13298312 0.14696485 0.03737241 1.0776808e-38
0.13261721 0.15051484 0.038286984 1.1697657e-38
0.13255382 0.15319669 0.038259327 1.151332e-38
0.12995586 0.031854801 0.048715472 1.9248366e-38
0.12894681 0.033114858 0.047379255 2.0346443e-38
0.12885951 0.14644986 0.036861479 1.5290712e-38
0.1288922 0.15027839 0.037545145 9.1100992e-39
0.1252569 0.033847257 0.046789944 2.0068776e-38
0.1257059 0.146938 0.036451101 2.008419e-38
0.12635446 0.14892429 0.036399484 1.3988545e-38
0.1214864 0.03507977 0.04552561 2.0066263e-38
0.11741096 0.035034295 0.045339882 1.9515961e-38
0.11758326 0.036817305 0.043780029 1.9516328e-38
0.11306904 0.035511471 0.045054257 1.9884372e-38
0.11359246 0.037419453 0.043279648 2.0069116e-38
0.10982159 0.035454042 0.044418991 1.9792552e-38
0.10935178 0.037650924 0.042958319 1.9792897e-38
0.1056 0.03815629 0.042830408 1.9515603e-38
0.10581695 0.040570445 0.04146111 1.933263e-38
0.10202765 0.039271519 0.042536676 1.9335511e-38
0.10142908 0.041482128 0.041487813 1.8965297e-38
0.097705662 0.041794818 0.040773928 1.8504316e-38
0.093965143 0.042110674 0.040105164 1.8502886e-38
0.093277991 0.044332918 0.039330065 1.8778375e-38
0.089802653 0.042992063 0.039448082 1.8598668e-38
0.089710921 0.044598497 0.038602471 1.8227004e-38
0.086084619 0.04487294 0.038033009 1.7118514e-38
0.082252502 0.045453217 0.037054241 1.6293072e-38
0.081316352 0.048007704 0.035615385 1.6755839e-38
0.078340709 0.045579381 0.03678298 1.5740253e-38
0.078134447 0.048752878 0.035125136 1.6202312e-38
0.074748993 0.046040498 0.036544442 1.5371455e-38
0.074428231 0.049272336 0.035279512 1.454422e-38
0.074346334 0.052716292 0.033985615 1.4729693e-38
0.070527256 0.050250754 0.03533119 1.3619754e-38
0.070494294 0.053160883 0.034265816 1.4174367e-38
0.070106566 0.056845479 0.032897949 1.4267637e-38
0.068363905 0.059610412 0.032011926 1.4541693e-38
0.069011509 0.12272459 0.026434481 1.3261384e-38
0.066738546 0.053589709 0.034282207 1.3622999e-38
0.06647706 0.056869101 0.033038735 1.2888319e-38
0.06592536 0.060895316 0.031585276 1.3530781e-38
0.064478129 0.064142928 0.030835807 1.4266578e-38
0.067984223 0.12419438 0.027122259 1.3075562e-38
0.063188016 0.057306431 0.033245921 1.316061e-38
0.062573999 0.060951937 0.032356739 1.3620121e-38
0.062082052 0.064859852 0.031492174 1.5000526e-38
0.061887652 0.067383721 0.030031919 1.4816837e-38
0.059810638 0.06225675 0.032132268 1.3894574e-38
0.05899474 0.06504187 0.031427264 1.5277497e-38
0.057585359 0.068658978 0.029477417 1.4356234e-38
0.057354271 0.11857451 0.024510443 1.2057457e-38
0.058016062 0.12111521 0.024794996 1.2332611e-38
0.055264175 0.066131651 0.030885279 1.5554405e-38
0.054713666 0.069071293 0.029146612 1.4172192e-38
0.053598046 0.07328447 0.027863503 1.306799e-38
0.052820921 0.077740498 0.027307451 1.297511e-38
0.052820921 0.081684418 0.026950955 1.2700304e-38
0.053792357 0.085645519 0.02678448 1.113334e-38
0.052820921 0.090229578 0.026178479 1.0018376e-38
0.052820921 0.092858858 0.025940835 9.281506e-39
0.052820921 0.1106065 0.024336576 8.5572939e-39
0.052820921 0.11455042 0.023980021 1.0295692e-38
0.053492665 0.11764454 0.024600327 1.0665595e-38
0.054447293 0.1205001 0.025127411 1.1778743e-38
0.051140666 0.069835275 0.029396117 1.3807006e-38
0.050337881 0.073887654 0.028530359 1.3531514e-38
0.05044055 0.077584408 0.028284609 1.3347484e-38
0.050594985 0.08214359 0.028005302 1.2977258e-38
0.050807416 0.085755408 0.027592778 1.2699958e-38
0.050693154 0.089488007 0.026995361 1.2237516e-38
0.050540507 0.093583606 0.026278257 1.1867616e-38
0.050878048 0.097425736 0.025144815 1.0481876e-38
0.050230443 0.10135821 0.024661601 1.0205669e-38
0.050586164 0.10563044 0.024754941 1.0484786e-38
0.050372183 0.10943959 0.025238097 1.0854598e-38
0.051398188 0.11320034 0.025458753 1.0390779e-38
0.048119783 0.091055557 0.02722317 1.306868e-38
0.048119783 0.093692429 0.026984811 1.2792824e-38
0.046956688 0.097582035 0.026062727 1.2607044e-38
0.046956688 0.10153544 0.025705397 1.2143175e-38
0.047250152 0.10533392 0.025614858 1.2144249e-38
0.047674149 0.10877078 0.025022268 1.2421177e-38
0.044222802 0.097578816 0.025864899 1.0951473e-38
0.044222802 0.10153412 0.025507331 9.2018912e-39
0.044222832 0.10417099 0.025268972 8.4668233e-39
0.19861981 0.083987132 0.019002974 1.1137673e-38
0.16347779 0.095904417 0.01150614 1.2799345e-38
0.15943858 0.070890673 0.013141096 1.5833179e-38
0.16761264 0.083931334 0.018185258 1.7033507e-38
0.17799459 0.11357872 0.019785285 1.528468e-38
0.12033835 0.076369815 0.017040491 1.4267285e-38
0.1709097 0.016358767 0.060922444 6.9049444e-39
0.16757151 0.016746402 0.060570121 7.1772251e-39
0.16561462 0.018035918 0.060067594 7.8207897e-39
0.16316697 0.018862274 0.058827937 8.4693807e-39
0.15986651 0.020571738 0.058192909 9.2062254e-39
0.1583872 0.022305589 0.057573915 1.0126744e-38
0.15553945 0.022614453 0.057257175 1.0496611e-38
0.15477908 0.15269381 0.044734895 2.0733585e-38
0.15456195 0.15445295 0.044533074 1.9905265e-38
0.1511966 0.15229988 0.044063926 2.0453401e-38
0.15184796 0.15429476 0.04401207 1.8521267e-38
0.14631137 0.024287928 0.054671884 9.7618991e-39
0.14631137 0.02561016 0.054552376 1.1515055e-38
0.14780018 0.15124816 0.043489158 2.0175004e-38
0.14813358 0.15400508 0.043817222 1.7693669e-38
0.14500865 0.024264891 0.054417014 9.486401e-39
0.14338024 0.025888879 0.053949058 1.1509307e-38
0.14305457 0.14851978 0.042799711 2.0540883e-38
0.14392394 0.15111008 0.043321788 1.8788479e-38
0.14352573 0.15395913 0.043083131 1.6877546e-38
0.13956828 0.02750076 0.053904235 1.187633e-38
0.13979776 0.029461652 0.052919507 1.4818357e-38
0.14110048 0.14848521 0.042417467 2.0907498e-38
0.13973707 0.15115231 0.042134821 1.9344885e-38
0.1391464 0.15373957 0.041557074 2.0095032e-38
0.1369136 0.028121363 0.053495049 1.2795429e-38
0.13570192 0.029412445 0.052798271 1.5654205e-38
0.13654095 0.15171015 0.041226625 1.703786e-38
0.13183832 0.029999427 0.051812589 1.6576137e-38
0.12832645 0.030920286 0.050780892 1.7770735e-38
0.12409073 0.031506967 0.049892426 1.9793992e-38
0.12286237 0.033128846 0.049247742 1.9884031e-38
0.11995387 0.031793818 0.049818099 2.0069495e-38
0.11993124 0.033407573 0.048644423 1.997658e-38
0.11669242 0.031736143 0.049179971 1.9792899e-38
0.11586782 0.03335645 0.048359156 1.9607431e-38
0.11299604 0.033877648 0.048257411 1.9607428e-38
0.10722968 0.03549685 0.045950353 1.9979105e-38
0.10462424 0.035450771 0.045440674 1.9885466e-38
0.10332152 0.036749966 0.045066297 1.9606748e-38
0.10103731 0.035431661 0.045758188 1.9332671e-38
0.10048239 0.037650809 0.044571102 1.951885e-38
0.096695662 0.037970427 0.043990254 1.9699996e-38
0.092709363 0.037910622 0.043436766 1.869052e-38
0.092248365 0.040520824 0.042541385 1.8687281e-38
0.089628756 0.038744237 0.042867482 1.8135907e-38
0.088875294 0.041139595 0.042161226 1.8228469e-38
0.085067749 0.042124324 0.041564882 1.7768914e-38
0.081321359 0.042668868 0.040703595 1.6201233e-38
0.077554643 0.042961143 0.040445983 1.5646258e-38
0.075964332 0.044199541 0.038997114 1.5737011e-38
0.072848499 0.045164905 0.038806856 1.5278183e-38
0.069914132 0.046767697 0.038083196 1.4544217e-38
0.069039434 0.048597969 0.037642956 1.4082142e-38
0.067770183 0.12554592 0.03105098 1.4459939e-38
0.065574169 0.050137535 0.037024975 1.3991399e-38
0.06467402 0.05237399 0.036031306 1.3625505e-38
0.064419091 0.12564957 0.030039549 1.1969931e-38
0.061675012 0.053452082 0.036219418 1.2790695e-38
0.060560048 0.056837521 0.035072267 1.306659e-38
0.060331643 0.059789825 0.034504533 1.3433203e-38
0.06124723 0.12344439 0.029954374 1.2150718e-38
0.061899543 0.12544212 0.029902458 1.20614e-38
0.057898939 0.057594135 0.034905314 1.3251703e-38
0.057415366 0.06092605 0.034210324 1.3157695e-38
0.056423485 0.064348511 0.033321619 1.5001623e-38
0.054289401 0.061970215 0.034139037 1.3621184e-38
0.05375132 0.064756654 0.032928169 1.4911926e-38
0.050359249 0.066269532 0.032463431 1.4265843e-38
0.049041361 0.067964271 0.031538725 1.3619749e-38
0.048607141 0.07941591 0.030417919 1.3529715e-38
0.048404217 0.081451021 0.030705571 1.3252766e-38
0.048607141 0.11114938 0.027549446 1.195735e-38
0.048607141 0.11379384 0.027310371 1.2418676e-38
0.049505919 0.11661612 0.02825582 1.2410475e-38
0.046774447 0.070506223 0.031373441 1.3164518e-38
0.047168523 0.074135929 0.030952573 1.3897795e-38
0.046896726 0.077508293 0.031276286 1.3622996e-38
0.045728028 0.086055003 0.029932082 1.361973e-38
0.045736223 0.089808203 0.029168129 1.3160543e-38
0.045350343 0.093902819 0.028466046 1.2701746e-38
0.044698954 0.10645247 0.027203202 1.0583716e-38
0.045316041 0.11035921 0.027381003 1.1409553e-38
0.046619862 0.11355788 0.027349055 1.2331488e-38
0.042982936 0.086045898 0.029732704 1.4633519e-38
0.042182088 0.0904245 0.029008389 1.3253104e-38
0.042537332 0.093917914 0.028421462 1.2609895e-38
0.041489393 0.09809237 0.027530491 1.0672715e-38
0.041372657 0.10178905 0.027139187 9.2026031e-39
0.041915059 0.10580502 0.027151167 8.5601063e-39
0.042760134 0.10950754 0.0273121 9.0207327e-39
0.039069176 0.09855587 0.027829885 9.7518602e-39
0.039069176 0.10186619 0.02753067 8.8348925e-39
0.039069176 0.10451443 0.027291238 8.2834914e-39
0.15559536 0.079716444 0.011585295 1.4361635e-38
0.1868405 0.04185044 0.041636169 1.1140855e-38
0.11861962 0.1009405 0.026580632 1.6297743e-38
0.042537332 0.093917914 0.028421462 1.2609895e-38
0.1703393 0.014207456 0.066461802 6.1666717e-39
0.17037272 0.015499748 0.063281834 6.8120271e-39
0.16705446 0.014149364 0.065819144 6.8109285e-39
0.16817729 0.015474897 0.063874304 6.9956897e-39
0.16359158 0.016723618 0.062857032 7.8225917e-39
0.16252273 0.01801677 0.061506033 8.5597798e-39
0.15941498 0.017331481 0.063001513 9.6664637e-39
0.15990607 0.01863445 0.060934126 9.3909628e-39
0.15564589 0.019913565 0.061342597 9.4838913e-39
0.15075839 0.021184314 0.061457515 9.2080233e-39
0.15121946 0.023399208 0.05899471 1.0313311e-38
0.14734539 0.021469083 0.061270177 8.2875257e-39
0.14771229 0.023612909 0.058692992 9.2069695e-39
0.14551444 0.1538277 0.045874953 1.6680257e-38
0.14406055 0.021744397 0.06059742 7.6439626e-39
0.14374529 0.02334103 0.057832778 8.1956874e-39
0.14010656 0.023770098 0.058201849 8.4700855e-39
0.13962695 0.025579385 0.056306601 1.1048674e-38
0.14158945 0.15176642 0.045287132 1.8128761e-38
0.14158945 0.15309435 0.045167089 1.4470787e-38
0.13570701 0.024689 0.058001518 9.9441044e-39
0.13609447 0.02657925 0.055519462 1.1783391e-38
0.13214679 0.025476247 0.055863857 1.0956496e-38
0.13243115 0.027444012 0.054718733 1.1969243e-38
0.12763634 0.00078298897 0.059252739 1.2921934e-39
0.12952641 0.025429908 0.055351138 1.1506419e-38
0.12840888 0.02738354 0.054271996 1.1044396e-38
0.12719782 0.030007303 0.053454876 1.6298121e-38
0.12369454 0.00071328133 0.058481634 1.4791462e-39
0.12399006 0.027357768 0.05510819 1.28836e-38
0.12484282 0.029832859 0.053006113 1.703425e-38
0.12106666 0 0.058027744 2.0341038e-39
0.11995347 0.027962908 0.054598451 1.8690153e-38
0.12065616 0.030555572 0.052115083 2.0069509e-38
0.1160154 0.027893264 0.053827941 1.9610687e-38
0.11673117 0.030486163 0.051347196 2.0161333e-38
0.11214656 0.028219149 0.053425252 1.9609614e-38
0.1125976 0.031101834 0.051158428 1.9515248e-38
0.11149785 0.033049461 0.05008328 1.9791463e-38
0.10819006 0.028578267 0.052904785 1.9334465e-38
0.10828467 0.031333897 0.050920248 1.9241543e-38
0.10914285 0.033804562 0.049550533 1.9792911e-38
0.10434458 0.031666741 0.050730169 1.8964233e-38
0.10430205 0.034250122 0.048555493 1.9517767e-38
0.10051349 0.031989474 0.05020535 1.8688722e-38
0.10004693 0.034217298 0.048742414 1.9056074e-38
0.096430331 0.032571174 0.050224364 1.8597604e-38
0.096588925 0.034890711 0.04741478 1.9057869e-38
0.092160016 0.032829057 0.049358845 1.7585259e-38
0.092442259 0.034630951 0.047614455 1.8413215e-38
0.089532167 0.032782588 0.048844695 1.6201615e-38
0.08915174 0.03503212 0.046775639 1.7954379e-38
0.088384002 0.0370671 0.045161247 1.7954022e-38
0.084743977 0.03663712 0.04618758 1.7217175e-38
0.085213721 0.038576316 0.044740617 1.7582738e-38
0.084022909 0.040531099 0.043987989 1.7308306e-38
0.080991566 0.036632389 0.046812236 1.666473e-38
0.080657184 0.038841221 0.045084894 1.6568596e-38
0.081406236 0.040927462 0.04343605 1.6567504e-38
0.076891452 0.039563641 0.044861555 1.5464754e-38
0.07748127 0.041743331 0.042588174 1.5462587e-38
0.07376492 0.040505417 0.045036793 1.5094847e-38
0.07312578 0.042393044 0.042864203 1.5462215e-38
0.068695188 0.04354807 0.042533934 1.5003747e-38
0.068883121 0.045589913 0.040800333 1.4729676e-38
0.067431986 0.12914625 0.034240246 1.7314762e-38
0.067195237 0.13240835 0.035433531 1.7220763e-38
0.064567327 0.044343598 0.042875707 1.4265492e-38
0.064836055 0.046130203 0.041334689 1.3346414e-38
0.065706313 0.12652193 0.032602251 1.3348567e-38
0.064877868 0.12964451 0.033947289 1.3995735e-38
0.064567327 0.13236186 0.034919441 1.4271966e-38
