# .PCD v0.7 - Point Cloud Data file format
VERSION 0.7
FIELDS x y z rgb
SIZE 4 4 4 4
TYPE F F F F
COUNT 1 1 1 1
WIDTH 983
HEIGHT 1
VIEWPOINT 0 0 0 0 1 0 0
POINTS 983
DATA ascii
0.094866507 0.10781497 0.01008302 1.2433427e-38
0.0949836 0.11143762 0.01017797 1.0773557e-38
0.095303647 0.11599851 0.0099468231 8.0984696e-39
0.095534399 0.11940606 0.010071516 7.8247385e-39
0.092733704 0.045881435 0.021304309 1.7400845e-38
0.092722677 0.04836027 0.0209319 1.7122809e-38
0.091811679 0.052259501 0.020399392 1.6385241e-38
0.091484226 0.055773761 0.018764377 1.5833155e-38
0.091258556 0.05871949 0.017433941 1.5372184e-38
0.09104532 0.10470547 0.010728121 1.1600092e-38
0.091257207 0.10773127 0.010845363 1.0311858e-38
0.091203578 0.11153926 0.011175871 9.9434107e-39
0.091335818 0.11512421 0.010839522 8.1920637e-39
0.088321589 0.053337198 0.020445108 1.6110103e-38
0.087596267 0.056046117 0.019270241 1.5741331e-38
0.087917909 0.059630025 0.01749599 1.5279632e-38
0.087494522 0.063678548 0.016911924 1.4820437e-38
0.086644374 0.10056555 0.011410892 1.1414927e-38
0.087548539 0.10399261 0.011178911 1.1048349e-38
0.087474048 0.10782832 0.011844218 9.9427031e-39
0.087690383 0.11084753 0.011827171 1.0956858e-38
0.08867421 0.1146853 0.011190891 8.7412536e-39
0.0843959 0.056917723 0.020140231 1.5648042e-38
0.083973214 0.060752876 0.018350065 1.555406e-38
0.083969079 0.064455777 0.017567873 1.5187445e-38
0.082611114 0.095949739 0.01234591 1.1140551e-38
0.083699085 0.1000502 0.011967897 1.1047256e-38
0.083781205 0.10405274 0.011844575 1.1231298e-38
0.083699942 0.10789059 0.012510002 1.2338357e-38
0.082437761 0.11037493 0.012211323 1.5562732e-38
0.081401661 0.062043391 0.019547284 1.5370752e-38
0.08075954 0.06576439 0.019025445 1.5004829e-38
0.080173753 0.068207003 0.017792284 1.4820802e-38
0.079549529 0.071909174 0.0169909 1.4360208e-38
0.078459755 0.075827435 0.015621901 1.3716984e-38
0.077698693 0.078672707 0.015239 1.3164152e-38
0.078263268 0.091953129 0.013206542 8.4668485e-39
0.079936877 0.096225664 0.013139248 1.0403331e-38
0.080027156 0.10014947 0.013083518 1.205961e-38
0.07997568 0.10416706 0.013067245 1.2613495e-38
0.079946488 0.10790713 0.012731194 1.2242579e-38
0.079514727 0.11121406 0.012259245 1.574245e-38
0.078991622 0.11500955 0.011465907 2.2671856e-38
0.075738415 0.069504663 0.018761814 1.3439678e-38
0.075903662 0.071978092 0.018287539 1.3073047e-38
0.075252175 0.075771362 0.017018795 1.224471e-38
0.075311162 0.080087349 0.015168488 1.0586279e-38
0.074431948 0.084000275 0.014631927 8.0988157e-39
0.075006172 0.088106185 0.013979733 7.7307576e-39
0.075329393 0.091736674 0.014427066 7.454863e-39
0.076054066 0.095819354 0.014529169 8.9271078e-39
0.077477276 0.10048169 0.013996005 1.2886485e-38
0.075583994 0.10420819 0.013547957 1.2884704e-38
0.075567462 0.10792641 0.012989283 1.3069116e-38
0.075590014 0.11158073 0.011847019 1.5002713e-38
0.07572256 0.11599064 0.010753334 2.0911524e-38
0.073641121 0.11908939 0.011424065 2.3138218e-38
0.072180629 0.072412252 0.018536329 1.0951118e-38
0.071235694 0.076156348 0.017752707 8.8342269e-39
0.071499594 0.080374733 0.016466677 7.8243798e-39
0.07180652 0.083891064 0.01548028 8.0987708e-39
0.072266251 0.088365503 0.015370309 7.455949e-39
0.072511271 0.091827855 0.015594482 6.165206e-39
0.071362406 0.10807347 0.012964487 1.3435365e-38
0.071292214 0.11148065 0.01102078 1.5833906e-38
0.071917951 0.11638458 0.0099077225 1.9520315e-38
0.071222916 0.11957504 0.010279357 2.2486038e-38
0.070496693 0.12282141 0.011049807 2.2769452e-38
0.067589387 0.073258728 0.01868248 7.9112169e-39
0.068894252 0.078152105 0.01685518 8.5576512e-39
0.068810217 0.080069974 0.017584562 8.9271582e-39
0.0676971 0.10868362 0.013141692 1.3068027e-38
0.067539185 0.11150955 0.011352718 1.5926091e-38
0.068780348 0.12072307 0.0094416738 2.2581109e-38
0.067224465 0.12364833 0.0097019672 2.3233302e-38
0.06609837 0.12717864 0.010656118 2.341769e-38
0.063862264 0.11179572 0.012598038 1.5188198e-38
0.063661382 0.12524362 0.010417283 2.3325853e-38
0.064242557 0.12715337 0.01051724 2.341769e-38
0.062366173 0.13515313 0.0090029836 2.3417679e-38
0.060193807 0.11241147 0.012825251 1.4538895e-38
0.057584442 0.11397648 0.011124432 1.7952954e-38
0.060532823 0.1326391 0.0091530085 2.341769e-38
0.060700171 0.13477844 0.0082131624 2.341769e-38
0.057403721 0.11296399 0.013313711 1.5277877e-38
0.05505681 0.11402531 0.011605442 1.6940624e-38
0.057372954 0.14069678 0.0081285834 2.2272836e-38
0.051295497 0.11436962 0.011946619 1.4266966e-38
0.16717917 0.057152145 0.020236075 7.0918398e-39
0.16745484 0.060574137 0.01936698 7.4584797e-39
0.16729274 0.064309642 0.018544257 8.2853818e-39
0.16705076 0.068570957 0.018322468 1.0404799e-38
0.16679871 0.071827278 0.018050015 1.1787734e-38
0.16354994 0.046449225 0.022063255 7.6424997e-39
0.16420376 0.049200114 0.021357 7.365931e-39
0.16417433 0.064270608 0.017317712 8.7485123e-39
0.16421801 0.068669505 0.017581701 1.1696956e-38
0.16384232 0.072664663 0.017931342 1.3448662e-38
0.15938479 0.038142204 0.023561656 8.5634302e-39
0.16020238 0.040811624 0.021953523 8.1960294e-39
0.1606738 0.044621427 0.021395504 7.4570112e-39
0.16045925 0.048513141 0.019685626 6.2599408e-39
0.16157219 0.069216982 0.015715301 1.1696968e-38
0.16034068 0.072360441 0.015906572 1.3908208e-38
0.16007832 0.076641396 0.017147183 1.7038902e-38
0.15583824 0.037035208 0.023534536 8.0087781e-39
0.15610044 0.040649187 0.021185279 7.5506726e-39
0.15653801 0.044101503 0.020020485 6.9982022e-39
0.15790413 0.047477942 0.019205749 5.4298284e-39
0.15779075 0.072963119 0.015376925 1.5659543e-38
0.15657717 0.076755084 0.015891552 1.8608403e-38
0.1555848 0.080400527 0.015908599 2.1741982e-38
0.1543729 0.083956107 0.01544565 2.2577506e-38
0.15404862 0.088021182 0.015022039 2.295815e-38
0.15410879 0.090615258 0.015978694 2.3142183e-38
0.15158761 0.033930615 0.02466023 9.4871283e-39
0.15177107 0.036930896 0.023072362 8.5637329e-39
0.1518361 0.040511943 0.020995736 7.2730053e-39
0.15290368 0.043148931 0.02015537 6.3532098e-39
0.15275434 0.076714754 0.0151124 1.9438166e-38
0.15163897 0.080604531 0.014593422 2.1645836e-38
0.15182476 0.084177777 0.014044642 2.2297334e-38
0.1516507 0.087940313 0.01392287 2.2672585e-38
0.15144342 0.092294291 0.01542443 2.3047471e-38
0.15072297 0.096041657 0.015363753 2.3417689e-38
0.14721948 0.030291088 0.025130749 1.0316166e-38
0.14799812 0.033209659 0.023519516 9.3956502e-39
0.14868408 0.036701262 0.021782577 8.3782738e-39
0.14915541 0.039435994 0.020937622 7.5488747e-39
0.14895353 0.084812 0.014120281 2.2016037e-38
0.14862734 0.087610535 0.013718545 2.2386613e-38
0.14781934 0.092519283 0.013948858 2.2665386e-38
0.14774421 0.096820541 0.014636219 2.2581471e-38
0.14739567 0.10044394 0.014754832 2.2770167e-38
0.14367074 0.021996249 0.026168525 1.1973539e-38
0.14381343 0.025145687 0.024250925 1.1051922e-38
0.14482361 0.028882943 0.023121774 1.0134638e-38
0.14542097 0.032615095 0.022186816 9.3041636e-39
0.14473625 0.092496701 0.013215065 2.2009941e-38
0.14415367 0.096313886 0.013181806 2.219829e-38
0.14391673 0.10049735 0.013410449 2.2662159e-38
0.14358205 0.10416491 0.013987899 2.2577153e-38
0.14269064 0.10690002 0.014208257 2.2575714e-38
0.13971487 0.017842375 0.027451575 8.658825e-39
0.14049171 0.020793777 0.025417507 9.0247082e-39
0.14169484 0.023929428 0.023716092 9.3041566e-39
0.14135467 0.10038491 0.012229323 2.1917053e-38
0.14010538 0.10418582 0.012407184 2.2101062e-38
0.1401464 0.10810268 0.013616145 2.2478834e-38
0.13590044 0.013983157 0.028597474 8.1031317e-39
0.13613559 0.017042555 0.0272789 7.8272595e-39
0.13600522 0.020418853 0.025033832 7.8283272e-39
0.13632026 0.10477477 0.012037635 2.062665e-38
0.13570297 0.10798192 0.012520194 2.1552551e-38
0.13536105 0.11092849 0.014038801 2.1829867e-38
0.13217622 0.013708543 0.028692007 7.0893399e-39
0.13172641 0.017063849 0.027482092 6.7187567e-39
0.13169008 0.020833638 0.02590394 7.0860987e-39
0.13090414 0.024345025 0.024499297 6.9953506e-39
0.13128822 0.10792336 0.012032449 2.0261073e-38
0.13131212 0.11188529 0.013573408 2.1830581e-38
0.13068105 0.11444576 0.013788342 2.1923139e-38
0.12837854 0.017470732 0.028352082 6.5329263e-39
0.12793154 0.020825118 0.027029634 7.2693969e-39
0.12789182 0.024603888 0.024774909 7.9144104e-39
0.12755863 0.028031949 0.0239411 8.3775452e-39
0.12782659 0.1088358 0.011763752 2.0074542e-38
0.12750848 0.11169544 0.011915207 2.1273455e-38
0.12697077 0.11559734 0.012823224 2.1551819e-38
0.12624654 0.11946051 0.013297915 2.1463586e-38
0.12491187 0.022314265 0.027795911 8.4658045e-39
0.12397324 0.02568252 0.026154578 1.077212e-38
0.1239549 0.029115617 0.025259078 1.1416039e-38
0.1228409 0.032081716 0.024625838 1.2150725e-38
0.12500156 0.10915904 0.011883497 1.8139544e-38
0.12409467 0.11184281 0.011678398 2.0443325e-38
0.12373289 0.11625491 0.013086021 2.0995775e-38
0.12372244 0.12009604 0.013352811 2.0812459e-38
0.12161785 0.026444934 0.027573168 1.2890079e-38
0.12109771 0.029821627 0.026893318 1.3438231e-38
0.12032209 0.033334095 0.024876833 1.3898478e-38
0.11904779 0.037080452 0.023424208 1.3991749e-38
0.1212201 0.11290516 0.011545062 2.0536597e-38
0.12007746 0.11649671 0.011984289 2.0538397e-38
0.11977984 0.12050587 0.012892842 2.0629515e-38
0.1165435 0.033963881 0.026237488 1.5279278e-38
0.11653368 0.037088621 0.024360776 1.4726107e-38
0.11542509 0.040361557 0.022808611 1.4449516e-38
0.11582088 0.11725874 0.011790454 2.0629522e-38
0.11615951 0.12064554 0.012820363 2.0539472e-38
0.11551429 0.12325421 0.01336658 2.0080299e-38
0.11254887 0.034185864 0.02694869 1.6752246e-38
0.11212692 0.037105657 0.025352538 1.6475655e-38
0.11149625 0.040845264 0.023420215 1.6660413e-38
0.11149023 0.043331377 0.02259618 1.6756557e-38
0.11178484 0.11754453 0.011746883 1.9524963e-38
0.11175529 0.12064129 0.012886465 1.8695559e-38
0.11151849 0.12410435 0.013476849 1.5746018e-38
0.10897516 0.034617878 0.027096629 1.8043332e-38
0.10786418 0.037276942 0.026509285 1.7858944e-38
0.10771781 0.040863611 0.02431798 1.7858595e-38
0.10898031 0.043342438 0.022744119 1.7766434e-38
0.10864845 0.11793315 0.011537611 1.7868656e-38
0.10735794 0.12060268 0.01267606 1.4457788e-38
0.1073263 0.12445411 0.01299876 1.0865769e-38
0.10730334 0.12703681 0.01328671 1.0036013e-38
0.10391586 0.038386565 0.026830912 1.8318141e-38
0.10393713 0.040880699 0.024991035 1.8318491e-38
0.1037893 0.12083131 0.011680424 8.9292924e-39
0.10357095 0.12434274 0.012226284 8.2832294e-39
0.10352136 0.12705347 0.013509631 1.0496259e-38
0.10016277 0.040897112 0.02521348 1.8318836e-38
0.09984719 0.1217014 0.011494994 8.101694e-39
0.10041071 0.12381846 0.013168871 9.8544689e-39
0.096535593 0.041069236 0.025727332 1.8320978e-38
0.095592313 0.043815807 0.023470759 1.7861082e-38
0.097342812 0.12046927 0.011829734 8.6555656e-39
0.092815123 0.041681603 0.026793897 1.804548e-38
0.091941297 0.044525906 0.024144411 1.7492672e-38
0.090761378 0.048395339 0.023069501 1.6939147e-38
0.090120062 0.051506042 0.022639573 1.6476728e-38
0.087814197 0.045110453 0.025990725 1.6848386e-38
0.087574691 0.048837386 0.024205923 1.6570731e-38
0.087608323 0.051931508 0.022725224 1.6294137e-38
0.087024003 0.11274502 0.013607264 1.2062118e-38
0.086703368 0.11430037 0.01339227 1.2058133e-38
0.084467277 0.046214852 0.026811898 1.6753675e-38
0.083735734 0.049702358 0.025542736 1.6292704e-38
0.083640784 0.053258542 0.023521662 1.5742026e-38
0.082568228 0.056511924 0.022336245 1.5556572e-38
0.083713271 0.11202431 0.014292896 1.7685711e-38
0.083512798 0.11442748 0.014576316 2.0439997e-38
0.081168465 0.050974846 0.026292086 1.6015391e-38
0.080272257 0.05364833 0.02565372 1.5648038e-38
0.07995069 0.057191756 0.024190843 1.5555853e-38
0.079845496 0.060738657 0.022495508 1.5463317e-38
0.079844669 0.064249247 0.021334112 1.491157e-38
0.080645129 0.11266953 0.013998866 1.9434608e-38
0.08002045 0.1163656 0.013885021 2.3035182e-38
0.076098047 0.057241209 0.025651217 1.546508e-38
0.076123789 0.060965721 0.024413764 1.5281425e-38
0.076207109 0.06464915 0.022278547 1.4452032e-38
0.076076709 0.068200268 0.021090567 1.3716267e-38
0.076108173 0.098186046 0.016449034 1.0309304e-38
0.075469628 0.10067518 0.016112566 1.1503919e-38
0.0757557 0.12059361 0.014617085 2.2952741e-38
0.073152818 0.058086716 0.025699496 1.5372534e-38
0.072464816 0.061155483 0.025151908 1.5006636e-38
0.072344095 0.064716235 0.023849547 1.4267638e-38
0.071658522 0.068268575 0.021493196 1.2703534e-38
0.071205303 0.07192383 0.020693898 1.040046e-38
0.070308886 0.085365668 0.018724263 9.2093994e-39
0.07071799 0.087435789 0.018388271 8.748452e-39
0.071046725 0.091449201 0.018777668 5.8889778e-39
0.072886735 0.10140139 0.017170131 9.5699731e-39
0.071408167 0.10461384 0.015906453 1.2054233e-38
0.069794685 0.10691594 0.015511453 1.2701383e-38
0.073053889 0.12144651 0.013468027 2.276837e-38
0.072090752 0.12373494 0.014869332 2.2769808e-38
0.069772542 0.062264286 0.025272131 1.4727906e-38
0.068689823 0.065117814 0.024762571 1.2886496e-38
0.067968905 0.068450294 0.022929132 1.0951463e-38
0.067522638 0.072888412 0.021274745 9.0157539e-39
0.06722182 0.076964229 0.020679235 9.1990522e-39
0.067307323 0.080896042 0.020791471 1.0773188e-38
0.06864205 0.083922669 0.019040763 1.0220728e-38
0.068768226 0.10486835 0.017147005 1.205137e-38
0.068634644 0.12520072 0.013841629 2.3141465e-38
0.067458019 0.12749673 0.014579237 2.341769e-38
0.065346353 0.065405801 0.025063217 1.0768173e-38
0.064857945 0.069073275 0.02398777 1.0581273e-38
0.064090297 0.073503137 0.023412824 1.2609907e-38
0.064073637 0.077246793 0.022850394 1.316521e-38
0.064689614 0.080363736 0.02234453 1.2430885e-38
0.065165773 0.10599275 0.018965364 1.223825e-38
0.063421324 0.10830085 0.01680851 1.2698516e-38
0.062248372 0.11067866 0.015394926 1.3528285e-38
0.06462203 0.12940593 0.01311028 2.3417684e-38
0.063325576 0.13194694 0.013142765 2.3325854e-38
0.059736177 0.10878092 0.01800102 1.2975458e-38
0.059400551 0.11102884 0.01576519 1.2972959e-38
0.056324493 0.10977812 0.018922567 1.3251313e-38
0.055704549 0.11191653 0.016738296 1.3339977e-38
0.057104111 0.13867228 0.011488318 2.3127412e-38
0.052770749 0.11308688 0.018298805 1.3617635e-38
0.13941956 0.055445645 0.01108861 1.0403315e-38
0.10448414 0.11458337 0.0084203482 1.8976111e-38
0.09063302 0.089921482 0.011129022 1.7403017e-38
0.093178533 0.10327291 0.0089465976 1.7034603e-38
0.088039234 0.094351575 0.010040462 1.5467259e-38
0.080570713 0.10987483 0.0090297461 1.6480688e-38
0.10777522 0.047031898 0.018208563 1.7304322e-38
0.067858972 0.10606652 0.016514421 1.2329027e-38
0.093623355 0.11721475 0.011195123 2.1465042e-38
0.068431273 0.077160269 0.017707407 8.4651025e-39
0.086662598 0.11499642 0.011434615 1.8975036e-38
0.089719921 0.10702442 0.010523915 1.7679247e-38
0.16497898 0.04521459 0.02452755 8.2885949e-39
0.16577417 0.050636064 0.023326457 7.8308524e-39
0.16576859 0.05188866 0.023138344 7.7336429e-39
0.16524866 0.07401973 0.019838512 1.3540142e-38
0.16429594 0.076839954 0.020357132 1.5107424e-38
0.15964159 0.035620973 0.027977884 9.2134085e-39
0.16086937 0.037816022 0.0270679 8.8439295e-39
0.16202538 0.040632002 0.025055647 8.6591627e-39
0.16186097 0.077583596 0.019504011 1.7038834e-38
0.1604813 0.080618471 0.020015717 2.0173531e-38
0.15942919 0.083362803 0.02080524 2.2301626e-38
0.1545909 0.030617874 0.029031992 1.0133219e-38
0.15625226 0.033474389 0.02749002 9.3038133e-39
0.15824872 0.036890924 0.02584374 8.7502948e-39
0.15805086 0.081358105 0.019162953 2.2386968e-38
0.15667747 0.084886461 0.019853413 2.2766564e-38
0.15560204 0.088405013 0.020274401 2.341769e-38
0.15460175 0.093393795 0.019076705 2.3325854e-38
0.15430023 0.095948786 0.019216657 2.341769e-38
0.15166187 0.029563837 0.028641522 1.0592051e-38
0.15226343 0.032220151 0.02690345 9.7626516e-39
0.15293452 0.094532654 0.017485142 2.341769e-38
0.15208712 0.097473815 0.017261803 2.341769e-38
0.15167607 0.10086301 0.017282605 2.341769e-38
0.15106662 0.10470842 0.017584383 2.341769e-38
0.15044513 0.10727282 0.017742097 2.341769e-38
0.14760317 0.026266027 0.029343605 1.2064666e-38
0.14861263 0.028991967 0.028113365 1.1053004e-38
0.14911048 0.10143865 0.016673625 2.3234019e-38
0.14784712 0.10460871 0.01660943 2.323366e-38
0.14747514 0.10810651 0.017624795 2.341769e-38
0.14324361 0.015591789 0.031969786 1.2249034e-38
0.14352049 0.018440381 0.030764759 1.2528862e-38
0.14505811 0.02190407 0.029392064 1.2066483e-38
0.14565706 0.025046963 0.028376818 1.1514366e-38
0.14530039 0.10521315 0.016332626 2.286272e-38
0.14419912 0.10855852 0.01640135 2.2954558e-38
0.14341576 0.11096542 0.016592205 2.258398e-38
0.14007415 0.011857443 0.032214165 9.2080695e-39
0.14067701 0.014388364 0.031178176 9.1194556e-39
0.14158835 0.017854139 0.029955089 1.0227185e-38
0.13998342 0.11259021 0.016349554 2.2479194e-38
0.13899164 0.11611766 0.01709348 2.2384829e-38
0.13688694 0.011070319 0.031678379 8.6573901e-39
0.1368625 0.012351245 0.030811846 8.4712065e-39
0.13641928 0.11341889 0.015852034 2.1922059e-38
0.13602006 0.11692999 0.016810656 2.201568e-38
0.13244432 0.010700606 0.031323493 6.6323344e-39
0.13180512 0.012269139 0.031125486 6.7227154e-39
0.13345881 0.11424209 0.015679538 2.1922398e-38
0.13200392 0.11736646 0.016984284 2.1831284e-38
0.13009703 0.11992586 0.017050445 2.2381225e-38
0.12803651 0.011282772 0.033018053 5.8904113e-39
0.12800923 0.014043398 0.03153497 5.7067544e-39
0.12672637 0.016988646 0.030717909 6.9027822e-39
0.12831475 0.11753212 0.016301274 2.192276e-38
0.1275443 0.12108874 0.016159296 2.2290111e-38
0.12548792 0.015670013 0.033016264 7.1779258e-39
0.12435684 0.018376011 0.031663358 7.914409e-39
0.12373185 0.12225933 0.015390277 2.1182325e-38
0.12373893 0.12372288 0.016857982 2.1458565e-38
0.12101324 0.023239989 0.031637073 1.2061761e-38
0.1201556 0.025764901 0.030801713 1.3441461e-38
0.11940171 0.029225506 0.02981925 1.4455225e-38
0.11907274 0.032053225 0.028906703 1.4640686e-38
0.1212004 0.12222904 0.015208006 2.0261114e-38
0.11976954 0.12472875 0.016056776 2.0540199e-38
0.11783084 0.026382633 0.031860292 1.4268716e-38
0.11670811 0.029696032 0.030668676 1.5466165e-38
0.11654276 0.032060623 0.02939415 1.5556216e-38
0.11630908 0.12518762 0.015633106 1.9985588e-38
0.11534946 0.12848079 0.016236603 1.6944602e-38
0.11274712 0.03081537 0.030483127 1.6568217e-38
0.11242626 0.032387208 0.030012369 1.675332e-38
0.11233246 0.12602583 0.01516521 1.5008798e-38
0.11231282 0.12865099 0.015671611 1.2522055e-38
0.11229103 0.13131136 0.016398191 1.1785546e-38
0.10956756 0.030816223 0.031685531 1.7125707e-38
0.1084684 0.033189137 0.030000985 1.795258e-38
0.10641141 0.035866722 0.029087424 1.8227722e-38
0.10836275 0.12891246 0.015347123 1.0588108e-38
0.10848624 0.13132812 0.016622365 1.1786625e-38
0.1042818 0.034403808 0.030785203 1.8872026e-38
0.10413205 0.036628313 0.029108644 1.8412129e-38
0.10385512 0.12939714 0.016682565 1.21554e-38
0.10594971 0.1313393 0.016771913 1.2617843e-38
0.10004501 0.035257243 0.03124696 1.8872742e-38
0.10007578 0.037772872 0.029347062 1.8503227e-38
0.099353559 0.12524013 0.016816676 1.068421e-38
0.10027263 0.12752935 0.017177165 1.1879162e-38
0.097496703 0.035894759 0.031640589 1.9058917e-38
0.096532241 0.038164131 0.029533088 1.8595765e-38
0.097111002 0.12258385 0.018616438 8.8406757e-39
0.097105414 0.12384023 0.01842767 9.3931292e-39
0.092435606 0.039057877 0.030790806 1.7951871e-38
0.091215596 0.040943958 0.029228985 1.7859308e-38
0.09205471 0.11883712 0.019481719 7.0889587e-39
0.089870356 0.039697368 0.03152281 1.7673494e-38
0.088469304 0.041852385 0.029979467 1.7215373e-38
0.08525686 0.042644095 0.030341268 1.6662563e-38
0.083612122 0.044735178 0.029111564 1.6666144e-38
0.081185043 0.04616281 0.029927611 1.6199788e-38
0.079779476 0.049766392 0.028872192 1.5922121e-38
0.078518048 0.052899335 0.028186381 1.5923169e-38
0.08076553 0.11614431 0.018533707 2.2570262e-38
0.078186698 0.12060092 0.018523276 2.2847884e-38
0.078422442 0.047285829 0.03106302 1.5830651e-38
0.076952375 0.049799647 0.030434549 1.5739546e-38
0.075942732 0.053550374 0.028917193 1.5648041e-38
0.076818794 0.12267326 0.019812405 2.3308903e-38
0.074763492 0.1242312 0.018687367 2.2771233e-38
0.072571851 0.054091327 0.030184805 1.5097032e-38
0.071732998 0.056903876 0.028325796 1.5279981e-38
0.070900634 0.059822038 0.0275985 1.5005209e-38
0.070711151 0.10241032 0.021200001 9.9358843e-39
0.071837805 0.12564248 0.018142879 2.2864156e-38
0.070527405 0.12759446 0.01843363 2.3142178e-38
0.068275139 0.05799222 0.029423237 1.4728991e-38
0.068344265 0.061094761 0.027848721 1.4637145e-38
0.067722782 0.063593745 0.027220249 1.3254935e-38
0.067375407 0.085752107 0.025526881 1.021855e-38
0.067499943 0.10497861 0.021511376 1.186554e-38
0.06796246 0.12890606 0.018726826 2.332585e-38
0.065263003 0.059488431 0.030010819 1.4178322e-38
0.064501539 0.061756104 0.028532982 1.3625495e-38
0.064052492 0.064361461 0.027323425 1.1688679e-38
0.063269302 0.069876239 0.02654016 1.177731e-38
0.064102188 0.082133204 0.025405526 1.1510016e-38
0.064363152 0.083737649 0.025739372 9.4856738e-39
0.063107677 0.10620153 0.02108258 1.2421575e-38
0.064680308 0.13166358 0.01715678 2.323221e-38
0.061473574 0.062425271 0.029456973 1.2428395e-38
0.061133999 0.066015884 0.028388023 1.2149287e-38
0.060642518 0.069938071 0.027812898 1.3624039e-38
0.060805216 0.073532283 0.027023077 1.4084276e-38
0.06125199 0.077457085 0.026532412 1.2798214e-38
0.061192609 0.081251815 0.026471376 1.040331e-38
0.061772913 0.083793029 0.026560843 6.3399073e-39
0.060461011 0.10634634 0.022569239 1.2696375e-38
0.059308723 0.10747084 0.021118045 1.2881474e-38
0.056599244 0.10642993 0.023462236 1.2973309e-38
0.05611252 0.1083539 0.021513343 1.306619e-38
0.053147867 0.1092196 0.022741497 1.3617579e-38
0.048956126 0.11400163 0.022778153 1.2046669e-38
0.038909227 0.1364176 0.018314838 1.4362362e-38
0.039319828 0.14002636 0.018422604 1.4732571e-38
0.036502525 0.13384384 0.020534039 1.1597216e-38
0.036240958 0.13659137 0.019573271 1.2795402e-38
0.036437467 0.13965634 0.019460499 1.3902452e-38
0.033636346 0.13668323 0.02027756 1.1599362e-38
0.033625171 0.13919596 0.019900024 1.2799306e-38
0.1348267 0.065334931 0.011351228 1.4454914e-38
0.10818124 0.074987948 0.0083771348 1.0953636e-38
0.096252941 0.089533508 0.0065782666 1.4268367e-38
0.10645177 0.08173269 0.0070922375 1.5742415e-38
0.12536749 0.079158172 0.0082698464 1.6204475e-38
0.11159347 0.069778822 0.010145485 1.2887947e-38
0.10531373 0.070168361 0.0095096827 1.1320262e-38
0.12358031 0.10754724 0.010058045 1.7493441e-38
0.095414832 0.10053009 0.010634601 1.8516203e-38
0.094825879 0.071316123 0.014074564 1.7126416e-38
0.085788511 0.089648843 0.0098295212 1.7779355e-38
0.10339329 0.07156758 0.010724843 1.2796446e-38
0.099680789 0.05057238 0.017145157 1.6753672e-38
0.123399 0.074095279 0.012834609 1.2153973e-38
0.067307323 0.080896042 0.020791471 1.0773188e-38
0.072511271 0.091827855 0.015594482 6.165206e-39
0.090983719 0.096465677 0.013955891 1.934488e-38
0.075100794 0.095399313 0.018321395 1.4181572e-38
0.091825604 0.040000916 0.030009925 1.7859671e-38
0.15990415 0.031805713 0.032588482 1.0410175e-38
0.16084954 0.03458881 0.031100333 9.4896226e-39
0.16236538 0.037485089 0.030574024 9.1208597e-39
0.161695 0.083086669 0.023075402 2.1002251e-38
0.1605742 0.089272261 0.023393154 2.3140021e-38
0.15606898 0.027408127 0.032972455 1.1142706e-38
0.15712956 0.030096795 0.031744838 1.0501647e-38
0.15850359 0.033094529 0.030451953 1.0134993e-38
0.15784036 0.086861983 0.022399247 2.3140018e-38
0.15704441 0.09007296 0.023121119 2.3325854e-38
0.15718722 0.093676582 0.022552192 2.341769e-38
0.15584949 0.10095359 0.021297514 2.341769e-38
0.15447734 0.10450234 0.021970749 2.341769e-38
0.15238351 0.026449382 0.03239584 1.0500581e-38
0.15343215 0.029336561 0.031319916 1.0314745e-38
0.1531129 0.10497762 0.020292222 2.341769e-38
0.15145557 0.10909805 0.020952702 2.341769e-38
0.14721857 0.015431244 0.03580904 1.1699444e-38
0.14720358 0.018801641 0.035302639 1.1881674e-38
0.14801198 0.023443878 0.034049273 1.2066815e-38
0.14843006 0.11047882 0.019912183 2.341769e-38
0.14719503 0.11313446 0.020767927 2.341769e-38
0.14340784 0.011656404 0.036604285 1.2341963e-38
0.14461792 0.014232874 0.034697354 1.2157928e-38
0.1453425 0.017779231 0.033541501 1.2248338e-38
0.14583619 0.021179326 0.03300029 1.2250496e-38
0.14543532 0.11127868 0.019463718 2.3415894e-38
0.14420304 0.11395359 0.020485342 2.2862362e-38
0.14052668 0.010109976 0.036502302 1.0503091e-38
0.14163938 0.11455779 0.020209491 2.2488176e-38
0.14013968 0.11771969 0.019823074 2.2577511e-38
0.13909662 0.12036851 0.020499527 2.266828e-38
0.13830999 0.010414995 0.037094951 9.3006113e-39
0.13734713 0.11845492 0.018865764 2.256742e-38
0.13636146 0.12139532 0.019748211 2.2392752e-38
0.13524933 0.12480903 0.020060539 2.2676175e-38
0.13267466 0.12144341 0.018919647 2.2479169e-38
0.13268778 0.12475689 0.019714475 2.2580381e-38
0.12777518 0.0095577352 0.036838889 6.165936e-39
0.12969792 0.12226894 0.018747628 2.229155e-38
0.1279598 0.1250807 0.0193398 2.2573907e-38
0.12301081 0.0079546645 0.038377047 8.7438446e-39
0.12426873 0.010509726 0.0371297 7.1775783e-39
0.12408625 0.014172472 0.035731018 7.3622988e-39
0.12295863 0.016869739 0.035012424 8.1920819e-39
0.1237473 0.12588714 0.018726587 2.1923511e-38
0.1229 0.1284444 0.020249367 2.2470244e-38
0.11920007 0.0041798279 0.039172351 8.565179e-39
0.12028071 0.0070709065 0.038528085 8.2860992e-39
0.12044732 0.010498296 0.038034499 7.3633946e-39
0.12094152 0.014037881 0.037382305 8.0077047e-39
0.12104695 0.018722218 0.036367059 9.7558315e-39
0.12039439 0.021889854 0.035625339 1.1597216e-38
0.11910879 0.024447333 0.034101367 1.3259593e-38
0.12119879 0.12650675 0.018616378 2.1276308e-38
0.11973778 0.12884535 0.019653976 2.1647986e-38
0.11701925 0.003128957 0.03902638 7.366626e-39
0.11727603 0.0067326799 0.038565099 7.6407102e-39
0.11726377 0.0092438385 0.038525522 7.2708697e-39
0.11592452 0.024438795 0.0353055 1.3623728e-38
0.11613139 0.026347186 0.034161806 1.4084337e-38
0.11705002 0.129462 0.019178689 1.9806237e-38
0.11565679 0.13255045 0.019050121 1.6390712e-38
0.11478482 0.13627404 0.019554615 1.556489e-38
0.11400662 0.024424672 0.036434948 1.4081475e-38
0.11288423 0.027128749 0.035335064 1.4728269e-38
0.11272603 0.029515885 0.033719003 1.6567494e-38
0.11226061 0.13352381 0.01843071 1.2520998e-38
0.11224268 0.13614111 0.018713117 1.5749285e-38
0.11016214 0.02823323 0.036090791 1.573989e-38
0.1085671 0.029827625 0.035439551 1.6940589e-38
0.10844729 0.13349351 0.018324912 1.3719536e-38
0.10842077 0.13615794 0.018938363 1.7320525e-38
0.10557507 0.03129838 0.034889936 1.8044065e-38
0.10380475 0.033335511 0.03367579 1.8964233e-38
0.10337304 0.1303656 0.019098043 1.3076271e-38
0.10446583 0.13309126 0.019002497 1.3536923e-38
0.10484162 0.13613419 0.019763172 1.5845031e-38
0.10154059 0.031749673 0.035822153 1.8228844e-38
0.10060364 0.033342574 0.034625292 1.8597621e-38
0.098301597 0.12660761 0.019965827 1.0501221e-38
0.099358715 0.12957956 0.020179152 1.0591309e-38
0.10095882 0.13275497 0.020474255 1.187776e-38
0.10202894 0.1356983 0.020401537 1.5198937e-38
0.098662451 0.032075521 0.03619802 1.7676392e-38
0.09613283 0.034621093 0.034952581 1.8503626e-38
0.094880655 0.037785187 0.033538043 1.8412105e-38
0.095120192 0.12290348 0.021219432 8.0130772e-39
0.095572203 0.12562962 0.021162093 7.5492348e-39
0.095841944 0.12923172 0.021616876 6.6255031e-39
0.097259894 0.13224366 0.021205723 7.7304227e-39
0.092305593 0.03590076 0.034988105 1.7586678e-38
0.092339329 0.037166338 0.033782601 1.7770353e-38
0.090619221 0.11931822 0.023546875 6.2581289e-39
0.09214776 0.12156196 0.022915542 6.3506916e-39
0.09314847 0.12436256 0.02263689 6.3517861e-39
0.088453643 0.035913985 0.035891056 1.6939888e-38
0.088330589 0.038284495 0.034486413 1.7122124e-38
0.088075921 0.11743361 0.023982048 7.450533e-39
0.085886881 0.035923418 0.036380291 1.6478194e-38
0.084830403 0.038817704 0.034994602 1.6662221e-38
0.083822638 0.041404858 0.033990026 1.6478566e-38
0.082980879 0.11556023 0.024567723 2.0444989e-38
0.084251121 0.11681852 0.024302602 1.3895861e-38
0.082042404 0.039731976 0.036036193 1.6293442e-38
0.080984004 0.042416688 0.034428954 1.5925016e-38
0.079585031 0.044783164 0.033396423 1.5923567e-38
0.081754491 0.1167146 0.02345407 2.182218e-38
0.078200758 0.04290859 0.035787106 1.5648067e-38
0.076992549 0.046271011 0.034002364 1.5554797e-38
0.075752012 0.048580375 0.033053339 1.5556265e-38
0.077965356 0.12291689 0.021733403 2.256697e-38
0.076397166 0.1255938 0.022605896 2.3034826e-38
0.075269438 0.12823296 0.023119986 2.2839691e-38
0.073567681 0.047762506 0.034319639 1.5188911e-38
0.070428282 0.10152829 0.025401711 9.0167559e-39
0.073496312 0.1267169 0.02142787 2.2675802e-38
0.072570816 0.12907225 0.022575676 2.2671482e-38
0.066673756 0.087683663 0.027709186 8.188468e-39
0.067914799 0.089860186 0.027597129 5.8897177e-39
0.068579137 0.10256366 0.027382076 1.0486506e-38
0.067122057 0.1042072 0.0267151 1.1590027e-38
0.069240153 0.13009293 0.021781147 2.3048905e-38
0.067634478 0.13230541 0.022455633 2.2768003e-38
0.065411352 0.055806134 0.034270585 1.454568e-38
0.063973129 0.05847165 0.032671869 1.4085772e-38
0.064107634 0.086458519 0.028384149 5.1553869e-39
0.064399391 0.089305557 0.028107107 4.3263437e-39
0.064537004 0.10300277 0.027556956 1.1683983e-38
0.064013109 0.10475487 0.025804996 1.196059e-38
0.065092042 0.133661 0.022234321 2.2676526e-38
0.060571559 0.059525281 0.033729136 1.3164867e-38
0.059645645 0.062266886 0.03215605 1.2886844e-38
0.05913946 0.065665007 0.031472147 1.3069439e-38
0.059097417 0.075115979 0.030052245 1.3254511e-38
0.059086211 0.077636242 0.029673636 1.1227657e-38
0.059301492 0.082436889 0.02914089 6.8066293e-39
0.060761072 0.086000949 0.029125214 3.5870228e-39
0.061494537 0.089040071 0.028826714 5.2436252e-39
0.060071476 0.10302244 0.02782011 1.2328649e-38
0.060194064 0.10477169 0.026030064 1.2512693e-38
0.057099 0.059424356 0.034305751 1.3069035e-38
0.056880038 0.062558338 0.033087373 1.3160196e-38
0.057182163 0.066323459 0.03199625 1.3437494e-38
0.057149872 0.070114598 0.031596422 1.2611337e-38
0.057117887 0.073907629 0.031196356 1.0218574e-38
0.057055246 0.077720255 0.031132698 7.9104377e-39
0.057171747 0.081838861 0.030023456 6.7155197e-39
0.05751973 0.10303368 0.027970552 1.2789996e-38
0.056564108 0.10498209 0.026923835 1.2973326e-38
0.053085759 0.10679491 0.027162194 1.3433204e-38
0.051877446 0.10861692 0.026200235 1.3709063e-38
0.048791133 0.11073376 0.026572108 1.3709424e-38
0.04776784 0.11394148 0.025137246 1.2051715e-38
0.048417136 0.14162192 0.022705317 2.0265402e-38
0.045359612 0.11193436 0.027355671 1.2695316e-38
0.044923872 0.11456597 0.026479065 1.2606686e-38
0.04460451 0.14245586 0.022638202 1.7308689e-38
0.042153075 0.11574012 0.026974022 1.3622621e-38
0.040613875 0.14253259 0.021513879 1.399464e-38
0.039895415 0.14524044 0.0226686 1.427555e-38
0.035821751 0.12326835 0.025543034 1.205531e-38
0.035152614 0.12581789 0.025368035 1.1131212e-38
0.035281591 0.12944944 0.02363193 1.0949333e-38
0.035309099 0.13255562 0.022825062 1.0585581e-38
0.035684124 0.14240894 0.021609247 1.3811685e-38
0.036282323 0.14483507 0.022944987 1.3443996e-38
0.033171386 0.12715454 0.025791407 1.085529e-38
0.032101348 0.13000962 0.025136054 1.0671282e-38
0.032053843 0.13327663 0.023473322 1.0307161e-38
0.031473272 0.1369829 0.022387445 1.1322761e-38
0.031890564 0.14166121 0.022303045 1.2245419e-38
0.032454744 0.14485192 0.02317059 1.2793943e-38
0.028857455 0.13368955 0.024659753 9.7558077e-39
0.028464638 0.13702309 0.024007797 1.0494803e-38
0.02868662 0.14092675 0.022973001 1.1048339e-38
0.14430192 0.059193261 0.010275781 9.5743073e-39
0.11978029 0.08205384 0.007776022 1.546727e-38
0.050997756 0.12273747 0.0010812879 1.6286238e-38
0.047249794 0.13009737 0.00042200089 1.564986e-38
0.046069548 0.13007498 0.0012837052 1.7309388e-38
0.043071136 0.12470151 0.0020409822 1.3988888e-38
0.042422116 0.12973575 0.0012989044 1.4086857e-38
0.11714564 0.079182282 0.0078399181 1.2888672e-38
0.12714387 0.074221745 0.008972466 1.3534406e-38
0.12724327 0.10695511 0.010055542 1.8508658e-38
0.099807113 0.075933971 0.013250172 1.4453832e-38
0.095917337 0.096787877 0.0093288422 1.6208798e-38
0.092875749 0.10732894 0.0069824457 1.5835344e-38
0.11968622 0.072283253 0.013085365 1.2245454e-38
0.12181292 0.082956731 0.010912001 9.6668533e-39
0.069772542 0.062264286 0.025272131 1.4727906e-38
0.10154238 0.048378624 0.021517754 8.9271372e-39
0.085857138 0.10320909 0.014062822 1.740015e-38
0.11907274 0.032053225 0.028906703 1.4640686e-38
0.088469304 0.041852385 0.029979467 1.7215373e-38
0.16123763 0.090519682 0.024685323 2.3234015e-38
0.16103862 0.093901962 0.025313616 2.341769e-38
0.1609488 0.09766718 0.026159286 2.341769e-38
0.1602501 0.10080877 0.025897086 2.341769e-38
0.15606827 0.023645014 0.037894905 1.0131089e-38
0.15842877 0.09002576 0.02492708 2.341769e-38
0.15839781 0.09698756 0.023881137 2.341769e-38
0.1579878 0.10232615 0.023777485 2.341769e-38
0.15591806 0.10499993 0.024849117 2.341769e-38
0.15186112 0.019717675 0.038939297 9.1176451e-39
0.15241183 0.022930771 0.036847115 9.5797219e-39
0.15267774 0.11048783 0.023962855 2.341769e-38
0.15106072 0.11398521 0.023532867 2.341769e-38
0.15078662 0.1169851 0.024364054 2.341769e-38
0.14792643 0.0079199597 0.040746808 1.1147367e-38
0.14802617 0.011491138 0.039899409 1.1607614e-38
0.14831991 0.01499233 0.039101779 1.1515417e-38
0.14895351 0.01896048 0.03763473 1.1053013e-38
0.14939156 0.022119049 0.036361337 1.1421462e-38
0.14855412 0.11461529 0.022490084 2.341769e-38
0.1477738 0.11780767 0.024082184 2.341769e-38
0.14487271 0.0038558803 0.0417431 1.2252672e-38
0.14499241 0.007539589 0.040548444 1.1514008e-38
0.14476721 0.010511555 0.038721681 1.2157221e-38
0.1459946 0.012869373 0.037280619 1.2525977e-38
0.14429212 0.11806573 0.022675037 2.3232941e-38
0.14408609 0.12131327 0.02390933 2.3417689e-38
0.1410336 0.0013299808 0.04235208 1.1327131e-38
0.14101125 0.0038898252 0.041630447 1.1237799e-38
0.14094196 0.0071467571 0.03945601 1.1238136e-38
0.14174852 0.0099346302 0.03797543 1.0778587e-38
0.14169104 0.11857903 0.021627247 2.2954201e-38
0.14058769 0.12201484 0.022062361 2.3140384e-38
0.14002763 0.12540305 0.022894144 2.3325494e-38
0.13846666 0.0013412796 0.042503297 1.1052677e-38
0.13753358 0.0040770844 0.042002618 1.0226511e-38
0.1371157 0.0071397871 0.04019171 9.9466841e-39
0.13706712 0.0091114119 0.038378358 9.3006001e-39
0.13783802 0.12302615 0.021187544 2.2495378e-38
0.13693714 0.12585333 0.021683931 2.3141102e-38
0.13661748 0.12849018 0.023476958 2.3417689e-38
0.13415289 0.0077323616 0.041460872 7.3655877e-39
0.13451158 0.0091226809 0.03852886 7.9237655e-39
0.13271005 0.12684603 0.020918369 2.2771246e-38
0.13276707 0.12850717 0.023703992 2.304855e-38
0.1281565 0.0077908002 0.041134119 6.9024291e-39
0.12951562 0.12686008 0.021106601 2.2581471e-38
0.12873371 0.12947114 0.02253294 2.2679403e-38
0.12760295 0.1322066 0.022441924 2.3231144e-38
0.12407573 0.004720483 0.042649806 9.1194304e-39
0.12522151 0.0071255937 0.040396154 8.4697562e-39
0.12489524 0.12978366 0.021617174 2.2580374e-38
0.12389874 0.13325723 0.022842288 2.2767646e-38
0.12310706 0.13617815 0.023125112 2.3417686e-38
0.12048615 0.0033939593 0.041999698 8.7506647e-39
0.12111188 0.0053844452 0.03989011 9.0276355e-39
0.11978999 0.015305366 0.038475871 8.652358e-39
0.11913328 0.019316487 0.037911296 1.0864658e-38
0.12055434 0.13069685 0.021063209 2.2761529e-38
0.11990663 0.13338736 0.021822393 2.2673648e-38
0.1197321 0.13721555 0.022537053 2.1839206e-38
0.11923683 0.14064513 0.022683442 2.2017483e-38
0.115333 0.0084359348 0.042814314 7.1815397e-39
0.11644601 0.011513464 0.040765345 7.1819139e-39
0.11671554 0.015190896 0.041107416 8.7452739e-39
0.11657004 0.019257311 0.040436625 1.1784826e-38
0.11655821 0.022458352 0.038942575 1.3071983e-38
0.11691897 0.13408822 0.020769477 1.9247686e-38
0.11641599 0.13735008 0.021176696 1.8326428e-38
0.11403994 0.011648387 0.04173255 6.4454362e-39
0.11270121 0.023284711 0.040567577 1.4268361e-38
0.11143849 0.025679167 0.037412226 1.4633921e-38
0.11221504 0.13832814 0.020411789 1.9164435e-38
0.11155609 0.13982002 0.02174592 1.9808357e-38
0.11012839 0.024351459 0.040729225 1.5095601e-38
0.10869574 0.026768692 0.038931251 1.5187092e-38
0.10838173 0.13834502 0.020637691 1.8884956e-38
0.1083761 0.1396108 0.020447552 1.7775034e-38
0.10517305 0.027286883 0.040148616 1.6202319e-38
0.1043698 0.030125428 0.038177371 1.7123206e-38
0.10419886 0.13826741 0.022418082 1.6671906e-38
0.10578231 0.13991988 0.022581518 1.6393801e-38
0.10091043 0.030011088 0.038603365 1.7029938e-38
0.10009312 0.13458426 0.02169764 1.0772509e-38
0.10051571 0.13750902 0.022878289 1.2802959e-38
0.1010635 0.14046368 0.023456216 1.5380477e-38
0.09856014 0.028216653 0.04083693 1.7125332e-38
0.097153202 0.030625299 0.039038777 1.7124638e-38
0.096618712 0.1342063 0.022772014 7.5445923e-39
0.097062841 0.13674419 0.024186909 9.3906587e-39
0.093682811 0.031548303 0.040220916 1.7123913e-38
0.092848621 0.03398224 0.037945926 1.7401215e-38
0.090988316 0.12281065 0.024012387 5.5209212e-39
0.092305049 0.12611465 0.024246991 5.7075013e-39
0.092682041 0.12986873 0.023862183 6.3478526e-39
0.09377975 0.13331734 0.023885369 7.4541665e-39
0.090200581 0.032067701 0.04075557 1.6846976e-38
0.088937387 0.033986013 0.039866745 1.6847695e-38
0.087676212 0.1191802 0.026782095 5.705304e-39
0.088671178 0.12201662 0.026701093 4.7865791e-39
0.090125173 0.12577075 0.026150703 5.3394124e-39
0.090409562 0.12932947 0.026104689 6.7177057e-39
0.084407978 0.035907444 0.040522873 1.6294516e-38
0.083863072 0.037188735 0.038336515 1.6385991e-38
0.084082901 0.11881325 0.027196169 9.6535045e-39
0.083171435 0.12152101 0.027711332 7.9957936e-39
0.081835367 0.037190188 0.040483117 1.5925367e-38
0.080208793 0.039317563 0.038571537 1.5742055e-38
0.080619082 0.11928321 0.026174188 1.9883931e-38
0.080256939 0.12220477 0.026318729 1.7304301e-38
0.079549313 0.12486427 0.026917458 2.0073458e-38
0.077214479 0.040007249 0.040131986 1.5372557e-38
0.075954773 0.043314289 0.039101481 1.5372187e-38
0.076854214 0.044817887 0.03659302 1.5463312e-38
0.077707864 0.12658544 0.025248647 2.2940098e-38
0.076379843 0.12983589 0.025417507 2.3119141e-38
0.074993737 0.1325759 0.026534855 2.265711e-38
0.073674642 0.044430785 0.039879858 1.5097033e-38
0.072522655 0.046444185 0.039138854 1.4913759e-38
0.071307354 0.095721327 0.032301426 5.3361656e-39
0.071960859 0.098231748 0.03154701 7.359094e-39
0.07199572 0.10071348 0.030496001 8.6473105e-39
0.073276825 0.13090512 0.023849666 2.2940134e-38
0.072308704 0.13335781 0.025564134 2.3025848e-38
0.068973638 0.048685096 0.039181948 1.482011e-38
0.068446398 0.050883308 0.037194252 1.5003399e-38
0.06858439 0.094439037 0.032367289 5.2407315e-39
0.068756148 0.098401092 0.031670213 6.9917324e-39
0.06850794 0.10100006 0.030154228 8.2802838e-39
0.069094643 0.13411185 0.025304615 2.285405e-38
0.067273088 0.13705984 0.026320219 2.2100266e-38
0.066382766 0.048700936 0.039671719 1.4726837e-38
0.065918922 0.051485352 0.038469791 1.4636421e-38
0.064992771 0.054253351 0.036690295 1.4452764e-38
0.064627312 0.09158051 0.032816172 5.1528729e-39
0.06491144 0.0938292 0.032798588 5.7038761e-39
0.064905226 0.098262824 0.031962752 7.6356725e-39
0.065077744 0.10122611 0.029142916 9.1997374e-39
0.065515287 0.13487789 0.024727285 2.2855167e-38
0.064654693 0.13734964 0.025039732 2.2941914e-38
0.062056109 0.055312082 0.038124204 1.4361647e-38
0.061975844 0.057580609 0.03707844 1.4820095e-38
0.059415646 0.087297574 0.031238973 6.0698294e-39
0.060763605 0.090345442 0.033485651 6.9931758e-39
0.060784861 0.099055633 0.032224119 9.109023e-39
0.060589246 0.10126095 0.029573858 1.1500328e-38
0.0622201 0.13757274 0.025531113 2.3324397e-38
0.058725603 0.058877647 0.03758347 1.334706e-38
0.055047646 0.063900322 0.035020709 1.3160583e-38
0.054973245 0.066459805 0.035315216 1.3070155e-38
0.05482816 0.07074371 0.036029816 1.1504977e-38
0.054813102 0.074129172 0.035521209 9.110116e-39
0.054935485 0.07848528 0.033338726 7.6299174e-39
0.055507258 0.082946829 0.033139646 8.1852688e-39
0.056250505 0.086618148 0.033266425 8.5572673e-39
0.058495224 0.090692148 0.033822 8.0051823e-39
0.057174992 0.098962106 0.032655954 1.0769953e-38
0.056050152 0.10197306 0.030388594 1.2697804e-38
0.054867417 0.10440533 0.028935194 1.3157037e-38
0.054774925 0.061466143 0.038442314 1.3344973e-38
0.053468809 0.066557534 0.03775394 1.2610621e-38
0.053875901 0.071217582 0.037028313 1.0857111e-38
0.054068141 0.076090455 0.036283433 8.0984527e-39
0.053412251 0.079271868 0.03584373 8.9274483e-39
0.053623423 0.083497956 0.035026193 1.0029529e-38
0.053403907 0.086565524 0.034493089 1.0487995e-38
0.054220766 0.089863367 0.034201443 1.0861431e-38
0.052972466 0.1019506 0.032167256 1.3341379e-38
0.052176155 0.10560136 0.030266285 1.3341017e-38
0.050754786 0.099626087 0.032938719 1.2701753e-38
0.050421193 0.10248822 0.032527804 1.3066958e-38
0.048663214 0.10676178 0.031736076 1.3342072e-38
0.048458867 0.10886371 0.028646171 1.3617216e-38
0.04804337 0.14290728 0.024053752 2.0542336e-38
0.046751186 0.14597192 0.025695443 1.7861827e-38
0.045584127 0.10791302 0.031999588 1.3066933e-38
0.044432789 0.11074466 0.030291319 1.3342456e-38
0.043328069 0.11331648 0.028281808 1.3249175e-38
0.045748435 0.14368397 0.02356708 1.8415731e-38
0.044227123 0.14655711 0.025363982 1.5928242e-38
0.042833328 0.14924589 0.025942743 1.5191407e-38
0.041129172 0.11232887 0.031093955 1.3434292e-38
0.041393176 0.11396672 0.030325294 1.3525743e-38
0.041012049 0.14671165 0.023731351 1.5561979e-38
0.040203348 0.15022773 0.025065362 1.5376504e-38
0.03537485 0.12245673 0.02940613 1.23283e-38
0.036789969 0.14688784 0.023618817 1.3812424e-38
0.03653194 0.150382 0.025134265 1.4178314e-38
0.035757244 0.15309128 0.025785685 1.4177267e-38
0.033979103 0.12004252 0.030865729 1.2882545e-38
0.032917239 0.12257552 0.028690636 1.2240035e-38
0.032284051 0.12576954 0.027065814 1.1317703e-38
0.031760551 0.12855652 0.026677549 1.0855639e-38
0.032956667 0.14690472 0.023844719 1.2888314e-38
0.032644905 0.15045355 0.02569288 1.3901003e-38
0.033832029 0.15309976 0.025899112 1.5006319e-38
0.029183321 0.12352893 0.030373573 1.1962739e-38
0.028993778 0.12624966 0.028877914 1.1594328e-38
0.028796524 0.12969218 0.026972651 1.1040087e-38
0.026947804 0.13332431 0.026246786 9.8469243e-39
0.026607238 0.1380724 0.025552452 1.0402975e-38
0.027097516 0.14275354 0.024818718 1.1232397e-38
0.029007286 0.14643115 0.025051773 1.2335517e-38
0.02876763 0.15014631 0.026211441 1.2608139e-38
0.0258184 0.12728313 0.030262411 1.1777328e-38
0.025178678 0.13034388 0.029333293 1.0861404e-38
0.024476923 0.13388334 0.027998269 1.0305346e-38
0.02437935 0.13749132 0.026062071 1.1134422e-38
0.024463862 0.14210799 0.026592255 1.2429855e-38
0.024967998 0.14667627 0.026718855 1.2885776e-38
0.025572598 0.14987662 0.026369989 1.1215843e-38
0.021950983 0.13111438 0.029916286 1.0123137e-38
0.021313444 0.1341728 0.028987408 1.1599334e-38
0.021012962 0.13779055 0.028207541 1.2609161e-38
0.021374926 0.14201823 0.027802885 9.9322942e-39
0.021989591 0.14647704 0.027601719 8.086225e-39
0.018509544 0.13536756 0.029481173 1.2064268e-38
0.01849822 0.13791044 0.029099226 1.1038624e-38
0.018486902 0.14045329 0.028717101 9.2843969e-39
0.12807636 0.05139064 0.012110472 1.2244724e-38
0.12631984 0.063533127 0.0089294314 1.1783027e-38
0.12477204 0.058034368 0.01095289 1.123058e-38
0.10864777 0.056097094 0.016994834 9.0203922e-39
0.10074519 0.080636099 0.012509525 1.4821544e-38
0.10655001 0.058658786 0.012479544 1.528072e-38
0.10025547 0.044605769 0.020710289 1.7764951e-38
0.11842639 0.080189764 0.011380434 1.2707157e-38
0.071431905 0.070096202 0.021093607 1.1506079e-38
0.076530635 0.10234495 0.013772011 1.2885414e-38
0.164033 0.042510074 0.026426017 8.843561e-39
0.11923087 0.036081556 0.025026083 1.0585211e-38
0.16012096 0.107272 0.030334711 2.341769e-38
0.16010958 0.1098337 0.029949784 2.341769e-38
0.15601581 0.012829199 0.044793487 8.1042233e-39
0.15700084 0.016366884 0.04359442 8.0123752e-39
0.15743509 0.019599788 0.041866481 9.1190843e-39
0.15748784 0.022414379 0.039548814 1.0037813e-38
0.15872124 0.10452433 0.028805614 2.341769e-38
0.15667051 0.11096579 0.029523849 2.341769e-38
0.15492055 0.11369905 0.029677331 2.341769e-38
0.15281373 0.0035686083 0.04615289 1.0778243e-38
0.15287589 0.0077117942 0.04453516 9.6711693e-39
0.15273821 0.01192423 0.044111907 8.8392716e-39
0.15252367 0.015497152 0.043297589 8.0105843e-39
0.15353043 0.11220956 0.027958333 2.341769e-38
0.15298322 0.11497666 0.027169228 2.341769e-38
0.15197554 0.11839414 0.027525365 2.341769e-38
0.14895713 0.001012668 0.0469926 1.326571e-38
0.14885819 0.0036787093 0.044571221 1.2252651e-38
0.14973931 0.0072587952 0.042460442 1.0686036e-38
0.15004995 0.01139373 0.041988432 1.0314752e-38
0.15000205 0.015240163 0.040737033 9.8527019e-39
0.14915659 0.11934805 0.02613163 2.341769e-38
0.14801213 0.12149253 0.026890099 2.341769e-38
0.14492285 0.001256343 0.043144405 1.3083498e-38
0.1447317 0.1232681 0.025552094 2.341769e-38
0.14422765 0.12565932 0.027501583 2.341769e-38
0.14107239 0 0.043562949 1.0868307e-38
0.14142041 0.12711985 0.026098371 2.341769e-38
0.13973445 0.1294309 0.027201712 2.341769e-38
0.13722619 0.00062537193 0.044204593 9.9492023e-39
0.13591672 0.0032059699 0.043387711 9.2102009e-39
0.13670674 0.12991105 0.026803374 2.341769e-38
0.13341175 0.0011564642 0.046546876 8.1031429e-39
0.13338748 0.0037418567 0.045596361 7.3641345e-39
0.13258131 0.0073645338 0.04417628 5.8940603e-39
0.13256846 0.13071942 0.026624441 2.323366e-38
0.12954639 0.0011546798 0.047115207 7.917674e-39
0.12953165 0.0037243068 0.04650414 7.5492404e-39
0.12991996 0.0072080009 0.044324636 5.9822819e-39
0.13023998 0.13146804 0.026447952 2.3417687e-38
0.12874697 0.13423848 0.027639508 2.3325494e-38
0.12567939 0.0011340305 0.048024118 9.6711622e-39
0.12607279 0.0034075752 0.044957101 8.8399793e-39
0.12591372 0.13470545 0.024867952 2.3049268e-38
0.12506053 0.13727435 0.026135981 2.3417689e-38
0.12242311 0.0026287735 0.0442788 8.84251e-39
0.12203865 0.13859515 0.024851084 2.3047467e-38
0.12182329 0.14123283 0.026492953 2.2859827e-38
0.11514702 0.14232804 0.026726067 2.1185927e-38
0.11268589 0.019798979 0.044427514 1.325744e-38
0.11269781 0.021770988 0.041977525 1.445346e-38
0.1123236 0.14221579 0.026477098 2.0355437e-38
0.10930955 0.020922575 0.04595381 1.4821883e-38
0.10857008 0.023561992 0.042359054 1.5464382e-38
0.10490457 0.021699954 0.046504676 1.6022224e-38
0.10492271 0.02365214 0.044859052 1.6388876e-38
0.10432586 0.025627743 0.041895986 1.6572533e-38
0.10414314 0.1413787 0.027119517 1.6120888e-38
0.10231861 0.021711342 0.046657085 1.5287913e-38
0.10087303 0.024135489 0.045618534 1.6575782e-38
0.10110865 0.026490778 0.041957796 1.712606e-38
0.10011558 0.14139156 0.026749969 1.5289719e-38
0.097148269 0.024946522 0.04597187 1.6573964e-38
0.096965179 0.027427737 0.042874217 1.6850188e-38
0.096373506 0.13892452 0.027090847 1.2525644e-38
0.097278446 0.1407759 0.028531075 1.483089e-38
0.094543621 0.025588077 0.046536982 1.5655262e-38
0.09330903 0.028186284 0.04430604 1.6573612e-38
0.092092127 0.030774802 0.041850448 1.6754419e-38
0.091893166 0.13444112 0.02777952 8.3793206e-39
0.093040496 0.13742392 0.028984249 1.0587382e-38
0.089579761 0.028550956 0.045518577 1.5653104e-38
0.089154534 0.031092919 0.042990625 1.6573256e-38
0.087822437 0.12374388 0.02811259 5.984395e-39
0.088270091 0.12669837 0.028856814 5.8918785e-39
0.088596955 0.13063358 0.029634356 7.7297081e-39
0.088921145 0.13437542 0.029711127 9.4857032e-39
0.088012002 0.13747561 0.030086637 1.4465676e-38
0.086768612 0.029464815 0.046416938 1.5926448e-38
0.085528307 0.032045681 0.044751644 1.5927181e-38
0.084327154 0.035048317 0.042345464 1.601829e-38
0.085102282 0.12279317 0.028642952 6.9034717e-39
0.085108459 0.12664466 0.030539036 7.0846624e-39
0.085074902 0.13052371 0.030294895 8.191761e-39
0.085047275 0.13439186 0.029939532 1.003746e-38
0.084994093 0.13770238 0.03023237 1.3256393e-38
0.082875438 0.032684032 0.046164453 1.5283962e-38
0.081204034 0.035472121 0.044662595 1.5466187e-38
0.080943458 0.1267039 0.029090106 1.6296969e-38
