# .PCD v0.7 - Point Cloud Data file format
VERSION 0.7
FIELDS x y z rgb
SIZE 4 4 4 4
TYPE F F F F
COUNT 1 1 1 1
WIDTH 985
HEIGHT 1
VIEWPOINT 0 0 0 0 1 0 0
POINTS 985
DATA ascii
0.077701464 0.084097765 0.014343977 1.7770334e-38
0.077421442 0.08851169 0.014338195 1.6478897e-38
0.077314161 0.09246026 0.015098035 1.5742404e-38
0.077324912 0.096514829 0.015260994 1.6479242e-38
0.077309631 0.10052813 0.015089095 1.9795441e-38
0.077560604 0.10342783 0.014078557 1.8959962e-38
0.07367979 0.057457179 0.019739628 2.034897e-38
0.073625088 0.06044098 0.01902324 2.2193951e-38
0.073460974 0.064313829 0.016837597 2.0162415e-38
0.07391803 0.06773524 0.015841842 1.8870597e-38
0.074108735 0.092640169 0.015007973 1.7305421e-38
0.073997103 0.096436851 0.015315831 1.6845153e-38
0.073977768 0.10043862 0.015088081 1.592141e-38
0.074615277 0.10309756 0.014735401 1.5347373e-38
0.068418972 0.053757828 0.02096051 2.0717399e-38
0.069503888 0.0567986 0.020088494 2.1452428e-38
0.069655612 0.060423464 0.019560337 2.0989641e-38
0.069503099 0.064293966 0.01737231 1.8318152e-38
0.070092216 0.066903591 0.01629144 1.8132307e-38
0.065786645 0.053088028 0.021553338 2.0717043e-38
0.065717638 0.056390513 0.020493627 2.108401e-38
0.065697342 0.060413133 0.020208776 2.0347149e-38
0.065549754 0.06427367 0.01790601 1.6751521e-38
0.06182649 0.053083833 0.022258937 1.9429533e-38
0.061760597 0.056381445 0.021141648 1.7859307e-38
0.06164448 0.06027963 0.019172907 1.6110806e-38
0.06106342 0.063700773 0.018338501 1.4634979e-38
0.058763735 0.053324498 0.023103774 1.6477454e-38
0.057781983 0.056341477 0.021339893 1.5743492e-38
0.057705462 0.060277738 0.01993072 1.5004129e-38
0.057222717 0.06379658 0.019186974 1.4822953e-38
0.054394972 0.052526485 0.023617208 1.5376145e-38
0.053832803 0.056333236 0.021986246 1.5005217e-38
0.053783845 0.060301244 0.021025717 1.5559102e-38
0.053579066 0.064101547 0.020244598 1.6298453e-38
0.053719543 0.070953347 0.01985234 1.602258e-38
0.053056095 0.076317638 0.019916832 1.5373951e-38
0.052988946 0.11721206 0.019304514 1.0492257e-38
0.052985642 0.11922326 0.019274354 1.2888636e-38
0.050307058 0.048878156 0.024659157 1.4730754e-38
0.04990102 0.05230663 0.022918046 1.4638572e-38
0.049857028 0.0562797 0.021956265 1.4360208e-38
0.049827561 0.060265902 0.021332741 1.5560178e-38
0.049802698 0.064255916 0.02082181 1.657254e-38
0.050444122 0.072299622 0.02055645 1.6572877e-38
0.05015697 0.076322488 0.020558357 1.6205543e-38
0.048750702 0.1128992 0.020564556 1.0954338e-38
0.04957781 0.11681167 0.02070564 1.0954693e-38
0.048442263 0.11938902 0.021301448 1.3254907e-38
0.046568327 0.045423497 0.025718689 1.3348925e-38
0.046254478 0.048179768 0.024414301 1.334893e-38
0.045930184 0.052258156 0.022886932 1.4267992e-38
0.045908418 0.056255579 0.022375286 1.3899936e-38
0.045885593 0.060248122 0.021863878 1.4545674e-38
0.045657016 0.064039379 0.021742523 1.5743138e-38
0.047162097 0.077668287 0.021200418 1.5280735e-38
0.044490699 0.10985189 0.021297932 1.1502837e-38
0.045994472 0.11251225 0.021948636 1.0769933e-38
0.046552029 0.11701456 0.023804843 1.1140169e-38
0.043140098 0.044879172 0.026280761 1.2427316e-38
0.042182457 0.048431829 0.024287164 1.2151825e-38
0.041983873 0.05223636 0.023305357 1.3715558e-38
0.042123839 0.056223966 0.022644222 1.3811335e-38
0.04260822 0.060245544 0.022475421 1.4914464e-38
0.041944783 0.065609843 0.022539914 1.6576833e-38
0.040628884 0.06963443 0.022769332 1.5837461e-38
0.043241963 0.072982058 0.022139728 1.5560531e-38
0.041901272 0.097831614 0.022396743 1.011705e-38
0.041906819 0.10055829 0.022695065 9.381661e-39
0.042289067 0.10484128 0.023032546 1.2978716e-38
0.04257964 0.1087525 0.023444831 1.2704922e-38
0.043073762 0.11308121 0.025317669 1.0862459e-38
0.043957748 0.11582579 0.025421441 1.0219651e-38
0.039452292 0.045014832 0.026992261 1.2520948e-38
0.038524527 0.048279323 0.025269687 1.2425176e-38
0.038047075 0.052228738 0.023949027 1.3902108e-38
0.038905926 0.055782419 0.023363113 1.4455987e-38
0.03801747 0.065281212 0.023413897 1.66669e-38
0.038012523 0.068298012 0.023368776 1.5285029e-38
0.038443096 0.071872748 0.023218751 1.4181541e-38
0.037605513 0.09671966 0.023608208 1.1963113e-38
0.03868125 0.10082733 0.025453269 1.1409934e-38
0.039185788 0.10479238 0.026006341 1.0856444e-38
0.04012911 0.10870685 0.025558352 1.2523076e-38
0.035508335 0.045030333 0.028035462 1.1140896e-38
0.034587361 0.048285905 0.026140809 1.2244728e-38
0.034117348 0.052235305 0.02481854 1.2982652e-38
0.035393953 0.068302393 0.023948252 1.5190316e-38
0.035387337 0.07232479 0.023887992 1.2894044e-38
0.035381831 0.075676791 0.023837686 1.1882748e-38
0.03317073 0.093334302 0.024056196 8.8342409e-39
0.034055255 0.096573383 0.024721205 1.1136567e-38
0.035402797 0.10087603 0.026519477 1.3990291e-38
0.035571545 0.10481604 0.026933789 1.2422294e-38
0.036729034 0.10774739 0.027144909 1.1409186e-38
0.031557508 0.045028027 0.028739095 9.6665015e-39
0.030869968 0.048296727 0.027048588 1.1693354e-38
0.030187637 0.052241873 0.025687933 1.2519875e-38
0.030136637 0.080601811 0.024922967 8.8370744e-39
0.029473573 0.085742638 0.024990737 8.3739032e-39
0.030123778 0.088423148 0.024805725 9.0189223e-39
0.030128673 0.092552476 0.025651813 9.7546782e-39
0.030783661 0.096635193 0.025899589 1.1416393e-38
0.031457819 0.10088325 0.027392328 1.4452032e-38
0.031724505 0.10419536 0.02789712 1.417579e-38
0.027943537 0.045397889 0.030045331 8.3732502e-39
0.027433373 0.048192341 0.028834939 9.9445261e-39
0.026259206 0.052262638 0.026784539 1.123058e-38
0.025812708 0.056027763 0.02625668 1.1692998e-38
0.027522042 0.08110553 0.026005864 8.3789801e-39
0.02750963 0.085745923 0.025425255 8.6494321e-39
0.026200764 0.088506162 0.026355386 1.040328e-38
0.026576653 0.092449449 0.027138531 1.0954677e-38
0.027687006 0.096712753 0.02854681 1.2060708e-38
0.028841965 0.099670075 0.029014051 1.4272305e-38
0.024321996 0.045741044 0.03084141 7.6349635e-39
0.023655728 0.048394259 0.030151486 7.7271535e-39
0.022493236 0.052472323 0.028198004 7.8200918e-39
0.022485323 0.056097765 0.027119875 8.3779011e-39
0.02243492 0.088398486 0.027659833 1.1784814e-38
0.023584493 0.092885867 0.029842556 1.3258844e-38
0.023910344 0.095970176 0.030162156 1.3719478e-38
0.019873925 0.048591677 0.03139776 6.9024025e-39
0.01883211 0.052344143 0.029564917 6.9009549e-39
0.018394157 0.05559323 0.027904928 7.728559e-39
0.019644201 0.089092284 0.029931188 1.289152e-38
0.020953789 0.092266977 0.03087312 1.3902426e-38
0.020947158 0.09631224 0.030812562 1.427158e-38
0.016421281 0.049740352 0.031504095 6.5307557e-39
0.01489494 0.05235073 0.030436039 6.9913611e-39
0.014466293 0.055599794 0.028773963 7.5448922e-39
0.010952123 0.052384872 0.031763375 1.2792838e-38
0.011193097 0.055605266 0.02949816 8.5482682e-39
0.0098485649 0.07706026 0.029466629 7.4533986e-39
0.0091906264 0.079072557 0.029581368 7.5438048e-39
0.0059405267 0.064999625 0.030516446 5.7946074e-39
0.0056027025 0.068038434 0.030800581 5.058857e-39
0.0052737817 0.072375119 0.030550838 5.7060103e-39
0.0065683424 0.076599881 0.03058362 6.44069e-39
0.0065557137 0.080486372 0.030825615 6.5325367e-39
0.0072009712 0.084529616 0.030791521 7.0853588e-39
0.0065420419 0.087877467 0.030800641 5.1507163e-39
0.0029824302 0.060702752 0.032005072 1.1689377e-38
0.0030316412 0.06456022 0.03160584 4.8759049e-39
0.0026534125 0.068386123 0.031533241 3.3114631e-39
0.002637364 0.072440527 0.031816065 3.7720839e-39
0.0034298152 0.076152258 0.031105757 4.5096475e-39
0.0039432943 0.08045581 0.031062782 4.7826331e-39
0.0045300201 0.084769495 0.033598185 5.3358068e-39
0.001280427 0.061884254 0.034668267 6.5314423e-39
0.000618577 0.064578377 0.03477335 2.1136527e-39
0 0.067816988 0.033324182 1.1041797e-39
0.13199437 0.11275072 0.0090604424 1.086109e-38
0.13198991 0.11545898 0.0090199113 9.9380802e-39
0.12953913 0.11246466 0.0096082091 1.2152895e-38
0.12917918 0.11597148 0.0096340179 9.2022696e-39
0.12867859 0.11884984 0.0097006559 9.3910329e-39
0.12670404 0.11343663 0.010220587 1.233728e-38
0.12636957 0.11580692 0.010258317 1.0583762e-38
0.12520561 0.12004051 0.0104509 8.0095404e-39
0.12437221 0.12427355 0.010570347 9.208403e-39
0.12403719 0.12698236 0.010602951 1.0038172e-38
0.12271934 0.12427631 0.010936141 8.7437997e-39
0.12271377 0.12766165 0.010885358 9.025804e-39
0.10824068 0.083676666 0.01476264 1.7023454e-38
0.10428933 0.074204363 0.015782356 2.1548941e-38
0.10560719 0.076910429 0.015449166 2.0805277e-38
0.10560054 0.080972821 0.015388429 1.924047e-38
0.10533073 0.084223174 0.015398204 1.7580206e-38
0.10032909 0.070148595 0.016720891 2.1546802e-38
0.10120546 0.073306769 0.016478598 2.1359166e-38
0.10156517 0.076852359 0.015661657 2.0621603e-38
0.1015583 0.080910526 0.01560092 1.9701077e-38
0.10161453 0.085030004 0.016094387 1.7673846e-38
0.1007395 0.088654339 0.016346335 1.5281077e-38
0.096376643 0.061353367 0.017730415 2.1731558e-38
0.097315587 0.064737126 0.017470777 2.1361671e-38
0.097663112 0.068779647 0.017104208 2.1177663e-38
0.097778305 0.072634414 0.016606927 2.117765e-38
0.098885775 0.076824427 0.015913486 2.0715237e-38
0.098881342 0.079528876 0.015873075 1.9793636e-38
0.097740017 0.085326031 0.016036749 1.7584894e-38
0.097617567 0.089073218 0.016689122 1.5282529e-38
0.097646691 0.093173265 0.016961277 1.4730414e-38
0.097200759 0.096333645 0.017011583 1.4177242e-38
0.096271038 0.12567464 0.016767204 2.2658504e-38
0.09623123 0.12832579 0.01639384 2.2759356e-38
0.096510395 0.13265193 0.015838921 2.2860558e-38
0.096182548 0.13638777 0.015939534 2.2747106e-38
0.096248806 0.13921598 0.016564429 2.0896992e-38
0.092415281 0.057974666 0.018658817 2.0162092e-38
0.093699388 0.060655568 0.01799202 2.0719547e-38
0.094318986 0.064688742 0.017451704 2.0808852e-38
0.094608217 0.068380177 0.016989589 2.0718475e-38
0.094573811 0.089339696 0.01667577 1.4822271e-38
0.093742147 0.093228735 0.016800106 1.4085411e-38
0.093673125 0.097242288 0.017778158 1.3624786e-38
0.092317469 0.11755648 0.017766654 2.3197661e-38
0.092617899 0.12056275 0.017397881 2.2932244e-38
0.094238624 0.12424197 0.016726732 2.2756473e-38
0.094536573 0.12792008 0.016348302 2.2581444e-38
0.094833426 0.13227239 0.015959859 2.2953469e-38
0.094522141 0.13671336 0.016216636 2.2285053e-38
0.094211973 0.14048013 0.016483545 1.3616898e-38
0.090017006 0.057422914 0.01899308 1.9981282e-38
0.089691065 0.060629211 0.018424213 1.9888352e-38
0.089642078 0.097165585 0.017988503 1.2703921e-38
0.0902289 0.1010396 0.018482149 1.4174361e-38
0.089390419 0.10531896 0.018192232 2.0073113e-38
0.089656025 0.10848577 0.018153191 2.2286872e-38
0.089886658 0.1118939 0.018220484 2.3113387e-38
0.090429813 0.11587332 0.017800331 2.284107e-38
0.090893179 0.11943284 0.01702863 2.3223156e-38
0.086472698 0.053245153 0.020046353 2.0354714e-38
0.086185612 0.056734994 0.019373417 1.924442e-38
0.086370431 0.059266426 0.01895225 1.9609237e-38
0.086967371 0.097803816 0.018229127 1.2059263e-38
0.087669522 0.10124896 0.018532991 1.610832e-38
0.087309569 0.10493625 0.018299997 2.1082584e-38
0.088357225 0.11350072 0.01870507 2.274896e-38
0.083166957 0.053250682 0.020777822 1.8413223e-38
0.082898229 0.056150422 0.02028048 1.8045164e-38
0.08306931 0.059271947 0.019682646 1.7767493e-38
0.079200037 0.053257309 0.0216555 1.8226654e-38
0.079140887 0.055920202 0.020944774 1.8505752e-38
0.07479272 0.053038981 0.022634149 1.9884024e-38
0.075493351 0.055836353 0.022436142 1.9698554e-38
0.070610613 0.049886338 0.02360785 2.0623029e-38
0.071244106 0.052572135 0.023085117 1.9330846e-38
0.071521528 0.055572633 0.02229476 2.0066999e-38
0.067041278 0.04935066 0.024405956 2.0899985e-38
0.067566864 0.051522568 0.023231924 2.0253534e-38
0.063339539 0.048931263 0.0252316 2.1731887e-38
0.063275978 0.051191688 0.024186552 2.145634e-38
0.059373248 0.048550993 0.026115 1.9152936e-38
0.058983982 0.051536914 0.025131047 1.7301832e-38
0.054883189 0.045037769 0.027162492 1.666438e-38
0.055384953 0.048531592 0.026542604 1.5742071e-38
0.056673754 0.051202722 0.025647342 1.6203403e-38
0.051441524 0.044495929 0.027818441 1.5006289e-38
0.052278191 0.047604144 0.026675165 1.5002328e-38
0.047483638 0.041800223 0.028849602 1.3253837e-38
0.047707174 0.043645255 0.027747452 1.3626937e-38
0.043516718 0.041806854 0.02972734 1.2153984e-38
0.043482639 0.043111425 0.028690457 1.2429491e-38
0.04337766 0.11620697 0.028104663 1.0772092e-38
0.039549828 0.041813485 0.030605078 1.0959045e-38
0.039521288 0.043118045 0.029566884 1.1786998e-38
0.03810532 0.10877474 0.029385328 1.1968122e-38
0.040306374 0.11217798 0.029016793 1.1874837e-38
0.035578817 0.040839255 0.031205952 1.0036348e-38
0.035559982 0.043124668 0.03044343 1.0588096e-38
0.031942859 0.041475743 0.032037318 9.4806459e-39
0.031598628 0.043131288 0.031319857 9.4795697e-39
0.028310224 0.041832272 0.033091784 8.8381562e-39
0.027378052 0.043709002 0.032859504 8.1870667e-39
0.026233383 0.098709144 0.032679021 1.4823665e-38
0.028069563 0.10155327 0.03120476 1.4637868e-38
0.023676142 0.044527285 0.033666193 7.5452748e-39
0.022271171 0.094531387 0.032595515 1.3996084e-38
0.022926822 0.097974226 0.032909751 1.4826179e-38
0.022264272 0.1000699 0.033536434 1.4914413e-38
0.02103065 0.045853399 0.033616662 7.0875182e-39
0.01831761 0.089805208 0.033542871 1.353868e-38
0.019632161 0.092875056 0.033460915 1.3994981e-38
0.13646032 0.10502732 0.011263549 1.6482126e-38
0.13706473 0.1083789 0.010737062 1.5650961e-38
0.13705803 0.11245685 0.010675967 1.648648e-38
0.13710529 0.11658489 0.010943651 1.7777218e-38
0.1370997 0.11998451 0.01089263 1.8973217e-38
0.13375294 0.10430618 0.011532307 1.7217178e-38
0.1336408 0.1082906 0.010813177 1.4636432e-38
0.13401328 0.1121698 0.010671198 1.1967109e-38
0.13402884 0.11665362 0.010745466 1.3723489e-38
0.13369143 0.12058266 0.011068702 1.5935811e-38
0.13321066 0.12417411 0.011484087 1.7496653e-38
0.13243982 0.12747142 0.011808991 1.7679966e-38
0.12977114 0.10431282 0.012413323 1.6849476e-38
0.12966275 0.10829725 0.011693418 1.5559083e-38
0.12899525 0.11101423 0.011799335 1.39943e-38
0.13097315 0.11780061 0.011257589 9.9405843e-39
0.12983145 0.12090638 0.011462629 1.2062531e-38
0.12967029 0.12462912 0.011668861 1.5104235e-38
0.12957844 0.1286239 0.012168407 1.6394248e-38
0.12911341 0.13155651 0.012482345 1.5836053e-38
0.12596442 0.10469465 0.013152301 1.3441471e-38
0.12568466 0.1083039 0.01257354 1.325743e-38
0.12551248 0.11220825 0.012551725 1.2612781e-38
0.12487522 0.11672445 0.012623489 1.095291e-38
0.12698838 0.12188109 0.012076735 1.0508477e-38
0.12645352 0.12459784 0.012153447 1.188279e-38
0.1258167 0.12884247 0.012229264 1.3540175e-38
0.12571006 0.13282527 0.012647092 1.4829087e-38
0.12512195 0.13632262 0.013292551 1.5566302e-38
0.12251642 0.10573053 0.014338315 9.2080219e-39
0.12214612 0.10817625 0.013797522 9.0254369e-39
0.12248139 0.11250567 0.014071524 1.0683159e-38
0.12245079 0.11655855 0.013845325 1.0957924e-38
0.12173304 0.12058465 0.013601065 9.9419842e-39
0.12108658 0.12468878 0.013851821 9.0182132e-39
0.12129395 0.1288743 0.013229609 8.4722827e-39
0.12166646 0.13275349 0.013087749 1.2430595e-38
0.12172259 0.13690829 0.013466835 1.4364171e-38
0.12312455 0.13972557 0.013682365 1.5379401e-38
0.11866875 0.12970367 0.01448065 7.1825655e-39
0.1177783 0.13287687 0.014629006 8.7484731e-39
0.11817756 0.1367943 0.014675796 1.2432016e-38
0.11340048 0.077461056 0.016789138 1.998017e-38
0.11388256 0.081233501 0.016283214 1.8871324e-38
0.11365596 0.084897377 0.016033351 1.6662913e-38
0.11321814 0.088040017 0.016411126 1.5189591e-38
0.11019476 0.073912144 0.017348111 2.2005254e-38
0.10982367 0.077097833 0.016561985 2.0255678e-38
0.10981698 0.081171654 0.016501009 1.8596534e-38
0.10997575 0.085414946 0.016400754 1.6107959e-38
0.10965069 0.088964261 0.016710818 1.3993585e-38
0.10598264 0.066322736 0.018601418 2.301903e-38
0.10592995 0.069551378 0.018153906 2.2462641e-38
0.10655242 0.072784983 0.017659247 2.2098893e-38
0.10616204 0.086270027 0.017231524 1.6199055e-38
0.10582554 0.089325957 0.017259181 1.4361626e-38
0.10683697 0.0926902 0.017569125 1.316381e-38
0.10699715 0.095421679 0.017930627 1.2796093e-38
0.10293315 0.06515082 0.019147933 2.3113039e-38
0.10307078 0.068812966 0.018439353 2.2742795e-38
0.1027597 0.072130539 0.018201232 2.1639703e-38
0.10264307 0.089331269 0.017963231 1.5464734e-38
0.10292592 0.092885472 0.018050969 1.4450962e-38
0.10309786 0.096058868 0.018655777 1.4174369e-38
0.10194428 0.099645637 0.01898396 1.4270874e-38
0.10188735 0.13432169 0.018464684 2.1740822e-38
0.099279486 0.060845003 0.01948595 2.2654948e-38
0.10003114 0.064892761 0.01891607 2.2284721e-38
0.10055598 0.068286732 0.018747866 2.1546088e-38
0.1005192 0.090692759 0.018412352 1.509633e-38
0.10051585 0.092729673 0.018381834 1.4820819e-38
0.099441744 0.096620582 0.018901289 1.4269792e-38
0.099040002 0.10006322 0.018851995 1.4269766e-38
0.098230898 0.10400463 0.01922673 1.5186712e-38
0.097948343 0.10713144 0.019753337 1.601683e-38
0.097917095 0.12616926 0.019468307 2.2375809e-38
0.098760843 0.12928367 0.018892288 2.2655286e-38
0.099331953 0.13268679 0.018415093 2.3038103e-38
0.098993517 0.13676333 0.018427432 2.2846487e-38
0.097893648 0.14044765 0.019254446 1.8586732e-38
0.095373847 0.057637487 0.021082222 2.1181973e-38
0.096592396 0.059466761 0.019760191 2.1919171e-38
0.095388278 0.10059488 0.019395828 1.3991766e-38
0.095228188 0.10432609 0.019715607 1.5280334e-38
0.094852515 0.10822188 0.019836485 1.8965287e-38
0.09510459 0.11272743 0.020168841 2.1360965e-38
0.095242627 0.11660361 0.019865394 2.1727592e-38
0.095384657 0.12048485 0.019603789 2.1910893e-38
0.096486501 0.12396897 0.018794358 2.2379743e-38
0.096458636 0.14094323 0.018540144 1.5453875e-38
0.090561926 0.052996129 0.021808565 1.9334808e-38
0.091651104 0.055757377 0.021166563 1.8875654e-38
0.092546321 0.10089062 0.020020187 1.3438601e-38
0.092010781 0.10401478 0.020090759 1.58353e-38
0.092534058 0.10835931 0.019908369 2.1544263e-38
0.092195302 0.11277316 0.019915581 2.2742085e-38
0.092521802 0.11582798 0.019796491 2.2921078e-38
0.086733378 0.049342111 0.022865295 1.9797958e-38
0.087871686 0.052160684 0.02200681 2.0072754e-38
0.08864294 0.055406235 0.02158159 2.0445846e-38
0.08323852 0.048830621 0.023518622 1.9336246e-38
0.083345547 0.05134128 0.022816181 1.8877058e-38
0.078794524 0.045970555 0.024929881 1.9058229e-38
0.079417519 0.048663128 0.024295509 1.8779458e-38
0.079367466 0.051347926 0.023696303 1.8319175e-38
0.075143389 0.045636699 0.025742948 1.9885832e-38
0.075402558 0.048644826 0.024729013 2.0435036e-38
0.076272666 0.051805746 0.024374127 2.0808461e-38
0.071456812 0.045276187 0.026052058 2.1545359e-38
0.067454487 0.045265704 0.026596427 2.1265911e-38
0.067770898 0.047632977 0.026319444 2.1359183e-38
0.062202677 0.041918762 0.028663516 2.0074531e-38
0.063284546 0.044980191 0.027499318 2.12702e-38
0.063461877 0.047300696 0.027278066 2.1454954e-38
0.059548039 0.041243277 0.02926141 2.0258561e-38
0.059488289 0.04459146 0.028198957 2.053335e-38
0.055540081 0.041226123 0.029636323 1.8412521e-38
0.056174323 0.043918028 0.028942525 1.8229922e-38
0.051559176 0.041232776 0.030517161 1.4725395e-38
0.047318909 0.040021542 0.031576574 1.3533647e-38
0.044151936 0.036781527 0.032736659 1.1045126e-38
0.043861881 0.040018152 0.032136619 1.1875245e-38
0.043455586 0.11794689 0.030621588 1.0768172e-38
0.04435901 0.11986078 0.031075299 1.2060341e-38
0.040964361 0.037194811 0.033435702 9.0197182e-39
0.039992765 0.039786816 0.032879293 1.0585602e-38
0.039498385 0.11327504 0.032081008 1.1781205e-38
0.041719016 0.11674432 0.032048643 1.0953251e-38
0.036965139 0.037853416 0.033627689 9.7597804e-39
0.035628751 0.039199591 0.033561349 9.9416395e-39
0.032312594 0.039884102 0.034284651 9.7539944e-39
0.030322455 0.040566396 0.03471458 9.2036905e-39
0.023687854 0.043293357 0.036140859 7.6374788e-39
0.025584385 0.099644601 0.034856915 1.4822572e-38
0.022361822 0.043295573 0.036434293 8.2810461e-39
0.019623958 0.095580749 0.036238194 1.4086458e-38
0.017304316 0.092617899 0.037565053 1.3720179e-38
0.018299051 0.094903991 0.0365417 1.4086806e-38
0.14528616 0.10980201 0.014358819 2.2105336e-38
0.14594913 0.11322433 0.014159679 2.1823015e-38
0.14594239 0.11733243 0.014098108 2.1178729e-38
0.14654769 0.1207021 0.013571024 2.080959e-38
0.14593115 0.12417927 0.013995588 2.0074884e-38
0.1459244 0.12828737 0.013934076 1.915401e-38
0.14578439 0.13212183 0.01390624 1.9245136e-38
0.14524457 0.13513532 0.013979495 1.9424846e-38
0.14128923 0.10090782 0.015379727 2.0531562e-38
0.14206094 0.1053796 0.014457643 2.1091935e-38
0.14238839 0.10893413 0.013647616 2.2472682e-38
0.1423436 0.11300165 0.013367474 2.2009927e-38
0.14226082 0.11703365 0.012868762 2.0905003e-38
0.14221688 0.12109546 0.01258862 1.9338039e-38
0.14212374 0.12509748 0.013031542 1.8230967e-38
0.14267617 0.12858769 0.01406306 1.8785589e-38
0.1425747 0.13240106 0.014612198 1.9338402e-38
0.14240108 0.13633829 0.014590204 1.9983058e-38
0.13795751 0.09406656 0.016221881 2.0170327e-38
0.13795301 0.096805312 0.016180933 1.9615346e-38
0.13820317 0.10088973 0.014526427 1.8600113e-38
0.13856834 0.10447715 0.013293207 1.7591005e-38
0.1394417 0.10870399 0.012596011 1.9714386e-38
0.13943499 0.11279497 0.012534738 2.0171417e-38
0.13948348 0.11693729 0.012802005 1.9711867e-38
0.1386217 0.1215237 0.012580812 1.8972485e-38
0.13817483 0.12516119 0.013193011 1.7588119e-38
0.13822226 0.12931177 0.013460338 1.8234922e-38
0.13828981 0.13280261 0.013846934 1.9063608e-38
0.13841216 0.13635734 0.01456219 2.0075593e-38
0.13805075 0.14010739 0.015153706 2.0441869e-38
0.13720798 0.14336494 0.015631616 2.0167101e-38
0.13461569 0.09338747 0.016971827 1.8417514e-38
0.1344347 0.096672259 0.015823364 1.8783799e-38
0.1342342 0.10061656 0.014555335 1.8323878e-38
0.13475312 0.12575749 0.013371944 1.7587774e-38
0.13428767 0.1293807 0.013675451 1.7956547e-38
0.13395372 0.13294414 0.01387769 1.8047306e-38
0.13439505 0.13633528 0.01431334 1.814166e-38
0.13432816 0.14038545 0.014948785 1.8968895e-38
0.13426529 0.14391762 0.016274333 1.9429872e-38
0.13060413 0.093394175 0.01785934 1.4362003e-38
0.13039503 0.096651465 0.016489983 1.5931481e-38
0.13023569 0.10062324 0.015439987 1.7128929e-38
0.13141628 0.13053583 0.014037013 1.7222202e-38
0.13026978 0.13365468 0.014242947 1.6112997e-38
0.13017629 0.13679472 0.01489836 1.6114073e-38
0.13022153 0.14026824 0.015176475 1.767959e-38
0.13023856 0.14443329 0.016389191 1.841608e-38
0.12792866 0.094083324 0.018440843 1.1600094e-38
0.12725556 0.096823193 0.018547773 1.1412116e-38
0.12645257 0.10084409 0.016615152 1.3168487e-38
0.12546884 0.10327275 0.01577127 1.2430198e-38
0.1274114 0.13667896 0.01482904 1.6761587e-38
0.12609074 0.14011103 0.015182495 1.6667946e-38
0.12628013 0.14445701 0.016439617 1.731045e-38
0.12261477 0.072867058 0.019942164 2.3299947e-38
0.12260915 0.076290481 0.019890904 2.3117329e-38
0.12228609 0.080559343 0.019214153 2.228504e-38
0.12250258 0.084435679 0.019106746 2.0166364e-38
0.12249583 0.088539965 0.019045174 1.4822251e-38
0.12258217 0.0927229 0.019644856 1.3811318e-38
0.12391036 0.098198138 0.019267023 1.0487974e-38
0.12313119 0.10083954 0.018630624 1.0132142e-38
0.12202859 0.10432905 0.017101705 8.9339671e-39
0.12079816 0.10941698 0.016710639 6.2664456e-39
0.12079256 0.11282612 0.016659558 8.4776707e-39
0.12078585 0.1169171 0.016598284 1.040726e-38
0.12181172 0.14091563 0.016003191 1.5470513e-38
0.12218262 0.1443364 0.016665399 1.7404445e-38
0.12321521 0.1482234 0.018360853 1.69431e-38
0.11860996 0.068765663 0.020891249 2.3025523e-38
0.1195832 0.072602801 0.020161748 2.2929353e-38
0.11999922 0.076393567 0.01969856 2.26542e-38
0.11931171 0.080035254 0.018807232 2.1731522e-38
0.11897902 0.084299229 0.018522739 2.0071644e-38
0.1189723 0.088395908 0.018461347 1.5372526e-38
0.1198776 0.092701584 0.020015955 1.3442915e-38
0.11990105 0.096835487 0.02017498 1.316668e-38
0.11962507 0.1006747 0.019408941 1.0590982e-38
0.11892243 0.10475979 0.018050671 7.5510397e-39
0.11889276 0.10883267 0.017824113 3.0417537e-39
0.11890897 0.11295124 0.017928004 6.1677563e-39
0.11897048 0.1171234 0.018362582 9.0247068e-39
0.11884966 0.12109035 0.017474949 1.0217484e-38
0.11884293 0.12518418 0.017413676 9.7554321e-39
0.11859313 0.12834042 0.017249763 8.1928022e-39
0.11874927 0.14078438 0.016682863 1.4364879e-38
0.1188345 0.1443207 0.017292678 1.5104937e-38
0.11935548 0.14876118 0.018914104 1.6115137e-38
0.11567245 0.06616877 0.021581113 2.3115567e-38
0.11563235 0.068990521 0.020668685 2.3116289e-38
0.11581005 0.072898597 0.019585073 2.264955e-38
0.11625833 0.076745078 0.018728495 2.1453493e-38
0.11651914 0.079764724 0.018112242 1.9979104e-38
0.11684476 0.084196046 0.017972231 1.9236847e-38
0.11592463 0.088516027 0.018402278 1.5279621e-38
0.1156319 0.092498146 0.019137561 1.3258174e-38
0.11571454 0.096677274 0.019738197 1.2521677e-38
0.11564823 0.10071984 0.019235492 9.6654295e-39
0.11561173 0.1047882 0.018953621 6.6265751e-39
0.11593667 0.10889038 0.020099163 3.7778334e-39
0.11648647 0.11322401 0.02033788 4.5121867e-39
0.11719296 0.11738047 0.020459175 5.9837336e-39
0.11651877 0.12080503 0.020555913 8.1013338e-39
0.11600406 0.12478247 0.019789279 9.6650666e-39
0.11546396 0.12912774 0.018817842 9.6643183e-39
0.11478847 0.13331982 0.017844558 8.7427418e-39
0.11516042 0.13683581 0.017537594 1.003888e-38
0.11548007 0.14019081 0.017870724 1.2341954e-38
0.1155467 0.14438942 0.018360615 1.4274809e-38
0.11573833 0.14860994 0.019789934 1.4271964e-38
0.11061049 0.054400694 0.022881746 2.2848693e-38
0.11114041 0.057412412 0.02271831 2.2753955e-38
0.11176898 0.061416756 0.022517681 2.2749294e-38
0.11176163 0.06524606 0.021094978 2.3114127e-38
0.11164171 0.069270886 0.020149291 2.3019421e-38
0.1120698 0.072749361 0.019204378 2.2189298e-38
0.11286339 0.076020785 0.018978655 2.0808129e-38
0.11169451 0.092776172 0.018980384 1.3167045e-38
0.11154062 0.0965195 0.019298434 1.3075907e-38
0.11161808 0.1006982 0.019900024 1.1599709e-38
0.11169615 0.1048858 0.020501435 8.2849726e-39
0.11182223 0.10874227 0.021487474 6.7190748e-39
0.11316795 0.12560339 0.021223724 8.9278575e-39
0.11221409 0.12902825 0.020927012 1.040294e-38
0.11161166 0.13285284 0.019792438 1.0955399e-38
0.11132912 0.13628379 0.018906116 1.0401183e-38
0.11148237 0.14019686 0.018755257 1.0773571e-38
0.11154633 0.1443961 0.019245744 1.2798628e-38
0.11172093 0.14838272 0.02060926 1.335252e-38
0.10777093 0.053207248 0.023528397 2.2744985e-38
0.10793161 0.057143897 0.023432434 2.2005261e-38
0.10776466 0.06115311 0.022042155 2.172941e-38
0.10778288 0.064989425 0.020784318 2.301905e-38
0.10834758 0.068937354 0.020086586 2.2558443e-38
0.10783463 0.097506694 0.01976186 1.2245803e-38
0.10756412 0.10064802 0.020342648 1.1418548e-38
0.10766514 0.10486247 0.021166086 9.4817165e-39
0.10751358 0.10815344 0.022742629 7.8229238e-39
0.10772735 0.13234243 0.021641433 1.657753e-38
0.10753231 0.13616925 0.020032525 1.4270472e-38
0.10749894 0.14022362 0.019750059 1.160009e-38
0.10754594 0.14440277 0.020130873 1.2339791e-38
0.10774119 0.14814222 0.021737456 1.3259596e-38
0.10366479 0.049756464 0.024489939 2.1824098e-38
0.10387631 0.053014185 0.023937821 2.2099601e-38
0.10379212 0.057073262 0.02321136 2.1731903e-38
0.10364421 0.061085194 0.021930695 2.2470208e-38
0.10489281 0.064443067 0.020919979 2.3204885e-38
0.10483795 0.097852625 0.020419657 1.3254568e-38
0.10389879 0.10079508 0.020728827 1.34393e-38
0.10357251 0.10476363 0.021276653 1.3347458e-38
0.10358215 0.10891104 0.022832692 1.3346726e-38
0.10293794 0.11238331 0.023690283 1.5099526e-38
0.10247049 0.12562127 0.023590624 1.8505742e-38
0.10321444 0.12925762 0.022601962 2.0351121e-38
0.10373269 0.13280049 0.021152616 2.034894e-38
0.10366675 0.13647735 0.020379186 1.8597178e-38
0.10348882 0.14021021 0.020523787 1.5098072e-38
0.10357075 0.14445218 0.021237314 1.1600097e-38
0.10444027 0.14752781 0.022818744 1.0219696e-38
0.099920675 0.049762722 0.025318384 2.200526e-38
0.09969537 0.052923676 0.023271143 2.1730117e-38
0.099615768 0.056974284 0.022543728 2.200993e-38
0.10083643 0.10195027 0.021242321 1.4453097e-38
0.10029887 0.10495121 0.021315217 1.5371831e-38
0.099770792 0.10908227 0.022393107 1.6660036e-38
0.099635184 0.11305714 0.022703528 1.8322052e-38
0.099628463 0.11715572 0.022642195 1.969853e-38
0.099432237 0.1210505 0.022412479 1.9976897e-38
0.099936269 0.12493189 0.022682488 2.1177235e-38
0.10042371 0.1284273 0.021610439 2.1727588e-38
0.10024065 0.14040625 0.020784318 1.7489741e-38
0.099830888 0.14418942 0.022719324 1.1687966e-38
0.09574303 0.049119253 0.026252687 2.1546423e-38
0.095672213 0.052916203 0.023933887 2.0073844e-38
0.095585585 0.055935811 0.023110032 2.1089058e-38
0.096829318 0.10945704 0.022013903 1.8047282e-38
0.096825957 0.11150252 0.021983266 1.9522428e-38
0.097019613 0.14467573 0.023821712 1.0034173e-38
0.09175767 0.048871864 0.025658846 2.0350395e-38
0.092620239 0.0525469 0.024074256 1.9151148e-38
0.087230042 0.042115491 0.028243959 2.0994687e-38
0.087680548 0.044997931 0.027587891 2.0437207e-38
0.088160291 0.048254661 0.025075793 1.9426662e-38
0.083887085 0.042121079 0.028983533 2.0992167e-38
0.083736487 0.044772286 0.027268946 2.00713e-38
0.084946752 0.047430769 0.025594592 1.988871e-38
0.079875529 0.042127784 0.029871166 2.1356634e-38
0.079956397 0.044408072 0.028501272 1.9699269e-38
0.075827219 0.04176835 0.030260324 2.1726501e-38
0.076005898 0.043970451 0.029060304 1.9974419e-38
0.071684092 0.043395068 0.029274225 2.1081151e-38
0.068516225 0.038038678 0.032447517 1.9978395e-38
0.068246782 0.040594373 0.031164289 2.0715946e-38
0.067642629 0.043368742 0.02948606 2.0989303e-38
0.065173268 0.038044263 0.033187211 1.8227737e-38
0.064067453 0.040673047 0.030903935 1.8967836e-38
0.06431362 0.043374307 0.030222654 2.0534792e-38
0.061161712 0.038050968 0.034074724 1.7951501e-38
0.06104739 0.039332714 0.032031715 1.8133761e-38
0.056766912 0.037673973 0.034028709 1.7956911e-38
0.057013985 0.039310191 0.032241821 1.9523864e-38
0.05295147 0.036845494 0.035397887 1.6576495e-38
0.053001717 0.039302263 0.032788277 1.7493056e-38
0.048465248 0.03396409 0.036946952 1.1783414e-38
0.049081903 0.03665131 0.035517335 1.3256736e-38
0.049672697 0.039307825 0.033524811 1.3993898e-38
0.04504355 0.033885147 0.035315275 1.2240798e-38
0.046024743 0.036255255 0.034635007 1.2149343e-38
0.043988552 0.12204549 0.033513665 1.326066e-38
0.0435417 0.12386444 0.033584595 1.5190648e-38
0.042387899 0.03390168 0.036244094 1.3624424e-38
0.041369792 0.036272585 0.035920918 1.0122459e-38
0.040106304 0.1174169 0.035058379 1.1134034e-38
0.040928852 0.12072205 0.035918295 1.1688685e-38
0.041231133 0.12353265 0.037173986 1.4364482e-38
0.03773227 0.11317039 0.036468208 1.2059596e-38
0.03795338 0.1170953 0.037485838 1.141167e-38
0.037621662 0.12299094 0.037980974 1.3445424e-38
0.025392927 0.10188483 0.039986432 1.4914408e-38
0.023616083 0.10178918 0.04140538 1.5097719e-38
0.1444093 0.13175598 0.016634643 2.044437e-38
0.15404157 0.1131093 0.016467929 2.2470523e-38
0.15403593 0.11655176 0.016416371 2.1825886e-38
0.15520568 0.12068076 0.016094208 2.182446e-38
0.15535343 0.13307336 0.015871465 2.0993599e-38
0.15454032 0.13693029 0.015992165 2.0257133e-38
0.15047589 0.10095192 0.017443419 2.266105e-38
0.15069473 0.1041645 0.017345726 2.265853e-38
0.15114722 0.10843181 0.016924083 2.2564882e-38
0.15093642 0.1126871 0.015485466 2.2102828e-38
0.15120375 0.11666869 0.015139043 2.1733694e-38
0.15092006 0.1203233 0.014657974 2.1455288e-38
0.15093356 0.12445869 0.01470542 2.0903926e-38
0.15090655 0.12855855 0.014534771 2.0627331e-38
0.15103993 0.13281187 0.015236616 2.0165639e-38
0.1511931 0.13709185 0.016047537 1.9334822e-38
0.15111563 0.14114738 0.016557276 1.8691243e-38
0.15085252 0.14455572 0.016691327 1.8691605e-38
0.14667669 0.094532333 0.018382609 2.2761519e-38
0.14695998 0.09748254 0.018274724 2.2661772e-38
0.1470829 0.10117918 0.017678678 2.2385173e-38
0.14713834 0.10493723 0.016982734 2.2474135e-38
0.1473348 0.10859063 0.015826523 2.2288295e-38
0.14822118 0.11275311 0.015200496 2.1919866e-38
0.14812605 0.1167956 0.014647424 2.1458902e-38
0.14812267 0.1188525 0.014616668 2.1177297e-38
0.14811367 0.1243376 0.014534533 2.0628076e-38
0.1481069 0.12845144 0.014472902 1.9798306e-38
0.1478532 0.13299614 0.014971554 1.952137e-38
0.14700933 0.13694277 0.015097678 1.9150062e-38
0.14715597 0.14122593 0.016877472 1.8508284e-38
0.14693089 0.14444754 0.01756072 1.7864346e-38
0.14591846 0.14685896 0.01774776 1.7308303e-38
0.14281228 0.093580782 0.018910885 2.210537e-38
0.14308582 0.097126491 0.017771661 2.2105001e-38
0.14313391 0.10116348 0.017016232 2.210534e-38
0.1439115 0.10441183 0.017135799 2.2565611e-38
0.14407402 0.13805705 0.015218019 1.9705746e-38
0.14280614 0.1408847 0.015910566 1.9151838e-38
0.14312008 0.1446721 0.017717779 1.7217526e-38
0.14284311 0.14804435 0.018410206 1.7034229e-38
0.13795021 0.086285025 0.020440102 2.0445484e-38
0.13841832 0.08926823 0.019881129 2.0722423e-38
0.13926592 0.092622109 0.018734753 2.0906102e-38
0.14023489 0.097006708 0.017380118 2.0628784e-38
0.14011993 0.099668123 0.016681731 1.980118e-38
0.13960454 0.14172125 0.016150832 2.0442581e-38
0.13907969 0.14533183 0.017491996 1.933803e-38
0.1390841 0.14880595 0.018547416 1.7585256e-38
0.13881141 0.15129647 0.018996358 1.7034958e-38
0.13570993 0.085829765 0.020942867 1.8234225e-38
0.1358757 0.08900433 0.020516098 1.8418258e-38
0.13576509 0.091680326 0.019816637 1.8602635e-38
0.13502254 0.14595699 0.017099738 1.9797936e-38
0.13514307 0.14845416 0.018264055 1.8325681e-38
0.13592768 0.15206856 0.019673824 1.7403362e-38
0.13157231 0.080787756 0.021935761 2.1360941e-38
0.13240562 0.08508943 0.021685362 1.6941686e-38
0.13253307 0.089022636 0.021369219 1.5375436e-38
0.13150784 0.091513023 0.019224703 1.4729349e-38
0.13200913 0.14630482 0.01776129 1.9154356e-38
0.1314906 0.14855888 0.018865764 1.8140208e-38
0.13246433 0.15170085 0.020650685 1.7773567e-38
0.12766933 0.069319412 0.022975266 2.2661422e-38
0.12783912 0.072501913 0.022547543 2.284186e-38
0.12816919 0.076859206 0.022749126 2.284004e-38
0.12849787 0.080759212 0.02227509 2.1640773e-38
0.12844184 0.084852114 0.021883249 1.9240436e-38
0.1283358 0.08890532 0.021161795 1.4543156e-38
0.12733565 0.09260539 0.02002877 1.2516659e-38
0.12789916 0.14874125 0.019862592 1.7034591e-38
0.12843047 0.15170759 0.021543264 1.7035663e-38
0.12420231 0.06530901 0.023804009 2.2481709e-38
0.124486 0.068378359 0.023352742 2.2659596e-38
0.12460334 0.072149046 0.021415532 2.2933684e-38
0.12490384 0.076476663 0.021428943 2.2933669e-38
0.12488637 0.080495805 0.020346761 2.2746385e-38
0.12541524 0.084608726 0.020166636 1.9981231e-38
0.12540847 0.088722557 0.020105004 1.4546742e-38
0.1247322 0.092837483 0.02019161 1.3625849e-38
0.12405706 0.096266784 0.020288408 1.2240755e-38
0.12411432 0.14994249 0.020476818 1.6851257e-38
0.12433821 0.15232331 0.022029698 1.6575396e-38
0.1230452 0.15584758 0.022671461 1.6576142e-38
0.11961516 0.061070986 0.024884105 2.2390584e-38
0.12023394 0.064695396 0.023574233 2.2382685e-38
0.1210008 0.068501487 0.022210002 2.2750013e-38
0.12142062 0.070902705 0.021260798 2.3116289e-38
0.12129005 0.15043655 0.020069838 1.6666157e-38
0.12015499 0.1527977 0.02182132 1.6572892e-38
0.12006012 0.15567407 0.023129821 1.6666887e-38
0.11514364 0.054652531 0.025972009 2.2473459e-38
0.11584068 0.057900053 0.024948597 2.2480279e-38
0.11609899 0.061036181 0.024199486 2.2662129e-38
0.11661123 0.063876718 0.023115814 2.2931895e-38
0.11466012 0.11068082 0.022146702 4.605799e-39
0.11465674 0.11273772 0.022115886 4.6065375e-39
0.11544755 0.11674111 0.023928165 4.6940752e-39
0.11504482 0.12001342 0.022430599 6.3471323e-39
0.11463986 0.12302227 0.021961927 8.0981178e-39
0.11593388 0.15044552 0.021254957 1.5005948e-38
0.11593051 0.15250242 0.021224141 1.6204473e-38
0.11625608 0.15575701 0.023663044 1.6759796e-38
0.11172646 0.050497726 0.026279807 2.2573905e-38
0.11245129 0.053020895 0.025184393 2.2478833e-38
0.11307468 0.056861147 0.023323059 2.2666459e-38
0.11340439 0.059945956 0.023202777 2.2846892e-38
0.11332109 0.11068305 0.022442997 5.3415732e-39
0.11227439 0.11262354 0.025034904 5.5252386e-39
0.11320779 0.11565247 0.025123298 4.0497484e-39
0.1132254 0.12093795 0.024355531 5.8879451e-39
0.1122249 0.12445096 0.022815883 7.6382103e-39
0.11061486 0.12782845 0.022778869 8.837782e-39
0.11191674 0.15045223 0.022143781 1.4272663e-38
0.11195492 0.15257642 0.022444248 1.5284677e-38
0.11208747 0.1563313 0.024832726 1.6116569e-38
0.1077803 0.049518283 0.025972962 2.2654585e-38
0.10940077 0.05172503 0.024214745 2.2933696e-38
0.10863669 0.10931962 0.023500443 7.5470586e-39
0.10809957 0.11206333 0.026357532 6.6269086e-39
0.10697646 0.11525344 0.026849806 5.333653e-39
0.10696515 0.12213837 0.02674669 6.8084314e-39
0.10810687 0.12502158 0.026193798 7.0796303e-39
0.10798942 0.12859216 0.023803413 1.1232336e-38
0.10789962 0.15045893 0.023032546 1.3444008e-38
0.10811694 0.15288448 0.024825215 1.3628055e-38
0.10840627 0.15636292 0.025774777 1.4827293e-38
0.10440024 0.04640859 0.028475821 2.228328e-38
0.10461709 0.048072699 0.027378082 2.1730831e-38
0.10528684 0.11069649 0.024220645 1.0298851e-38
0.10442462 0.11362295 0.025646925 1.270025e-38
0.10432433 0.11663687 0.026263118 1.3529286e-38
0.10412619 0.12055777 0.026033461 1.3990298e-38
0.10422435 0.12442107 0.025397539 1.4173631e-38
0.10489088 0.12772001 0.024730146 1.5649529e-38
0.10388473 0.1490944 0.023941994 1.0497009e-38
0.10401456 0.15253448 0.026549339 1.1789536e-38
0.10448965 0.15574089 0.026779115 1.427556e-38
0.10033199 0.045020603 0.029055893 2.1547163e-38
0.10019861 0.048052419 0.027843833 2.2281135e-38
0.099202603 0.14635965 0.025020003 9.7551098e-39
0.10010526 0.1488387 0.02700156 9.5732325e-39
0.1008646 0.15244216 0.027631879 9.9416689e-39
0.096788242 0.041831374 0.030230403 1.979543e-38
0.096196219 0.044975564 0.028947473 2.1084394e-38
0.097356141 0.047631357 0.026942849 2.2004552e-38
0.093641333 0.04091334 0.030827045 2.1270193e-38
0.092253432 0.044533908 0.028704941 2.126984e-38
0.08872731 0.037713896 0.032077312 1.9519573e-38
0.08930169 0.040691037 0.030083656 2.0998638e-38
0.089328647 0.043530967 0.02878201 2.1085439e-38
0.085925817 0.037833326 0.032695353 1.9147171e-38
0.084737159 0.040154371 0.030874193 2.007273e-38
0.081556357 0.037496381 0.033667505 1.9978021e-38
0.081133194 0.040032048 0.031878531 2.1633944e-38
0.077506632 0.03680554 0.034346581 1.9702181e-38
0.077644974 0.040037878 0.032650232 2.1819785e-38
0.072821975 0.034068525 0.035652876 1.831996e-38
0.073361002 0.036748827 0.033671498 1.9610345e-38
0.074605942 0.039441764 0.032102704 2.1452798e-38
0.069460422 0.034074143 0.036396623 1.8600858e-38
0.069503844 0.036348697 0.034157276 1.9334116e-38
0.065386102 0.034056764 0.03661561 1.8225598e-38
0.065299928 0.036067329 0.035238087 1.7857541e-38
0.060917974 0.03315229 0.037788987 1.6753731e-38
0.061259151 0.036061361 0.03579098 1.758492e-38
0.057316847 0.032685414 0.038194537 1.417222e-38
0.057493001 0.035920344 0.03635323 1.6018313e-38
0.053388398 0.032812588 0.037539661 1.2143922e-38
0.054527067 0.035361517 0.036608458 1.5008118e-38
0.050513327 0.033311319 0.037528038 1.186985e-38
0.036991172 0.11355317 0.039289534 1.2426939e-38
0.037029222 0.11797185 0.041262031 1.1224066e-38
0.036979921 0.12040955 0.039186835 1.187521e-38
0.035033464 0.11254729 0.042299032 1.2792472e-38
0.035163656 0.11641522 0.042313337 1.2611682e-38
0.035704717 0.11950351 0.042555869 1.1323491e-38
0.025630794 0.10410669 0.042972624 1.5191734e-38
0.022283688 0.10287063 0.044756591 1.4914415e-38
0.022953786 0.1043113 0.045098424 1.4454164e-38
0.011279434 0.092807613 0.0481655 1.0122058e-38
0.0081874654 0.090632856 0.049087822 6.3496042e-39
0.007243067 0.092562214 0.049267232 3.955043e-39
0.11007217 0.08839047 0.016772807 1.4544598e-38
0.10615501 0.069553033 0.01813823 2.246551e-38
0.10683697 0.0926902 0.017569125 1.316381e-38
0.14359722 0.12778454 0.016088068 2.0443667e-38
0.12805808 0.1028028 0.017911851 1.9799026e-38
0.1218743 0.12434111 0.018061757 1.8783422e-38
0.11906312 0.13857621 0.017902374 1.4455642e-38
0.1230887 0.11256554 0.018966675 1.9613194e-38
0.12126122 0.084536433 0.021106005 1.7401577e-38
0.12109592 0.11563337 0.019792974 1.6847674e-38
0.1546146 0.10110144 0.019598126 2.2573531e-38
0.1352023 0.087631196 0.022717595 2.2014262e-38
0.055862751 0.12635472 0.037990153 1.5191398e-38
0.054527067 0.035361517 0.036608458 1.5008118e-38
0.02395723 0.10348866 0.043864548 1.5006977e-38
0.1030433 0.12413332 0.028678596 1.7309378e-38
0.15453742 0.14811325 0.018894196 1.9429531e-38
0.15162596 0.096591823 0.019743264 2.2482773e-38
0.15221542 0.099847116 0.019294739 2.2571732e-38
0.15307638 0.10442736 0.01886332 2.2754329e-38
0.15307184 0.10718895 0.018821895 2.274966e-38
0.15233588 0.14481676 0.018407643 1.8597616e-38
0.1515328 0.14849102 0.018785059 1.8232793e-38
0.15098369 0.15264249 0.019406199 1.7952934e-38
0.14780611 0.093460351 0.020812333 2.2578216e-38
0.14904381 0.096839741 0.01987195 2.2663929e-38
0.14828916 0.14585912 0.019287109 1.7865789e-38
0.1477787 0.14879414 0.019354999 1.7033869e-38
0.14768156 0.15285367 0.019769549 1.5838198e-38
0.14777394 0.15572941 0.020274043 1.6298095e-38
0.14248663 0.086603411 0.02250427 2.2383027e-38
0.14329742 0.089771487 0.021764159 2.2936568e-38
0.14455654 0.092474736 0.020931959 2.27529e-38
0.14491263 0.14931673 0.019981265 1.6849123e-38
0.14355862 0.152771 0.02022779 1.6298819e-38
0.1436376 0.15632573 0.020668089 1.574455e-38
0.1397953 0.081077121 0.023184538 2.2657453e-38
0.1402626 0.085457884 0.022604167 2.1551117e-38
0.14062971 0.088914253 0.021855414 2.2106784e-38
0.14018665 0.153467 0.020963371 1.6483565e-38
0.14026442 0.15633136 0.021414399 1.5011676e-38
0.13679868 0.077744216 0.023693979 2.2470192e-38
0.1369888 0.081014454 0.023123682 2.1179802e-38
0.13719904 0.084294334 0.022685468 1.9429899e-38
0.13681467 0.15416303 0.021698833 1.6851985e-38
0.1367216 0.15685555 0.022190332 1.6299895e-38
0.13171227 0.070029058 0.02514267 2.2389164e-38
0.13260615 0.072951548 0.024461031 2.2661062e-38
0.13291396 0.076855585 0.023861468 2.2836796e-38
0.13369879 0.080986276 0.023510754 2.0714147e-38
0.13423359 0.083746977 0.02335 1.8044796e-38
0.13276964 0.1541698 0.022593856 1.7403331e-38
0.13285106 0.15704623 0.023100734 1.7034942e-38
0.13257679 0.16024855 0.023567557 1.7128203e-38
0.12767529 0.061739627 0.026163101 2.2956356e-38
0.12829682 0.064477608 0.025642157 2.2861637e-38
0.12939049 0.068147391 0.025173187 2.2391676e-38
0.13020673 0.072707355 0.024410486 2.2751468e-38
0.13020106 0.076159351 0.024358809 2.2841108e-38
0.12872463 0.15417656 0.023488879 1.6943826e-38
0.12873681 0.1569612 0.023557186 1.6760523e-38
0.12886319 0.16060042 0.024383962 1.7034569e-38
0.12363151 0.057598297 0.027121484 2.304819e-38
0.1247227 0.060725324 0.026393056 2.2954552e-38
0.12509799 0.063602671 0.025680602 2.2675075e-38
0.12535377 0.1541822 0.024234712 1.6300261e-38
0.12505998 0.15714151 0.024254262 1.6208444e-38
0.12481257 0.16060722 0.025280178 1.6299544e-38
0.12060721 0.057022806 0.027389765 2.277053e-38
0.12123894 0.059834953 0.026592255 2.2676168e-38
0.1210347 0.15809044 0.025642633 1.666725e-38
0.12076311 0.15992263 0.026186764 1.6482145e-38
0.11651175 0.053688284 0.027937472 2.2488189e-38
0.11745708 0.056866247 0.027730763 2.2485679e-38
0.11658277 0.15833926 0.026111901 1.7127138e-38
0.11662512 0.15978983 0.026421607 1.7588826e-38
0.11247475 0.049306449 0.029461384 2.2669332e-38
0.11126193 0.11416278 0.027966797 5.7060103e-39
0.1121763 0.11740851 0.027885318 4.2334306e-39
0.11179039 0.1207897 0.027748227 5.5213023e-39
0.11124492 0.12451874 0.027811706 6.9906408e-39
0.11259755 0.16052285 0.027472317 1.7313319e-38
0.10848026 0.045987595 0.030242622 2.3025174e-38
0.10957222 0.048347853 0.029350221 2.2938006e-38
0.10923943 0.11416616 0.028414309 6.0744579e-39
0.10872896 0.11710119 0.028482199 5.4265773e-39
0.10872272 0.12089838 0.028425336 6.1605425e-39
0.10989773 0.12383062 0.028120399 6.6207737e-39
0.10714437 0.158355 0.02820009 1.5930757e-38
0.10852844 0.16118541 0.028191864 1.657469e-38
0.10792939 0.16409218 0.028962672 1.6757267e-38
0.10475367 0.042420186 0.031531632 2.1914133e-38
0.10465428 0.044452101 0.030668855 2.2466958e-38
0.10411116 0.15801486 0.028876543 1.4643261e-38
0.10486194 0.16098413 0.028957605 1.5745657e-38
0.10590409 0.16409558 0.029410839 1.6294519e-38
0.10183103 0.041191831 0.031685054 1.9518454e-38
0.10107911 0.15698436 0.029563248 1.1974615e-38
0.10184209 0.16130701 0.030206084 1.5193567e-38
0.097974665 0.03826943 0.032753944 2.1181576e-38
0.098348878 0.040542122 0.031953394 2.0439695e-38
0.097098626 0.14949429 0.031071126 9.5756974e-39
0.097726621 0.15286961 0.030482054 7.6385536e-39
0.097766519 0.15710443 0.030863523 8.3807934e-39
0.098484807 0.15995988 0.031116009 1.1698362e-38
0.093909673 0.037577871 0.0334934 2.1271642e-38
0.090123981 0.036613256 0.034243464 1.9424156e-38
0.085555822 0.03607583 0.035467386 1.9239745e-38
0.081727676 0.035507001 0.035708785 1.9334818e-38
0.077407151 0.033814967 0.037458837 1.8689462e-38
0.073666498 0.032539584 0.037879467 1.7215404e-38
0.069894977 0.032225866 0.038787127 1.7955493e-38
0.066670224 0.03196159 0.039709568 1.7582022e-38
0.063592985 0.03004471 0.040829659 1.629164e-38
0.053939302 0.12530494 0.040480435 1.4639665e-38
0.054655496 0.12823111 0.04130137 1.5282145e-38
0.051247161 0.12254784 0.041118443 1.3071945e-38
0.051032633 0.12490385 0.041471303 1.4547804e-38
0.033066101 0.10946072 0.045342445 1.3347755e-38
0.033060446 0.11291269 0.045290768 1.2887874e-38
0.033390149 0.11739971 0.045148969 1.2703152e-38
0.03439565 0.12091906 0.044872463 1.2521312e-38
0.030917317 0.10913353 0.046437562 1.3625087e-38
0.031049483 0.11303707 0.046587408 1.2705318e-38
0.031042658 0.11718423 0.0465253 1.2244679e-38
0.031715713 0.11997326 0.046504319 1.2701729e-38
0.027685307 0.10610794 0.047267377 1.5283574e-38
0.027684405 0.10822709 0.047576547 1.4543128e-38
0.024309456 0.10609103 0.047843874 1.4914422e-38
0.024310037 0.10754136 0.048333704 1.4544211e-38
0.018253624 0.097748734 0.048799753 1.4270489e-38
0.019427471 0.10072884 0.048878372 1.4085016e-38
0.020265475 0.1039923 0.048514903 1.3258838e-38
0.014213137 0.094993897 0.049736142 1.2616381e-38
0.015555322 0.097104132 0.049748182 1.24291e-38
0.01554735 0.099259846 0.05039978 1.1045791e-38
0.011516474 0.094998404 0.050332844 8.3721418e-39
0.011769958 0.097330377 0.05126518 6.4392663e-39
0.011225812 0.099820137 0.051347435 2.9434008e-39
0.0083711073 0.094543405 0.051035821 2.8508506e-39
0.0074495822 0.097199328 0.052223265 6.4321281e-40
0.0087963641 0.099271119 0.051893473 1.1945803e-39
0.090723604 0.10226348 0.015280962 1.5366813e-38
0.089286491 0.074458376 0.014261305 1.8599032e-38
0.089314364 0.086623624 0.014580667 1.4545664e-38
0.071394973 0.10093985 0.016500115 1.648358e-38
0.089104734 0.1248828 0.013058662 2.3233656e-38
0.085364684 0.064560644 0.016020834 1.8872382e-38
0.085224867 0.076361112 0.013822079 1.7492692e-38
0.085211642 0.084417336 0.01370132 1.5374703e-38
0.12166646 0.13275349 0.013087749 1.2430595e-38
0.1155993 0.12146659 0.014375687 1.4179763e-38
0.085405648 0.085732982 0.018446445 1.4270522e-38
0.083960176 0.088888302 0.018520534 1.7495922e-38
0.082869679 0.10131215 0.01844281 1.8046579e-38
0.075724557 0.092343658 0.01969403 1.8788826e-38
0.069333076 0.08972609 0.020709038 1.6574686e-38
0.09747269 0.10221159 0.018290877 1.6576827e-38
0.14755812 0.13269711 0.01478529 1.9428087e-38
0.12952477 0.11160312 0.017837942 1.8050177e-38
0.12212124 0.096148148 0.018098295 1.9063979e-38
0.12030986 0.10074198 0.017748415 1.6113349e-38
0.12043612 0.12995949 0.017898381 1.7586311e-38
0.11957264 0.11630186 0.020320535 1.9245481e-38
0.11682895 0.096731588 0.021478295 1.730937e-38
0.11798577 0.095775083 0.019145489 1.629739e-38
0.11985977 0.13859072 0.019964874 1.7310809e-38
0.073361002 0.036748827 0.033671498 1.9610345e-38
0.10822964 0.12527677 0.02751714 1.7495196e-38
0.10314897 0.1270732 0.029681683 1.804801e-38
0.15148355 0.085739434 0.025648177 2.2488545e-38
0.15203962 0.088448606 0.024800718 2.239815e-38
0.15249187 0.092478372 0.023386955 2.2389152e-38
0.15305363 0.095182136 0.022595108 2.239381e-38
0.15354834 0.15058151 0.021123886 1.878524e-38
0.15309247 0.15335527 0.021182179 1.9057865e-38
