# .PCD v0.7 - Point Cloud Data file format
VERSION 0.7
FIELDS x y z rgb
SIZE 4 4 4 4
TYPE F F F F
COUNT 1 1 1 1
WIDTH 987
HEIGHT 1
VIEWPOINT 0 0 0 0 1 0 0
POINTS 987
DATA ascii
0.1648697 0.096165597 0.010718107 1.335073e-38
0.15992096 0.066186309 0.013305068 1.6754409e-38
0.1600756 0.070080936 0.012889326 1.6017565e-38
0.15992096 0.073658571 0.01245904 1.5095968e-38
0.16013175 0.077263743 0.011065662 1.4177967e-38
0.16008469 0.081024982 0.010858715 1.3625514e-38
0.15997319 0.085454062 0.010877192 1.3533315e-38
0.15994418 0.089832023 0.010518372 1.3352163e-38
0.16115814 0.093607165 0.010402322 1.3813501e-38
0.15620941 0.066274293 0.01268959 1.6478894e-38
0.15605476 0.070007607 0.012241662 1.5558034e-38
0.15628177 0.073548734 0.01153791 1.4729708e-38
0.15635392 0.077240206 0.010791898 1.3901747e-38
0.15623346 0.081048183 0.010907531 1.3442205e-38
0.15620941 0.085421957 0.01052165 1.3349648e-38
0.15620941 0.089780778 0.010028124 1.3165982e-38
0.15620941 0.092271537 0.0097461939 1.30745e-38
0.15311645 0.067307591 0.012068033 1.6201605e-38
0.15187928 0.069775783 0.011586726 1.54669e-38
0.15191598 0.073490903 0.011002123 1.4728629e-38
0.15191597 0.077226408 0.010579288 1.3809187e-38
0.1519355 0.080871984 0.010339558 1.3348565e-38
0.15200299 0.085303739 0.0098488927 1.3074866e-38
0.1521267 0.089706317 0.0093705058 1.2982302e-38
0.1483739 0.070542112 0.010928154 1.5282513e-38
0.14847702 0.07313852 0.010650933 1.4913736e-38
0.14796153 0.077591717 0.010062695 1.3991786e-38
0.14737238 0.08054617 0.0096321106 1.353332e-38
0.14723983 0.083701655 0.0092531443 1.3532963e-38
0.14383757 0.080837518 0.0090224147 1.3992855e-38
0.14383757 0.083950959 0.0086699128 1.3899236e-38
0.16743982 0.093635798 0.01119715 1.2981934e-38
0.17887223 0.078233629 0.016618669 1.1969583e-38
0.19424586 0.073918201 0.020068347 9.4813858e-39
0.17510849 0.078586385 0.016021311 1.1875225e-38
0.17515031 0.086109579 0.015100837 1.0770691e-38
0.17471215 0.088824674 0.014174461 1.1507537e-38
0.17296937 0.085995726 0.01483345 1.2705362e-38
0.17287035 0.092494197 0.014987826 1.233873e-38
0.19081865 0.066593751 0.02237761 1.4361635e-38
0.19099477 0.070848845 0.020820141 1.2705345e-38
0.19113016 0.074496552 0.01957953 1.1414258e-38
0.18928209 0.078199744 0.018773794 1.1229501e-38
0.19104232 0.086444505 0.018764675 9.2051464e-39
0.1909405 0.090913445 0.018879354 9.5732297e-39
0.19100685 0.094603285 0.018047631 1.0404425e-38
0.19087145 0.098490775 0.018435061 1.141822e-38
0.19044723 0.10204904 0.019322217 1.2064653e-38
0.18878511 0.10494669 0.018723011 1.3259945e-38
0.18629193 0.062236667 0.023151994 1.619872e-38
0.18639028 0.066561721 0.022083759 1.6666877e-38
0.18657367 0.070819542 0.020527005 1.5833149e-38
0.1867431 0.074448988 0.019124091 1.4452018e-38
0.18680018 0.078154482 0.018374026 1.2335139e-38
0.1866229 0.081898741 0.017921269 1.1415326e-38
0.1868002 0.086274028 0.017454684 1.1047275e-38
0.18670626 0.090730429 0.017501354 1.1047995e-38
0.18651783 0.094654724 0.018159032 1.1510044e-38
0.18644232 0.098483257 0.018166423 1.2155778e-38
0.18629193 0.10239154 0.01860559 1.2892263e-38
0.18629193 0.10490122 0.018321395 1.3445064e-38
0.1813056 0.063400567 0.022206724 1.8510804e-38
0.18255219 0.066731527 0.022033036 1.9244417e-38
0.18263018 0.07089828 0.021120846 1.7584883e-38
0.18278497 0.07454896 0.019826472 1.5926088e-38
0.18290229 0.078218192 0.018750548 1.380918e-38
0.18299955 0.081894457 0.017783761 1.2888274e-38
0.18360919 0.085769713 0.016991317 1.2338362e-38
0.18320462 0.090981893 0.016626477 1.2336576e-38
0.18278559 0.094586663 0.017557919 1.2061443e-38
0.18272723 0.098396949 0.017456889 1.2707522e-38
0.18272723 0.10215579 0.017031312 1.3811341e-38
0.18259129 0.10604979 0.017361164 1.4733297e-38
0.18255219 0.10859754 0.017292798 1.5561264e-38
0.17881243 0.062257119 0.021929443 1.9152219e-38
0.17887312 0.066453911 0.021124482 1.9612851e-38
0.17905377 0.070723549 0.019650936 1.841358e-38
0.17915395 0.074410804 0.018683374 1.7399063e-38
0.17925435 0.078091957 0.017716527 1.5375436e-38
0.17945462 0.081470758 0.017237246 1.4177606e-38
0.18059547 0.085536294 0.016526043 1.3165258e-38
0.17960271 0.091264337 0.015715539 1.3073417e-38
0.17915395 0.09443146 0.016416609 1.233874e-38
0.17909414 0.098238766 0.016315639 1.2615325e-38
0.1790134 0.1020693 0.016321898 1.3719158e-38
0.17893289 0.10590488 0.01632762 1.5101012e-38
0.17856312 0.10902673 0.016593456 1.6114062e-38
0.1738261 0.059499644 0.021428168 1.9979821e-38
0.17511429 0.062007912 0.02112782 1.9151137e-38
0.17535263 0.066253424 0.019383311 1.8966037e-38
0.17569387 0.07036183 0.01795429 1.8321743e-38
0.17578682 0.074362285 0.017006695 1.7032082e-38
0.1765624 0.078280061 0.016689658 1.5926816e-38
0.17645898 0.080880597 0.016378343 1.5097419e-38
0.17625217 0.091702893 0.015119255 1.32578e-38
0.1755702 0.09424191 0.015060365 1.2798277e-38
0.17548695 0.098063573 0.015067339 1.2797198e-38
0.17538324 0.10190865 0.015181422 1.3348943e-38
0.17513478 0.10589442 0.016049027 1.4364898e-38
0.17507267 0.10908857 0.016017079 1.5100301e-38
0.16946304 0.055655554 0.021151662 2.0442593e-38
0.17049927 0.058413818 0.020804584 1.9702167e-38
0.17091882 0.061836801 0.019585013 1.8964237e-38
0.17119227 0.066060379 0.017706931 1.8227746e-38
0.17190886 0.069138773 0.016965449 1.7766776e-38
0.17232251 0.094962329 0.014109135 1.2889751e-38
0.17116429 0.09885525 0.013479471 1.2706069e-38
0.17116055 0.10171781 0.013834476 1.3167409e-38
0.17083868 0.10575711 0.015023947 1.3812406e-38
0.17050186 0.10879607 0.015304506 1.418085e-38
0.16634658 0.055598721 0.020649672 2.0073452e-38
0.16641307 0.058074154 0.020040452 1.9057157e-38
0.16672383 0.061671048 0.018097937 1.8689436e-38
0.16729963 0.065128788 0.016667604 1.8044428e-38
0.16570415 0.099005505 0.012571692 1.325956e-38
0.16683424 0.10161994 0.013026536 1.3350707e-38
0.16661257 0.10556257 0.013676763 1.3718769e-38
0.16624087 0.10935301 0.014291465 1.4179044e-38
0.16229518 0.055211127 0.020032585 1.9242982e-38
0.1626752 0.058005981 0.019438386 1.8873472e-38
0.16308548 0.061555728 0.017064393 1.8504679e-38
0.16322225 0.063983709 0.016131997 1.7677073e-38
0.16304126 0.097884789 0.012391567 1.3535117e-38
0.16301669 0.10162599 0.012856066 1.3535475e-38
0.16278896 0.10557083 0.01350522 1.3812058e-38
0.16275728 0.10991492 0.013729036 1.436416e-38
0.15886706 0.054834902 0.019515991 1.9059304e-38
0.15896095 0.057926424 0.018728137 1.8412836e-38
0.15931226 0.061511807 0.0166803 1.7584156e-38
0.15949942 0.063915811 0.015532374 1.7215382e-38
0.15825847 0.068889827 0.014766753 1.6203053e-38
0.15884349 0.093910627 0.012199283 1.326248e-38
0.1592878 0.097805247 0.012680411 1.3445796e-38
0.15910064 0.10170636 0.013114452 1.3537633e-38
0.15889028 0.10563695 0.01365459 1.3904982e-38
0.15928259 0.10900974 0.013450027 1.4363794e-38
0.15537663 0.054896727 0.018939495 1.8877765e-38
0.15524754 0.05784709 0.018018067 1.8229172e-38
0.1556327 0.061420009 0.015863836 1.7401549e-38
0.15577659 0.064160213 0.014897346 1.6941288e-38
0.15701753 0.068867199 0.014566839 1.6018676e-38
0.15566775 0.094530731 0.011950791 1.2799722e-38
0.15536736 0.097880274 0.012938619 1.2893357e-38
0.15519881 0.10176758 0.013263941 1.3168847e-38
0.15595837 0.10476631 0.013388097 1.3536916e-38
0.15151072 0.057778947 0.017416179 1.8045514e-38
0.15183085 0.061387405 0.015587091 1.7215738e-38
0.15169495 0.065487251 0.014173925 1.6478536e-38
0.1508128 0.082494825 0.012011707 1.3350716e-38
0.14957187 0.086219676 0.011387527 1.3074506e-38
0.15019234 0.089978479 0.011063159 1.2891545e-38
0.15158331 0.09378694 0.011878371 1.2616393e-38
0.15143669 0.097955108 0.013195097 1.270824e-38
0.15138756 0.10175499 0.012983382 1.2799711e-38
0.15014097 0.10424194 0.012498438 1.3352522e-38
0.14702451 0.057756029 0.01725328 1.7584519e-38
0.14723384 0.06142322 0.015937746 1.6848033e-38
0.14728072 0.065596305 0.014708221 1.6203381e-38
0.14663774 0.069530942 0.012968361 1.5466893e-38
0.14634541 0.07391905 0.012253821 1.482047e-38
0.14626268 0.076582424 0.01193881 1.4360208e-38
0.14771044 0.082438245 0.011511981 1.3625151e-38
0.14721639 0.086351603 0.01111573 1.3073067e-38
0.14696202 0.090005174 0.011099517 1.2337661e-38
0.14718725 0.09403193 0.011689723 1.2430917e-38
0.1470819 0.097871162 0.012465954 1.2431653e-38
0.14702451 0.10167543 0.012280643 1.270895e-38
0.14702451 0.1041851 0.011996448 1.3259609e-38
0.14349252 0.05852817 0.016589582 1.7216108e-38
0.14287585 0.061573721 0.015889347 1.6572895e-38
0.14295548 0.065691561 0.014416575 1.59286e-38
0.14313149 0.069986142 0.013194442 1.5558746e-38
0.14326197 0.073670372 0.012232184 1.4730428e-38
0.14334078 0.077376679 0.011485517 1.4176895e-38
0.14324953 0.086803928 0.010799766 1.3439673e-38
0.14313191 0.090003438 0.010928094 1.2981237e-38
0.14297509 0.093860641 0.011145473 1.2706785e-38
0.14279193 0.097742639 0.011469066 1.270822e-38
0.14266147 0.10159585 0.011577845 1.2892979e-38
0.13896216 0.061982252 0.015289545 1.6479616e-38
0.13918246 0.065642707 0.013976634 1.5834249e-38
0.13918912 0.07002417 0.013453245 1.5097768e-38
0.13924223 0.073754869 0.012812912 1.4362007e-38
0.13942979 0.077409767 0.011636674 1.4729354e-38
0.13959037 0.081072003 0.010568559 1.4453826e-38
0.13950364 0.085497998 0.010421455 1.40854e-38
0.13932315 0.089985847 0.010648549 1.3716995e-38
0.13916257 0.093843624 0.010865331 1.3350724e-38
0.139002 0.097710207 0.01108098 1.3443622e-38
0.13892171 0.1002728 0.011117518 1.3076645e-38
0.13518196 0.062559411 0.014777422 1.5744565e-38
0.1353251 0.065630756 0.013858438 1.5283597e-38
0.13542844 0.06996952 0.012959242 1.4454559e-38
0.13542846 0.07372836 0.012533665 1.3626598e-38
0.13542844 0.0774872 0.012108088 1.3718079e-38
0.13545562 0.08123073 0.011575341 1.4086135e-38
0.1354692 0.085607916 0.011025369 1.4176879e-38
0.13545564 0.090000086 0.010582447 1.3994296e-38
0.13542846 0.093775526 0.01026386 1.3718803e-38
0.1352915 0.097624198 0.010372102 1.3351439e-38
0.13518196 0.10051832 0.010479629 1.3535108e-38
0.13206549 0.062502578 0.014275432 1.6021875e-38
0.1314422 0.065628313 0.013819873 1.5008079e-38
0.13169433 0.073660262 0.011932194 1.233801e-38
0.13169433 0.077419102 0.011506617 1.2337299e-38
0.13163789 0.081207916 0.011294901 1.3165614e-38
0.13167314 0.08557491 0.010664701 1.288975e-38
0.13169433 0.08994858 0.010087967 1.2983026e-38
0.13169433 0.09370742 0.0096623898 1.3903177e-38
0.13149802 0.097591475 0.0099835396 1.3812421e-38
0.13206549 0.10014777 0.010013163 1.3996437e-38
0.12785827 0.066347227 0.013153791 1.1322763e-38
0.12778836 0.069911838 0.012399018 1.0310791e-38
0.12790336 0.073620029 0.011544764 9.0218622e-39
0.12784627 0.077408619 0.011333108 8.9325308e-39
0.12770244 0.081245601 0.011441529 9.7586916e-39
0.12770244 0.085637555 0.010944307 1.0590246e-38
0.12778816 0.089979388 0.010126889 1.114199e-38
0.12778795 0.093742646 0.0097007751 1.2246509e-38
0.12811796 0.09714783 0.0097088814 1.3075552e-38
0.12421203 0.065496452 0.012655258 1.1134792e-38
0.12376568 0.06998086 0.011870861 1.0399371e-38
0.12340477 0.073605925 0.011350632 8.835624e-39
0.12342671 0.07735803 0.010844469 7.5424077e-39
0.12333938 0.081166044 0.01073879 6.9038738e-39
0.12333938 0.085557975 0.010241508 7.3641303e-39
0.12333938 0.089949921 0.0097442865 8.2821209e-39
0.12458599 0.093737178 0.0095188618 9.2037143e-39
0.12022293 0.074835002 0.010947168 1.2703467e-38
0.11991128 0.077652708 0.010577261 9.755753e-39
0.11913219 0.081246167 0.010043323 5.8904366e-39
0.11904439 0.085442491 0.0092990994 5.9815518e-39
0.11941019 0.089655623 0.0088452697 7.8211344e-39
0.11689524 0.085218862 0.0076993108 5.8886163e-39
0.082825392 0.10991591 0.00087422132 1.472791e-38
0.082825392 0.1124256 0.00059008598 1.3993633e-38
0.08033222 0.10924303 0.00054371357 1.5462608e-38
0.081578806 0.11177544 0.00046032667 1.4360592e-38
0.077839047 0.1104524 0 1.6114065e-38
0.17331885 0.09186016 0.013830006 1.3166334e-38
0.17883646 0.10566697 0.016414404 1.4916613e-38
0.16844237 0.067860037 0.016245425 1.730759e-38
0.15721095 0.072458729 0.014701605 1.6112641e-38
0.15563256 0.067469634 0.014046073 1.6479259e-38
0.14737238 0.08054617 0.0096321106 1.353332e-38
0.18039578 0.065540329 0.024009526 1.6113312e-38
0.18572691 0.059440456 0.026774824 1.8968892e-38
0.18581225 0.10727745 0.020862758 1.4275204e-38
0.18545958 0.1102474 0.021512806 1.6390671e-38
0.18174782 0.059122391 0.02640444 2.0995036e-38
0.18235837 0.062227972 0.024550319 1.7954396e-38
0.18220207 0.064899698 0.024222314 1.8969635e-38
0.18202701 0.11101937 0.019991517 1.6667969e-38
0.18153843 0.11340275 0.020661533 1.7862933e-38
0.17746259 0.056204334 0.026472688 2.1180154e-38
0.17825048 0.05864957 0.025418103 2.062734e-38
0.17845103 0.061055414 0.024045646 1.9244417e-38
0.17876363 0.11109146 0.018431425 1.6487521e-38
0.17797831 0.11408034 0.019749045 1.8142744e-38
0.17307322 0.051705848 0.026265919 2.1179092e-38
0.17421739 0.055015355 0.025822997 2.0993616e-38
0.17483324 0.058327682 0.023891687 2.0625903e-38
0.17469999 0.11133203 0.017741323 1.5376535e-38
0.17440996 0.11413692 0.018962264 1.7126804e-38
0.17370027 0.11673144 0.019005895 1.8322459e-38
0.17056501 0.051660106 0.025861919 2.1087248e-38
0.17093775 0.054553233 0.024448216 2.0625912e-38
0.17157415 0.057154119 0.023365438 2.0346452e-38
0.17094897 0.11076015 0.017194092 1.4641118e-38
0.17065035 0.11406814 0.018356681 1.537905e-38
0.17056501 0.11667424 0.018500924 1.6667616e-38
0.16640703 0.051363308 0.025103867 2.0809579e-38
0.16641505 0.054166324 0.023315132 2.0348604e-38
0.16782311 0.11120661 0.01663357 1.4363085e-38
0.16711622 0.11313973 0.018338442 1.4825138e-38
0.16053216 0.048321109 0.024603248 2.0162778e-38
0.16190045 0.050818503 0.02397728 2.034681e-38
0.16244662 0.05371524 0.022265732 2.0070223e-38
0.16101921 0.11349257 0.016963959 1.4732596e-38
0.15865101 0.048286803 0.024300218 1.9798652e-38
0.15816447 0.050740011 0.023263335 1.9705034e-38
0.15844551 0.053138826 0.021678329 1.9518136e-38
0.15761194 0.11060084 0.015036404 1.4178325e-38
0.15794601 0.11369177 0.016397536 1.4548178e-38
0.15488869 0.048218191 0.023694217 1.9154731e-38
0.15440591 0.050671473 0.02265799 1.9246207e-38
0.1543819 0.053379368 0.020988107 1.9059287e-38
0.1542777 0.10634461 0.014974296 1.3535475e-38
0.15457404 0.10980815 0.0151968 1.3719481e-38
0.15451245 0.11309923 0.01628691 1.436452e-38
0.15064737 0.05060292 0.022052526 1.8689434e-38
0.15069337 0.053500894 0.020372629 1.8598679e-38
0.15109974 0.10602444 0.014492095 1.3351444e-38
0.15067205 0.10985796 0.015234292 1.3628017e-38
0.15018579 0.11283097 0.01561141 1.4365592e-38
0.14703336 0.051338188 0.021855474 1.8505414e-38
0.14711651 0.05422315 0.020047128 1.8413202e-38
0.14737102 0.10615873 0.01386863 1.3628393e-38
0.14693983 0.10976987 0.014522135 1.3812431e-38
0.14642347 0.11276235 0.01500541 1.4089381e-38
0.14422879 0.051811017 0.02154839 1.8412489e-38
0.14324743 0.054425605 0.020582438 1.8045852e-38
0.14213221 0.057586819 0.018768251 1.7493764e-38
0.14094068 0.060371332 0.018003702 1.6942029e-38
0.1428162 0.10571605 0.013175666 1.3261408e-38
0.14313024 0.10974109 0.014130473 1.3720954e-38
0.14422879 0.11240673 0.014687657 1.3723113e-38
0.13946319 0.05500637 0.020409107 1.8044071e-38
0.13856657 0.057838015 0.019293427 1.7400499e-38
0.13843998 0.060325734 0.017600954 1.6940237e-38
0.13844 0.10248967 0.012827039 1.3169201e-38
0.13819915 0.10580826 0.01343143 1.3444716e-38
0.13868594 0.10963328 0.013911963 1.3812784e-38
0.13430159 0.058257118 0.018762052 1.7308665e-38
0.13468894 0.060886636 0.016925454 1.6757629e-38
0.13463926 0.10258076 0.012400627 1.3719151e-38
0.13441466 0.10575928 0.012932837 1.3812785e-38
0.13482299 0.10907916 0.013529956 1.418048e-38
0.13055971 0.058451779 0.018056691 1.7310459e-38
0.13075928 0.06108468 0.016261995 1.6942015e-38
0.13065124 0.10215192 0.012031496 1.4273378e-38
0.1306532 0.10564564 0.012983501 1.4180118e-38
0.12671396 0.058417127 0.017773211 1.5008103e-38
0.1270719 0.061425582 0.016074836 1.4638209e-38
0.1268743 0.064205341 0.015274823 1.2334046e-38
0.12635329 0.098703153 0.011283994 1.2336932e-38
0.12705317 0.10168817 0.012207031 1.3075195e-38
0.12729836 0.10452349 0.012818158 1.280078e-38
0.12281621 0.058426172 0.016694486 1.3623704e-38
0.12340637 0.06132222 0.015148759 1.2795388e-38
0.1221855 0.06569311 0.014341414 1.2704257e-38
0.12209705 0.094064333 0.011454642 9.2941037e-39
0.12356701 0.097775221 0.011808336 1.0127113e-38
0.12416309 0.10067909 0.012741983 1.1050145e-38
0.11977372 0.058939494 0.016751707 1.4543827e-38
0.11929533 0.061393954 0.015829384 1.3442534e-38
0.11941448 0.065759383 0.0149014 1.3351427e-38
0.11935942 0.069966093 0.014033735 1.2798996e-38
0.11888042 0.073587619 0.013112307 1.0866438e-38
0.11843446 0.076952331 0.012454689 7.3669385e-39
0.12004153 0.094133735 0.01179111 9.7557881e-39
0.11663845 0.06203834 0.015889347 8.6555684e-39
0.11663845 0.065825574 0.015460551 9.5746688e-39
0.11639315 0.070523798 0.014633715 6.903155e-39
0.11623907 0.073915727 0.013629794 5.2411043e-39
0.11642158 0.077612326 0.012561381 4.5132643e-39
0.11635053 0.080480441 0.011715353 6.1681151e-39
0.085285813 0.10628214 0.0057651997 1.9330498e-38
0.087379754 0.10872357 0.0051505566 1.905319e-38
0.086826652 0.11270481 0.0043717027 1.9147225e-38
0.086739361 0.11644456 0.004214406 2.1548246e-38
0.082691163 0.10528214 0.0051637888 1.9605638e-38
0.083540887 0.10827611 0.0033431053 1.665645e-38
0.083841577 0.11303136 0.0027263165 1.5741378e-38
0.083137572 0.11738822 0.0030243993 1.9431329e-38
0.079335541 0.10519548 0.0044806004 1.739692e-38
0.079673737 0.10708177 0.0027201176 1.7028128e-38
0.079673737 0.1133749 0.0020076036 1.5007741e-38
0.079185814 0.11710541 0.0026269555 1.6481778e-38
0.079328805 0.12037562 0.00319767 1.9613558e-38
0.075649753 0.10574621 0.0039989352 1.4632838e-38
0.075848103 0.10831066 0.0021833181 1.5740979e-38
0.075682491 0.11224823 0.0017388463 1.6663279e-38
0.075420409 0.11673644 0.0024622679 1.7310077e-38
0.075002134 0.12048608 0.0024793148 1.9796866e-38
0.072744757 0.10605343 0.0037451386 1.4359845e-38
0.072456986 0.10839026 0.0024141073 1.5098484e-38
0.072570175 0.11211222 0.0016713142 1.3993585e-38
0.072344407 0.11622715 0.0018482208 1.565488e-38
0.072744757 0.11993994 0.0021728873 1.8511513e-38
0.17910385 0.07256718 0.019167185 1.7860404e-38
0.1748163 0.077778876 0.015756011 1.5005576e-38
0.17346096 0.086056016 0.014057159 1.36248e-38
0.15598486 0.093924157 0.011405706 1.3626592e-38
0.15191703 0.081615046 0.0123173 1.4361638e-38
0.17820896 0.053040341 0.028991759 1.9155439e-38
0.13932315 0.089985847 0.010648549 1.3716995e-38
0.18493663 0.052933585 0.032140374 2.1278473e-38
0.18510604 0.055376545 0.030871868 2.1000809e-38
0.18527545 0.057814457 0.029604018 1.9891928e-38
0.18590438 0.11227235 0.023540795 1.7313335e-38
0.1850688 0.11502008 0.024339497 1.7313711e-38
0.18132679 0.052772708 0.030550122 2.1917381e-38
0.18142426 0.05525513 0.029718637 2.1829133e-38
0.18213078 0.057757109 0.029097497 2.173585e-38
0.1817188 0.11552607 0.022693455 1.8602275e-38
0.18110439 0.11862354 0.02344054 1.9522082e-38
0.17610523 0.048962586 0.031149209 2.2285065e-38
0.17736775 0.051601626 0.030164301 2.1457095e-38
0.17788239 0.054799326 0.028885007 2.2098157e-38
0.17898612 0.11594477 0.021996379 1.9339466e-38
0.17764816 0.11853938 0.02193749 1.9339843e-38
0.17610523 0.12135151 0.022953212 1.9427382e-38
0.1731925 0.048047915 0.030607641 2.1271275e-38
0.17423418 0.051140346 0.028995395 2.1271286e-38
0.17521252 0.053832352 0.028413236 2.1820145e-38
0.17413434 0.11875045 0.020887256 1.8417517e-38
0.17370683 0.12117627 0.021902144 1.8600135e-38
0.16986109 0.047548942 0.029950798 2.0906806e-38
0.17018107 0.049942002 0.028032899 2.1272004e-38
0.17018104 0.11847486 0.020273507 1.6851284e-38
0.16998908 0.12104273 0.020970881 1.7311182e-38
0.1661216 0.047461089 0.029124081 2.0812095e-38
0.16577852 0.049861714 0.027323723 2.1269114e-38
0.16615587 0.11520431 0.019987166 1.5286123e-38
0.16634157 0.11831169 0.020005405 1.5931843e-38
0.16575991 0.12167084 0.021229386 1.6207355e-38
0.1603349 0.041055091 0.029471755 1.8883169e-38
0.16072273 0.04373654 0.028648973 1.9616421e-38
0.16173993 0.047369204 0.02827251 2.0350395e-38
0.16389173 0.049827304 0.027019799 2.0715587e-38
0.16263384 0.11492302 0.019444406 1.5008087e-38
0.16197217 0.11824609 0.019979715 1.537831e-38
0.15781166 0.041009076 0.029065371 1.8601553e-38
0.15720405 0.043528657 0.028567672 1.8968901e-38
0.1572724 0.046874095 0.027002573 1.9429873e-38
0.15886027 0.11557774 0.018754601 1.4918379e-38
0.15736839 0.11829916 0.019335985 1.4916609e-38
0.15381649 0.043899503 0.028086305 1.8968906e-38
0.15355635 0.046781339 0.026115537 1.9062174e-38
0.15351433 0.11516369 0.017929375 1.5194644e-38
0.15356408 0.11825083 0.018833995 1.5927883e-38
0.15087271 0.044692472 0.027516305 1.9151856e-38
0.14983313 0.047124743 0.026051819 1.8966732e-38
0.15030676 0.11491527 0.017434299 1.4826573e-38
0.14975911 0.11820275 0.018332005 1.5193558e-38
0.14604059 0.047280721 0.026180089 1.8687652e-38
0.14590974 0.049838737 0.024339795 1.8505046e-38
0.14644247 0.11492066 0.01721096 1.4366329e-38
0.14593953 0.11765064 0.017140269 1.4825855e-38
0.14456457 0.1207763 0.01787287 1.5194286e-38
0.14204133 0.048341356 0.025662422 1.8689077e-38
0.14226325 0.05057501 0.023789048 1.8596517e-38
0.14125013 0.053212974 0.022942781 1.8505029e-38
0.14223385 0.1142612 0.016701043 1.3721313e-38
0.14222258 0.11804381 0.017007291 1.464255e-38
0.14267214 0.12074178 0.017568052 1.5657787e-38
0.13825645 0.048272334 0.025052786 1.896386e-38
0.13857466 0.050693057 0.023471236 1.8596516e-38
0.13841993 0.053477909 0.022451043 1.8319587e-38
0.13747653 0.11138916 0.015740335 1.4089734e-38
0.13846865 0.11414936 0.01672256 1.3812424e-38
0.13847053 0.11773472 0.017077446 1.3906422e-38
0.13447157 0.048203312 0.02444315 1.8870935e-38
0.13432479 0.0507368 0.022834837 1.8228794e-38
0.13433185 0.054353006 0.021685123 1.7676737e-38
0.13370293 0.056873925 0.021297038 1.7308676e-38
0.13319978 0.11055146 0.015137553 1.4456354e-38
0.13428661 0.11338022 0.016305387 1.4271617e-38
0.12980326 0.050483994 0.022913635 1.7587036e-38
0.12987308 0.05429323 0.021191001 1.7494139e-38
0.12992933 0.056805104 0.020689189 1.7218978e-38
0.12867147 0.10743 0.01475215 1.3992488e-38
0.1297604 0.11010408 0.015306711 1.3813124e-38
0.12959251 0.11275944 0.015658379 1.3722378e-38
0.12589251 0.051348802 0.022687435 1.7587041e-38
0.12595502 0.054276265 0.021120191 1.7496649e-38
0.12615573 0.056736283 0.020081401 1.6299872e-38
0.12489787 0.10356259 0.014574409 1.16948e-38
0.12590209 0.10652603 0.014694095 1.1787354e-38
0.12572569 0.11021261 0.015655696 1.2061786e-38
0.12690181 0.1128343 0.015890598 1.2799689e-38
0.12218577 0.054634728 0.021128178 1.4635355e-38
0.12263122 0.057014219 0.019729733 1.408253e-38
0.12112427 0.099062085 0.014468372 1.0770673e-38
0.12209223 0.10248865 0.014748156 1.0956499e-38
0.12205976 0.10625993 0.01505214 1.0681002e-38
0.12185529 0.1102023 0.015365303 1.1326012e-38
0.11933205 0.055547096 0.021141827 1.4449865e-38
0.11815923 0.05759804 0.019698739 1.3533289e-38
0.11933205 0.10571135 0.01546216 1.141748e-38
0.11933205 0.11015628 0.014958858 1.2060347e-38
0.11515161 0.058222257 0.019749165 1.0027689e-38
0.11419949 0.061512329 0.018609583 8.2741882e-39
0.11396421 0.066111803 0.017923057 7.6378389e-39
0.11408021 0.070190988 0.016588092 7.6378053e-39
0.11357707 0.074233629 0.016048253 6.7183657e-39
0.11357707 0.07739912 0.01568985 6.3513909e-39
0.11176229 0.067473866 0.018556535 8.7441739e-39
0.11172533 0.070524238 0.017185569 8.2831985e-39
0.11193466 0.073918939 0.016070724 7.4552245e-39
0.10545415 0.10990319 0.012723505 1.4178004e-38
0.1029309 0.11001592 0.01229912 1.4731534e-38
0.10134718 0.11442167 0.011202097 2.0535136e-38
0.10118613 0.11607948 0.010818243 1.7302901e-38
0.096622765 0.10720217 0.011588573 1.5185972e-38
0.098614916 0.10971761 0.011288941 1.5741025e-38
0.098533511 0.11335164 0.010555327 2.1550711e-38
0.098089039 0.11677772 0.0094328523 1.8408506e-38
0.097224802 0.11951846 0.008253336 1.5647355e-38
0.093258426 0.10671749 0.01109457 1.9887588e-38
0.094370842 0.10953878 0.010050476 1.9978032e-38
0.094370633 0.11334389 0.0096196532 2.3027676e-38
0.094437957 0.11710702 0.00897789 2.0529715e-38
0.09596695 0.11949553 0.0080506802 1.5827794e-38
0.089053005 0.10325418 0.01080066 2.2473753e-38
0.090312362 0.10588694 0.010198295 2.2101742e-38
0.090832412 0.10933323 0.0087034702 2.1912702e-38
0.090625048 0.11325492 0.0089052916 2.2841845e-38
0.090314627 0.11724699 0.009422183 2.3118771e-38
0.086340994 0.1026622 0.010221362 2.2283619e-38
0.087092057 0.10544452 0.0084203482 2.1356998e-38
0.08841975 0.1130269 0.0075518489 2.2192173e-38
0.08841975 0.11682549 0.0071218014 2.3394283e-38
0.083112776 0.10204223 0.0088037252 2.182084e-38
0.083702743 0.10439406 0.0077597499 2.0987866e-38
0.079068482 0.10173977 0.0082218051 1.8318853e-38
0.077727884 0.10396855 0.0068331957 1.6289858e-38
0.077727884 0.12232839 0.0047544837 1.970649e-38
0.075740248 0.1019299 0.0080142021 1.2885063e-38
0.074197322 0.10448046 0.0066070557 1.2794664e-38
0.075421795 0.12249736 0.0043591261 2.0166022e-38
0.072651863 0.10295507 0.0081588626 1.2608816e-38
0.071390241 0.10547202 0.0076680779 1.3342482e-38
0.072067484 0.11779347 0.0043444633 1.7584865e-38
0.070809633 0.11966982 0.0039268136 1.7222935e-38
0.17904288 0.091475219 0.016280174 1.4271247e-38
0.17655699 0.086884201 0.015868068 1.574386e-38
0.17341827 0.086708203 0.014330506 1.463931e-38
0.1668492 0.066810809 0.0143646 1.758417e-38
0.17401963 0.069166638 0.01772213 1.4085768e-38
0.16970076 0.086202197 0.014440536 1.1969226e-38
0.14456457 0.1207763 0.01787287 1.5194286e-38
0.18442836 0.048106812 0.035662532 2.0168526e-38
0.18459779 0.051205903 0.034319758 2.062951e-38
0.18035853 0.04441572 0.036053717 1.9160848e-38
0.18066588 0.04801834 0.03483218 2.173622e-38
0.18086061 0.051107321 0.033381343 2.1917023e-38
0.18068491 0.12323797 0.026205599 2.0905745e-38
0.18108609 0.126064 0.027310371 2.2475942e-38
0.17664406 0.041664571 0.036141634 1.7038199e-38
0.17674467 0.044175431 0.035307288 1.9710077e-38
0.1772994 0.047664262 0.032765448 2.1551102e-38
0.17844966 0.05036658 0.032392323 2.1734426e-38
0.17700531 0.12337154 0.025802433 2.0443685e-38
0.17537493 0.12595984 0.026390433 2.1367429e-38
0.17283662 0.041595131 0.035528362 1.8972857e-38
0.17318901 0.044000901 0.033387721 1.9709354e-38
0.17423797 0.046898115 0.032097995 2.1181582e-38
0.17308602 0.12373593 0.024909496 1.8968202e-38
0.17283662 0.12655234 0.025909364 1.9800836e-38
0.16902918 0.041525695 0.03491503 1.8789893e-38
0.16928516 0.043974504 0.033320069 1.9801181e-38
0.16954175 0.12340389 0.023009539 1.7680683e-38
0.16885252 0.12627076 0.024883389 1.8049119e-38
0.16525498 0.04080509 0.03421098 1.8328918e-38
0.1655511 0.043879785 0.032381892 1.9616423e-38
0.16613047 0.12359263 0.022091806 1.6484305e-38
0.16516215 0.12678975 0.024120629 1.6850928e-38
0.16179009 0.040580712 0.033229291 1.8325699e-38
0.16262107 0.043528847 0.031399906 1.9892296e-38
0.16328758 0.04627445 0.030382097 2.0535869e-38
0.16181487 0.12276925 0.021735787 1.55627e-38
0.16152702 0.12687169 0.02346164 1.6387795e-38
0.15722275 0.040058848 0.030096471 1.8604423e-38
0.15949707 0.119974 0.021419346 1.4918058e-38
0.15733944 0.12272874 0.022029757 1.5010952e-38
0.15750043 0.12638161 0.023171842 1.6021162e-38
0.15285857 0.03993953 0.030162573 1.915149e-38
0.15233718 0.042683087 0.029002368 1.8782361e-38
0.15284266 0.12270786 0.021610141 1.5562333e-38
0.15253025 0.12554324 0.02271086 1.574565e-38
0.14922082 0.040141273 0.030383766 1.8600117e-38
0.14923108 0.043315358 0.028423905 1.8599039e-38
0.14901891 0.12266046 0.021104932 1.5561988e-38
0.14510483 0.04038623 0.030291378 1.896674e-38
0.14539567 0.043475844 0.028686285 1.8690506e-38
0.14433497 0.04592881 0.027329326 1.8780205e-38
0.14623024 0.11973205 0.019282401 1.5101369e-38
0.14535585 0.12263131 0.020704865 1.5010966e-38
0.14142524 0.040702887 0.030504882 1.92408e-38
0.14149684 0.043441102 0.028507352 1.8689064e-38
0.14180797 0.046518661 0.026850343 1.8596167e-38
0.14084138 0.12285608 0.020428538 1.5748887e-38
0.13856965 0.040970199 0.030008733 1.9241525e-38
0.13748638 0.043441504 0.028759241 1.8964938e-38
0.13801745 0.046449531 0.026239753 1.8780189e-38
0.1373857 0.11957076 0.01785779 1.4642896e-38
0.13756561 0.12249543 0.019481838 1.5471558e-38
0.13374399 0.043778405 0.028612256 1.8503587e-38
0.13410413 0.046897903 0.026060283 1.8503234e-38
0.13422692 0.11569754 0.017781079 1.4271245e-38
0.13406385 0.11836854 0.018131554 1.4457425e-38
0.13368353 0.12248994 0.019188881 1.5654878e-38
0.13349307 0.12519604 0.01964438 1.6206618e-38
0.13043641 0.11499247 0.017242432 1.408794e-38
0.13021313 0.11834088 0.017733097 1.4549975e-38
0.12988006 0.12242058 0.018576264 1.5103856e-38
0.12968561 0.1251266 0.019031167 1.5471216e-38
0.12619653 0.04723661 0.026643455 1.7953659e-38
0.12506649 0.049710996 0.023757696 1.7311542e-38
0.12576142 0.11452565 0.0165326 1.2247597e-38
0.12608612 0.11819892 0.017392993 1.28944e-38
0.12596306 0.12243766 0.01838845 1.1233815e-38
0.12714732 0.12508032 0.018622279 1.298121e-38
0.12300338 0.047895983 0.026345253 1.6386339e-38
0.12121031 0.050728075 0.024486065 1.5280367e-38
0.1209601 0.053133763 0.02270025 1.4912296e-38
0.12129876 0.11439979 0.016951561 9.296626e-39
0.1218513 0.11836398 0.018136382 7.9176404e-39
0.12333986 0.12181699 0.018370569 7.6378067e-39
0.11735523 0.051532239 0.024944186 1.4359467e-38
0.11744159 0.05425518 0.022763848 1.3991398e-38
0.11680833 0.099064335 0.01818192 1.1139458e-38
0.11762071 0.10278977 0.017212927 1.1692625e-38
0.11744033 0.10666998 0.016064584 1.169444e-38
0.1175084 0.11039715 0.016163409 1.2522047e-38
0.1171729 0.11391465 0.017579496 1.0864308e-38
0.11445585 0.052028399 0.024822831 1.2510535e-38
0.11375599 0.054580778 0.022890449 1.1683297e-38
0.11306319 0.057759278 0.020888269 1.0210273e-38
0.11382127 0.10056379 0.019224048 1.1872353e-38
0.11343065 0.1029598 0.017982841 1.1964906e-38
0.11382768 0.10653874 0.016169667 1.1692991e-38
0.11364433 0.11047917 0.016373396 1.2429124e-38
0.11191753 0.11458215 0.017326355 1.2426966e-38
0.11064839 0.055791616 0.023775637 1.2976883e-38
0.11092687 0.058247298 0.022523463 1.1503154e-38
0.11027715 0.06201797 0.021582782 1.1134746e-38
0.11026767 0.066023648 0.020855784 9.7539832e-39
0.11022028 0.070744134 0.018954277 8.6491154e-39
0.10965961 0.075445585 0.02036953 7.9151363e-39
0.11064839 0.10050593 0.018712997 1.1042575e-38
0.1095971 0.10290863 0.017476499 1.1688309e-38
0.11009529 0.10643189 0.015346348 1.1965999e-38
0.10990924 0.11037016 0.015549719 1.4177588e-38
0.10953501 0.11443479 0.01638782 1.5191e-38
0.10557181 0.10041336 0.017895341 1.1686512e-38
0.1058578 0.10280292 0.016651869 1.1962023e-38
0.10642979 0.10628748 0.014311552 1.178052e-38
0.10658771 0.11010598 0.013904989 1.436202e-38
0.10617641 0.11408186 0.014293969 1.8877025e-38
0.1019588 0.10023615 0.016646206 1.1870947e-38
0.10218561 0.10265923 0.01561594 1.205458e-38
0.10263926 0.10621835 0.013701022 1.2237165e-38
0.10263924 0.1087621 0.013413072 1.2420176e-38
0.10289194 0.11309108 0.012964189 2.0359013e-38
0.098055378 0.10022063 0.016351104 1.2331918e-38
0.098319829 0.10262708 0.015215456 1.279177e-38
0.098848745 0.10614921 0.013090491 1.3252765e-38
0.094351411 0.10264937 0.01513201 1.4450605e-38
0.094742343 0.10559738 0.01248306 1.6478871e-38
0.089643002 0.09983395 0.015158415 1.5927506e-38
0.090303168 0.10234016 0.013795972 1.813806e-38
0.091267675 0.10473909 0.012013435 2.0717745e-38
0.085989818 0.099136196 0.0136801 1.7400496e-38
0.086529523 0.10115503 0.011646271 2.0257483e-38
0.082190812 0.098789006 0.012517095 2.0809211e-38
0.082423151 0.10076217 0.01102078 2.1086152e-38
0.078211725 0.098716438 0.011876166 1.9148249e-38
0.074428439 0.099167794 0.011936128 1.1399922e-38
0.073875487 0.10141202 0.010572195 1.1033587e-38
0.070571616 0.10269846 0.011586785 1.2243639e-38
0.070374325 0.10470712 0.010647535 1.2885817e-38
0.067497388 0.10738429 0.010894597 1.4361618e-38
0.18268515 0.086527489 0.014715731 1.2705355e-38
0.18194324 0.08211416 0.017643213 1.5192479e-38
0.17954308 0.076176286 0.01728195 1.6019004e-38
0.18145442 0.086107261 0.016277909 1.2889021e-38
0.17669374 0.084972516 0.015160441 1.4362369e-38
0.16436684 0.096112102 0.013323128 1.279971e-38
0.16592982 0.095816337 0.01424408 1.3259254e-38
0.1229074 0.11090983 0.012247264 1.4455637e-38
0.12753218 0.090505145 0.014008105 1.5376866e-38
0.12370905 0.091216743 0.014445245 1.454892e-38
0.16540827 0.044092596 0.035086453 1.2428054e-38
0.16946828 0.043244518 0.034905374 1.7494491e-38
0.17957625 0.030524954 0.042978764 6.4450551e-39
0.17969254 0.033058133 0.042031169 7.0882721e-39
0.1799458 0.040665228 0.039738655 1.3906399e-38
0.18154749 0.043111444 0.037797213 1.7315196e-38
0.17941482 0.12824339 0.030359328 2.2477392e-38
0.1757406 0.030455004 0.042360961 6.9027822e-39
0.17576048 0.033022195 0.04196018 7.8269091e-39
0.17582113 0.036859609 0.04119581 9.9448947e-39
0.17592129 0.040035736 0.040286124 1.4831591e-38
0.17583156 0.13138273 0.03043884 2.2198623e-38
0.17254423 0.030396711 0.041846097 9.114729e-39
0.17190495 0.032959074 0.041451633 1.0773541e-38
0.1720708 0.036760326 0.040142059 1.4366671e-38
0.17221582 0.039917737 0.039015412 1.7961565e-38
0.17265029 0.12867199 0.026658416 2.0809589e-38
0.17211199 0.13183041 0.029158294 2.182373e-38
0.1680693 0.030315101 0.041125298 1.1235629e-38
0.16817617 0.032854468 0.040288806 1.3352492e-38
0.16832528 0.036660291 0.039089262 1.6117683e-38
0.16845325 0.039824381 0.038072348 1.8513672e-38
0.16915496 0.12828837 0.02613163 1.8696282e-38
0.16847542 0.13155359 0.027576864 2.0625897e-38
0.16752696 0.13444629 0.028737128 2.1361314e-38
0.16487293 0.030256812 0.040610433 1.2341587e-38
0.16434324 0.032784566 0.039671421 1.4182633e-38
0.16454127 0.03657563 0.038254976 1.6114443e-38
0.16462888 0.039113022 0.037528992 1.6669063e-38
0.16629516 0.12855609 0.025634766 1.7037842e-38
0.16469476 0.13143851 0.026746571 1.915258e-38
0.16570795 0.13430598 0.027946532 2.0259292e-38
0.16087919 0.032904036 0.039076567 1.4459587e-38
0.1606914 0.036513247 0.037747204 1.6852701e-38
0.16080451 0.039043278 0.036912978 1.74041e-38
0.16087228 0.13136879 0.026130795 1.8600846e-38
0.15656236 0.033966295 0.038834691 1.5931118e-38
0.15677126 0.036472429 0.03756547 1.6665814e-38
0.15725994 0.038879663 0.034993827 1.8328559e-38
0.15676244 0.12838224 0.02409929 1.6664367e-38
0.15697995 0.13136777 0.025835812 1.8323176e-38
0.15400526 0.033919662 0.038422763 1.6112634e-38
0.15279469 0.036492385 0.036404788 1.7218633e-38
0.15422039 0.038774747 0.033830106 1.9338392e-38
0.15315986 0.12764449 0.023886561 1.6942385e-38
0.15294126 0.13150418 0.026180983 1.7955834e-38
0.14761253 0.033803079 0.037393093 1.7585599e-38
0.14868632 0.036324985 0.036263108 1.7679607e-38
0.14786525 0.03865885 0.032806456 1.8691958e-38
0.14857806 0.12724684 0.023708284 1.6666531e-38
0.14866737 0.13129023 0.025415361 1.8507207e-38
0.14449173 0.036939587 0.03618902 1.8320664e-38
0.14415574 0.038764387 0.03456831 1.8966027e-38
0.14468768 0.1243237 0.022588968 1.5287897e-38
0.14453587 0.12701762 0.022938907 1.63903e-38
0.14422132 0.13113181 0.024545729 1.8693045e-38
0.13994123 0.037524223 0.035720289 1.9793272e-38
0.14010666 0.039192431 0.033723295 1.9517396e-38
0.14214562 0.12427732 0.022179484 1.6023657e-38
0.14056346 0.12708171 0.022963285 1.666761e-38
0.14036357 0.13108778 0.024048805 1.8968552e-38
0.13738413 0.03747759 0.035308421 1.9792564e-38
0.13654415 0.039683238 0.032372892 1.9333006e-38
0.13671611 0.12703452 0.022454202 1.6299898e-38
0.13630441 0.13059202 0.023740172 1.8140235e-38
0.13294128 0.040183917 0.032238245 1.8872741e-38
0.13261291 0.04221902 0.029915154 1.8505026e-38
0.13289949 0.12732737 0.021782219 1.6115511e-38
0.13243271 0.13055651 0.023282349 1.7682845e-38
0.12880968 0.040422682 0.032046914 1.8505028e-38
0.12913944 0.043035276 0.029595912 1.8044411e-38
0.12876734 0.1277813 0.022318959 1.5010603e-38
0.12996122 0.1297987 0.022625148 1.5932573e-38
0.12495634 0.040565971 0.032523453 1.8137673e-38
0.12522396 0.04348927 0.030151844 1.7397628e-38
0.12435123 0.045906689 0.028149784 1.70335e-38
0.12498356 0.12706932 0.020975232 1.0036712e-38
0.12523791 0.12992117 0.022860289 1.0036671e-38
0.12204155 0.041058831 0.032399952 1.7857863e-38
0.12140588 0.04398147 0.03111577 1.6291996e-38
0.12085989 0.046869986 0.02951026 1.6015407e-38
0.12053815 0.12004493 0.019133687 7.2690438e-39
0.12129602 0.12291531 0.019515038 6.0740907e-39
0.12111172 0.12699942 0.021158576 6.0752104e-39
0.12057507 0.1300531 0.021574914 7.3601843e-39
0.1182059 0.044849925 0.03134495 1.6384185e-38
0.11748242 0.047531594 0.030195117 1.5555858e-38
0.11627787 0.05017636 0.028048456 1.4360191e-38
0.11736058 0.11614866 0.019056439 7.6320852e-39
0.11743504 0.11915901 0.020256996 6.3539567e-39
0.11437026 0.048641019 0.030290008 1.4727154e-38
0.11316694 0.050592691 0.028003633 1.3714804e-38
0.11164096 0.053351559 0.025233328 1.2331192e-38
0.11331856 0.09829776 0.021267772 1.0491935e-38
0.11164096 0.10069101 0.0198735 1.1227694e-38
0.11374243 0.11504021 0.018883109 1.0860722e-38
0.11422983 0.11788338 0.019368827 6.9024165e-39
0.11024484 0.051321555 0.028497875 1.5001971e-38
0.10995224 0.054105878 0.026401699 1.4174734e-38
0.1085382 0.058621772 0.026169598 1.2976834e-38
0.1072634 0.062448211 0.025528371 1.2334054e-38
0.10740453 0.066882253 0.024539471 1.0953261e-38
0.10782787 0.071194246 0.022591114 9.6632659e-39
0.10763973 0.075116485 0.022796035 8.560884e-39
0.10904735 0.078907222 0.023955882 7.3644736e-39
0.10925606 0.096167311 0.024074674 9.0164336e-39
0.10936274 0.098658532 0.022484601 1.0212474e-38
0.10487583 0.062587991 0.02682215 1.2888274e-38
0.10456976 0.067171559 0.025480866 1.1968807e-38
0.10458612 0.071436636 0.024526954 1.1047585e-38
0.10483322 0.075164072 0.024565935 9.8501543e-39
0.10669896 0.078102469 0.025702834 8.1935729e-39
0.10482489 0.095733456 0.02278918 9.8451068e-39
0.1051784 0.098222077 0.021137834 1.0673438e-38
0.10158478 0.063208528 0.026554823 1.3532936e-38
0.10079567 0.066986643 0.025403619 1.2888996e-38
0.10046762 0.071485385 0.024869084 1.2061414e-38
0.10165721 0.074761175 0.025003672 1.1325282e-38
0.10064942 0.094675511 0.022533536 1.1133682e-38
0.10098669 0.098207884 0.020115674 1.159469e-38
0.097749144 0.066356115 0.025572717 1.2982304e-38
0.096741885 0.094753176 0.021810889 1.1777284e-38
0.097031653 0.098209113 0.019923389 1.205496e-38
0.091995656 0.091991492 0.021731615 1.29758e-38
0.092837289 0.094475448 0.020907998 1.2789629e-38
0.093173653 0.098157525 0.019413173 1.2974038e-38
0.09384656 0.1003665 0.017007291 1.3345329e-38
0.088799283 0.091933198 0.02121675 1.3806282e-38
0.08924517 0.094287217 0.019550323 1.3713384e-38
0.089807138 0.097776562 0.017915964 1.4542399e-38
0.085602909 0.091874905 0.020701945 1.4358038e-38
0.085347444 0.094250925 0.019145131 1.5277131e-38
0.085906208 0.09718436 0.017091691 1.5831004e-38
0.081567436 0.094397448 0.018865824 1.9055323e-38
0.082023516 0.097017869 0.016681075 2.0346076e-38
0.07756421 0.094813325 0.018208206 2.0071287e-38
0.077770531 0.096921563 0.015648544 1.9885824e-38
0.07396993 0.094445653 0.017493606 1.6753344e-38
0.07336548 0.097372502 0.01522845 1.2783543e-38
0.070899606 0.095467806 0.017896473 1.3706902e-38
0.069860786 0.097906336 0.016722739 1.2236438e-38
0.069910198 0.10077839 0.014330089 1.1872347e-38
0.068426013 0.10630012 0.012188375 1.4359831e-38
0.067063972 0.10311995 0.016404331 1.196527e-38
0.066471606 0.10597333 0.01394558 1.3256359e-38
0.063920617 0.10977888 0.013098598 1.4084308e-38
0.063574463 0.10802604 0.014260054 1.3808838e-38
0.18683061 0.094171099 0.017622948 1.196995e-38
0.175427 0.079628579 0.014312744 1.5374717e-38
0.13273075 0.1015365 0.011865556 1.2981947e-38
0.15750057 0.046223879 0.030180037 1.9336969e-38
0.17879423 0.026298467 0.046388328 5.7979074e-39
0.1792261 0.028704327 0.04516691 5.7989878e-39
0.17525841 0.026086286 0.045495689 4.9699264e-39
0.17537919 0.028634168 0.04454726 5.7946718e-39
0.17525935 0.13397384 0.033280611 2.2290858e-38
0.17263012 0.026703134 0.045336902 6.5343809e-39
0.17146984 0.02901252 0.0442065 8.4690443e-39
0.17147078 0.13512537 0.032192349 2.2008504e-38
0.16722077 0.028851923 0.04395622 1.0315118e-38
0.16755672 0.13598722 0.031796098 2.1361342e-38
0.16331975 0.029441893 0.043507934 1.1602594e-38
0.16341904 0.13566059 0.030988097 1.9798313e-38
0.16063264 0.030301437 0.04195267 1.2801837e-38
0.15870917 0.032202557 0.041423678 1.3444022e-38
0.15988985 0.13559625 0.030419707 1.9244769e-38
0.15614454 0.032155793 0.041010618 1.4456e-38
0.15582398 0.1350913 0.02930373 1.9337686e-38
0.15222611 0.032966137 0.040619433 1.5926822e-38
0.15293878 0.13471597 0.02887553 1.9611417e-38
0.14853178 0.033231229 0.040462434 1.6942042e-38
0.14437795 0.033944052 0.039908051 1.7858599e-38
0.14460376 0.035172321 0.038786292 1.7859685e-38
0.14396262 0.13326147 0.02757585 1.9242985e-38
0.14064048 0.035780035 0.038580716 1.9609946e-38
0.13819222 0.13315624 0.026646376 1.9427748e-38
0.14060315 0.13463387 0.027552128 1.9338765e-38
0.13568263 0.036777653 0.037828863 1.9793992e-38
0.13562761 0.13310947 0.026233315 1.8971771e-38
0.13603072 0.13462189 0.027147353 1.9247654e-38
0.1319178 0.037253633 0.037245631 1.9242611e-38
0.13113952 0.038799174 0.036179066 1.8966734e-38
0.13169852 0.13310862 0.025932252 1.8238156e-38
0.13282025 0.13456334 0.026630223 1.9249441e-38
0.12776628 0.038787141 0.036309838 1.8596513e-38
0.12752713 0.1312809 0.025730669 1.4089372e-38
0.12357432 0.13143402 0.025221288 9.2083568e-39
0.11929721 0.042912502 0.034121275 1.6752967e-38
0.11997835 0.13217467 0.024805665 7.5452776e-39
0.11869416 0.13430572 0.024354875 6.7047395e-39
0.11740997 0.041208398 0.034686029 1.767527e-38
0.11616394 0.043759104 0.034048378 1.675475e-38
0.11511067 0.046897054 0.032647312 1.5464723e-38
0.11259428 0.044675477 0.033507824 1.6570713e-38
0.11224887 0.047372185 0.032636464 1.5005893e-38
0.11163113 0.096042469 0.027534842 8.7387915e-39
0.10970485 0.044945959 0.033005834 1.7306838e-38
0.10886687 0.0476752 0.032268882 1.6479221e-38
0.10752714 0.051023722 0.031707585 1.7031704e-38
0.10741681 0.055146948 0.030458093 1.5739883e-38
0.10934027 0.080998041 0.027844965 6.5358172e-39
0.10863742 0.083598465 0.027662516 6.7198231e-39
0.10713646 0.086911649 0.027835429 6.9956771e-39
0.10713646 0.092728771 0.027176797 7.6342488e-39
0.10855988 0.09461502 0.026685715 8.1870512e-39
0.10456809 0.048730358 0.031739354 1.786183e-38
0.10456809 0.051315743 0.031446636 1.7680666e-38
0.10456809 0.055193827 0.031007588 1.6664002e-38
0.10436405 0.058823258 0.029980838 1.4270105e-38
0.10462064 0.079816692 0.027463734 8.7448857e-39
0.10463101 0.083603427 0.027574718 7.9176502e-39
0.10456809 0.086864807 0.027421713 7.6385438e-39
0.10431126 0.092160165 0.026780248 8.5572617e-39
0.1049954 0.094405368 0.026026011 8.9253085e-39
0.10071552 0.05189183 0.030752897 1.7952584e-38
0.10071552 0.055123568 0.030387044 1.7217166e-38
0.10097326 0.058913246 0.029093862 1.5832789e-38
0.10100526 0.061484024 0.02869463 1.3902787e-38
0.10068467 0.076645084 0.026925743 1.1232368e-38
0.10081211 0.079642206 0.027286887 1.0310415e-38
0.10071552 0.083562821 0.027167082 9.1118914e-39
0.10071552 0.087440893 0.026727974 9.7547217e-39
0.1007801 0.091285996 0.026076674 1.0675581e-38
0.10228756 0.093777426 0.025247514 1.0306773e-38
0.097184002 0.0521506 0.030147493 1.7491611e-38
0.096862942 0.055053309 0.02976644 1.6844811e-38
0.097158313 0.058832273 0.028367341 1.5648768e-38
0.097158313 0.062704675 0.027928889 1.4177941e-38
0.096677452 0.067052357 0.027358174 1.2981234e-38
0.096517175 0.071728587 0.026802599 1.1969589e-38
0.097092897 0.075640596 0.026680171 1.1231666e-38
0.096928984 0.07958594 0.026773095 1.067776e-38
0.096862942 0.083492562 0.026546538 1.0770664e-38
0.096862942 0.087370634 0.02610743 1.1230924e-38
0.097027242 0.091166742 0.02513814 1.1504279e-38
0.093267232 0.055763349 0.029099464 1.6107243e-38
0.093143761 0.058816694 0.028280556 1.5092018e-38
0.093176991 0.062681243 0.027735174 1.408146e-38
0.093035296 0.067254595 0.027675688 1.2978706e-38
0.093110099 0.071748734 0.026924133 1.2335122e-38
0.093143955 0.07561098 0.026379108 1.2150387e-38
0.093311399 0.079414926 0.025409341 1.2058894e-38
0.093211055 0.083332948 0.025289178 1.2059245e-38
0.093010396 0.087300375 0.025486887 1.1966345e-38
0.093283772 0.090964451 0.024734378 1.2147121e-38
0.094593704 0.093637109 0.024008214 1.1684015e-38
0.089799911 0.056217186 0.028482437 1.6384895e-38
0.08915782 0.058790863 0.028086305 1.5737029e-38
0.08915782 0.062668949 0.027647197 1.4631418e-38
0.089029387 0.066803224 0.027158141 1.4173651e-38
0.08915782 0.071717799 0.026622653 1.380667e-38
0.089225739 0.075568005 0.025971353 1.3622993e-38
0.089361638 0.079387821 0.025107861 1.2978349e-38
0.089225546 0.083322272 0.025093317 1.2518448e-38
0.08915782 0.087230116 0.024866343 1.2610634e-38
0.089054018 0.090422705 0.023614168 1.3345657e-38
0.085305244 0.059366956 0.027392566 1.6752606e-38
0.08567214 0.062790051 0.02706486 1.6475289e-38
0.084838241 0.066585772 0.026499093 1.5648404e-38
0.084663153 0.071312658 0.025935292 1.481974e-38
0.084663153 0.075513907 0.025459647 1.4176169e-38
0.084663153 0.079391986 0.02502054 1.3346771e-38
0.085144728 0.082794093 0.024713933 1.2886503e-38
0.085519254 0.08737921 0.024255872 1.2887216e-38
0.0842994 0.090477668 0.023323774 1.4634259e-38
0.080650061 0.067522973 0.025709689 1.5648765e-38
0.080168486 0.071553856 0.025174737 1.4819024e-38
0.080168486 0.075431943 0.02473563 1.4175101e-38
0.080351949 0.078944027 0.024367929 1.3806662e-38
0.08029604 0.091660716 0.022511303 1.7673454e-38
0.079206005 0.09335649 0.021529675 1.9792871e-38
0.07631591 0.068251863 0.024920106 1.5004141e-38
0.07631591 0.071483597 0.024554193 1.4634645e-38
0.07631591 0.075361677 0.024115086 1.4175106e-38
0.077086434 0.078995273 0.023829401 1.3807382e-38
0.07631591 0.091520347 0.022285581 1.8506472e-38
0.076641381 0.093309715 0.021116555 1.9887965e-38
0.072463363 0.068827957 0.024226367 1.4636059e-38
0.073747545 0.072729453 0.023994148 1.4174029e-38
0.073747545 0.074022144 0.023847759 1.4082911e-38
0.072784394 0.091779113 0.021680176 1.6202313e-38
0.0721533 0.093227863 0.02039367 1.5368633e-38
0.069420785 0.094547108 0.020308256 1.4262599e-38
0.067326605 0.097173527 0.020179033 1.3063341e-38
0.065614343 0.099296793 0.019659281 1.214642e-38
0.06468305 0.10209206 0.018935978 1.1689392e-38
0.06413886 0.10566701 0.017677784 1.2519153e-38
0.060905635 0.10287355 0.018486142 1.1504635e-38
0.060982555 0.10606769 0.01791054 1.270426e-38
0.06043759 0.10923885 0.01717937 1.4083958e-38
0.057909191 0.10260345 0.018027902 1.1873433e-38
0.058016241 0.10572942 0.017691433 1.2794664e-38
0.058337271 0.10993652 0.017267466 1.3900292e-38
0.18929738 0.08433374 0.017192602 1.0402256e-38
0.18900016 0.088174805 0.017386019 1.0311497e-38
0.12074283 0.083596148 0.012323856 1.5281795e-38
0.129786 0.091913506 0.013058722 1.6112993e-38
0.15843479 0.051922251 0.027421713 1.9980909e-38
0.15233718 0.042683087 0.029002368 1.8782361e-38
0.14639467 0.1314618 0.026100934 1.767996e-38
0.1748371 0.022315357 0.048232794 6.351751e-39
0.1750178 0.0242128 0.047027886 5.7985899e-39
0.17451753 0.13707757 0.036079168 2.2477752e-38
0.17473406 0.14060576 0.036862016 2.2857682e-38
0.17069374 0.022313278 0.049086392 6.5364996e-39
0.17081156 0.025321312 0.047235668 6.9957107e-39
0.17078786 0.1378468 0.035511076 2.2474155e-38
0.17124644 0.14002204 0.036359131 2.2572459e-38
0.16704838 0.022596665 0.048969328 7.5488635e-39
0.16702387 0.025437269 0.047057867 8.6548565e-39
0.16794442 0.027967557 0.04544884 9.3024078e-39
0.16723894 0.13810699 0.034902632 2.1644375e-38
0.16285032 0.022845171 0.048256338 8.5611979e-39
0.16298206 0.025411874 0.047307551 9.4835396e-39
0.16344318 0.027885471 0.044723809 1.0681389e-38
0.1630978 0.13797694 0.033986926 2.0811732e-38
0.16155861 0.13984537 0.034798682 2.1551054e-38
0.15962104 0.022786282 0.047736228 9.2969777e-39
0.15931334 0.025496285 0.046487033 1.0221469e-38
0.15928401 0.028767545 0.044528008 1.1785562e-38
0.1593152 0.13814077 0.0329265 2.0813518e-38
0.15843189 0.13967839 0.033797741 2.0722065e-38
