# .PCD v0.7 - Point Cloud Data file format
VERSION 0.7
FIELDS x y z rgb
SIZE 4 4 4 4
TYPE F F F F
COUNT 1 1 1 1
WIDTH 989
HEIGHT 1
VIEWPOINT 0 0 0 0 1 0 0
POINTS 989
DATA ascii
0.16116866 0.074658014 0.022311389 1.5006295e-38
0.16210049 0.080480769 0.021722019 1.3810605e-38
0.16206227 0.083530843 0.021242201 1.3717363e-38
0.16214713 0.088004157 0.020938575 1.3347847e-38
0.16202348 0.091840938 0.020900846 1.2797182e-38
0.16164869 0.095813364 0.021469057 1.2246536e-38
0.16148376 0.099689201 0.021529853 1.2706795e-38
0.16220218 0.10324825 0.021454155 1.2432373e-38
0.15721458 0.064172119 0.025820613 1.6664363e-38
0.15737057 0.068295673 0.02441299 1.5927517e-38
0.15771243 0.071934506 0.02325809 1.54669e-38
0.15809709 0.075547084 0.022003114 1.4729707e-38
0.1582689 0.079246044 0.021255791 1.4544581e-38
0.15829495 0.08363606 0.020798445 1.426836e-38
0.15829983 0.088040188 0.02039063 1.3901015e-38
0.15821621 0.091860056 0.020250499 1.3348925e-38
0.15796325 0.095771044 0.020513356 1.3074131e-38
0.15779433 0.099647418 0.020572841 1.3259595e-38
0.15304062 0.064750887 0.024374843 1.6112282e-38
0.15368289 0.06824369 0.023458183 1.546619e-38
0.15394217 0.071919255 0.022506952 1.4821534e-38
0.15402865 0.0756616 0.02196157 1.4085423e-38
0.15411514 0.079403937 0.021416187 1.436092e-38
0.15428048 0.083740801 0.020628452 1.4361282e-38
0.15440291 0.088095874 0.019941688 1.4086491e-38
0.15461943 0.091774061 0.019094229 1.3993221e-38
0.15453315 0.095599502 0.01895225 1.3626596e-38
0.15436095 0.099474132 0.019010901 1.3443965e-38
0.15364525 0.10204622 0.018856227 1.3351064e-38
0.15068275 0.064828709 0.023596346 1.6204115e-38
0.15007967 0.068158165 0.022299767 1.5192462e-38
0.15025407 0.071868524 0.021551788 1.3719141e-38
0.15042824 0.075576141 0.020804107 1.2890479e-38
0.15051475 0.079318479 0.020258784 1.2890473e-38
0.15061566 0.083684556 0.019622505 1.344365e-38
0.1507166 0.088050604 0.018986166 1.3534401e-38
0.15080309 0.091792949 0.018440902 1.3717721e-38
0.15080175 0.095578372 0.018096507 1.4178331e-38
0.15103889 0.099036545 0.018293083 1.3720207e-38
0.14619708 0.065658718 0.022010684 1.4732921e-38
0.14638817 0.068106294 0.021343589 1.2706787e-38
0.14669672 0.071766004 0.020292819 1.1693711e-38
0.14678323 0.075508542 0.019747376 1.0957577e-38
0.14691436 0.079233021 0.019101202 1.0863606e-38
0.14698184 0.083613902 0.018540442 1.1510062e-38
0.14711618 0.087965146 0.017828763 1.1787018e-38
0.14715815 0.091728501 0.017383814 1.2706806e-38
0.14689016 0.095642671 0.017641306 1.3535488e-38
0.14814985 0.098169863 0.017663538 1.4091526e-38
0.1437932 0.065601662 0.02123785 1.0213221e-38
0.14221454 0.068175018 0.020330369 1.012242e-38
0.14213467 0.071805537 0.019747972 9.6614484e-39
0.14222127 0.075553536 0.019201875 7.7285898e-39
0.14234149 0.079287358 0.018580198 7.9144272e-39
0.14253551 0.083619267 0.017735958 7.9165614e-39
0.14284778 0.087895378 0.016628861 8.7448689e-39
0.14290074 0.091655031 0.016158462 9.2970001e-39
0.14226341 0.094700441 0.016281426 9.5746562e-39
0.1392453 0.076731533 0.01805371 1.0218208e-38
0.13859344 0.079712823 0.017384946 8.0091116e-39
0.13827112 0.083544932 0.016515911 6.5350549e-39
0.13848698 0.087866247 0.015628636 6.8112816e-39
0.13875014 0.091761276 0.015058279 8.0973569e-39
0.13885874 0.094465449 0.014944851 9.2040324e-39
0.13572606 0.08039394 0.016348302 6.4407447e-39
0.13600618 0.083429046 0.015442908 5.2425364e-39
0.10097614 0.11016098 0.00048857927 1.4542046e-38
0.099158764 0.10949352 0 1.5556218e-38
0.18603 0.077399001 0.028911889 1.6110836e-38
0.18632722 0.078001104 0.029975891 1.371735e-38
0.18250184 0.093701884 0.027214706 1.2061424e-38
0.19160813 0.066030301 0.039152265 1.3900644e-38
0.20737654 0.10922128 0.037587643 1.1695154e-38
0.20040986 0.05836197 0.045005441 2.136635e-38
0.20135403 0.061282218 0.044628739 1.9335852e-38
0.20177948 0.065528765 0.043024182 1.5740253e-38
0.20329338 0.068580553 0.042251825 1.4918735e-38
0.20314819 0.10949422 0.036359966 1.2892264e-38
0.20251292 0.11218105 0.037264824 1.501274e-38
0.19782829 0.058216944 0.04418844 2.1738719e-38
0.19783448 0.06114924 0.043150604 2.1920943e-38
0.19815886 0.065443605 0.041860044 1.8413538e-38
0.1987946 0.069570005 0.040789366 1.8508263e-38
0.19942692 0.1098184 0.034675419 1.3903193e-38
0.19909547 0.11259109 0.035441518 1.5564138e-38
0.19893448 0.11652993 0.035612047 1.7220064e-38
0.19397049 0.058627859 0.042871118 2.1549669e-38
0.1942459 0.061047643 0.041881442 2.154786e-38
0.19528413 0.064633235 0.040252805 1.9245112e-38
0.19607832 0.11251959 0.033628106 1.5562339e-38
0.19537909 0.11639473 0.034240723 1.7405174e-38
0.19032836 0.057913318 0.041796505 2.1179085e-38
0.19076943 0.06089887 0.040301621 2.1086877e-38
0.19229968 0.11424142 0.031680405 1.6207693e-38
0.19199178 0.11699742 0.0323385 1.76821e-38
0.1866136 0.054056615 0.041179717 2.1362756e-38
0.18676133 0.057168573 0.040514588 2.0901063e-38
0.18772681 0.0597573 0.038542807 2.0718096e-38
0.18869263 0.11457327 0.030456662 1.5101013e-38
0.18845308 0.11728007 0.030908585 1.6298123e-38
0.18753424 0.12002787 0.031369507 1.7036045e-38
0.18217504 0.053741902 0.039784849 2.1085798e-38
0.18271224 0.056997284 0.038663626 2.0624473e-38
0.18440424 0.059365332 0.037522554 2.0257122e-38
0.18405196 0.11362818 0.029092729 1.4270891e-38
0.18409827 0.11697304 0.029494286 1.5011336e-38
0.18390663 0.11994177 0.030203283 1.620627e-38
0.17745745 0.050070755 0.038813591 2.0994314e-38
0.17829037 0.053169712 0.038137138 2.0624102e-38
0.17873186 0.056169763 0.036699414 2.0255692e-38
0.18043911 0.11318167 0.028252184 1.4364153e-38
0.17990531 0.11675207 0.028811574 1.4734027e-38
0.18088365 0.11987002 0.029231429 1.5470882e-38
0.17474404 0.050320394 0.037893116 1.9889428e-38
0.17474395 0.053055227 0.036765516 1.9888346e-38
0.17523114 0.056039944 0.035226882 1.9794347e-38
0.17600514 0.1130197 0.026569724 1.4273057e-38
0.17626002 0.116308 0.027801812 1.4550336e-38
0.17111996 0.05296921 0.035600424 1.952135e-38
0.17155281 0.055976003 0.034217834 1.9612101e-38
0.17269556 0.11211139 0.025936484 1.3720584e-38
0.17215101 0.11553532 0.027056515 1.4088995e-38
0.16726643 0.053597406 0.034959793 1.9150051e-38
0.16794366 0.056419089 0.033419132 1.9151112e-38
0.16918354 0.11170597 0.025025368 1.3537611e-38
0.16868995 0.11518396 0.025985062 1.418226e-38
0.16363883 0.053511307 0.033793569 1.8780911e-38
0.1642541 0.055826128 0.032044947 1.8598302e-38
0.16517127 0.1082539 0.023777664 1.3535097e-38
0.16548228 0.11166832 0.024063945 1.3811343e-38
0.16512424 0.11506091 0.024667442 1.418118e-38
0.16002575 0.054053642 0.032535732 1.8781274e-38
0.16037291 0.056499839 0.030786037 1.8504316e-38
0.16018382 0.059291422 0.029659152 1.767671e-38
0.15983576 0.10418215 0.022666931 1.2708603e-38
0.16177474 0.1078189 0.023448408 1.3260318e-38
0.16152862 0.11177421 0.023706853 1.3813152e-38
0.16143477 0.11501178 0.023652554 1.4180473e-38
0.15700275 0.053981885 0.031563938 1.8779458e-38
0.15625295 0.056597717 0.030653536 1.8229167e-38
0.15607166 0.059922472 0.028969288 1.7399759e-38
0.15498355 0.063676685 0.027296424 1.6664721e-38
0.157116 0.10380448 0.021840513 1.3076645e-38
0.15742427 0.10778831 0.022392809 1.326103e-38
0.15729219 0.11165878 0.022819459 1.3627318e-38
0.15842628 0.11556846 0.022589087 1.3903547e-38
0.15164852 0.057623342 0.029265046 1.7678498e-38
0.15196666 0.060043931 0.02828902 1.7400858e-38
0.15296555 0.063158117 0.026932299 1.6756207e-38
0.15367976 0.10408077 0.020681024 1.335105e-38
0.15306956 0.10775888 0.021335721 1.3720571e-38
0.15347329 0.11042619 0.021766782 1.3812425e-38
0.14741629 0.057522893 0.027904391 1.7586317e-38
0.14816657 0.060019806 0.027529538 1.7310094e-38
0.14840829 0.063715041 0.025418401 1.6573615e-38
0.14901125 0.10068983 0.019682705 1.3720927e-38
0.14975107 0.1037011 0.019815981 1.3903878e-38
0.14945954 0.10739753 0.020622253 1.417975e-38
0.14445141 0.05996488 0.026566267 1.6850904e-38
0.14511645 0.063527055 0.024701595 1.537795e-38
0.14603186 0.099940717 0.018828809 1.3630168e-38
0.14586666 0.10375153 0.019253731 1.4180834e-38
0.14583591 0.10679041 0.019840777 1.3720937e-38
0.14114791 0.060828611 0.025359809 1.3624428e-38
0.14118016 0.063971266 0.023922682 1.2425517e-38
0.14257169 0.096777946 0.018613517 1.0773915e-38
0.14197776 0.099988759 0.0190382 1.1326005e-38
0.14231271 0.10337792 0.019218206 1.1787008e-38
0.13755044 0.064527623 0.023304582 1.3624067e-38
0.13769668 0.068165258 0.021443486 1.3255637e-38
0.13770548 0.07203348 0.020398259 1.3166315e-38
0.13750106 0.075603873 0.02020967 1.1692269e-38
0.13726202 0.078911215 0.019200087 8.0119758e-39
0.1381686 0.09698382 0.017788053 9.8472746e-39
0.13903278 0.100034 0.0186643 1.0401557e-38
0.13451034 0.065591097 0.022471964 1.233727e-38
0.13408223 0.068608701 0.021471739 1.114269e-38
0.13408977 0.072188199 0.020733833 1.0035618e-38
0.13452464 0.075782008 0.02030766 8.8359898e-39
0.13476861 0.079369277 0.019169331 6.4429027e-39
0.13373217 0.082584679 0.017489552 5.52201e-39
0.1032334 0.10672137 0.0060001612 1.9424848e-38
0.1035265 0.11039668 0.0050598383 1.6657169e-38
0.10361516 0.11479966 0.0044434667 1.7585271e-38
0.10289028 0.11801884 0.0041573644 2.0722815e-38
0.099547684 0.10412154 0.0052002072 2.0345721e-38
0.10024825 0.11481929 0.003015697 1.4730456e-38
0.098658085 0.11791839 0.0027966499 1.6302406e-38
0.096361399 0.10682267 0.0032949448 1.6291995e-38
0.096912265 0.1102179 0.001519978 1.5833165e-38
0.096361786 0.11474817 0.0018596053 1.5650934e-38
0.096844256 0.11787534 0.0022135973 1.6020795e-38
0.092969716 0.10710585 0.0026041865 1.4539204e-38
0.093009949 0.11020699 0.0012121201 1.5743849e-38
0.092819005 0.11438453 0.0010532737 1.6017195e-38
0.090048432 0.11143315 0.00099128485 1.3624462e-38
0.090121031 0.11457531 0.00053340197 1.2890106e-38
0.18932056 0.079306975 0.033541441 1.8323531e-38
0.18771003 0.083498433 0.028588057 1.5742055e-38
0.18168429 0.069433108 0.027657151 1.7399423e-38
0.20770092 0.06701377 0.041091263 1.3348546e-38
0.18112889 0.06154716 0.03858602 1.6575773e-38
0.17839071 0.11220236 0.029834926 1.3811706e-38
0.19918132 0.051745012 0.049870551 2.0535525e-38
0.20012848 0.054172628 0.04886198 2.007561e-38
0.2009607 0.057401732 0.047457099 2.072672e-38
0.20187742 0.11454101 0.038998902 1.5839995e-38
0.2017273 0.11721188 0.039249301 1.6302406e-38
0.20114967 0.12028953 0.03974098 1.6395692e-38
0.19614018 0.051672831 0.048892856 2.1275968e-38
0.1966618 0.054014981 0.047168612 2.1646544e-38
0.19660261 0.056773297 0.04613632 2.1555064e-38
0.19797501 0.12055741 0.037567317 1.7681768e-38
0.19256255 0.050950542 0.046777725 2.1642583e-38
0.193093 0.053899959 0.045789778 2.1642246e-38
0.19327462 0.057009302 0.045018196 2.1458557e-38
0.19442222 0.12090129 0.036663115 1.87874e-38
0.18914443 0.050111279 0.045795083 2.1272358e-38
0.18956329 0.053771354 0.044307768 2.1640786e-38
0.18962157 0.056292616 0.043940306 2.1363119e-38
0.19105452 0.12111364 0.035231888 1.9061821e-38
0.18989913 0.1235563 0.0358482 1.8968182e-38
0.18582651 0.050336987 0.044226289 2.1179075e-38
0.18589568 0.052424349 0.043321729 2.191376e-38
0.18733582 0.12208521 0.033646286 1.7587408e-38
0.1869482 0.12492028 0.034502625 1.8415363e-38
0.18213621 0.050268084 0.04318893 2.1088323e-38
0.18225721 0.052337989 0.042151928 2.1454583e-38
0.18387443 0.12230337 0.031956196 1.6481775e-38
0.18342255 0.1251772 0.032962799 1.6850201e-38
0.17537284 0.047388785 0.042797327 2.0164555e-38
0.17829201 0.049505651 0.042093813 2.0904269e-38
0.17943498 0.1217878 0.030946076 1.546943e-38
0.17907377 0.12481853 0.031869471 1.5838208e-38
0.1741564 0.047359906 0.042406261 1.933661e-38
0.17316401 0.048949413 0.040564954 1.9612486e-38
0.17497197 0.12050822 0.030000985 1.4825839e-38
0.17471436 0.12409855 0.030828238 1.4918045e-38
0.16991009 0.049582317 0.039032161 1.9521003e-38
0.1722506 0.11761765 0.028894961 1.4456676e-38
0.17110515 0.12050469 0.029851258 1.4733625e-38
0.1660659 0.049563304 0.038375556 1.9243331e-38
0.1664905 0.051963761 0.037083149 1.9242255e-38
0.1680057 0.11751691 0.027530253 1.4733286e-38
0.16770941 0.12000698 0.028570473 1.5102068e-38
0.16244456 0.049894623 0.037602782 1.8874183e-38
0.16285202 0.051877409 0.035913408 1.8874182e-38
0.16436723 0.11743054 0.026360512 1.4550334e-38
0.16387463 0.11981472 0.026897788 1.4458871e-38
0.15860415 0.050083742 0.036401093 1.8966007e-38
0.15922809 0.052421376 0.034651875 1.8781644e-38
0.16072875 0.11734419 0.02519083 1.4455981e-38
0.16052371 0.11976947 0.025967062 1.4272669e-38
0.15516508 0.050141744 0.035380363 1.9057131e-38
0.15531304 0.052636877 0.033649623 1.8964571e-38
0.15444964 0.055457816 0.032632887 1.8505042e-38
0.15688786 0.11599308 0.024149179 1.3812055e-38
0.15234795 0.050633423 0.034814119 1.9423764e-38
0.15144792 0.053047925 0.033443034 1.9057125e-38
0.15128607 0.056065261 0.031909704 1.8045511e-38
0.15223625 0.11260369 0.023289025 1.3904248e-38
0.15269732 0.1159471 0.023566544 1.3812766e-38
0.15296471 0.119394 0.024477661 1.3905704e-38
0.1472097 0.05376102 0.032664239 1.8229175e-38
0.14719746 0.056245714 0.030609667 1.7769618e-38
0.14781925 0.10947812 0.022199035 1.4547813e-38
0.14826539 0.11213417 0.022527337 1.4273038e-38
0.1483652 0.11614987 0.023007095 1.4272665e-38
0.14925498 0.11970314 0.023224235 1.4457077e-38
0.14270401 0.054195657 0.031132698 1.7955455e-38
0.14329597 0.056546688 0.029548109 1.7864327e-38
0.14453295 0.10889614 0.02121973 1.3168118e-38
0.14418086 0.11228693 0.022356689 1.3168823e-38
0.14436182 0.11539868 0.022292852 1.3721625e-38
0.13966858 0.057091609 0.028285205 1.5100979e-38
0.13975224 0.059392795 0.027251422 1.3899224e-38
0.14044034 0.10489315 0.020502508 1.1414623e-38
0.14075983 0.10824636 0.021037042 1.1599001e-38
0.14160091 0.11166838 0.021966815 1.2059991e-38
0.13670942 0.057844505 0.028624535 1.4176505e-38
0.13619086 0.06012924 0.026452839 1.3808464e-38
0.13582569 0.062575445 0.025487006 1.3900333e-38
0.13624927 0.10055064 0.020655572 1.0953277e-38
0.137272 0.10443266 0.020757496 1.0956149e-38
0.13745353 0.10756819 0.021246731 1.0588028e-38
0.13249108 0.060367137 0.026259243 1.1873774e-38
0.13241726 0.063945189 0.024523199 9.38237e-39
0.13169736 0.067517243 0.023387492 6.3493002e-39
0.1319159 0.076972015 0.022009671 4.1416007e-39
0.13197419 0.079493292 0.021642268 3.408737e-39
0.13403916 0.10011551 0.021278679 1.1503923e-38
0.12949932 0.065493494 0.024576902 7.4455289e-39
0.12962604 0.068834983 0.023220658 8.3754068e-39
0.12978387 0.072594881 0.022518516 8.0109515e-39
0.12973118 0.076434307 0.022267222 6.3517594e-39
0.12993681 0.080430575 0.022961438 5.2486587e-39
0.13000989 0.083591595 0.022500813 6.074825e-39
0.12225458 0.11626405 0.014972627 1.6204451e-38
0.12255341 0.11867219 0.014700711 1.3160187e-38
0.1184299 0.10859099 0.014904916 1.1872735e-38
0.11799702 0.116163 0.013603866 1.9060715e-38
0.11804086 0.11805961 0.013327479 1.5914919e-38
0.11295587 0.10846107 0.01314503 1.5918916e-38
0.11271748 0.11129877 0.012632728 1.785611e-38
0.11414978 0.11628231 0.012334764 2.1821881e-38
0.11499974 0.11798742 0.012349725 1.80397e-38
0.10973468 0.10811383 0.012151062 2.0162032e-38
0.11033764 0.11138347 0.011019528 2.1173334e-38
0.10497585 0.10511237 0.011063695 2.2286153e-38
0.10700884 0.10732283 0.0096150041 2.2001639e-38
0.10724789 0.11103505 0.0087696314 2.0988574e-38
0.1067259 0.11487579 0.0090740323 2.2011372e-38
0.10560876 0.11934417 0.0090885758 2.2561274e-38
0.10219502 0.10416798 0.010127187 2.1913044e-38
0.10458201 0.10726437 0.0088347793 2.0619789e-38
0.10482222 0.11097747 0.0079897642 1.8873115e-38
0.10460421 0.11490647 0.0080251694 1.9889426e-38
0.10392696 0.11971417 0.0067141056 2.2564542e-38
0.10316727 0.12328565 0.0055655837 1.8780884e-38
0.099303931 0.10342187 0.0088145733 2.1268747e-38
0.097428739 0.1057622 0.006385088 1.8870579e-38
0.0999102 0.11989775 0.0052914619 2.0166734e-38
0.1000033 0.12359816 0.005079329 1.7853904e-38
0.09515655 0.10108818 0.0084878802 1.5643795e-38
0.095399886 0.10355438 0.0072327256 1.6200175e-38
0.094396681 0.10569024 0.0054103732 1.4911939e-38
0.095549524 0.11999564 0.0046557188 1.7680305e-38
0.095657825 0.12306342 0.0046191812 1.8785932e-38
0.091869771 0.10353759 0.0070438981 1.1774061e-38
0.0904167 0.10657063 0.0050441027 1.3527209e-38
0.090239197 0.10937139 0.0034945011 1.5190655e-38
0.091423035 0.11861312 0.0026150346 1.6114079e-38
0.088997245 0.10808197 0.0032883286 1.5097029e-38
0.089040935 0.10997292 0.0030127764 1.4728617e-38
0.18470502 0.071524963 0.031107247 1.4546372e-38
0.19493802 0.087783158 0.032760739 1.0033478e-38
0.18506715 0.099907354 0.028237224 1.2247602e-38
0.20259976 0.069650814 0.039737046 1.6204075e-38
0.15792423 0.096785799 0.027433693 1.6482485e-38
0.15706098 0.096690089 0.026822031 1.4455987e-38
0.092969716 0.10710585 0.0026041865 1.4539204e-38
0.19476503 0.062840439 0.041067064 2.0350389e-38
0.19886181 0.047869548 0.053973496 1.7593142e-38
0.19916022 0.050435126 0.052645087 1.952423e-38
0.20122063 0.12238841 0.04119581 1.7314789e-38
0.19959165 0.12474629 0.043067694 1.8883559e-38
0.1950894 0.048237711 0.052265465 2.0262891e-38
0.19524103 0.050101772 0.051674843 2.0632399e-38
0.19806749 0.12272459 0.03969413 1.8235688e-38
0.19656897 0.12520175 0.040598214 1.9435301e-38
0.19102883 0.047855265 0.051269531 2.0171047e-38
0.19241782 0.049502328 0.049077868 2.1092288e-38
0.19353893 0.12539162 0.038875699 1.9707562e-38
0.19225201 0.1287277 0.039716959 2.0997216e-38
0.18672611 0.044352457 0.051204383 1.8143477e-38
0.18783915 0.046753511 0.049781442 1.9616437e-38
0.19029617 0.12550256 0.03704536 1.9429173e-38
0.18978643 0.12919307 0.038135707 2.1178006e-38
0.18377936 0.044242069 0.049908936 1.8973927e-38
0.18428794 0.046627313 0.048291981 1.9981981e-38
0.1841872 0.048990577 0.046480358 2.0811739e-38
0.18780005 0.12627766 0.035811424 1.8966041e-38
0.18634661 0.12834783 0.03590709 1.9246222e-38
0.18015251 0.04350014 0.048666418 1.7867599e-38
0.18070249 0.046514407 0.046907425 1.9799024e-38
0.18053243 0.04890383 0.045305371 2.0812446e-38
0.18263093 0.12830088 0.03488338 1.7219329e-38
0.17647797 0.043080382 0.0470047 1.7958708e-38
0.17727384 0.046350054 0.045109451 1.9982677e-38
0.17897068 0.128214 0.033706605 1.620627e-38
0.17256534 0.040202618 0.047236264 1.7218989e-38
0.17245488 0.042592376 0.045505762 1.8602634e-38
0.1729148 0.0459387 0.043282986 1.9521001e-38
0.17521131 0.12597889 0.031764328 1.5194279e-38
0.17432377 0.12858354 0.032564223 1.5377954e-38
0.16792971 0.042568088 0.044776261 1.9154709e-38
0.16865973 0.046172984 0.042572081 1.9152576e-38
0.1706351 0.12465882 0.03071481 1.4827276e-38
0.17009935 0.12862745 0.032276988 1.5378312e-38
0.16453668 0.042958066 0.044026494 1.8782347e-38
0.16471532 0.046176873 0.042115569 1.8966733e-38
0.16639262 0.12197278 0.029510975 1.4916605e-38
0.16681787 0.12467656 0.029943287 1.5009882e-38
0.16650268 0.12813579 0.031152546 1.5469431e-38
0.16086408 0.046361133 0.041824043 1.8874902e-38
0.16104019 0.048441187 0.039038777 1.8783065e-38
0.16395611 0.12191495 0.028727591 1.4550696e-38
0.16295403 0.12471941 0.029270709 1.4915537e-38
0.16247934 0.1275973 0.030210257 1.5563037e-38
0.1569443 0.046781391 0.040795207 1.8874518e-38
0.15724018 0.04860872 0.039902806 1.8874525e-38
0.15908307 0.12179929 0.027161002 1.4364852e-38
0.15912646 0.1247365 0.028496087 1.4732222e-38
0.15314776 0.046733603 0.039922357 1.9240082e-38
0.15385211 0.048651412 0.037200868 1.9148947e-38
0.15603736 0.12172702 0.026181936 1.4549274e-38
0.1553902 0.12462881 0.027917564 1.4917339e-38
0.14887953 0.047267899 0.038452625 1.8687988e-38
0.1503638 0.049359605 0.035958171 1.8779824e-38
0.1520707 0.12131645 0.024955094 1.4458155e-38
0.15179878 0.12456256 0.026140213 1.5194278e-38
0.1501199 0.12738582 0.026578605 1.5563419e-38
0.14643213 0.047209814 0.037665844 1.8409958e-38
0.14653417 0.049535148 0.035571754 1.8135905e-38
0.14711794 0.051907532 0.033981204 1.8596886e-38
0.14811867 0.12153906 0.023636103 1.4824806e-38
0.14826462 0.12439784 0.024662137 1.537795e-38
0.1492852 0.12712038 0.025285244 1.5747094e-38
0.14267582 0.049932174 0.035268426 1.8598316e-38
0.14301735 0.052571818 0.03284961 1.8322088e-38
0.14400476 0.1173915 0.022934079 1.3444329e-38
0.14471754 0.12011378 0.022961199 1.4367007e-38
0.14473617 0.12405151 0.024276435 1.4826916e-38
0.13950643 0.050391212 0.034572363 1.712534e-38
0.13821405 0.053233951 0.033008099 1.6294516e-38
0.13867792 0.055503994 0.030686021 1.5743843e-38
0.13965118 0.11265969 0.022243738 1.1600442e-38
0.13954365 0.11658138 0.023024678 1.0128917e-38
0.14023337 0.12047836 0.023815572 1.1418912e-38
0.14146578 0.12336667 0.024380803 1.1874187e-38
0.13405824 0.05422578 0.032567561 1.4360546e-38
0.13458794 0.056619428 0.02998215 1.4176865e-38
0.13494638 0.10477366 0.021922529 1.1232727e-38
0.13585615 0.1090139 0.021568537 1.1047967e-38
0.13583893 0.11266436 0.02230227 1.1693347e-38
0.13548332 0.11643992 0.023193777 9.6650232e-39
0.13131225 0.054478422 0.031636119 1.3436814e-38
0.13066751 0.057039507 0.03010422 1.1872356e-38
0.13025254 0.059733592 0.027298391 9.1061195e-39
0.13133726 0.098564208 0.022763312 1.0123514e-38
0.13172072 0.10125935 0.022323072 1.1413526e-38
0.13223237 0.10485207 0.021736503 1.1692632e-38
0.13204402 0.10879432 0.021779537 1.1785566e-38
0.13162512 0.11286382 0.022318542 1.2523142e-38
0.13149974 0.11550267 0.022345662 1.2430163e-38
0.12772936 0.05820711 0.029899776 1.140743e-38
0.12811989 0.060853735 0.028027356 1.0397542e-38
0.12852758 0.064122237 0.026065052 8.7344685e-39
0.12557593 0.070868462 0.027259469 9.5696382e-39
0.12591708 0.073308647 0.026287973 8.8360136e-39
0.1281822 0.080745548 0.024468005 6.0766299e-39
0.12813181 0.10207465 0.023308337 1.1041174e-38
0.12796706 0.10505874 0.021852911 1.1597938e-38
0.12810206 0.10884652 0.021198332 1.1508616e-38
0.12798142 0.11252119 0.020728767 1.2522035e-38
0.12813872 0.11654043 0.020385444 1.1140837e-38
0.1242063 0.10501656 0.020872831 1.1502504e-38
0.12519389 0.10838726 0.018434048 1.1598287e-38
0.12528175 0.11218822 0.017880082 1.3903545e-38
0.12536955 0.11598751 0.017326474 1.463714e-38
0.12552223 0.11847153 0.016759455 1.1595041e-38
0.120395 0.10499731 0.019990861 1.18702e-38
0.12163329 0.10825446 0.017060637 1.1597545e-38
0.12172112 0.11205332 0.01650703 1.4732951e-38
0.12177962 0.11458592 0.016138136 1.8971021e-38
0.11687133 0.10484245 0.018514693 1.178125e-38
0.11797434 0.10798681 0.015912056 1.2148947e-38
0.11806634 0.11196658 0.015332043 1.5101027e-38
0.11812484 0.11449918 0.01496315 2.0442572e-38
0.11407393 0.10237661 0.01869148 1.2149612e-38
0.11325321 0.10473305 0.017237008 1.325744e-38
0.1143164 0.10776439 0.014756799 1.40829e-38
0.11456746 0.11204171 0.014182985 1.6295972e-38
0.11366764 0.11481524 0.013465405 2.1644724e-38
0.109016 0.1020467 0.016034961 1.5098097e-38
0.10922486 0.10451853 0.015369773 1.7033136e-38
0.1100058 0.1164373 0.013088942 2.3210972e-38
0.10971045 0.11888224 0.013680816 2.1084291e-38
0.10496613 0.10118896 0.014849663 1.6752939e-38
0.10574251 0.10397522 0.012815475 2.0718471e-38
0.10721901 0.1167715 0.011069059 2.3395024e-38
0.10657951 0.11957221 0.01242429 2.2098861e-38
0.1011923 0.10147254 0.013756335 2.0253166e-38
0.10254017 0.10330191 0.012320399 2.145459e-38
0.097741693 0.10034654 0.011803389 2.1268748e-38
0.093497157 0.097938344 0.011973143 1.6474976e-38
0.094243407 0.099825814 0.010357857 1.6103328e-38
0.091210514 0.097816005 0.010894179 1.1033683e-38
0.091133922 0.10014369 0.009450078 9.2883976e-39
0.092277884 0.10249531 0.0083990097 1.0114237e-38
0.18958628 0.095956042 0.02763772 1.3903531e-38
0.1816673 0.089539364 0.027404249 1.169229e-38
0.2080342 0.10059741 0.035521984 9.9459625e-39
0.14899418 0.10227203 0.022216618 1.5653085e-38
0.19493802 0.087783158 0.032760739 1.0033478e-38
0.19527332 0.033636056 0.060938656 6.9946233e-39
0.19965693 0.12697189 0.045328557 2.0355442e-38
0.19342418 0.033592165 0.060344219 6.259938e-39
0.19286704 0.036140263 0.059772491 7.0878994e-39
0.1931342 0.039925158 0.058689058 7.9154754e-39
0.19368714 0.043604806 0.056770146 1.2247622e-38
0.19440317 0.046565711 0.054423928 1.7776494e-38
0.19708005 0.12704857 0.042960942 2.0632755e-38
0.19580197 0.13040243 0.0438025 2.2198642e-38
0.19533069 0.13336156 0.044966936 2.2575707e-38
0.18972588 0.033504389 0.059155226 5.9786623e-39
0.18916875 0.03605248 0.058583558 7.6403571e-39
0.18940282 0.039849028 0.057605624 9.0247264e-39
0.19007272 0.043492049 0.055376053 1.4551068e-38
0.19096877 0.046356887 0.053339243 1.832894e-38
0.19296622 0.13042907 0.04145968 2.2012808e-38
0.19185176 0.13311146 0.043165624 2.2660699e-38
0.186718 0.036634654 0.057697535 9.4860745e-39
0.18559599 0.039796822 0.056730151 1.2616397e-38
0.18685842 0.04294084 0.053437293 1.6670509e-38
0.18778257 0.13107166 0.039321542 2.0995061e-38
0.18781534 0.13361169 0.042130947 2.1823738e-38
0.18187875 0.040489852 0.055533469 1.6392814e-38
0.18294761 0.042592004 0.052370965 1.8053433e-38
0.18533154 0.13101348 0.038533568 1.9339481e-38
0.18448414 0.13357627 0.040699065 1.9708267e-38
0.17793389 0.040396214 0.054265261 1.6853411e-38
0.1791378 0.041904189 0.051591873 1.7315151e-38
0.18165499 0.13092622 0.037351668 1.7588476e-38
0.18069431 0.13421044 0.039723873 1.8786291e-38
0.17459673 0.039815627 0.052358449 1.6482133e-38
0.17653012 0.041685544 0.049360752 1.7034603e-38
0.17797846 0.13083896 0.036169648 1.675657e-38
0.17700145 0.13412279 0.038536668 1.8048033e-38
0.17609897 0.1369146 0.038878024 1.8875647e-38
0.17070685 0.036894955 0.052452028 1.5287576e-38
0.17133778 0.039124832 0.050588727 1.6575063e-38
0.17491466 0.13076624 0.035184681 1.6113717e-38
0.1734257 0.13395394 0.037045717 1.7403747e-38
0.17301705 0.13684145 0.037887216 1.8412856e-38
0.16700113 0.036486842 0.051309824 1.6019375e-38
0.16778655 0.039157465 0.049030542 1.6939546e-38
0.16878709 0.13062081 0.033214748 1.6391372e-38
0.16961575 0.13394746 0.036162138 1.7311198e-38
0.164543 0.036748663 0.050470471 1.6755163e-38
0.16380042 0.03936591 0.049031019 1.7679263e-38
0.16260943 0.041857898 0.045516789 1.8964939e-38
0.16522688 0.13034272 0.032631159 1.6388867e-38
0.16542321 0.13349399 0.035399914 1.7494117e-38
0.15952238 0.040192202 0.048097789 1.8413938e-38
0.15884846 0.045085251 0.043090999 1.9060361e-38
0.16166306 0.13006455 0.032046378 1.6297045e-38
0.1609152 0.13357848 0.034054041 1.7864337e-38
0.15476972 0.040358678 0.046739697 1.9886173e-38
0.15558314 0.042699568 0.044520199 1.9519189e-38
0.15639746 0.045027077 0.042303026 1.9241874e-38
0.15784153 0.12941915 0.031256974 1.5931477e-38
0.15734816 0.13362753 0.032104671 1.8232408e-38
0.15185338 0.042624101 0.043437183 1.9702143e-38
0.1527209 0.044939816 0.041121066 1.9240816e-38
0.1533798 0.12643573 0.028846741 1.5286808e-38
0.15415776 0.12933171 0.030072689 1.6392087e-38
0.15369749 0.13351299 0.030817151 1.8139506e-38
0.14782044 0.042634763 0.043068826 1.9334068e-38
0.14890772 0.045864314 0.040650487 1.8781264e-38
0.15056658 0.12944706 0.029064655 1.6114788e-38
0.15003255 0.13315275 0.030068755 1.7864717e-38
0.14408734 0.042980358 0.04240942 1.8688371e-38
0.1447069 0.045817949 0.039747119 1.8320294e-38
0.14658621 0.12928231 0.028175294 1.6022962e-38
0.14045936 0.043300204 0.041211188 1.8504719e-38
0.14096656 0.046168789 0.03911823 1.8136258e-38
0.14116687 0.048484974 0.036821246 1.8228088e-38
0.14248344 0.12591521 0.026092231 1.3995732e-38
0.14269441 0.12866807 0.027510047 1.4090806e-38
0.13711581 0.046685517 0.039322019 1.6571093e-38
0.13710672 0.049431279 0.036950111 1.6295595e-38
0.13857055 0.12162827 0.024768531 9.3019607e-39
0.13911664 0.12534693 0.025970161 8.7431075e-39
0.1385375 0.12885663 0.02736932 8.1953063e-39
0.13399041 0.047549456 0.038881838 1.6293428e-38
0.13363957 0.050048411 0.036658049 1.5466538e-38
0.1336267 0.052688457 0.03415072 1.454423e-38
0.13420767 0.11834189 0.02385366 6.5368527e-39
0.13542396 0.12107533 0.024538636 7.0896552e-39
0.13522688 0.12492314 0.024528921 6.9967715e-39
0.13556647 0.12874013 0.024163067 5.8021814e-39
0.12975943 0.05087138 0.036200225 1.4451663e-38
0.12968749 0.053128541 0.034325659 1.2979073e-38
0.12847561 0.055822521 0.031570554 1.1502515e-38
0.13099092 0.11770645 0.023259401 8.1880966e-39
0.13149908 0.12101951 0.02415663 6.7216336e-39
0.13166177 0.12385395 0.024306476 7.7332772e-39
0.12645477 0.054310516 0.034598768 1.3804502e-38
0.12550709 0.057416305 0.033283412 1.3252046e-38
0.12486133 0.060632966 0.032846212 1.1962372e-38
0.12554953 0.065194093 0.029891551 9.6596422e-39
0.12426102 0.069410227 0.030243337 9.8437027e-39
0.12473521 0.077607766 0.028432846 7.731101e-39
0.12542325 0.084943108 0.029303491 6.7198497e-39
0.12531298 0.098569989 0.028242111 9.2916135e-39
0.12640363 0.10074866 0.025226772 1.0303252e-38
0.1286045 0.11438951 0.022637606 1.2519889e-38
0.12266299 0.061820701 0.032587111 1.2703901e-38
0.12181097 0.065708265 0.0313043 1.2058881e-38
0.12162703 0.070057452 0.029760003 1.1230575e-38
0.1221081 0.073648304 0.028761089 1.0121725e-38
0.1220409 0.077887252 0.029639304 8.7427348e-39
0.12269795 0.081760705 0.029377282 7.8251001e-39
0.12417752 0.08427415 0.029001057 7.2730557e-39
0.12223107 0.098496839 0.027251303 9.7511287e-39
0.12298915 0.10102509 0.024331152 1.0580535e-38
0.11955261 0.062574714 0.031885207 1.3993203e-38
0.11763147 0.066211343 0.03058517 1.30734e-38
0.11736053 0.07017111 0.029772222 1.2428035e-38
0.11769739 0.073690742 0.029578626 1.1876629e-38
0.11989319 0.077310421 0.02973789 9.9412625e-39
0.11998206 0.08115451 0.029177666 9.0225614e-39
0.11853278 0.098409057 0.02606231 1.0670923e-38
0.11917722 0.1010541 0.022944331 1.1408851e-38
0.11476964 0.068864509 0.029366314 1.2981567e-38
0.11442181 0.097570002 0.024323106 1.1592897e-38
0.11549383 0.10096666 0.021760225 1.187234e-38
0.11063769 0.096873552 0.023376465 1.214857e-38
0.11144319 0.10081457 0.021070242 1.2516275e-38
0.10673261 0.094286993 0.022857428 1.3528996e-38
0.10709053 0.096722558 0.02189219 1.3804857e-38
0.10777712 0.1003021 0.020150065 1.4358394e-38
0.10365069 0.094213843 0.02186662 1.4267267e-38
0.10349643 0.096593112 0.020507276 1.4723936e-38
0.10464483 0.099686578 0.018315256 1.4912984e-38
0.099701196 0.096547186 0.019516528 1.730505e-38
0.10091758 0.099539235 0.016822338 1.8133025e-38
0.094404966 0.093994394 0.018894196 2.0626914e-38
0.096058309 0.096438229 0.018230796 2.1084364e-38
0.097189039 0.098702639 0.01525259 2.1453864e-38
0.09193942 0.093935877 0.018101573 1.9882204e-38
0.092743397 0.096221745 0.015781164 1.886808e-38
0.089473903 0.09387736 0.017308891 1.6844074e-38
0.088706911 0.096248418 0.015785456 1.4449135e-38
0.087603778 0.098751411 0.014891386 1.1219845e-38
0.19344032 0.093920231 0.029698491 1.5375073e-38
0.19067687 0.074414514 0.031982839 1.7492334e-38
0.19050404 0.082054615 0.029653192 1.5650576e-38
0.1895552 0.085998356 0.028720558 1.4637859e-38
0.15000382 0.087627374 0.024647415 1.7954742e-38
0.15440291 0.088095874 0.019941688 1.4086491e-38
0.14811867 0.12153906 0.023636103 1.4824806e-38
0.12796706 0.10505874 0.021852911 1.1597938e-38
0.19161035 0.03229294 0.062433124 5.9822833e-39
0.19337772 0.13595167 0.047831297 2.2486025e-38
0.18810049 0.032066308 0.061427891 5.2439854e-39
0.19065589 0.13597456 0.046411574 2.2387359e-38
0.18462551 0.032544874 0.060566306 7.8222288e-39
0.18440045 0.035987332 0.059320509 1.0037051e-38
0.18742441 0.13609175 0.044811606 2.2103213e-38
0.18658778 0.13844889 0.045241058 2.2287958e-38
0.18117669 0.032842852 0.059664965 1.0034191e-38
0.18079609 0.036166005 0.058913887 1.1973538e-38
0.18116339 0.038968764 0.057659268 1.5195341e-38
0.18341355 0.13631767 0.043473005 2.099504e-38
0.18317983 0.13845381 0.043955147 2.2097431e-38
0.17712061 0.03606654 0.057616055 1.3171366e-38
0.17776331 0.03888806 0.056566179 1.546977e-38
0.17957906 0.1382827 0.042456448 1.9983413e-38
0.1736643 0.036329329 0.056232929 1.3906416e-38
0.1743558 0.038486071 0.055519879 1.5929678e-38
0.17584752 0.13886261 0.0412606 1.9061473e-38
0.16893631 0.033324108 0.055611551 1.1785196e-38
0.1698364 0.035203166 0.054907858 1.3810604e-38
0.17237152 0.1385401 0.040073693 1.8689804e-38
0.167079 0.03328003 0.055014491 1.2520233e-38
0.16616973 0.034973517 0.053609252 1.4820787e-38
0.16844335 0.1380184 0.038876474 1.8876694e-38
0.16243394 0.035884067 0.052396774 1.6664746e-38
0.16137367 0.038177945 0.051346242 1.7681063e-38
0.16486767 0.13587748 0.037510693 1.7864348e-38
0.16453582 0.13741097 0.038230419 1.8415743e-38
0.15943921 0.036492191 0.051684141 1.767888e-38
0.15859103 0.038648054 0.050582111 1.7954043e-38
0.1611585 0.13578944 0.036318183 1.8416425e-38
0.1608212 0.13732281 0.03703618 1.8876331e-38
0.15508142 0.038912304 0.05025059 1.9334452e-38
0.15088338 0.040029563 0.048076928 2.0070197e-38
0.14702129 0.040463984 0.046860874 1.9701414e-38
0.1422987 0.041578487 0.044623435 1.8687653e-38
0.14375985 0.13152319 0.031315207 1.6025857e-38
0.14505076 0.13350356 0.032068908 1.7133627e-38
0.13880581 0.041846082 0.043712437 1.8689451e-38
0.14128709 0.13146451 0.03052026 1.3354669e-38
0.14093554 0.13363503 0.031135976 1.224582e-38
0.13555619 0.043756738 0.042894363 1.7674933e-38
0.13477328 0.045681298 0.041547954 1.6294881e-38
0.13757789 0.13137646 0.02932775 8.1041644e-39
0.1374656 0.13342403 0.030040085 8.6562676e-39
0.13267699 0.044040307 0.042180479 1.7493405e-38
0.13184097 0.046551079 0.041169703 1.6662563e-38
0.1307312 0.0490105 0.039723635 1.5738088e-38
0.1351051 0.13131776 0.028532743 5.3426396e-39
0.13472965 0.13284457 0.029239357 6.994975e-39
0.1278134 0.047783807 0.040025532 1.5931097e-38
0.12785655 0.049507596 0.03913784 1.5647337e-38
0.12507504 0.050496019 0.038294554 1.555583e-38
0.12390822 0.053554341 0.037446439 1.5281768e-38
0.12306881 0.056675375 0.037120402 1.5371818e-38
0.12501729 0.098140895 0.031399667 8.6473231e-39
0.12080753 0.058275543 0.036139965 1.5281413e-38
0.12029076 0.061037682 0.035017371 1.3165961e-38
0.12127239 0.085594065 0.031467199 7.7322024e-39
0.11690754 0.057815455 0.034942508 1.6847661e-38
0.11705387 0.061442763 0.033902884 1.5007343e-38
0.11686915 0.064094633 0.032905161 1.3902082e-38
0.11713648 0.075660847 0.031219661 1.1602185e-38
0.11746505 0.078421004 0.030903578 1.0587715e-38
0.11749244 0.082300603 0.030469775 9.6672176e-39
0.11787748 0.085329242 0.030829132 8.83781e-39
0.11715114 0.095124289 0.029304445 1.021209e-38
0.11802983 0.096974403 0.028775334 1.0211722e-38
0.11319295 0.057727285 0.033748269 1.6846945e-38
0.11328217 0.06158834 0.033185661 1.5648762e-38
0.11356947 0.065686092 0.031588495 1.3625143e-38
0.11319077 0.07068637 0.030699134 1.2797539e-38
0.11366677 0.074477568 0.030272961 1.2612425e-38
0.1141049 0.078157753 0.029851437 1.1693351e-38
0.11395189 0.082106836 0.029786885 1.0127115e-38
0.11383253 0.085398182 0.029715896 1.0218938e-38
0.11362305 0.094183013 0.028301597 1.1317014e-38
0.11472893 0.096525311 0.027505279 1.1224464e-38
0.1097438 0.058417208 0.032521129 1.5923927e-38
0.10972607 0.06166473 0.032017708 1.5186718e-38
0.109745 0.065980449 0.031185448 1.3899921e-38
0.10992244 0.070459157 0.030379653 1.3073043e-38
0.10991389 0.074353009 0.030016363 1.2151465e-38
0.11000311 0.078213438 0.029453754 1.1508252e-38
0.11019456 0.081935257 0.029063761 1.0957232e-38
0.1105257 0.085105315 0.028685689 1.1507522e-38
0.10941643 0.090653002 0.02747488 1.1873032e-38
0.1105566 0.093572825 0.026807785 1.196343e-38
0.112048 0.096090913 0.026434481 1.168508e-38
0.10703164 0.058867365 0.031570375 1.5554838e-38
0.10710603 0.062084906 0.031101465 1.4634281e-38
0.10718036 0.065302454 0.030632675 1.3989946e-38
0.10729939 0.070450529 0.029882431 1.2980473e-38
0.1065681 0.074506491 0.029023111 1.2610285e-38
0.10747787 0.078172639 0.028757036 1.2152898e-38
0.10755223 0.081390187 0.028288245 1.2060342e-38
0.10666591 0.089890972 0.026697397 1.2701739e-38
0.10662097 0.092965126 0.025149107 1.3160564e-38
0.10218859 0.090267062 0.025184035 1.3622986e-38
0.10178241 0.092966571 0.023879349 1.4543858e-38
0.099107921 0.090837091 0.024095058 1.4268363e-38
0.098082215 0.093319833 0.023026943 1.6753678e-38
0.09437409 0.093446195 0.021801949 1.933551e-38
0.090641439 0.092500702 0.020733237 1.8411753e-38
0.087657034 0.093682751 0.01940465 1.5734509e-38
0.085606664 0.095661908 0.018966138 1.4722115e-38
0.083368242 0.10589926 0.016669571 1.2148217e-38
0.082920551 0.10794674 0.016210198 1.2793219e-38
0.080574751 0.10829626 0.014862657 1.2520221e-38
0.19544479 0.092254832 0.029814482 1.3532966e-38
0.19127849 0.08043848 0.030669093 1.6663288e-38
0.19152433 0.084089972 0.029672921 1.5743482e-38
0.1529561 0.087625146 0.023366332 1.5835679e-38
0.15387523 0.09394899 0.024223208 1.5098133e-38
0.1690858 0.11059472 0.026944578 1.657433e-38
0.15712294 0.047308773 0.043479681 1.3164864e-38
0.12323084 0.098008037 0.027894258 1.4730054e-38
0.1105257 0.085105315 0.028685689 1.1507522e-38
0.19152433 0.084089972 0.029672921 1.5743482e-38
0.19308665 0.13903072 0.05116123 2.2492134e-38
0.18637991 0.02587508 0.066675007 6.6280324e-39
0.18746421 0.028778791 0.064103067 5.6156714e-39
0.18972239 0.13968475 0.048328936 2.2575336e-38
0.18842867 0.14327075 0.048288643 2.2586848e-38
0.1829046 0.026310135 0.065478444 5.2501006e-39
0.18359229 0.028729945 0.063323975 6.259561e-39
0.18278186 0.031180732 0.061504185 8.1077392e-39
0.18669328 0.14057852 0.046543002 2.2476298e-38
0.18605243 0.1432656 0.046606064 2.2669345e-38
0.17952815 0.028730549 0.063065171 8.1917064e-39
0.17969669 0.03175161 0.060413599 9.8516103e-39
0.18283416 0.14067861 0.044741571 2.228616e-38
0.18237396 0.14365631 0.045788646 2.2296599e-38
0.18104149 0.14632533 0.045418739 2.2945899e-38
0.17577994 0.028853413 0.062373698 9.207673e-39
0.17645854 0.032363564 0.059739292 1.095653e-38
0.1791141 0.14059031 0.043545663 2.0719921e-38
0.17876008 0.1432431 0.04484576 2.183091e-38
0.17303072 0.029957317 0.061709225 9.9448877e-39
0.17238681 0.0323686 0.059477448 1.1511116e-38
0.17233108 0.034797274 0.057552099 1.2890079e-38
0.17601405 0.14051673 0.042549014 1.9708638e-38
0.17475158 0.14307535 0.04387176 2.0814957e-38
0.16913554 0.032569602 0.057917297 1.1417511e-38
0.17105399 0.14039901 0.040954351 1.942808e-38
0.17092958 0.14292154 0.042918324 2.0443327e-38
0.16507143 0.032604851 0.055952787 1.316382e-38
0.16771656 0.1404936 0.040563345 1.9891544e-38
0.16726996 0.14212255 0.041585326 2.0444011e-38
0.16124973 0.032413244 0.055225492 1.4637154e-38
0.1611709 0.034532391 0.053964257 1.6025793e-38
0.16361561 0.14001223 0.040366411 1.9430938e-38
0.16380216 0.14230284 0.041492879 2.053656e-38
0.15709922 0.032761917 0.055568457 1.6668298e-38
0.15755329 0.035340741 0.053018391 1.740265e-38
0.15958166 0.14013249 0.03992188 1.9338017e-38
0.15443861 0.03339757 0.055137277 1.9059273e-38
0.15383744 0.035801277 0.052920401 1.9426286e-38
0.15320015 0.038207784 0.050809562 1.9796498e-38
0.15640625 0.13893761 0.038009882 1.924618e-38
0.15002912 0.036156222 0.052370071 2.0254603e-38
0.15022606 0.03851521 0.050326765 2.0620503e-38
0.15063509 0.13810878 0.037854612 1.9151864e-38
0.14630696 0.036707625 0.051454902 2.02539e-38
0.14644557 0.039031565 0.049094439 1.9978017e-38
0.1468688 0.13672554 0.036841989 1.8600141e-38
0.14752144 0.13803487 0.036853552 1.8693434e-38
0.14331928 0.037015185 0.050967693 2.0254965e-38
0.14246473 0.039277427 0.049014807 1.9608882e-38
0.14433357 0.13596074 0.034540951 1.7226182e-38
0.14400262 0.13838266 0.035656214 1.7594949e-38
0.13861096 0.040080205 0.048435867 1.9242251e-38
0.14051473 0.13625592 0.033519864 1.1694803e-38
0.14014816 0.13779564 0.034227252 1.1232377e-38
0.13531357 0.040706702 0.04779911 1.8965291e-38
0.13412872 0.042229056 0.04484278 1.8597593e-38
0.136345 0.13551608 0.030949116 9.1176311e-39
0.13609105 0.13750665 0.032155573 9.4860872e-39
0.13027576 0.04281804 0.044110775 1.7951862e-38
0.12983346 0.046026453 0.042014241 1.7030975e-38
0.13436916 0.1350196 0.029851496 6.9935527e-39
0.1263088 0.043000005 0.043811738 1.8321336e-38
0.12721437 0.046005353 0.041520178 1.7307914e-38
0.12642938 0.09593454 0.035384834 7.6381949e-39
0.12648913 0.098519877 0.035008073 8.8338556e-39
0.12264699 0.043745793 0.043002605 1.8229157e-38
0.12299249 0.046701737 0.041339517 1.7307209e-38
0.12280017 0.050046146 0.039111555 1.6571062e-38
0.12348381 0.088236429 0.036315262 5.6127483e-39
0.12299109 0.090779647 0.035588205 6.0748068e-39
0.12414607 0.094479114 0.034275115 6.9939003e-39
0.12509039 0.097493008 0.034002304 8.0934291e-39
0.11880651 0.047388732 0.04105407 1.7768914e-38
0.11973348 0.050381325 0.03877157 1.7491973e-38
0.12010697 0.054168865 0.037604094 1.7677781e-38
0.11954653 0.056731954 0.037029207 1.7213225e-38
0.12088156 0.087680332 0.032720625 7.5492152e-39
0.12037522 0.090497725 0.033541143 7.1797012e-39
0.1207478 0.094247147 0.03237927 7.7293017e-39
0.12233013 0.09673208 0.031804442 8.1877799e-39
0.11494306 0.047986284 0.04006058 1.8228088e-38
0.11567318 0.050386861 0.03827703 1.8136972e-38
0.11629063 0.054108165 0.036608756 1.7954373e-38
0.11684406 0.087262459 0.031471968 8.7438039e-39
0.11722109 0.090169847 0.03114903 8.7401886e-39
0.11747909 0.093672514 0.030696213 9.3859251e-39
0.11245215 0.047927164 0.039259791 1.8043703e-38
0.11150908 0.050419204 0.037980974 1.7767479e-38
0.11256936 0.054019839 0.035412431 1.7951522e-38
0.11344147 0.087503731 0.030328691 1.0218575e-38
0.11350101 0.09008155 0.029953063 1.0584856e-38
0.11439723 0.093108609 0.029780507 1.0948952e-38
0.10838044 0.051280774 0.037422061 1.702992e-38
0.1085532 0.054014623 0.034815907 1.6752972e-38
0.10870382 0.056796648 0.033493996 1.6109037e-38
0.10785574 0.060319059 0.032678485 1.5278577e-38
0.108392 0.083519295 0.02929759 1.1876307e-38
0.10949486 0.086551279 0.029191554 1.1691189e-38
0.11018437 0.089573428 0.028952599 1.1597187e-38
0.10438061 0.054051787 0.034516275 1.6844447e-38
0.10515741 0.057517596 0.032230496 1.6107961e-38
0.10504693 0.061356559 0.031606257 1.4908351e-38
0.10510141 0.066265263 0.030871749 1.3897768e-38
0.10499403 0.0705567 0.030179262 1.3162366e-38
0.1048668 0.07398887 0.029611945 1.2977624e-38
0.10517278 0.078290112 0.029052258 1.2887585e-38
0.10553211 0.082347274 0.028547466 1.2427687e-38
0.10597152 0.086038254 0.02812463 1.2427683e-38
0.1047911 0.088586614 0.027350307 1.2794669e-38
0.10064754 0.054524437 0.03423363 1.7303277e-38
0.10089031 0.057797059 0.032453299 1.6751891e-38
0.10138232 0.061552078 0.031093299 1.5644837e-38
0.10133612 0.066116415 0.03073293 1.4817948e-38
0.10179299 0.07051605 0.029380858 1.4081818e-38
0.10198337 0.074349828 0.028619111 1.3806677e-38
0.10187173 0.078288704 0.028451502 1.3807739e-38
0.10155797 0.082306013 0.028678358 1.2980497e-38
0.1022515 0.085949957 0.026928604 1.2612419e-38
0.10231104 0.088527761 0.026553035 1.2704612e-38
0.097686201 0.055339769 0.03332305 1.7484812e-38
0.09744218 0.058245122 0.032798469 1.7028128e-38
0.097289175 0.061774954 0.032030642 1.6199799e-38
0.097115099 0.066182218 0.030501723 1.5557304e-38
0.097868532 0.070493579 0.028580666 1.5002329e-38
0.098263294 0.074261531 0.027423084 1.4451329e-38
0.09814924 0.078200772 0.027254641 1.3992149e-38
0.097526789 0.082328893 0.028072655 1.3256014e-38
0.098225236 0.085976705 0.026323855 1.2521665e-38
0.097891361 0.089407116 0.025689781 1.343968e-38
0.09358108 0.066246428 0.029157817 1.6017566e-38
0.093837678 0.070548296 0.027403355 1.5277848e-38
0.093923241 0.07415852 0.026027858 1.4725742e-38
0.094012618 0.078025222 0.025464356 1.4082541e-38
0.094008356 0.081939861 0.025925756 1.3622996e-38
0.093987972 0.086080432 0.026111066 1.3254567e-38
0.094146073 0.089957714 0.024848104 1.3530445e-38
0.094340324 0.092203163 0.02339828 1.6935572e-38
0.089283586 0.066257834 0.028531671 1.5832461e-38
0.089636803 0.070352465 0.027342737 1.5187816e-38
0.089576274 0.074276775 0.026013434 1.4358413e-38
0.089485437 0.077931076 0.025221407 1.3807376e-38
0.089795589 0.082351595 0.025821269 1.3440389e-38
0.089998007 0.086087666 0.025403142 1.3070892e-38
0.090202272 0.089696631 0.024296582 1.2975106e-38
0.085856795 0.066703603 0.027735531 1.5648069e-38
0.085643202 0.070562199 0.026956797 1.4913012e-38
0.0861018 0.07432425 0.025702834 1.4173302e-38
0.086151659 0.078323707 0.024855316 1.3530794e-38
0.086130232 0.08203052 0.025210142 1.3071253e-38
0.086691082 0.085872322 0.025069356 1.242696e-38
0.086376131 0.090095498 0.023921371 1.2884342e-38
0.086302519 0.092978537 0.020666182 1.4632476e-38
0.083010018 0.066636041 0.026820362 1.5188509e-38
0.082477063 0.070504919 0.026054204 1.5004831e-38
0.082304209 0.074567199 0.025375545 1.4082527e-38
0.082265019 0.077486649 0.024915397 1.3531513e-38
0.083578557 0.09123259 0.023236036 1.4358381e-38
0.083076 0.093472064 0.022304416 1.4727166e-38
0.082019597 0.097597703 0.021399558 1.3254183e-38
0.082748532 0.10122019 0.019664645 1.1409947e-38
0.082843184 0.10416815 0.017826676 1.1506091e-38
0.078746349 0.097587138 0.020691216 1.3530761e-38
0.078880519 0.10147703 0.01950103 1.1596102e-38
0.079138041 0.10472429 0.016536832 1.132132e-38
0.077484936 0.10812293 0.016541243 1.1966698e-38
0.075508177 0.097510278 0.019650102 1.2426586e-38
0.074940324 0.10121661 0.018897533 1.1230167e-38
0.075220317 0.10498357 0.016994417 1.058807e-38
0.075670779 0.10898598 0.017094374 1.2428389e-38
0.072519064 0.097439334 0.018689096 1.1690827e-38
0.071986079 0.10130821 0.017922997 1.1046888e-38
0.072194427 0.10493591 0.017434776 1.1322409e-38
0.19679871 0.086823523 0.031323075 1.3441109e-38
0.19474176 0.086745977 0.030725241 1.454568e-38
0.15308899 0.089247346 0.024763048 1.6848401e-38
0.13156244 0.11418325 0.022332191 1.2430556e-38
0.1085532 0.054014623 0.034815907 1.6752972e-38
0.18608302 0.02434558 0.069469392 7.7361582e-39
0.18159388 0.022718087 0.069498956 7.7354338e-39
0.18174991 0.024642512 0.068900585 6.9056689e-39
0.1777254 0.022655424 0.068605125 7.7311164e-39
0.17812374 0.025175173 0.067285776 7.3630429e-39
0.1736466 0.022233263 0.067343593 7.5481558e-39
0.17448601 0.025058851 0.065766692 7.9165824e-39
0.17352566 0.027571306 0.064361036 8.9325042e-39
0.1759152 0.14597711 0.048055887 2.2380834e-38
0.17044765 0.021962129 0.066345096 7.8240267e-39
0.17061798 0.02499786 0.064872682 8.5615903e-39
0.17080992 0.028666243 0.063575923 9.852685e-39
0.1736984 0.1430629 0.046719074 2.0447978e-38
0.17466429 0.14594741 0.047653794 2.1736192e-38
0.16726887 0.025270265 0.064804673 9.2069541e-39
0.16695526 0.028809201 0.063097775 1.0404437e-38
0.16737027 0.031318039 0.061785519 1.0957972e-38
0.16996616 0.14362311 0.045419753 2.044261e-38
0.16931027 0.14608669 0.046954334 2.0812104e-38
0.16318512 0.029146709 0.062427521 1.270463e-38
0.16362303 0.031229101 0.06058085 1.3072705e-38
0.16611524 0.14426868 0.044423044 2.0260719e-38
0.16555214 0.14599748 0.045746148 2.0075967e-38
0.1599234 0.029991791 0.061161637 1.408936e-38
0.16050032 0.031154983 0.059576929 1.4086851e-38
0.16216689 0.14376241 0.042862654 2.0168513e-38
0.16191444 0.14582235 0.044236004 2.0168883e-38
0.15538731 0.031234883 0.060027659 1.6298081e-38
0.15854099 0.14348419 0.042257786 1.9525293e-38
0.15888104 0.14627294 0.043534935 2.0077765e-38
0.15203997 0.032570258 0.057672024 1.8508974e-38
0.15471488 0.14291298 0.041784465 1.8787379e-38
0.15427777 0.1457299 0.04212153 2.0168873e-38
0.1481069 0.032961942 0.056864619 1.9429155e-38
0.14809951 0.034753494 0.054993629 2.0347149e-38
0.15105292 0.13967 0.040142 1.9062889e-38
0.15063322 0.1422596 0.040937185 1.8879226e-38
0.14499199 0.033538699 0.055763423 2.0530826e-38
0.14450622 0.035251006 0.054386735 2.0346084e-38
0.14761704 0.13958845 0.039037406 1.8881038e-38
0.14691418 0.1428071 0.039584994 1.8974304e-38
0.1408824 0.036637247 0.05342114 2.0530826e-38
0.14406675 0.13933182 0.037656784 1.8328928e-38
0.14328861 0.14263353 0.038078606 1.6763055e-38
0.1430034 0.14546229 0.038496912 1.6671953e-38
0.13715178 0.036956094 0.052956402 2.0251368e-38
0.13743922 0.038430616 0.051318467 1.9792905e-38
0.13991314 0.13966578 0.036255181 1.1508605e-38
0.13931641 0.14268512 0.03736949 1.0955066e-38
0.13799256 0.14534336 0.036885977 1.1230547e-38
0.13298905 0.037210152 0.051829755 1.9978386e-38
0.13343751 0.03928943 0.050138891 1.9333353e-38
0.13616589 0.13957684 0.035050452 9.7590671e-39
0.13581884 0.14180391 0.036296606 1.1046907e-38
0.13048366 0.037150681 0.051024258 1.9887252e-38
0.12960833 0.039643101 0.049531221 1.9518466e-38
0.13366771 0.13951755 0.034247279 8.2035992e-39
