# .PCD v0.7 - Point Cloud Data file format
VERSION 0.7
FIELDS x y z rgb
SIZE 4 4 4 4
TYPE F F F F
COUNT 1 1 1 1
WIDTH 992
HEIGHT 1
VIEWPOINT 0 0 0 0 1 0 0
POINTS 992
DATA ascii
0.21260196 0.057700038 0.055020511 9.8512403e-39
0.21058947 0.067267537 0.061117947 1.5838933e-38
0.2034893 0.063665241 0.044929683 1.3440053e-38
0.20961088 0.05652082 0.056064427 1.252097e-38
0.21480864 0.041202158 0.052669883 6.1662724e-39
0.19722995 0.049660772 0.039829403 1.1414609e-38
0.19712698 0.048460722 0.037594885 1.0676686e-38
0.19358683 0.077390477 0.046385735 1.3072342e-38
0.18963987 0.097330809 0.053804934 1.4180486e-38
0.18277788 0.08276628 0.039306223 1.3716274e-38
0.18154126 0.094420761 0.04576987 1.3902108e-38
0.18273842 0.07763721 0.040933937 1.4085776e-38
0.15626639 0.098859996 0.027703524 9.1115061e-39
0.14772671 0.12558597 0.030451059 1.6488251e-38
0.141155 0.13493982 0.027644932 1.4080016e-38
0.21486431 0.02152127 0.060907304 1.0961193e-38
0.21129736 0.015800506 0.056689471 9.5782674e-39
0.21205747 0.01877743 0.057187319 1.013179e-38
0.20941401 0.015631497 0.053663373 9.6718867e-39
0.20981127 0.018848628 0.05425179 9.6708091e-39
0.20715469 0.015889585 0.050891221 8.9336112e-39
0.20358056 0.012931406 0.047358394 1.0502009e-38
0.20494133 0.015649915 0.047924876 1.0685672e-38
0.20237285 0.010038257 0.044054329 1.0776096e-38
0.18051299 0.11425862 0.068444014 2.1460335e-38
0.17964023 0.11684859 0.069054186 1.9432064e-38
0.17388329 0.12334582 0.068778783 1.0035288e-38
0.18715841 0.013180465 0.027418852 6.2595568e-39
0.18699053 0.014358342 0.02780056 6.1669954e-39
0.18450654 0.020496488 0.031148881 8.6466001e-39
0.18573123 0.023192525 0.030663282 9.2951911e-39
0.17331281 0.12241356 0.064653784 9.0189475e-39
0.18489581 0.013173461 0.026029408 6.2591925e-39
0.18361914 0.020652294 0.03027764 9.1061461e-39
0.18312109 0.024007857 0.030831635 1.0586293e-38
0.18226326 0.026871949 0.030832559 1.1691554e-38
0.1814096 0.029685706 0.030685902 1.2797172e-38
0.18144959 0.013794661 0.023780406 5.5241371e-39
0.18108851 0.016439825 0.025115609 6.9949442e-39
0.1800307 0.027617991 0.02976954 1.2428401e-38
0.17946947 0.031175822 0.029328048 1.3622272e-38
0.17937052 0.013921291 0.022035211 4.8787804e-39
0.17896849 0.016861409 0.023518592 6.534336e-39
0.17640322 0.032287776 0.027512312 1.4357689e-38
0.1766144 0.035243452 0.027299881 1.44506e-38
0.17350492 0.033947676 0.025829107 1.4359488e-38
0.17369029 0.036312342 0.025359124 1.481938e-38
0.17265794 0.039269358 0.02438581 1.5279627e-38
0.17055494 0.037344337 0.02379033 1.5003777e-38
0.16932005 0.040720522 0.022800982 1.5463658e-38
0.15886539 0.12095651 0.048874855 2.3138591e-38
0.15691191 0.12290186 0.049717128 2.332474e-38
0.16663009 0.041581661 0.021369129 1.5280357e-38
0.16583878 0.044924676 0.020964593 1.5831381e-38
0.15248907 0.12979095 0.04905194 2.341769e-38
0.16333669 0.04551965 0.019990623 1.528073e-38
0.163113 0.04892689 0.020157218 1.5280711e-38
0.16218752 0.052315235 0.020207465 1.5554028e-38
0.1535607 0.10991172 0.039195955 1.1418153e-38
0.15118879 0.13160615 0.046993792 2.341769e-38
0.15090519 0.13438772 0.046478599 2.341769e-38
0.16089696 0.046529055 0.01838392 1.4729696e-38
0.15962464 0.049385428 0.018387765 1.5002685e-38
0.15975493 0.052633137 0.018754959 1.5370729e-38
0.15143955 0.11380419 0.038173765 1.1781223e-38
0.15093762 0.11600757 0.037765622 1.2791069e-38
0.14805049 0.13654482 0.046768844 2.341769e-38
0.15673482 0.052944362 0.016810536 1.491048e-38
0.15703779 0.056874573 0.017000556 1.5186718e-38
0.15537423 0.060679197 0.016160607 1.4820082e-38
0.14811695 0.11485413 0.036516547 1.2236816e-38
0.14859998 0.11727941 0.035880297 1.2881463e-38
0.15400594 0.058378607 0.015913069 1.4544221e-38
0.152614 0.062076598 0.016189963 1.4634264e-38
0.15289724 0.066014677 0.016829193 1.4728605e-38
0.15180296 0.069654703 0.017395616 1.4727526e-38
0.15112513 0.072335303 0.0171808 1.4636052e-38
0.1469937 0.098414212 0.026727408 7.3630513e-39
0.1458047 0.1159901 0.035362065 1.2697789e-38
0.14506948 0.11895442 0.034196556 1.3432832e-38
0.14318699 0.12208499 0.033936918 1.3619035e-38
0.15038431 0.06565389 0.01628536 1.4268371e-38
0.14925569 0.069019854 0.016684681 1.4543148e-38
0.14827591 0.073285103 0.016646206 1.4359465e-38
0.14793766 0.076613143 0.017049968 1.3990666e-38
0.14566875 0.098735407 0.027005374 5.0599921e-39
0.14239758 0.1196602 0.033478796 1.3801618e-38
0.14115125 0.12291706 0.032505512 1.3710853e-38
0.14095432 0.12557608 0.032451332 1.3803426e-38
0.14476854 0.074703485 0.014608979 1.2978336e-38
0.14467651 0.078327924 0.015211284 1.1687579e-38
0.14517927 0.082279623 0.015578687 9.7550468e-39
0.14405406 0.085635379 0.015976846 1.1969873e-38
0.14344478 0.089924008 0.017752916 1.4455946e-38
0.14256299 0.092536703 0.019516885 1.160039e-38
0.14298272 0.096242383 0.02142033 6.0733663e-39
0.13805544 0.1270435 0.031213701 1.3711589e-38
0.13775772 0.12980631 0.030290425 1.3068736e-38
0.14240438 0.079150364 0.014206409 1.1133339e-38
0.14186525 0.082892746 0.014491141 1.2243269e-38
0.14122498 0.085865706 0.015185297 1.3992831e-38
0.14079309 0.088936567 0.017147124 1.3992467e-38
0.13517547 0.12784 0.029677063 1.3342448e-38
0.13509238 0.13038021 0.028953195 1.2510905e-38
0.13915277 0.083753109 0.012932599 1.3991054e-38
0.13863236 0.085380331 0.013152719 1.2795038e-38
0.1320585 0.13198045 0.027173996 1.3247014e-38
0.13194591 0.1342722 0.026223749 1.3801984e-38
0.12958562 0.1326614 0.026015997 1.4355508e-38
0.13023931 0.13413523 0.025876939 1.4538462e-38
0.21238726 0.068225116 0.062001109 1.3536203e-38
0.21064597 0.059263349 0.05638811 1.2984823e-38
0.20163953 0.076929241 0.04923898 1.3532973e-38
0.20583585 0.06584242 0.052385747 1.1600799e-38
0.20642728 0.056318969 0.049753368 1.2337284e-38
0.20445105 0.067161262 0.053858459 1.5099205e-38
0.20500195 0.056560218 0.0488334 1.325889e-38
0.21217161 0.037713528 0.048954129 7.9176558e-39
0.19403729 0.033379376 0.029326379 9.0175168e-39
0.18367934 0.10863918 0.056848794 1.4363466e-38
0.19166458 0.036622047 0.030825973 1.150572e-38
0.18192777 0.053344846 0.027159423 1.3805939e-38
0.18124834 0.058415979 0.028280348 1.3070178e-38
0.1761483 0.097364902 0.043420166 1.5374715e-38
0.18182224 0.10746107 0.057383239 1.4272333e-38
0.15882856 0.10087308 0.032797515 1.5647696e-38
0.16452271 0.069440097 0.020856589 1.518602e-38
0.18263128 0.09312351 0.044737697 1.4543882e-38
0.1469937 0.098414212 0.026727408 7.3630513e-39
0.20837975 0.010050327 0.058784336 7.5521453e-39
0.20920497 0.012285471 0.058780819 8.5670021e-39
0.20646659 0.0099958777 0.055119365 8.9382888e-39
0.20239812 0.0074190497 0.051671207 6.5387179e-39
0.20428482 0.010543197 0.052265465 8.288239e-39
0.20226371 0.0088537335 0.048625112 9.3924482e-39
0.20286751 0.010490447 0.049535006 9.487857e-39
0.17047414 0.1228704 0.06799379 1.0683868e-38
0.18148053 0.015217781 0.028486073 7.2726059e-39
0.17998222 0.018246859 0.030636638 9.3855972e-39
0.18068945 0.022289157 0.03100878 1.0678131e-38
0.17740464 0.018953383 0.028995097 1.0126031e-38
0.17714119 0.023063421 0.029353082 1.1690489e-38
0.17743236 0.026657462 0.029617548 1.2703195e-38
0.17692295 0.013707399 0.022911489 4.5092958e-39
0.176754 0.014892459 0.023295522 5.151445e-39
0.1744048 0.023601323 0.028010994 1.2334769e-38
0.17397749 0.027375489 0.028156549 1.3437527e-38
0.17358345 0.031047285 0.027605861 1.4081828e-38
0.17043537 0.028121829 0.02670157 1.3990696e-38
0.17153186 0.031572253 0.025889546 1.4358755e-38
0.1675567 0.028626561 0.024643093 1.4084336e-38
0.16803557 0.031826973 0.024115145 1.4543153e-38
0.16806108 0.035290778 0.023741692 1.4819027e-38
0.1644944 0.032064438 0.02235803 1.4267641e-38
0.16527647 0.036103845 0.022357166 1.4727905e-38
0.16411418 0.039642721 0.021607757 1.5187092e-38
0.15074635 0.13037902 0.050548494 2.341769e-38
0.16126579 0.036016822 0.021201581 1.4360913e-38
0.161475 0.039787054 0.020840585 1.4727912e-38
0.16055954 0.043352485 0.020098358 1.4821165e-38
0.14977175 0.13112786 0.049866617 2.341769e-38
0.14770359 0.13358617 0.049601436 2.341769e-38
0.15793645 0.040411055 0.019694388 1.4637489e-38
0.15785921 0.044147044 0.018431902 1.4177587e-38
0.15828967 0.047020376 0.018913329 1.4820093e-38
0.14837712 0.11068846 0.040190041 1.1135142e-38
0.14568168 0.13582677 0.050050378 2.341769e-38
0.1547448 0.044455588 0.016306341 1.408538e-38
0.15536374 0.048627555 0.01673156 1.4727528e-38
0.15388471 0.053571016 0.017337769 1.4726091e-38
0.1458835 0.11274654 0.036975801 1.1223027e-38
0.15149182 0.046536505 0.016050637 1.417544e-38
0.15109682 0.049205065 0.01613155 1.4450233e-38
0.15147746 0.053161711 0.016499192 1.4356946e-38
0.15038216 0.056953728 0.016368479 1.4448433e-38
0.14576989 0.098323941 0.029990733 7.2773003e-39
0.14253002 0.11414477 0.035861433 1.2606304e-38
0.14745188 0.05653125 0.016503155 1.4356957e-38
0.14719021 0.060838223 0.016054332 1.4449517e-38
0.14720476 0.064964294 0.016155243 1.3992493e-38
0.14651722 0.068729818 0.016702473 1.4543497e-38
0.13913685 0.11486384 0.035405695 1.3158417e-38
0.14365596 0.064709127 0.015253186 1.4358401e-38
0.14318645 0.068642884 0.016185999 1.4266555e-38
0.1435259 0.073503911 0.016129106 1.3253482e-38
0.14283341 0.076309234 0.01638484 1.2056717e-38
0.1395784 0.093056574 0.020887226 8.0079933e-39
0.13932496 0.094834179 0.021463275 6.8051972e-39
0.13613421 0.11847815 0.032646298 1.380413e-38
0.13628584 0.12229401 0.032062411 1.4078935e-38
0.13894457 0.073404074 0.015469283 1.205638e-38
0.13885301 0.076969236 0.015147448 1.15032e-38
0.13871056 0.080927849 0.01521492 1.2518434e-38
0.13792175 0.086415067 0.015961319 1.3164459e-38
0.13742179 0.08874388 0.017459154 1.0118842e-38
0.137995 0.092041552 0.019741774 7.1725098e-39
0.13264388 0.12245129 0.031484246 1.4172223e-38
0.13267893 0.12571025 0.03061381 1.3986736e-38
0.13608533 0.077562302 0.014401972 1.2424785e-38
0.13574684 0.080892682 0.01387006 1.3161993e-38
0.13703161 0.086571395 0.015087426 1.2143811e-38
0.13507664 0.088223755 0.016864479 9.9268628e-39
0.13482302 0.090086967 0.019017816 7.6266846e-39
0.12962365 0.12650311 0.029784918 1.3893797e-38
0.12891197 0.12938842 0.028863132 1.3522512e-38
0.22134399 0.056597769 0.069982201 9.6729853e-39
0.21583298 0.050503433 0.057174772 9.1151116e-39
0.2140094 0.056443036 0.058688849 1.0035274e-38
0.20146477 0.074705362 0.048856795 1.3349286e-38
0.20507678 0.073019981 0.056483626 1.5100637e-38
0.20602956 0.077906251 0.061937183 1.8507195e-38
0.19146571 0.059359491 0.03876844 1.0400814e-38
0.18981701 0.066037536 0.037812412 1.1414612e-38
0.18531451 0.094956771 0.046572655 1.279791e-38
0.1723831 0.0986671 0.039551198 1.3165964e-38
0.17154768 0.099377126 0.04047519 1.5560532e-38
0.19151032 0.021251768 0.027700901 6.8098551e-39
0.14588416 0.086558685 0.016829401 1.0952542e-38
0.17317677 0.094308898 0.039060116 1.4178322e-38
0.17186648 0.10605347 0.049420178 1.2427341e-38
0.2075426 0.0064702034 0.05977428 7.4592098e-39
0.20773572 0.0081825256 0.060795009 7.6454003e-39
0.20530057 0.0068639517 0.057572901 8.38368e-39
0.17340136 0.015958726 0.027914673 7.9190711e-39
0.17206877 0.018279165 0.02882883 1.0770324e-38
0.17182371 0.020892382 0.028581887 1.2058898e-38
0.16907912 0.022198051 0.028035462 1.3069807e-38
0.16807312 0.025275022 0.02728641 1.3897773e-38
0.16503572 0.023238301 0.025539935 1.3253128e-38
0.16514033 0.025972217 0.024976432 1.3624084e-38
0.15030807 0.12040535 0.056092441 2.3229267e-38
0.14951688 0.12287959 0.056426972 2.3039174e-38
0.16248196 0.027042925 0.023477018 1.3899236e-38
0.16228271 0.029552996 0.022538364 1.3715546e-38
0.15919399 0.030825734 0.021390021 1.3440753e-38
0.15887535 0.034031898 0.021039784 1.3811324e-38
0.14506525 0.12949972 0.054834723 2.341769e-38
0.14393765 0.13217661 0.05439505 2.341769e-38
0.15576595 0.032370448 0.019570559 1.2796124e-38
0.15615553 0.036195457 0.019854546 1.3718419e-38
0.15526193 0.038935095 0.019523323 1.4270141e-38
0.14525086 0.1062333 0.041654289 8.832813e-39
0.14326888 0.13533825 0.052625895 2.341769e-38
0.14225322 0.13646856 0.052850008 2.341769e-38
0.15291607 0.036223292 0.018499494 1.3164173e-38
0.15280181 0.039265186 0.018596113 1.390136e-38
0.14247853 0.098427176 0.037290603 6.8098607e-39
0.14277321 0.10774156 0.040671408 9.107581e-39
0.14901483 0.044128478 0.016875923 1.3715904e-38
0.1488598 0.047044456 0.016561627 1.4265486e-38
0.14736724 0.051381111 0.017035365 1.4540621e-38
0.14198935 0.098309904 0.033639997 5.7996829e-39
0.14088333 0.099815667 0.035373747 6.0701531e-39
0.13950706 0.10869038 0.038789541 1.0119907e-38
0.1392203 0.11160196 0.037015676 1.2237883e-38
0.14603353 0.047778428 0.016461104 1.4448812e-38
0.14493614 0.051855922 0.016976267 1.4264763e-38
0.14387041 0.055614859 0.016605258 1.4264757e-38
0.13848656 0.097333476 0.031858325 5.7082103e-39
0.13839769 0.099940568 0.033355594 6.9006326e-39
0.1356141 0.11261842 0.035770535 1.2976887e-38
0.14127392 0.056353688 0.01536876 1.4172919e-38
0.14122951 0.05975607 0.015250236 1.4449151e-38
0.14045447 0.063072592 0.0152345 1.426404e-38
0.13977367 0.067848802 0.016782194 1.4082161e-38
0.13304502 0.11327597 0.033794343 1.3070523e-38
0.13258368 0.11634348 0.033225894 1.3621542e-38
0.13848352 0.060774863 0.014602304 1.3988863e-38
0.13863558 0.065163702 0.015060127 1.4080728e-38
0.13718504 0.068502873 0.0158723 1.37141e-38
0.13663244 0.071524173 0.015696883 1.2791069e-38
0.13376421 0.091605306 0.021685749 7.1681924e-39
0.13008541 0.11461562 0.031791031 1.3439314e-38
0.12974447 0.11726381 0.031834006 1.3989967e-38
0.12963599 0.1206264 0.031867623 1.4081089e-38
0.12418395 0.15136746 0.042610168 1.8967456e-38
0.12327319 0.15317714 0.042885303 1.675042e-38
0.13377535 0.072396427 0.014751196 1.214643e-38
0.13361806 0.075785518 0.014385223 1.2703177e-38
0.13218009 0.084316492 0.016529053 1.1223717e-38
0.13133639 0.0904589 0.021627128 8.0894494e-39
0.12732452 0.1186035 0.030747384 1.3714104e-38
0.12725466 0.12110075 0.031349182 1.4081809e-38
0.12638652 0.12505375 0.031280935 1.4353347e-38
0.12208074 0.1491264 0.038150072 1.546294e-38
0.12199086 0.15157533 0.040098071 1.6017196e-38
0.12147421 0.15349311 0.04111892 1.5376857e-38
0.13062793 0.076937854 0.013925016 1.3622974e-38
0.13101667 0.080240801 0.013964415 1.3436792e-38
0.13153857 0.082682922 0.015068114 1.2607767e-38
0.12425089 0.12775891 0.030292988 1.3894526e-38
0.11966866 0.14154975 0.033511162 1.1682976e-38
0.12072939 0.14479387 0.034840465 1.2333705e-38
0.12045437 0.14824577 0.035998106 1.251916e-38
0.11925083 0.15140229 0.037755013 1.3441101e-38
0.11967516 0.15380904 0.039352536 1.4273728e-38
0.11876911 0.14170775 0.03262794 1.1226657e-38
0.11834234 0.14470184 0.033598185 1.0401561e-38
0.11783022 0.14829478 0.034762442 1.1137325e-38
0.19532722 0.072638541 0.042904913 1.3718058e-38
0.21387565 0.045694917 0.051295429 7.1815201e-39
0.19864795 0.063567907 0.041906536 1.1230229e-38
0.20064303 0.059196442 0.043246925 1.307125e-38
0.20039594 0.077225223 0.053490669 1.5558736e-38
0.20504463 0.044307202 0.043406129 1.1141256e-38
0.20706439 0.066004306 0.055326402 1.4361284e-38
0.18780804 0.04404673 0.030199438 1.3437879e-38
0.17422518 0.075391114 0.028789759 1.2151089e-38
0.17864543 0.11276028 0.056520462 1.5197518e-38
0.18477333 0.037986606 0.033026993 1.1874864e-38
0.17331281 0.12241356 0.064653784 9.0189475e-39
0.16801327 0.013318479 0.030138016 7.4598838e-39
0.16933906 0.015452266 0.029492736 9.1161822e-39
0.16608894 0.014439523 0.028621376 7.4595475e-39
0.16690618 0.016961068 0.028716385 1.0220733e-38
0.16656983 0.019452095 0.02844587 1.2059249e-38
0.16356307 0.017431915 0.026329964 8.0102284e-39
0.16422868 0.020448804 0.026425958 1.1600429e-38
0.14966768 0.11683565 0.058321387 2.3394912e-38
0.14922267 0.11929463 0.05940181 2.080808e-38
0.14824337 0.12259412 0.060203195 2.2388379e-38
0.14678353 0.12511586 0.060726017 2.3417683e-38
0.16085583 0.018805593 0.024509192 7.635702e-39
0.16070545 0.02240479 0.024261773 1.150754e-38
0.14684749 0.12412417 0.058273226 2.3049259e-38
0.14519829 0.12633398 0.059616804 2.3417689e-38
0.15730947 0.02342093 0.023541898 1.1416415e-38
0.15690178 0.026034027 0.023326725 1.2612786e-38
0.14360648 0.12845635 0.057394147 2.341769e-38
0.14240783 0.13214549 0.057488739 2.3325493e-38
0.14041567 0.13459831 0.057942152 2.3417683e-38
0.15439713 0.028036654 0.021098852 1.2611341e-38
0.15364248 0.029920578 0.01965481 1.2152898e-38
0.14277154 0.10204926 0.043322265 7.7293227e-39
0.13770968 0.13697527 0.05567807 2.341769e-38
0.13771683 0.13887399 0.056077063 2.341768e-38
0.15035307 0.031027973 0.018384784 1.1139125e-38
0.14987379 0.034830987 0.018360555 1.2519527e-38
0.14928615 0.038883775 0.019279122 1.390171e-38
0.14102775 0.099404126 0.039898127 5.9793756e-39
0.14046544 0.10262871 0.041196883 6.6236954e-39
0.13483143 0.1377869 0.054022193 2.341769e-38
0.13426167 0.14023627 0.054580957 2.3417687e-38
0.13360614 0.14328808 0.055334836 2.341769e-38
0.14765424 0.03523618 0.017725527 1.2151816e-38
0.14651018 0.038587898 0.017909616 1.279718e-38
0.14615142 0.042362213 0.017594814 1.3438968e-38
0.13785714 0.1032722 0.038642734 6.9914031e-39
0.13744169 0.10654896 0.038863093 7.907247e-39
0.14369285 0.039516747 0.016694516 1.2243648e-38
0.1436494 0.042950451 0.016404331 1.3163801e-38
0.14284551 0.047041893 0.016299665 1.398891e-38
0.14241737 0.050044954 0.01727283 1.4265479e-38
0.13527727 0.10024926 0.03432709 7.5492166e-39
0.13501465 0.10369265 0.036070406 8.2814021e-39
0.13492358 0.10801595 0.036878407 1.0397579e-38
0.14118773 0.043564498 0.015183657 1.2978337e-38
0.14045602 0.047481984 0.014987826 1.3711939e-38
0.14011788 0.051180303 0.016046166 1.3988887e-38
0.13911146 0.054724634 0.01597771 1.4172562e-38
0.13402063 0.096609339 0.030487686 5.3383516e-39
0.13279355 0.099913001 0.032118529 8.008062e-39
0.13190323 0.10400325 0.033671498 9.5717822e-39
0.13168263 0.10836858 0.03478837 1.1506789e-38
0.13089246 0.11238384 0.034662187 1.2979049e-38
0.13654381 0.052080095 0.014749587 1.3622268e-38
0.13667983 0.056012273 0.014878005 1.389811e-38
0.13465458 0.059473753 0.015538424 1.3897048e-38
0.13463897 0.063529968 0.015915453 1.3896341e-38
0.13396156 0.06616953 0.015937626 1.3804527e-38
0.1304248 0.093445912 0.026495695 8.0934151e-39
0.13059777 0.096780121 0.028288066 8.3739662e-39
0.12972474 0.1002394 0.029687196 9.9420066e-39
0.12833458 0.10862082 0.033000052 1.2243645e-38
0.12887913 0.11240277 0.032526195 1.3071971e-38
0.12365192 0.15093005 0.046061099 1.8318134e-38
0.12186491 0.15299484 0.046127915 1.610795e-38
0.12038249 0.15559509 0.047103107 1.5839284e-38
0.13356042 0.056958407 0.014200002 1.380523e-38
0.13306767 0.06035617 0.014779806 1.3988536e-38
0.13240719 0.063353539 0.014670283 1.3803067e-38
0.13152224 0.06745097 0.014387846 1.2885053e-38
0.13025242 0.070657909 0.014890254 1.1689406e-38
0.12868649 0.084663391 0.019119024 1.0937436e-38
0.12812167 0.087148279 0.020468235 9.4709643e-39
0.12804204 0.090302736 0.022140801 9.2955428e-39
0.12774765 0.093610704 0.025450468 1.0675582e-38
0.12784463 0.096968085 0.026383281 1.10433e-38
0.12737769 0.10033208 0.028255165 1.1510015e-38
0.12557852 0.11276671 0.030527353 1.3071627e-38
0.12454551 0.11632144 0.031310678 1.3346055e-38
0.12363589 0.12023455 0.032203794 1.3621561e-38
0.12290609 0.12324798 0.032348156 1.4078923e-38
0.11951047 0.15449147 0.043151647 1.4824757e-38
0.118532 0.15611917 0.044612646 1.4641079e-38
0.12990111 0.064061701 0.013681769 1.3620124e-38
0.12888461 0.068028033 0.013718188 1.2885395e-38
0.12867707 0.071433634 0.013837218 1.3162363e-38
0.12866676 0.074516773 0.014269084 1.3623335e-38
0.12741488 0.083380058 0.018177986 1.1687216e-38
0.12581897 0.086509883 0.020016164 1.0671317e-38
0.12548703 0.090385854 0.021507144 1.1230573e-38
0.12294555 0.11285709 0.029493988 1.3162382e-38
0.12243032 0.11647159 0.030665219 1.2978697e-38
0.12164593 0.12042698 0.031711936 1.3345319e-38
0.1202442 0.12451716 0.031396806 1.3897761e-38
0.11955255 0.12784262 0.031166673 1.4080003e-38
0.11827451 0.13919425 0.033978164 1.2051757e-38
0.116391 0.15240781 0.038260043 1.2705332e-38
0.11629915 0.15466246 0.040195674 1.3535447e-38
0.1155926 0.15721941 0.042772919 1.3811325e-38
0.11726499 0.1279507 0.030625075 1.4080352e-38
0.11498624 0.13774821 0.032859981 1.1685103e-38
0.11594701 0.14054619 0.032361507 1.1409239e-38
0.11533397 0.14439529 0.033320636 1.0676347e-38
0.1148203 0.14799899 0.03448844 1.113731e-38
0.11466527 0.15149468 0.036157638 1.1415318e-38
0.11302769 0.15454167 0.038189411 1.1782677e-38
0.11317641 0.13806605 0.031082988 1.2334403e-38
0.11260206 0.14115299 0.030842662 1.1963116e-38
0.11233741 0.14455029 0.031567812 1.1504286e-38
0.11191565 0.14818853 0.032679141 1.0678823e-38
0.11112314 0.15170979 0.034022987 1.0679539e-38
0.11058486 0.15418336 0.035992473 1.1875593e-38
0.10951704 0.14516935 0.030564845 1.1783379e-38
0.10908765 0.14818142 0.03154093 1.1046153e-38
0.10865837 0.15119347 0.032516986 1.1320957e-38
0.20162541 0.062757641 0.045040667 1.0863243e-38
0.20040935 0.070728391 0.049227864 1.4546748e-38
0.17953157 0.081690922 0.033457518 1.3071968e-38
0.17894912 0.08503449 0.034428179 1.3070558e-38
0.18326148 0.085968226 0.039467096 1.2980505e-38
0.150433 0.14661932 0.039502501 2.3325854e-38
0.18441296 0.014347017 0.026439399 6.5354122e-39
0.11533397 0.14439529 0.033320636 1.0676347e-38
0.1661126 0.0094991326 0.030905664 5.8853933e-39
0.1674366 0.011645496 0.030264497 6.6311812e-39
0.15132672 0.11691013 0.066954523 5.4258529e-39
0.15115064 0.12067895 0.06787765 6.9003033e-39
0.15026164 0.12372698 0.069478959 8.193898e-39
0.16404492 0.0096618533 0.029292375 4.6886578e-39
0.16477281 0.012104332 0.02887395 5.5241596e-39
0.14971668 0.11496072 0.062859952 1.1674976e-38
0.14997357 0.11793987 0.063270926 1.0026241e-38
0.14859623 0.12122583 0.065074593 1.149778e-38
0.147605 0.12403397 0.06646502 1.3067299e-38
0.16081297 0.0098285675 0.026952982 5.0574333e-39
0.16155857 0.012922883 0.02700007 5.2450728e-39
0.14807385 0.12268791 0.062482119 2.008347e-38
0.1455639 0.12551114 0.063648641 2.28616e-38
0.14331239 0.12904289 0.065043926 2.2575313e-38
0.15853727 0.010228276 0.024718434 6.0679853e-39
0.15824252 0.0130409 0.024718553 4.6915389e-39
0.15837103 0.016760886 0.024576724 6.1616411e-39
0.14360195 0.12719855 0.059864432 2.3417689e-38
0.14204568 0.13005514 0.062255085 2.3138208e-38
0.14078581 0.13400905 0.063617736 2.2378329e-38
0.1392042 0.13651681 0.064223826 1.9148616e-38
0.15457213 0.016898602 0.02349779 5.6124386e-39
0.1549812 0.020807177 0.023769081 9.2048171e-39
0.15501356 0.024415016 0.023105741 1.1602226e-38
0.14220625 0.12665942 0.058120757 2.341769e-38
0.14134628 0.13269252 0.06007576 2.314037e-38
0.13972622 0.13542494 0.060528249 2.3035922e-38
0.13769197 0.13758284 0.062351555 2.0893127e-38
0.15249401 0.018379629 0.022159159 6.625136e-39
0.15152246 0.021207631 0.022085875 7.916937e-39
0.15173882 0.024914116 0.02226916 1.1232356e-38
0.13819754 0.13618654 0.058383822 2.3414083e-38
0.13606077 0.13918138 0.059261352 2.3030905e-38
0.13400048 0.14164498 0.060095608 2.2668141e-38
0.14899892 0.022144496 0.020227224 7.6392781e-39
0.14859051 0.025425166 0.020158112 9.6654141e-39
0.13468623 0.13974425 0.056336045 2.3325846e-38
0.13341516 0.14315414 0.05788511 2.3232927e-38
0.1456334 0.025983751 0.018212318 8.5605141e-39
0.14439267 0.029757828 0.018503904 1.0309717e-38
0.14316076 0.033892781 0.018829882 1.1783041e-38
0.14257365 0.031938523 0.018042564 1.0306494e-38
0.14117628 0.035320401 0.017138839 1.1225558e-38
0.14179856 0.038216919 0.016362906 1.1596841e-38
0.13941085 0.035448164 0.016343117 1.1042952e-38
0.13798541 0.039114416 0.015954524 1.1599345e-38
0.13718474 0.042503625 0.015792429 1.2886146e-38
0.12242776 0.15171555 0.051918209 1.7583447e-38
0.12082034 0.15455738 0.052608073 1.6757648e-38
0.119317 0.15773445 0.05313313 1.6114778e-38
0.13651121 0.048839897 0.015017033 1.3804494e-38
0.13406432 0.050801992 0.015648961 1.37141e-38
0.13161665 0.052769482 0.016282499 1.4358011e-38
0.1269933 0.10415561 0.031641245 1.1414616e-38
0.12635678 0.10767931 0.032201111 1.2243655e-38
0.1213026 0.1534667 0.048607469 1.6023327e-38
0.11926395 0.15617324 0.049836338 1.7038181e-38
0.11740923 0.15862074 0.051215023 1.5837095e-38
0.13056087 0.058522046 0.014822006 1.3895979e-38
0.12601459 0.093034253 0.024866581 1.1689724e-38
0.12527204 0.096693903 0.025817096 1.2332965e-38
0.12471735 0.10067117 0.027887344 1.2612768e-38
0.12380075 0.10419759 0.030279309 1.2059268e-38
0.12427759 0.10852864 0.03073144 1.2611005e-38
0.11666965 0.15721887 0.046993792 1.5378644e-38
0.11509055 0.15926403 0.048589706 1.5467615e-38
0.12711161 0.059468985 0.014671147 1.3895613e-38
0.126697 0.062259853 0.014533162 1.3619768e-38
0.12580854 0.066308618 0.014488995 1.3344948e-38
0.12333828 0.079546779 0.018669605 1.2699957e-38
0.12245172 0.081726208 0.019786984 1.2148909e-38
0.12301773 0.085834652 0.020296156 1.1598993e-38
0.1230427 0.089698464 0.021137178 1.1964907e-38
0.12307131 0.093008012 0.023425579 1.2151444e-38
0.12219316 0.096481845 0.024826229 1.3164151e-38
0.12149954 0.10067841 0.02625519 1.3070866e-38
0.12062448 0.1048016 0.02779758 1.2884712e-38
0.12010694 0.10843223 0.028974086 1.3069099e-38
0.12077039 0.11277786 0.028675646 1.3253833e-38
0.11998063 0.1161848 0.030333668 1.3161638e-38
0.11968219 0.11979219 0.030854493 1.3346376e-38
0.11894131 0.1225104 0.031358778 1.371446e-38
0.11414075 0.15825374 0.04325515 1.3902449e-38
0.11236167 0.15974329 0.045910299 1.4641101e-38
0.12317133 0.068432659 0.014739066 1.3717312e-38
0.12245709 0.07033062 0.014881283 1.3624405e-38
0.12144369 0.080552727 0.018666506 1.2791771e-38
0.12051684 0.085778117 0.019858509 1.2242562e-38
0.11951804 0.089372292 0.020620257 1.2794662e-38
0.11889631 0.092871279 0.021644473 1.3346393e-38
0.11837816 0.096506312 0.02282238 1.3807008e-38
0.11815983 0.10090542 0.023957789 1.3805216e-38
0.11780638 0.1052441 0.025176436 1.3528993e-38
0.11683309 0.10869679 0.026636422 1.3437862e-38
0.11740911 0.11275327 0.027131557 1.3622237e-38
0.11652744 0.11624131 0.028535306 1.3898476e-38
0.11655796 0.12007502 0.029367745 1.362371e-38
0.11645311 0.12375318 0.030067593 1.362371e-38
0.11589706 0.12775069 0.03060931 1.3896673e-38
0.1140939 0.13066539 0.032534182 1.4542062e-38
0.11450249 0.13505408 0.03259939 1.3521817e-38
0.11159033 0.15786712 0.041122198 1.3349627e-38
0.10978496 0.16047683 0.04340449 1.3528648e-38
0.11658645 0.093458742 0.01963377 1.4542774e-38
0.11601162 0.096868351 0.020644069 1.4726122e-38
0.11550897 0.10083923 0.021998376 1.444987e-38
0.11525744 0.10527244 0.023840249 1.3897065e-38
0.1141035 0.10921705 0.024488062 1.3528277e-38
0.11404401 0.11298537 0.024851948 1.3897413e-38
0.1136182 0.1166513 0.025972277 1.4265482e-38
0.11310065 0.12028193 0.027148843 1.4174374e-38
0.11249113 0.12387909 0.028382003 1.3989978e-38
0.1118812 0.12747796 0.029615879 1.3254563e-38
0.11136377 0.13110915 0.030792743 1.3344256e-38
0.11200809 0.13587829 0.030570328 1.2792155e-38
0.11081463 0.13923103 0.030658066 1.2241854e-38
0.10899138 0.15515521 0.036908716 1.2522764e-38
0.10815585 0.1576165 0.039429396 1.3074468e-38
0.10748303 0.15981278 0.04151395 1.2151078e-38
0.11121917 0.11336711 0.023390085 1.4358003e-38
0.1103214 0.11677432 0.024055183 1.5001588e-38
0.10963517 0.12058754 0.025138915 1.4633178e-38
0.10976231 0.12514421 0.027442813 1.4174005e-38
0.10941678 0.12756822 0.028228343 1.3530436e-38
0.10806882 0.13168755 0.028752685 1.3160562e-38
0.10775781 0.13567668 0.029124618 1.260702e-38
0.1078425 0.1407586 0.029370904 1.2333709e-38
0.10762668 0.1443285 0.029687464 1.1507174e-38
0.10716146 0.14781339 0.030850351 1.0955039e-38
0.10659325 0.15182805 0.032923937 1.1874855e-38
0.10559249 0.15432221 0.035657108 1.2612427e-38
0.10571241 0.13176379 0.026278317 1.3162703e-38
0.10509241 0.136364 0.02710849 1.2333329e-38
0.10429162 0.14035793 0.027976632 1.2057439e-38
0.10349429 0.14417872 0.029055238 1.1413533e-38
0.10386294 0.14779344 0.030656099 1.159792e-38
0.10315353 0.15122664 0.031854451 1.1877402e-38
0.1030578 0.15349998 0.033794761 1.1593637e-38
0.10251802 0.13705146 0.025391459 1.1780493e-38
0.10222727 0.14064749 0.026793182 1.1874134e-38
0.10179538 0.14367753 0.02777499 1.2151082e-38
0.19180816 0.071356952 0.03807056 1.3164539e-38
0.19560301 0.058119982 0.036289036 1.3254173e-38
0.2050643 0.07706584 0.058459759 1.7310101e-38
0.20222646 0.028431177 0.033997357 7.1790314e-39
0.17276126 0.10049957 0.040482819 1.4545316e-38
0.18596932 0.040449619 0.030165642 1.3805948e-38
0.11662871 0.13417272 0.033057809 1.2059252e-38
0.14618313 0.1254046 0.067907691 1.5187098e-38
0.14285928 0.12892726 0.068238139 2.2477344e-38
0.14208704 0.13280179 0.068600744 2.0438284e-38
0.15641159 0.010000348 0.023882031 4.6926221e-39
0.14050025 0.13409486 0.065988839 2.1450631e-38
0.13846284 0.13714302 0.066805482 1.8317776e-38
0.13693202 0.14009723 0.069269776 1.7583815e-38
0.15407884 0.01000917 0.022425294 4.3256458e-39
0.15376186 0.011645198 0.022610128 4.4174813e-39
0.13624805 0.13898361 0.063785017 1.6933057e-38
0.13432127 0.14086521 0.065701246 1.6472437e-38
0.13318509 0.14430864 0.067324609 1.5650602e-38
0.1321705 0.14693771 0.069153637 1.7495585e-38
0.14853674 0.010468513 0.021093309 4.4160071e-39
0.14977092 0.013062775 0.021508545 4.5067875e-39
0.15044683 0.016767174 0.021771967 5.7950011e-39
0.14973056 0.019457579 0.021264732 6.7191e-39
0.13261944 0.14197117 0.062877506 1.8770819e-38
0.13105768 0.14499913 0.064191431 1.6471644e-38
0.12929845 0.14824381 0.066251814 1.6937021e-38
0.14677757 0.010477692 0.019991815 4.2334025e-39
0.146182 0.013320446 0.02040273 3.9561304e-39
0.14590222 0.01700294 0.020188868 5.2443343e-39
0.14758652 0.020780861 0.019610137 6.7176833e-39
0.12840265 0.14551124 0.06143558 2.2578108e-38
0.12672681 0.14878473 0.063427806 2.1177605e-38
0.12584531 0.15105198 0.064592212 2.1363821e-38
0.14272559 0.018328696 0.018642783 5.0585221e-39
0.14201021 0.024383128 0.018456876 7.915865e-39
0.12413007 0.14897239 0.061774969 2.3118405e-38
0.12250513 0.15253142 0.061737508 2.2008478e-38
0.12190264 0.15571246 0.062609583 2.0350032e-38
0.13915634 0.021561325 0.016954571 5.6120434e-39
0.13948625 0.025625914 0.017383635 7.2712158e-39
0.13988328 0.029715359 0.017767966 8.6527195e-39
0.14070714 0.032876462 0.01803717 1.0214664e-38
0.12335843 0.14834781 0.054508626 2.0330991e-38
0.12141049 0.1498073 0.057908654 1.9982708e-38
0.12115806 0.15355036 0.058908939 1.9703962e-38
0.11995906 0.15689492 0.060332984 1.7771425e-38
0.1360448 0.029667199 0.015981793 7.1811754e-39
0.13643748 0.033825755 0.016135275 9.389179e-39
0.13654143 0.03715831 0.015636712 1.0584135e-38
0.12091625 0.15508828 0.055114478 1.7033876e-38
0.11816233 0.1577725 0.05721426 1.5652351e-38
0.11648446 0.16097704 0.058958113 1.5471563e-38
0.13242465 0.033614963 0.014686644 7.548509e-39
0.13426441 0.038170606 0.014790207 1.0310407e-38
0.1335935 0.045368254 0.016403168 1.3621529e-38
0.11867368 0.15627107 0.053288102 1.6849119e-38
0.11651278 0.15926015 0.054252476 1.4822981e-38
0.11435002 0.16174704 0.05606851 1.611514e-38
0.11414182 0.16401239 0.057522595 1.7025227e-38
0.12806344 0.046043694 0.016595483 1.3713374e-38
0.12775964 0.049590111 0.01706332 1.3437872e-38
0.12666613 0.053042799 0.017285347 1.3804491e-38
0.11364186 0.16051033 0.050712824 1.5930035e-38
0.11169404 0.16225615 0.053310394 1.8046577e-38
0.11079806 0.16453588 0.054465324 1.9423447e-38
0.12438351 0.054559618 0.016343474 1.3712286e-38
0.12647992 0.057860017 0.014769167 1.389561e-38
0.12217462 0.063474238 0.015927672 1.334389e-38
0.11086142 0.16119334 0.047307283 1.3984652e-38
0.10908306 0.16256657 0.050676227 1.5649534e-38
0.11874712 0.065993249 0.016548157 1.3622974e-38
0.12138587 0.071772218 0.015962958 1.3807375e-38
0.11941463 0.073456049 0.017737567 1.4173999e-38
0.11753863 0.076493889 0.019745886 1.3527917e-38
0.11841768 0.081398159 0.019686759 1.2885392e-38
0.11797804 0.084841684 0.019320548 1.2978692e-38
0.11776912 0.087791815 0.019733608 1.3163812e-38
0.10646325 0.1611869 0.045691788 1.2870378e-38
0.10637277 0.16214035 0.048610449 1.2416627e-38
0.11693645 0.0692873 0.016186714 1.3715541e-38
0.11668569 0.073075026 0.017210066 1.4267992e-38
0.1150564 0.077100128 0.017901957 1.3896698e-38
0.11476851 0.080485523 0.018437952 1.3529666e-38
0.1144703 0.084892899 0.018254101 1.3989597e-38
0.115408 0.089169323 0.018556654 1.4448063e-38
0.11461323 0.092783868 0.018747032 1.5367143e-38
0.11373651 0.097375661 0.019998223 1.5093453e-38
0.11249143 0.10155518 0.022197545 1.435768e-38
0.11279279 0.10507578 0.023169756 1.3988552e-38
0.11245435 0.1084488 0.023902118 1.3803425e-38
0.10424918 0.15781796 0.040192723 9.652134e-39
0.1037448 0.16008621 0.043808311 1.0390777e-38
0.11221725 0.081067979 0.016765445 1.3897397e-38
0.11113262 0.084840924 0.016637027 1.4448795e-38
0.11096627 0.08902061 0.017104268 1.4817919e-38
0.11071253 0.093339473 0.018057108 1.5093442e-38
0.11044902 0.097741604 0.019231081 1.4725744e-38
0.10928595 0.10113314 0.020801187 1.4172572e-38
0.10894907 0.10486042 0.021874607 1.4356611e-38
0.10907233 0.1087625 0.022667885 1.435768e-38
0.10890585 0.11259481 0.022709489 1.4451297e-38
0.1083197 0.11666991 0.023409575 1.5003034e-38
0.10797364 0.11909753 0.024196208 1.4817926e-38
0.10810089 0.12366092 0.026503563 1.426514e-38
0.10741371 0.12747976 0.027588964 1.3713749e-38
0.10687226 0.12994169 0.028183758 1.3436789e-38
0.10080928 0.1540641 0.037814677 1.1771189e-38
0.10183793 0.15619536 0.039412826 1.0024159e-38
0.10925859 0.085515976 0.015730023 1.4540257e-38
0.10805506 0.088941455 0.016078055 1.463318e-38
0.10571021 0.10128418 0.018600047 1.4722148e-38
0.10537344 0.10501671 0.019676119 1.472361e-38
0.10512954 0.10878196 0.020696074 1.4726112e-38
0.105349 0.112719 0.021437645 1.4820093e-38
0.10538352 0.11657766 0.022286355 1.5003759e-38
0.10486341 0.12022623 0.023468673 1.4542423e-38
0.10415798 0.12380798 0.024763197 1.435769e-38
0.10382432 0.12752208 0.025833845 1.3806655e-38
0.10405022 0.13149694 0.026356399 1.3069792e-38
0.10316247 0.13414347 0.026230931 1.2519479e-38
0.10117269 0.14810219 0.030754209 1.2151091e-38
0.098881602 0.15183616 0.033163786 1.0945404e-38
0.099008083 0.15354905 0.035650611 1.1125116e-38
0.099250972 0.15572257 0.038480461 9.6525096e-39
0.10301322 0.10173111 0.016793132 1.4539558e-38
0.10243422 0.10516599 0.017810911 1.463355e-38
0.10158998 0.10873672 0.018610716 1.4727903e-38
0.1018616 0.11292133 0.019184321 1.5095968e-38
0.10171252 0.11671557 0.020148218 1.546401e-38
0.10109812 0.12033665 0.021387756 1.5189583e-38
0.10057729 0.12399182 0.022572339 1.4636778e-38
0.09996289 0.12761447 0.023812592 1.3713737e-38
0.10037643 0.13158934 0.024437577 1.2515898e-38
0.10035944 0.13589972 0.0248487 1.1688658e-38
0.1000182 0.14061277 0.02595976 1.1967054e-38
0.099186838 0.14423949 0.0276784 1.2610987e-38
0.098027349 0.14737669 0.029619038 1.269959e-38
0.097471416 0.15049815 0.031639218 1.2142093e-38
0.099377334 0.11299849 0.017769575 1.5278175e-38
0.099135518 0.11676359 0.018791616 1.5737345e-38
0.098053038 0.12022044 0.020307839 1.5740944e-38
0.097530901 0.12388338 0.021494806 1.4911923e-38
0.096831262 0.12772396 0.022065043 1.3346038e-38
0.096317589 0.13156521 0.022705436 1.1963064e-38
0.096299589 0.13608751 0.023557961 1.1506074e-38
0.095950902 0.14043453 0.024785787 1.2703883e-38
0.094958782 0.14393879 0.026250184 1.316237e-38
0.094316661 0.14641018 0.028279066 1.3527907e-38
0.093060493 0.13641983 0.022390962 1.2610261e-38
0.19940019 0.072664917 0.048386693 1.5373997e-38
0.16907257 0.10381564 0.039109588 1.6020451e-38
0.17198974 0.10790001 0.045400083 1.5657052e-38
0.18108851 0.016439825 0.025115609 6.9949442e-39
0.17962357 0.024238378 0.027044237 1.0309698e-38
0.12387329 0.10272568 0.028289199 1.0582696e-38
0.12901729 0.14850463 0.069832921 1.7583125e-38
0.14354682 0.0092465281 0.020574152 4.0497512e-39
0.14414352 0.010935187 0.020476699 2.9477378e-39
0.12455976 0.15167665 0.067361772 2.1179102e-38
0.1229189 0.15395835 0.067467868 2.1542823e-38
0.14238882 0.012437761 0.02009052 4.0490603e-39
0.14178038 0.014931977 0.019861013 4.5060658e-39
0.12120122 0.14894688 0.062228084 2.2747854e-38
0.121934 0.15242115 0.064369738 2.1731541e-38
0.12095195 0.15579565 0.065670282 2.0809932e-38
0.11963117 0.15812278 0.065946996 2.0257103e-38
0.12045819 0.14602081 0.061068535 2.2750746e-38
0.12019598 0.14786038 0.061664641 2.2562747e-38
0.11748624 0.15979728 0.063620329 1.7312611e-38
0.1154896 0.16162568 0.061664671 1.657756e-38
0.11385232 0.16285218 0.061528504 1.528073e-38
0.12799752 0.042424858 0.018260717 1.3897054e-38
0.12773567 0.044261754 0.018855929 1.3713387e-38
0.11071634 0.1636579 0.057546198 1.8597927e-38
0.12623179 0.042297572 0.016703039 1.2610995e-38
0.12477905 0.044213295 0.016707271 1.3163445e-38
0.12436545 0.04903236 0.017535746 1.3528638e-38
0.12246907 0.050014079 0.017519236 1.3527918e-38
0.12309659 0.051643044 0.017426252 1.3620459e-38
0.11690485 0.063697815 0.017078698 1.3529717e-38
0.10291958 0.16184944 0.04914692 1.232657e-38
0.11565804 0.066082537 0.016373008 1.3898499e-38
0.11339921 0.069541991 0.017149687 1.3807742e-38
0.11329919 0.072602093 0.017269999 1.4265796e-38
0.11305654 0.074896872 0.017796159 1.4265115e-38
0.1004197 0.16049585 0.04583922 1.0386515e-38
0.10028821 0.16151986 0.046955019 1.1125477e-38
0.11103261 0.073544621 0.016533107 1.3897408e-38
0.11060739 0.076453537 0.016849756 1.417256e-38
0.10900187 0.079832792 0.016593635 1.4081794e-38
0.098506868 0.15704677 0.041391373 8.7312651e-39
0.098153591 0.15963422 0.043270946 1.0481519e-38
0.097524941 0.16200516 0.044241905 1.2240421e-38
0.10717213 0.081648737 0.015508443 1.4356582e-38
0.10515803 0.08941713 0.01629138 1.4541346e-38
0.095945358 0.15411288 0.03803426 1.112004e-38
0.095708847 0.15659413 0.03934741 1.1219105e-38
0.09511131 0.1600377 0.040733993 1.2516642e-38
0.095317483 0.1627914 0.042264163 1.0955784e-38
0.10375792 0.086778969 0.015080929 1.4541341e-38
0.10333699 0.089680105 0.015398383 1.4449498e-38
0.10243779 0.093267664 0.015884459 1.4449491e-38
0.10139424 0.097000539 0.016658813 1.4448079e-38
0.10100234 0.099698305 0.016756862 1.4631401e-38
0.093670905 0.15113053 0.033423424 1.2698869e-38
0.093638003 0.15323745 0.035488755 1.2787499e-38
0.093460083 0.15650156 0.037291765 1.3712301e-38
0.09335655 0.15974805 0.038726509 1.2701383e-38
0.099629343 0.10097381 0.016413212 1.4725388e-38
0.098433316 0.10516623 0.01713416 1.4632834e-38
0.09729296 0.10867783 0.017736912 1.4820446e-38
0.096497536 0.11242867 0.018015921 1.5095202e-38
0.095973909 0.1161024 0.019206375 1.5462179e-38
0.09504801 0.11950874 0.02099365 1.5648015e-38
0.094926536 0.12344986 0.021587312 1.4911199e-38
0.092355132 0.14777985 0.0304268 1.334783e-38
0.092361271 0.14989591 0.032464921 1.306623e-38
0.094735086 0.11227697 0.017602712 1.4911185e-38
0.094210684 0.1159561 0.018794954 1.5278883e-38
0.093686163 0.11963521 0.019987166 1.5185977e-38
0.092887819 0.12366134 0.021052629 1.4815051e-38
0.092316866 0.12740916 0.02156949 1.3066577e-38
0.091291785 0.13100314 0.022187829 1.2516259e-38
0.090313017 0.13486215 0.022615433 1.2885758e-38
0.089174807 0.13238421 0.021248102 1.2703174e-38
0.19461164 0.06909132 0.038368702 1.3625158e-38
0.19703138 0.083746195 0.052465737 1.4730791e-38
0.19882378 0.054504633 0.042225987 1.1784103e-38
0.15560919 0.13684496 0.041561037 1.6576109e-38
0.12037551 0.11448133 0.029504687 1.3161638e-38
0.12413746 0.152154 0.06944418 2.2834999e-38
0.14185321 0.0089444518 0.020162642 4.5100245e-39
0.13914955 0.011070013 0.020214587 4.5093322e-39
0.13922048 0.014795244 0.020142138 4.4153107e-39
0.1208449 0.15632451 0.067921042 2.1179458e-38
0.11876065 0.158802 0.068608284 2.0164208e-38
0.11587876 0.16083907 0.069388747 1.7957971e-38
0.1356774 0.012439936 0.019856513 4.7847897e-39
0.13621843 0.015333921 0.019249082 4.5085629e-39
0.1175524 0.16049501 0.066397876 1.7590987e-38
0.11539948 0.16189319 0.066690475 1.6945628e-38
0.11215919 0.16277632 0.064810991 1.4914472e-38
0.10921752 0.16321163 0.063420773 1.4447037e-38
0.12293965 0.046991348 0.01811868 1.3253128e-38
0.1064381 0.16369976 0.060691774 1.8503282e-38
0.12271744 0.042240679 0.015621006 8.0012755e-39
0.12160736 0.044095308 0.017370135 1.1875611e-38
0.11971796 0.047420055 0.017963856 1.3253492e-38
0.12056953 0.05099988 0.017501265 1.3437146e-38
0.10244471 0.16319841 0.056198478 1.8228867e-38
0.1174078 0.048721969 0.017658859 1.3439659e-38
0.1173709 0.052005112 0.018413782 1.3711952e-38
0.11652452 0.055738151 0.018776357 1.362155e-38
0.1153062 0.059773177 0.017605782 1.3436092e-38
0.10071617 0.16238414 0.052432597 1.5371157e-38
0.09985292 0.16395427 0.053796828 1.7398031e-38
0.11293232 0.05968827 0.017187715 1.3529724e-38
0.11303675 0.063636005 0.016718864 1.3896708e-38
0.11245149 0.067992032 0.016938925 1.3621535e-38
0.11148638 0.070556402 0.01713115 1.3805185e-38
0.098966122 0.16302651 0.048678339 1.3252749e-38
0.097207367 0.16548857 0.050590754 1.4453821e-38
0.09635824 0.16787535 0.051939607 1.5009894e-38
0.10956305 0.065734476 0.017397344 1.3620414e-38
0.10846227 0.06829986 0.016830802 1.325421e-38
0.10859609 0.072123885 0.016641974 1.3896709e-38
0.10832626 0.075901091 0.01630789 1.4724288e-38
0.096423805 0.163607 0.045367718 1.2060331e-38
0.09433943 0.16600777 0.047555268 1.1416055e-38
0.094042063 0.16828214 0.049665451 1.1510046e-38
0.10625607 0.069923282 0.015867531 1.3529719e-38
0.10544109 0.072471738 0.016212165 1.3988163e-38
0.10517681 0.077168167 0.015531182 1.4265472e-38
0.10430831 0.081059739 0.015506744 1.4356594e-38
0.10420102 0.083810076 0.015676737 1.4632834e-38
0.093096673 0.1638637 0.042457283 9.9416072e-39
0.092161834 0.16652541 0.045545518 1.058666e-38
0.092189074 0.16860756 0.047846138 1.1692282e-38
0.10259742 0.076579183 0.015137106 1.3989657e-38
0.10126513 0.080588609 0.015113741 1.4265841e-38
0.10111225 0.084909707 0.014885128 1.4632815e-38
0.1005916 0.088687062 0.014920682 1.426511e-38
0.10038334 0.091665089 0.0153476 1.4357299e-38
0.091454804 0.15430161 0.035644948 1.4080765e-38
0.091291487 0.15702447 0.036766827 1.3437157e-38
0.090971053 0.16043346 0.038486958 1.1685459e-38
0.08918792 0.16346511 0.040835172 9.5710549e-39
0.088459492 0.16625589 0.042753249 9.7579601e-39
0.097660601 0.085864902 0.014296621 1.4173995e-38
0.097864985 0.088562235 0.014773667 1.4081096e-38
0.097218513 0.093005866 0.015175134 1.4356572e-38
0.096535087 0.096380293 0.015882194 1.4631755e-38
0.096012652 0.10033762 0.016355276 1.4909406e-38
0.096289456 0.10356 0.016646951 1.4632458e-38
0.087279499 0.1460177 0.031864256 1.40843e-38
0.088716567 0.14944991 0.032467604 1.3898487e-38
0.088274777 0.15294853 0.034345031 1.4449143e-38
0.088125885 0.15675306 0.035313904 1.362083e-38
0.086533785 0.15992704 0.037305385 1.2516635e-38
0.08639127 0.16281065 0.038910031 1.086141e-38
0.086231172 0.1660459 0.04027915 1.0033098e-38
0.091815352 0.10420701 0.016359299 1.4542063e-38
0.091995418 0.10787465 0.016857296 1.4819735e-38
0.091945052 0.11199887 0.017059118 1.4542419e-38
0.09113735 0.1155839 0.018417001 1.4816855e-38
0.090930104 0.11928223 0.019736648 1.4908685e-38
0.090197802 0.12279284 0.020539522 1.4540257e-38
0.090034246 0.12641171 0.020858049 1.315877e-38
0.086353064 0.14618042 0.030954599 1.4727512e-38
0.08591342 0.14926428 0.031953931 1.4725727e-38
0.084946334 0.15604883 0.034152478 1.3895592e-38
0.089024544 0.10842839 0.015833855 1.4450579e-38
0.08858496 0.11151227 0.016833156 1.4451293e-38
0.088057458 0.11521293 0.018032372 1.4538847e-38
0.087529957 0.11891359 0.019231588 1.4634248e-38
0.086716115 0.12332305 0.019848436 1.4358018e-38
0.086719811 0.12663811 0.020764232 1.260775e-38
0.086736023 0.13067447 0.021165609 1.2885043e-38
0.086096048 0.13439105 0.022764802 1.2702799e-38
0.082992077 0.13173726 0.020499885 1.3527903e-38
0.13595563 0.0081888437 0.021203399 4.6029628e-39
0.1330592 0.0079005361 0.020029187 4.3252703e-39
0.1332339 0.010478437 0.019905508 4.967753e-39
0.11163807 0.1625215 0.069666892 1.5929295e-38
0.12980902 0.011091977 0.018451154 3.3100505e-39
0.12990516 0.014889657 0.018970549 3.8635522e-39
0.10818046 0.16333333 0.067496359 1.573629e-38
0.10839266 0.16425312 0.069184661 1.4632099e-38
0.12735087 0.012133598 0.01698643 1.3786114e-39
0.12623996 0.014879107 0.016767949 3.7695797e-39
0.10578132 0.1628634 0.063435912 1.6658286e-38
0.10258001 0.16323528 0.060970575 1.9425971e-38
0.10016578 0.16426352 0.05888772 2.0252499e-38
0.098607898 0.16597155 0.059577465 2.2649906e-38
0.11456698 0.044290572 0.017901838 9.2984575e-39
0.11377269 0.047634363 0.018134773 1.2519498e-38
0.11389393 0.051367968 0.018687159 1.3529702e-38
0.11305815 0.054426312 0.018812954 1.3529003e-38
0.098040402 0.16498536 0.056044638 1.9241927e-38
0.09635359 0.1670022 0.05705148 2.053371e-38
0.11078769 0.051769674 0.017818987 1.3071246e-38
0.11021131 0.055597126 0.017874032 1.3254575e-38
0.10892791 0.058238924 0.017763823 1.3715191e-38
0.096257567 0.16593251 0.053981245 1.7957282e-38
0.093832552 0.16847238 0.054655373 1.6945625e-38
0.092020094 0.17075755 0.054836333 1.6488256e-38
0.10638934 0.059859872 0.016928166 1.3434288e-38
0.10677689 0.063624829 0.017074823 1.343571e-38
0.10589588 0.066539705 0.016947061 1.2885071e-38
0.091680229 0.16956496 0.051601648 1.2982659e-38
0.090156257 0.17108485 0.05300647 1.464433e-38
0.10384196 0.060823262 0.013574898 1.3161305e-38
0.10356885 0.064011812 0.014801502 1.3160565e-38
0.10304761 0.067640781 0.015781105 1.306908e-38
0.10267931 0.071627796 0.01594153 1.380556e-38
0.088824093 0.167238 0.046682656 1.0402986e-38
0.089051545 0.16966775 0.04846558 1.1511116e-38
0.088292539 0.1714122 0.051176488 1.4465662e-38
0.10206097 0.06186074 0.012171239 1.2977614e-38
0.1012246 0.064594865 0.0129655 1.2977257e-38
0.10029954 0.067950219 0.013961196 1.2885058e-38
0.099769473 0.071669757 0.015166402 1.3437146e-38
0.099183321 0.075625807 0.015217215 1.3713031e-38
0.098733664 0.078653157 0.015081167 1.3989262e-38
0.08696574 0.16756438 0.044858038 9.7579643e-39
0.085765421 0.16981286 0.04618609 1.0034202e-38
0.096773267 0.075737059 0.014165968 1.343679e-38
0.09672761 0.08013615 0.014802337 1.4264399e-38
0.096319497 0.082931116 0.015057385 1.481505e-38
0.093370259 0.087903187 0.01607427 1.4081449e-38
0.094358981 0.090277016 0.015952289 1.4173268e-38
0.0841465 0.16403893 0.04017657 1.0770283e-38
0.083560228 0.16716889 0.041809827 9.5710255e-39
0.083095551 0.16948116 0.043490976 8.9292644e-39
0.091932118 0.088515088 0.015601665 1.3989242e-38
0.091467798 0.091647893 0.015368581 1.4173261e-38
0.090629816 0.095354468 0.015676349 1.4907586e-38
0.090521038 0.099234968 0.016638756 1.4725392e-38
0.089984238 0.10190088 0.016823411 1.4632839e-38
0.083774209 0.14131016 0.029987335 1.3991414e-38
0.083237648 0.14458764 0.031487644 1.4543848e-38
0.082431018 0.14865506 0.032564014 1.490976e-38
0.08293432 0.15245794 0.033885658 1.4355159e-38
0.082413137 0.15660374 0.034791112 1.4176136e-38
0.081968248 0.16000348 0.036593735 1.4267993e-38
0.081776679 0.16320302 0.038351536 1.2332214e-38
0.08116585 0.16606337 0.040013254 1.0766341e-38
0.08807534 0.096450478 0.015269101 1.4265473e-38
0.088077247 0.099528342 0.015583396 1.4725025e-38
0.087104857 0.10310295 0.015425384 1.45417e-38
0.086555958 0.10690908 0.015938401 1.4540621e-38
0.085962236 0.11105044 0.016892731 1.4452011e-38
0.085433245 0.11476189 0.018095344 1.4358756e-38
0.084904134 0.11847332 0.019298077 1.4453085e-38
0.084463298 0.12156618 0.020300269 1.4542769e-38
0.08243531 0.13579333 0.024910629 1.3162346e-38
0.081568956 0.13722593 0.026590377 1.3625481e-38
0.081640899 0.14153737 0.02925694 1.4359481e-38
0.081110775 0.14525744 0.030462325 1.4818293e-38
0.080607891 0.14877178 0.031445533 1.5002676e-38
0.079935312 0.15244901 0.032735348 1.5372901e-38
0.079761565 0.15597092 0.033816308 1.4637106e-38
0.084218562 0.10438588 0.014936596 1.3526503e-38
0.084430635 0.10707839 0.015419424 1.3618686e-38
0.082874477 0.11092636 0.015763462 1.4359436e-38
0.082533479 0.11471367 0.0168612 1.362333e-38
0.082331181 0.11832348 0.018022239 1.3716603e-38
0.081730008 0.12178372 0.019643188 1.3989252e-38
0.081739604 0.12618712 0.020475924 1.3160573e-38
0.08106029 0.12958544 0.021259546 1.3344598e-38
0.080343425 0.13432169 0.022680134 1.3069081e-38
0.079154193 0.13672686 0.024932653 1.3256361e-38
0.077708781 0.13093233 0.020634949 1.352936e-38
