# .PCD v0.7 - Point Cloud Data file format
VERSION 0.7
FIELDS x y z rgb
SIZE 4 4 4 4
TYPE F F F F
COUNT 1 1 1 1
WIDTH 990
HEIGHT 1
VIEWPOINT 0 0 0 0 1 0 0
POINTS 990
DATA ascii
0.17741722 0.047503293 0.02914691 1.7310816e-38
0.17216223 0.14492424 0.044642508 9.3938229e-39
0.17107815 0.1475589 0.045444965 8.1017066e-39
0.17253619 0.0463873 0.028922737 1.6480335e-38
0.17361552 0.048837721 0.027348816 1.6664009e-38
0.16970259 0.047108054 0.027381361 1.6020429e-38
0.16976529 0.049936205 0.026570559 1.6388111e-38
0.16945308 0.053483456 0.025286049 1.6386696e-38
0.16663116 0.050117284 0.025536001 1.5927872e-38
0.16549581 0.053878009 0.024715573 1.6109753e-38
0.16487685 0.057094589 0.023773193 1.6660032e-38
0.16246396 0.055106789 0.023779333 1.5924287e-38
0.16179293 0.057876945 0.022856116 1.6015053e-38
0.16240323 0.061360493 0.021177113 1.6292358e-38
0.15841874 0.058673978 0.021354854 1.5922496e-38
0.15902728 0.062049493 0.020586997 1.6201942e-38
0.15906319 0.065327644 0.019565523 1.5836749e-38
0.15504742 0.062069565 0.019555509 1.5280709e-38
0.15561223 0.065890595 0.0187971 1.5374681e-38
0.15304083 0.11488469 0.025633574 1.0029135e-38
0.1530925 0.11694717 0.024812311 1.1040056e-38
0.15261185 0.062615499 0.018260449 1.5279988e-38
0.15194398 0.066130966 0.017664015 1.5098101e-38
0.15142146 0.068624765 0.017291069 1.4640361e-38
0.14921457 0.11510514 0.025157273 1.0395758e-38
0.15028453 0.11756039 0.024194509 1.1408475e-38
0.14922652 0.06723547 0.016736299 1.4272991e-38
0.14865607 0.070081741 0.015417516 1.389884e-38
0.14877456 0.073301852 0.014648676 1.3529356e-38
0.14691633 0.11550465 0.023931503 1.1131172e-38
0.14666957 0.1176457 0.022504628 1.1776205e-38
0.14707345 0.074789509 0.014141917 1.3804516e-38
0.14296618 0.08784955 0.016121268 7.9115406e-39
0.14352578 0.090563603 0.015774101 8.5576456e-39
0.14575928 0.094646715 0.015613794 8.4668934e-39
0.1446557 0.096625149 0.018904507 7.9201599e-39
0.143215 0.11570779 0.021380246 1.2421552e-38
0.14346308 0.11832342 0.020180345 1.2605606e-38
0.14178711 0.090448081 0.015770972 1.0030967e-38
0.13972166 0.11884324 0.019157231 1.2516284e-38
0.14078832 0.12172164 0.017079532 1.2975456e-38
0.13668746 0.11986677 0.017574757 1.3066946e-38
0.13679397 0.12273978 0.015568852 1.2975823e-38
0.13309956 0.12294118 0.014393091 1.2421213e-38
0.13377851 0.12557489 0.012881011 1.1866598e-38
0.13074952 0.12272649 0.013944298 1.2052034e-38
0.12926117 0.12607089 0.01178658 1.2141415e-38
0.1262219 0.12642735 0.010219902 1.3619057e-38
0.12313813 0.12769581 0.0086033642 1.5187458e-38
0.21071222 0.12030286 0.048444748 1.657471e-38
0.20575798 0.051929399 0.041547835 1.5008792e-38
0.17888486 0.1214557 0.032011032 1.7494487e-38
0.16375422 0.1030628 0.015425205 1.5465812e-38
0.20222217 0.020985529 0.051523089 6.3589257e-39
0.202663 0.022875771 0.052176416 6.9078129e-39
0.19937995 0.1379979 0.067721426 2.2294067e-38
0.20009148 0.021102458 0.050054491 5.1593049e-39
0.19999152 0.023576513 0.050127685 5.2507999e-39
0.19913378 0.027791724 0.050605774 7.4616915e-39
0.19645882 0.13916712 0.064952075 2.2385897e-38
0.19486865 0.14147691 0.06727773 2.2392019e-38
0.19421199 0.14394893 0.068366408 2.2582533e-38
0.19664741 0.023684546 0.04811734 4.6029081e-39
0.19678825 0.027763695 0.048549116 6.7212846e-39
0.19733131 0.031264544 0.048128486 1.1695136e-38
0.19767505 0.03388083 0.045761883 1.3995363e-38
0.1925503 0.14179334 0.063931942 2.2387345e-38
0.1912182 0.1441554 0.065899312 2.2487819e-38
0.19476467 0.021394849 0.046382785 4.0483078e-39
0.19357687 0.024012625 0.046029985 5.7063942e-39
0.19379401 0.028027341 0.046092093 7.180095e-39
0.19384205 0.031310245 0.046313703 1.0221102e-38
0.19555685 0.033997074 0.044301867 1.3904973e-38
0.18936521 0.14196816 0.061736524 2.2016403e-38
0.18769106 0.14465752 0.063627243 2.2482064e-38
0.19037312 0.024348006 0.043850839 5.0656968e-39
0.19066864 0.028231919 0.043806732 6.351056e-39
0.19082221 0.032209992 0.043954849 1.0588458e-38
0.19141585 0.03591606 0.041756392 1.5009533e-38
0.18679664 0.13978676 0.057485819 2.1182308e-38
0.18577045 0.14207737 0.060065269 2.1090862e-38
0.1847983 0.14514591 0.061590731 2.2019654e-38
0.18740511 0.025308564 0.041950643 5.1553771e-39
0.18706873 0.028231516 0.042111874 6.5332836e-39
0.18708742 0.032386899 0.042033494 1.0221119e-38
0.18740767 0.036694437 0.040329337 1.5287904e-38
0.18308982 0.13999021 0.054930806 2.1092307e-38
0.18246537 0.14234594 0.056980431 2.1185564e-38
0.1812022 0.14592588 0.058619976 2.0911864e-38
0.18483961 0.028959155 0.040822983 6.8998703e-39
0.18322748 0.032629907 0.040057123 1.0863978e-38
0.18381426 0.036700577 0.038640022 1.4641482e-38
0.18366334 0.039725006 0.037030339 1.6845188e-38
0.17994046 0.1431568 0.053800046 1.7776484e-38
0.17835706 0.14634614 0.055248976 1.4360956e-38
0.17751521 0.14869422 0.05755651 1.4456752e-38
0.17929849 0.033730328 0.037818968 1.2426248e-38
0.18021357 0.036708131 0.036946058 1.4640017e-38
0.18154514 0.039841235 0.035570264 1.6204126e-38
0.17761171 0.14409724 0.051849723 1.1878492e-38
0.17537338 0.14668471 0.053070128 1.1692291e-38
0.17420739 0.14895633 0.054468691 1.2980166e-38
0.17610243 0.033905745 0.035615981 1.1508259e-38
0.17653704 0.03668724 0.035330832 1.3719864e-38
0.17762899 0.04033789 0.03390944 1.4824435e-38
0.17258787 0.14742219 0.050177217 1.2891504e-38
0.17073905 0.15046141 0.051906765 1.510676e-38
0.16991735 0.15432975 0.052038193 2.2389498e-38
0.17321274 0.037496343 0.03375715 1.2892642e-38
0.17379406 0.040941834 0.032955468 1.5009525e-38
0.17394888 0.044064522 0.031029046 1.6112271e-38
0.16862744 0.14802848 0.049986005 9.8512487e-39
0.16824704 0.14926334 0.050562263 1.0033532e-38
0.17025721 0.037629992 0.032208204 1.2339118e-38
0.1698285 0.040817618 0.031667709 1.3903182e-38
0.17091262 0.044271722 0.030177474 1.5837479e-38
0.16675639 0.041318402 0.030022144 1.3534387e-38
0.16708246 0.044756755 0.02899754 1.5193912e-38
0.16401601 0.042226851 0.028682888 1.4363426e-38
0.16376185 0.045188382 0.027263463 1.4730421e-38
0.16412926 0.049225897 0.025721312 1.5833177e-38
0.15978754 0.046378747 0.026072502 1.5003783e-38
0.16031635 0.049169153 0.025717825 1.5556242e-38
0.16108948 0.053394705 0.024092138 1.555623e-38
0.15692174 0.049848527 0.025113046 1.5831723e-38
0.15668193 0.052975893 0.024128139 1.573917e-38
0.15705532 0.056660548 0.022337139 1.5830308e-38
0.15354192 0.0538629 0.023482263 1.5647346e-38
0.15333867 0.057037309 0.022157013 1.5461514e-38
0.15309557 0.060434461 0.019434452 1.5093063e-38
0.1514456 0.11227453 0.028154492 8.9252973e-39
0.15021297 0.058172837 0.021015704 1.5185642e-38
0.14976284 0.061378703 0.018862635 1.5003403e-38
0.14973563 0.064425215 0.017813325 1.4729682e-38
0.1473217 0.10150535 0.025978088 6.0719468e-39
0.14702988 0.10451555 0.027557254 6.6243821e-39
0.1470139 0.10838787 0.027944446 7.1786432e-39
0.1473875 0.112129 0.027346373 9.1093411e-39
0.14730078 0.058459744 0.019956887 1.5829562e-38
0.14571822 0.061650097 0.018815696 1.4268329e-38
0.14591646 0.065188751 0.018057853 1.3989953e-38
0.14637572 0.068415985 0.016192108 1.3805571e-38
0.14538544 0.098504975 0.0216088 6.4429139e-39
0.14457521 0.10113781 0.023236424 7.5470852e-39
0.14364126 0.10479546 0.024621725 8.0084025e-39
0.14345777 0.10862875 0.025193095 8.5569016e-39
0.14401633 0.11310767 0.024831027 1.0765979e-38
0.14261061 0.067651197 0.018354833 1.3715136e-38
0.14219677 0.070499465 0.017175347 1.3622964e-38
0.14290032 0.074003696 0.016426802 1.3069825e-38
0.14253056 0.078050554 0.016906917 1.150679e-38
0.14118767 0.082046703 0.018445253 9.4734586e-39
0.13965312 0.085043415 0.019461304 8.0951877e-39
0.14152637 0.093922138 0.018279284 1.012028e-38
0.14152539 0.097673535 0.020299911 9.1108012e-39
0.14063334 0.10113731 0.021850586 9.1136767e-39
0.14044988 0.10497061 0.022421956 9.4799537e-39
0.14026642 0.10880391 0.022993356 1.0308268e-38
0.1406453 0.1130367 0.022797227 1.214819e-38
0.13804445 0.086063817 0.017751515 1.0675942e-38
0.13922733 0.090167128 0.016397357 1.1229849e-38
0.1384927 0.093814261 0.017783165 1.1136577e-38
0.13777742 0.097515605 0.018918157 1.1321721e-38
0.13728935 0.10127793 0.019811958 1.1324207e-38
0.13687721 0.10506222 0.02062577 1.0953992e-38
0.13654158 0.10886575 0.021359563 1.1873419e-38
0.13731807 0.11354224 0.02097407 1.2701027e-38
0.13823712 0.11707637 0.019382894 1.2609196e-38
0.13446355 0.087314248 0.015835464 1.2151437e-38
0.13464719 0.089949489 0.01589641 1.224436e-38
0.13423407 0.0937282 0.016708612 1.2430909e-38
0.13397384 0.097546443 0.017360747 1.2796466e-38
0.13356084 0.10133143 0.018173933 1.1875957e-38
0.13350254 0.10532303 0.01886186 1.2058892e-38
0.13333413 0.10884206 0.019386411 1.2425884e-38
0.13338131 0.11356859 0.019562483 1.3069091e-38
0.13420871 0.11791154 0.018833488 1.3252035e-38
0.13155252 0.098889053 0.016323894 1.2425908e-38
0.13109532 0.1010413 0.016396999 1.2241172e-38
0.12988544 0.11429605 0.017970234 1.3070548e-38
0.13034135 0.11828734 0.017646819 1.3802714e-38
0.12977552 0.12101533 0.016652375 1.2971519e-38
0.12680686 0.11873069 0.016098201 1.3068357e-38
0.12769592 0.12231233 0.014729798 1.2235346e-38
0.12364781 0.11974354 0.01460278 1.3159117e-38
0.12416774 0.12253951 0.013420314 1.2695649e-38
0.12357408 0.12549385 0.010665536 1.4170429e-38
0.12141117 0.12348656 0.012076944 1.3248837e-38
0.1209178 0.12539923 0.010641426 1.4170428e-38
0.11805749 0.13664213 0.013777971 1.288471e-38
0.1178695 0.12588319 0.011065722 1.3344243e-38
0.11545539 0.13550866 0.011751354 1.0400116e-38
0.11634263 0.13810647 0.012023449 1.1229862e-38
0.11627263 0.14182183 0.012241364 1.2334065e-38
0.11501467 0.14551432 0.01302284 1.3075922e-38
0.11431026 0.14833441 0.013291776 1.3815267e-38
0.11332464 0.1356256 0.010282755 1.0124628e-38
0.11290932 0.13824774 0.010059655 1.0213912e-38
0.11304605 0.14212824 0.01031521 1.1320629e-38
0.11255181 0.14511257 0.011473954 1.2059985e-38
0.11050817 0.13897091 0.008923769 1.0860723e-38
0.10982236 0.14219928 0.009033531 1.1229521e-38
0.11023259 0.14472935 0.0097821355 1.169051e-38
0.20902738 0.084461972 0.031779051 1.3715551e-38
0.21221066 0.074057594 0.03494066 1.2978706e-38
0.21104211 0.065863922 0.037093341 1.4175078e-38
0.18579012 0.060324878 0.028285682 1.6200863e-38
0.18260887 0.044142514 0.03463161 1.7588493e-38
0.19518855 0.023690239 0.04929179 8.0137933e-39
0.17762899 0.04033789 0.03390944 1.4824435e-38
0.19837701 0.018994629 0.052172303 5.2525963e-39
0.19543439 0.01995039 0.049672186 4.3259653e-39
0.19658625 0.024521619 0.050695062 5.4319611e-39
0.18914226 0.14569223 0.068347335 2.2677611e-38
0.19195893 0.019982308 0.047370911 3.4976732e-39
0.18634906 0.14610192 0.066468775 2.248819e-38
0.188685 0.020808488 0.045725763 4.2327075e-39
0.18922964 0.022365302 0.045157075 4.5143124e-39
0.18306702 0.14682682 0.063977003 2.2575344e-38
0.18600985 0.020955324 0.043881893 3.9582646e-39
0.1856634 0.023012102 0.043027997 4.603627e-39
0.18113446 0.14697379 0.062241197 2.2668615e-38
0.17916045 0.14830175 0.061720073 2.1468276e-38
0.18245238 0.024166942 0.041627884 4.7851498e-39
0.18210027 0.027608424 0.041481137 6.4378398e-39
0.18191588 0.030447006 0.041517735 8.9249694e-39
0.17632183 0.1497187 0.060199261 1.5654557e-38
0.17993999 0.025134236 0.040400028 5.1521681e-39
0.17918625 0.028215975 0.040229917 7.0857456e-39
0.17857596 0.03122139 0.039529204 1.0586654e-38
0.17273122 0.15059119 0.057487786 1.5383003e-38
0.17654526 0.029166311 0.038762093 8.4733323e-39
0.17505723 0.031268075 0.037693918 1.0679205e-38
0.16944733 0.15068734 0.05474627 1.5656339e-38
0.1698876 0.15265363 0.056029916 1.8880336e-38
0.17208052 0.033257112 0.036386609 1.1874163e-38
0.17114013 0.035126597 0.035144806 1.1786285e-38
0.16591689 0.15089108 0.053548336 1.557135e-38
0.16787201 0.03586331 0.032891154 1.1507177e-38
0.16529137 0.036977097 0.031701088 1.1967071e-38
0.16403854 0.039441064 0.03106904 1.2889019e-38
0.1612469 0.041208774 0.029850841 1.4086131e-38
0.1581766 0.043872744 0.028107762 1.4636075e-38
0.15547603 0.045705751 0.027047396 1.5004478e-38
0.15447509 0.04822962 0.026067883 1.5557293e-38
0.15208137 0.049737841 0.0254094 1.5740235e-38
0.15154967 0.052594364 0.024325311 1.5372543e-38
0.14868662 0.053769916 0.023771554 1.5278937e-38
0.14785704 0.055867732 0.022957444 1.518601e-38
0.14376312 0.059421927 0.020126373 1.3994991e-38
0.14136216 0.061863452 0.020126879 1.4175406e-38
0.14014813 0.065568402 0.019707441 1.3807693e-38
0.13963625 0.078849107 0.020786583 1.1320245e-38
0.13844097 0.067151457 0.019049346 1.4083907e-38
0.13783109 0.069829091 0.018700361 1.3806283e-38
0.13742 0.073617086 0.019515574 1.2423729e-38
0.13724118 0.077262238 0.019809008 1.1042947e-38
0.13659197 0.08123441 0.019974411 1.0028796e-38
0.13361934 0.081883475 0.018366635 1.1873409e-38
0.13098979 0.10364449 0.019266039 1.2426604e-38
0.13068262 0.11006156 0.020222604 1.2977263e-38
0.13128245 0.082927391 0.016922981 1.2980124e-38
0.12988663 0.085615546 0.016163409 1.3529717e-38
0.12929666 0.089586616 0.015927315 1.3531522e-38
0.12895811 0.093401372 0.016661108 1.316525e-38
0.12886006 0.097150996 0.016899943 1.2795392e-38
0.12860918 0.10142838 0.017196894 1.2517382e-38
0.12879133 0.10504518 0.01798442 1.2425885e-38
0.12860703 0.10889542 0.018558353 1.2518458e-38
0.1281864 0.11211863 0.018852472 1.2887226e-38
0.12681767 0.087018222 0.014547527 1.4633554e-38
0.12602803 0.09013816 0.014564782 1.426586e-38
0.12577623 0.093912274 0.015077591 1.3715897e-38
0.12533298 0.097377032 0.015262991 1.3162003e-38
0.12530363 0.10126731 0.015678465 1.2885449e-38
0.12511918 0.1051209 0.016252875 1.288578e-38
0.12485713 0.10895949 0.016907334 1.2611368e-38
0.12501115 0.11352863 0.017198026 1.2703194e-38
0.12449878 0.11680117 0.017128468 1.3066195e-38
0.12200844 0.098306686 0.013244867 1.3530426e-38
0.1218608 0.10139139 0.013704658 1.3252765e-38
0.12167621 0.10524728 0.014279485 1.2978675e-38
0.12149173 0.10910317 0.014854252 1.3346772e-38
0.12133497 0.11361293 0.015465051 1.3255289e-38
0.12132844 0.11781624 0.015625596 1.3436432e-38
0.11968994 0.10215151 0.012325376 1.3709784e-38
0.11877179 0.10540669 0.012277544 1.3714811e-38
0.11841527 0.10927202 0.012733757 1.3898857e-38
0.1186381 0.11855371 0.014583766 1.2702474e-38
0.11768517 0.12178598 0.013890535 1.2884356e-38
0.11700082 0.1287331 0.01406312 1.4909411e-38
0.11669368 0.13515016 0.015019685 1.2699597e-38
0.11519438 0.10688496 0.010045618 1.4268356e-38
0.11560637 0.10942619 0.01079759 1.4083623e-38
0.11601841 0.11196741 0.011549622 1.3991363e-38
0.11536628 0.12316722 0.012726694 1.2699608e-38
0.11416119 0.12639886 0.012532562 1.2147154e-38
0.11440486 0.13007033 0.013177276 1.1593986e-38
0.11478829 0.13360897 0.013405919 1.1043325e-38
0.11400387 0.14681819 0.015268445 1.4274105e-38
0.11245102 0.14933889 0.015876412 1.4273752e-38
0.11213154 0.12628186 0.01144442 1.2331896e-38
0.11121315 0.13060534 0.011591345 1.1593975e-38
0.11096841 0.13375503 0.011290133 1.0950775e-38
0.11054665 0.14668792 0.012826979 1.2245077e-38
0.11020511 0.148693 0.014187992 1.2895446e-38
0.1086753 0.13159925 0.0099980831 1.2240053e-38
0.1075626 0.1342403 0.0095649064 1.1780862e-38
0.10762253 0.13800478 0.0093736351 1.1043668e-38
0.10677016 0.14209504 0.0093478262 1.0951494e-38
0.10744488 0.14556399 0.011193126 1.1874519e-38
0.10528061 0.13563132 0.0083600879 1.1599698e-38
0.10515755 0.13820192 0.0087432861 1.0952165e-38
0.10469073 0.14210086 0.0088817477 1.1135162e-38
0.10485002 0.14462839 0.009701252 1.187522e-38
0.22773027 0.062860236 0.040400922 7.0853714e-39
0.20690638 0.08379665 0.037885845 1.6202683e-38
0.2168363 0.077287927 0.040277421 1.2796097e-38
0.18701369 0.044454008 0.035301089 1.8693022e-38
0.1961332 0.015304685 0.054865003 3.9568647e-39
0.19694361 0.017336249 0.053951859 4.7912833e-39
0.19266504 0.015651196 0.051886141 4.9699096e-39
0.19423521 0.017422616 0.051045477 4.6036466e-39
0.19027638 0.015938461 0.049651265 5.8886289e-39
0.19141698 0.017784268 0.048318088 4.5096489e-39
0.18344903 0.14844221 0.069680095 2.2770883e-38
0.18691611 0.015722454 0.047570467 4.9684691e-39
0.18756539 0.018327117 0.046957612 4.2323361e-39
0.18094578 0.14898336 0.066640139 2.3046375e-38
0.18375549 0.015984058 0.046333313 4.9702613e-39
0.18374267 0.018591374 0.045213997 4.0508147e-39
0.17804271 0.14968129 0.064627409 2.174091e-38
0.18106472 0.016131759 0.044478595 5.0624766e-39
0.18052936 0.019169971 0.043579221 4.5103552e-39
0.18105179 0.022204563 0.041876554 4.0501001e-39
0.17352384 0.15280098 0.06316483 1.9621486e-38
0.17282513 0.15659553 0.063122034 2.3411156e-38
0.17765009 0.020187438 0.042831063 4.2334334e-39
0.17748559 0.023182124 0.040949285 4.600404e-39
0.17745292 0.026681408 0.040177107 6.0737376e-39
0.17124969 0.15353994 0.060639977 1.999242e-38
0.17084444 0.15691882 0.06179595 2.3133891e-38
0.1735239 0.023826614 0.040363133 5.7989304e-39
0.17431542 0.027325079 0.039025903 7.1793663e-39
0.16940993 0.1537908 0.057754219 2.0269006e-38
0.17057216 0.027687401 0.038016677 7.916951e-39
0.17072767 0.03149052 0.036704481 1.0128564e-38
0.16759193 0.028476059 0.037310421 8.6541531e-39
0.16711807 0.031412631 0.036104977 9.4828375e-39
0.16395825 0.032688677 0.034921408 9.2048241e-39
0.16442293 0.034671426 0.032523692 1.0587026e-38
0.16032463 0.03578651 0.032945871 1.1413558e-38
0.15948695 0.039013132 0.031715274 1.2796129e-38
0.15822101 0.041430801 0.029420495 1.4268729e-38
0.15311238 0.044861764 0.027708173 1.4913354e-38
0.15261647 0.046873614 0.026494712 1.537505e-38
0.14864969 0.13266991 0.043082833 1.5556791e-38
0.14749163 0.13535918 0.042352617 1.7216054e-38
0.149221 0.048996255 0.026235104 1.5556214e-38
0.1497218 0.051525772 0.025319695 1.5281073e-38
0.14444333 0.13644671 0.040830731 2.191194e-38
0.14324328 0.13909143 0.040474236 2.1633561e-38
0.14630979 0.049896598 0.025103867 1.5829213e-38
0.14246815 0.14058582 0.03773737 2.2473382e-38
0.14262217 0.054002434 0.024097234 1.5094533e-38
0.14243215 0.056572393 0.02287063 1.4637138e-38
0.13859156 0.14095853 0.037562132 2.2941956e-38
0.13852969 0.14225136 0.037754834 2.3394267e-38
0.13983399 0.057247579 0.022328556 1.4451675e-38
0.13857219 0.061157048 0.021008193 1.4450921e-38
0.13579625 0.062109903 0.020803779 1.4727519e-38
0.13560179 0.065252334 0.019801915 1.4452007e-38
0.13543674 0.069199637 0.019173086 1.3897051e-38
0.13556254 0.073806509 0.019485056 1.214751e-38
0.13546187 0.077770412 0.020138264 1.1134785e-38
0.13184857 0.069430843 0.019019544 1.4634979e-38
0.13286144 0.073529214 0.018093914 1.3989248e-38
0.13298196 0.077478588 0.01835078 1.2885057e-38
0.13232291 0.080082357 0.018365145 1.2607391e-38
0.12907881 0.070562139 0.018060237 1.5189243e-38
0.12878239 0.073580146 0.017015874 1.5740238e-38
0.12961316 0.077612445 0.016293526 1.5004821e-38
0.12945604 0.081363022 0.016594112 1.4267619e-38
0.12555748 0.074271083 0.015863597 1.5832098e-38
0.12511262 0.077558562 0.015638381 1.5648042e-38
0.12559271 0.081488222 0.015286267 1.5187068e-38
0.12584764 0.085143723 0.015113413 1.4816509e-38
0.12495703 0.08883132 0.014811099 1.4448809e-38
0.12480295 0.092049263 0.015290827 1.4175451e-38
0.12224963 0.078673527 0.014765233 1.5094874e-38
0.12144804 0.081512034 0.014546692 1.5002332e-38
0.1218355 0.085638657 0.013649434 1.4908717e-38
0.12210658 0.089512944 0.012942284 1.4448811e-38
0.12192175 0.093374491 0.013517857 1.3990327e-38
0.11829969 0.086412407 0.012181878 1.4634617e-38
0.11879635 0.089740418 0.011080176 1.4081452e-38
0.11843786 0.093842894 0.011167079 1.4357303e-38
0.11812681 0.097550869 0.011626422 1.4265832e-38
0.11764455 0.10124532 0.011963606 1.3989967e-38
0.11668557 0.10533276 0.012038976 1.4082525e-38
0.11650074 0.10919429 0.012614548 1.4083986e-38
0.11673117 0.11395003 0.013643861 1.3624058e-38
0.11651045 0.11792359 0.014214754 1.2979428e-38
0.11340302 0.15136701 0.021847665 1.5186756e-38
0.1154204 0.086784929 0.011470139 1.4818295e-38
0.11482298 0.089671165 0.011050582 1.4725389e-38
0.11404058 0.093211561 0.011149645 1.4633915e-38
0.11378551 0.097322881 0.011427909 1.4544214e-38
0.11478797 0.10145489 0.010826707 1.4451297e-38
0.11454999 0.1052895 0.010537714 1.435981e-38
0.11328584 0.10937074 0.010398626 1.3990705e-38
0.11405265 0.11373477 0.012348324 1.3624057e-38
0.11374754 0.11816232 0.013560146 1.297943e-38
0.11316657 0.12173204 0.012982756 1.260885e-38
0.11296338 0.1495527 0.01812458 1.500954e-38
0.11129671 0.15204673 0.020005405 1.4822967e-38
0.11188206 0.093426257 0.01020807 1.4727204e-38
0.1114119 0.097642705 0.010648906 1.4636064e-38
0.11075237 0.10131086 0.010308951 1.4636045e-38
0.1111455 0.10544714 0.00941962 1.4452369e-38
0.11119941 0.10936277 0.0097606778 1.399105e-38
0.11032698 0.11381853 0.01183331 1.3532589e-38
0.11034775 0.11817927 0.012419432 1.2703907e-38
0.11041337 0.12245497 0.011483192 1.2608483e-38
0.11003554 0.1262385 0.01120469 1.2332608e-38
0.1094836 0.12926432 0.011370897 1.1779438e-38
0.10823089 0.1501381 0.015950263 1.3163809e-38
0.10899457 0.15205173 0.017656028 1.3901375e-38
0.10747802 0.10573372 0.0091691911 1.4727532e-38
0.10744154 0.10940564 0.0094909072 1.4359467e-38
0.10667771 0.11371294 0.01016891 1.3715513e-38
0.10667247 0.11824869 0.0099742115 1.3162371e-38
0.10658908 0.12220453 0.0099649131 1.2701054e-38
0.10712689 0.12639815 0.0091996789 1.2150021e-38
0.10681581 0.13010614 0.0096590519 1.2240058e-38
0.10496235 0.14654417 0.012185931 1.2335475e-38
0.10540748 0.14943555 0.013847411 1.2980487e-38
0.10479239 0.15183961 0.015912563 1.3534751e-38
0.1046198 0.11058742 0.0082619786 1.4358036e-38
0.10424361 0.11396057 0.0086146295 1.37141e-38
0.1028558 0.118605 0.0084919631 1.2794686e-38
0.10262519 0.12257886 0.008351028 1.2242932e-38
0.10294423 0.1265506 0.0081532598 1.1874149e-38
0.10275364 0.13028589 0.0084962249 1.1782684e-38
0.10323334 0.13411736 0.008194387 1.086145e-38
0.10282174 0.1381886 0.0083413124 1.1503172e-38
0.10236901 0.14206484 0.0087321997 1.2883625e-38
0.10207075 0.14573815 0.011044949 1.233581e-38
0.10175079 0.14946955 0.012941778 1.2699552e-38
0.10263976 0.15195777 0.014428794 1.2891872e-38
0.10029578 0.12242959 0.0073997974 1.1783028e-38
0.09937793 0.1261864 0.0072674751 1.159826e-38
0.099337041 0.13032123 0.007347405 1.23344e-38
0.098907113 0.13415907 0.008158505 1.1967069e-38
0.098843396 0.13805318 0.0086191595 1.2058536e-38
0.099144638 0.14171293 0.0088808537 1.2058187e-38
0.099212945 0.14505401 0.010772228 1.113335e-38
0.097357452 0.12774858 0.006315887 1.2150398e-38
0.096980095 0.13002579 0.0064677596 1.2334767e-38
0.096763551 0.13455066 0.0071421862 1.214929e-38
0.096862435 0.13809116 0.0078576207 1.1691519e-38
0.22729945 0.073909521 0.041910768 6.534699e-39
0.19070524 0.010462552 0.055120885 3.2217828e-39
0.19151971 0.0130454 0.054575503 3.5895101e-39
0.1874575 0.01064083 0.052882195 3.5880752e-39
0.1842097 0.010819077 0.050643623 4.41784e-39
0.18497056 0.013034016 0.04985261 5.2457832e-39
0.18055964 0.011884049 0.048285425 4.6018656e-39
0.18169209 0.013990626 0.047734618 4.9710012e-39
0.17802042 0.014635384 0.046086609 4.9692216e-39
0.17761645 0.016989589 0.044691503 4.6936926e-39
0.17268878 0.15369065 0.066197932 2.1474382e-38
0.17225218 0.15624665 0.06697619 2.1657595e-38
0.1742382 0.016121805 0.044638515 4.8780839e-39
0.17497143 0.018437743 0.043928802 4.6014858e-39
0.17104322 0.019641444 0.042635322 5.2464685e-39
0.17168862 0.021689609 0.042021036 5.5216232e-39
0.16827771 0.020339772 0.041240215 5.9815266e-39
0.16817641 0.023075193 0.040229142 6.6261869e-39
0.16806874 0.025272697 0.039526701 7.3641205e-39
0.16471443 0.024093568 0.039022267 7.1800642e-39
0.1646947 0.027514398 0.037987769 8.2857097e-39
0.16115457 0.02784425 0.036806226 8.1920833e-39
0.16143781 0.031059757 0.036254525 9.2030305e-39
0.15429372 0.1395607 0.053222835 6.7187637e-39
0.15850109 0.0290903 0.036000669 9.8501613e-39
0.15838373 0.031720623 0.035164893 1.0127125e-38
0.15896767 0.035471082 0.035023928 1.1690859e-38
0.1520395 0.13492611 0.04987514 7.0861155e-39
0.1526981 0.13845681 0.050945878 7.9176726e-39
0.15225786 0.14148813 0.052151024 9.1172836e-39
0.15316272 0.039110303 0.034096479 1.4176533e-38
0.1501295 0.13220133 0.047322392 7.542049e-39
0.15015116 0.13482024 0.04754138 8.0980842e-39
0.14990112 0.14109871 0.050431848 9.9441884e-39
0.15068936 0.041329801 0.032155037 1.4727554e-38
0.14840752 0.13239267 0.045330524 1.1479829e-38
0.14783916 0.13526887 0.045458138 1.1691518e-38
0.14671868 0.13823642 0.04583323 1.4087508e-38
0.14340761 0.13919368 0.044000983 2.0162764e-38
0.14206225 0.14186762 0.044350147 1.9706473e-38
0.14381966 0.047277659 0.028642297 1.5922081e-38
0.13832009 0.14070542 0.03979367 2.2753228e-38
0.13947332 0.14312802 0.042002082 2.090714e-38
0.13814598 0.14606702 0.043118477 1.9702865e-38
0.14075458 0.049106106 0.026750565 1.5646264e-38
0.14022878 0.052275181 0.025295496 1.5278923e-38
0.13616121 0.14082392 0.03830564 2.285733e-38
0.13655859 0.14368431 0.039810836 2.0721311e-38
0.13594753 0.1464671 0.041037083 1.7766058e-38
0.13725865 0.052453607 0.024705321 1.5463673e-38
0.13598326 0.056571722 0.023789644 1.500268e-38
0.13319695 0.14380991 0.038628578 2.1916235e-38
0.13239291 0.14595047 0.039074063 1.8862244e-38
0.13464648 0.053744406 0.023819327 1.573881e-38
0.13336179 0.056667283 0.023248851 1.5739876e-38
0.13291985 0.06041497 0.022102177 1.5279265e-38
0.1297487 0.14479867 0.037014723 2.3414387e-38
0.12968647 0.14609903 0.037208498 2.2393373e-38
0.131212 0.057823703 0.022162259 1.629989e-38
0.12951142 0.060593963 0.021067381 1.5832439e-38
0.12957337 0.064696819 0.020762831 1.5279998e-38
0.12890381 0.067510933 0.019848526 1.5279997e-38
0.12646306 0.14899255 0.03424871 2.341769e-38
0.12587857 0.15153606 0.035126686 2.1743025e-38
0.12594289 0.065070391 0.01959455 1.5832086e-38
0.12620962 0.068670526 0.018793225 1.5557677e-38
0.12547922 0.071578428 0.018196225 1.6106879e-38
0.1232605 0.066041753 0.018101752 1.5923893e-38
0.12220764 0.068746328 0.01758498 1.564769e-38
0.12245473 0.07245025 0.017062992 1.5646616e-38
0.1220547 0.075645924 0.016543895 1.5372534e-38
0.11948586 0.069707409 0.016131341 1.5367508e-38
0.11877444 0.072824106 0.015928507 1.5001969e-38
0.11935601 0.076810956 0.0154863 1.4910138e-38
0.11859912 0.080361724 0.014988273 1.5002311e-38
0.11639151 0.074200377 0.014787495 1.4541365e-38
0.11548799 0.077062681 0.014369607 1.4908333e-38
0.11562449 0.080924243 0.014381737 1.4910476e-38
0.11590284 0.084216252 0.014053106 1.4450946e-38
0.11249202 0.15303668 0.024805695 1.5839993e-38
0.11179972 0.15608793 0.025289685 1.5193174e-38
0.11018106 0.15884201 0.025894374 1.2885438e-38
0.11215124 0.081945568 0.012927502 1.500304e-38
0.11196876 0.084818214 0.012707472 1.4819377e-38
0.11175007 0.08849673 0.011683643 1.5002341e-38
0.10998112 0.15357618 0.022325635 1.4824748e-38
0.10909444 0.15645954 0.0230546 1.3902059e-38
0.10772967 0.15930079 0.024263859 1.3347467e-38
0.109321 0.089206308 0.010525793 1.5002353e-38
0.10871464 0.093154922 0.010616869 1.4819028e-38
0.10855249 0.096819267 0.010966778 1.4819374e-38
0.10626626 0.15358609 0.019729704 1.3900651e-38
0.10585245 0.1566377 0.020819873 1.417616e-38
0.10508415 0.1600792 0.022203356 1.5371459e-38
0.1056619 0.089356758 0.0098041296 1.5003774e-38
0.10541457 0.093164846 0.0093391538 1.4634281e-38
0.10562846 0.097149424 0.0095306039 1.4819019e-38
0.10576323 0.10111055 0.0097994506 1.481976e-38
0.10489881 0.10417542 0.0097543895 1.4910857e-38
0.10434246 0.10830102 0.010118425 1.4633184e-38
0.10300785 0.15359625 0.017864257 1.2703219e-38
0.10232419 0.1557643 0.019221306 1.3066594e-38
0.10212678 0.094005004 0.0084272325 1.4541744e-38
0.10240501 0.097182021 0.0081734955 1.4359131e-38
0.10187876 0.10115103 0.0081872344 1.463428e-38
0.10193473 0.10509531 0.0085350573 1.5277829e-38
0.10184342 0.1088772 0.0087844431 1.4634613e-38
0.10132295 0.1135471 0.0089645088 1.3713739e-38
0.099087298 0.15061784 0.014167637 1.0761675e-38
0.099208713 0.15306209 0.016108841 1.1310208e-38
0.099541843 0.15553515 0.017850786 1.204923e-38
0.098907948 0.10109866 0.0074711442 1.4542057e-38
0.098421633 0.10531287 0.0076534748 1.4724666e-38
0.097952306 0.10902391 0.0076324642 1.4174358e-38
0.098147929 0.113681 0.007694006 1.3252047e-38
0.098398268 0.11830706 0.0079252422 1.2240426e-38
0.097499549 0.12193171 0.0078211427 1.1688683e-38
0.096221268 0.14301606 0.010775924 1.0473626e-38
0.096507251 0.14576685 0.012218207 9.3766457e-39
0.096796751 0.1493264 0.01356402 8.6440959e-39
0.096480787 0.15181236 0.015030622 8.8324417e-39
0.094739258 0.11459127 0.0067719817 1.2702104e-38
0.094422817 0.11835518 0.0063878 1.2148574e-38
0.094809294 0.12234755 0.0064271688 1.2056381e-38
0.094741881 0.12612425 0.006658107 1.2058182e-38
0.093579471 0.1303962 0.007365346 1.2516612e-38
0.093713582 0.13381337 0.0075893104 1.2329699e-38
0.093898356 0.13791776 0.0086836219 1.1681143e-38
0.09439671 0.1413978 0.010130078 1.1035063e-38
0.093606412 0.14418851 0.011629015 1.0478682e-38
0.091201007 0.11924645 0.0053943098 1.2701386e-38
0.091368854 0.12237246 0.0052596629 1.3071245e-38
0.091146469 0.12586674 0.0055363178 1.3070885e-38
0.090918779 0.13266361 0.007645905 1.2883199e-38
0.090669811 0.13786501 0.0084212124 1.3251682e-38
0.17943716 0.010286212 0.050293446 4.3259919e-39
0.17604268 0.011070505 0.048268378 4.6937137e-39
0.17527384 0.013275057 0.047310531 4.9685251e-39
0.17241532 0.011104167 0.046889544 5.4305458e-39
0.17261198 0.013815761 0.046041429 5.1557638e-39
0.16974759 0.011645541 0.045616388 5.3387061e-39
0.16905186 0.014649943 0.044907093 5.7960801e-39
0.16911507 0.017515153 0.043777704 5.6138146e-39
0.16574878 0.015778363 0.043574393 5.9800874e-39
0.16568199 0.018416435 0.042158365 5.8893323e-39
0.1622051 0.018811613 0.041473806 5.8896883e-39
0.1619997 0.022140324 0.04005754 6.8109257e-39
0.15571898 0.14585382 0.059069633 9.7483205e-39
0.15612 0.14880848 0.060095191 1.4553236e-38
0.15923023 0.019614637 0.039716184 6.2592261e-39
0.15989164 0.022422329 0.038840473 6.7190916e-39
0.15325046 0.14232072 0.056081593 7.6407088e-39
0.15294141 0.1455206 0.057683527 1.068069e-38
0.1537298 0.14889939 0.05885148 1.6678422e-38
0.1542421 0.031698927 0.037199974 1.049519e-38
0.15479454 0.033909425 0.03675586 1.1321001e-38
0.15005541 0.14303803 0.053978205 9.762632e-39
0.14934963 0.14549978 0.055256009 1.372378e-38
0.15183669 0.031941116 0.03648752 1.0311879e-38
0.15205503 0.035138831 0.036024332 1.2244018e-38
0.15135014 0.038000539 0.035093963 1.4083976e-38
0.14688817 0.14238243 0.051797926 1.1236701e-38
0.14603084 0.14585316 0.05337429 1.4921266e-38
0.14853954 0.03498508 0.035045922 1.2429457e-38
0.14866626 0.038876891 0.034258425 1.4452412e-38
0.1443103 0.13984065 0.048760116 1.4087842e-38
0.14352375 0.14235619 0.049903274 1.5286105e-38
0.14270577 0.14553067 0.05114454 1.7313331e-38
0.14554718 0.039922848 0.032929242 1.4452052e-38
0.14476931 0.042605758 0.031744003 1.5004855e-38
0.1407088 0.1433427 0.047621191 2.007633e-38
0.13966167 0.14573993 0.048642635 2.0170696e-38
0.13816261 0.14969337 0.048727274 2.1276681e-38
0.14198115 0.043832675 0.03104645 1.5649841e-38
0.14053831 0.046128958 0.030250788 1.6197948e-38
0.13726607 0.14706169 0.046180367 1.988799e-38
0.13632953 0.15037239 0.046643853 2.0168177e-38
0.13473952 0.15314236 0.046963036 2.0810653e-38
0.13850409 0.04423219 0.029715955 1.5649123e-38
0.13731086 0.046471745 0.029290378 1.5647707e-38
0.13416424 0.14820164 0.043191195 1.7492711e-38
0.13358858 0.15075591 0.044077456 1.795512e-38
0.13278782 0.15328789 0.045213461 1.8692677e-38
0.13477004 0.049183369 0.026157767 1.5924298e-38
0.13450253 0.050631434 0.025618047 1.6383113e-38
0.13093829 0.14772835 0.040848911 1.6010711e-38
0.13032824 0.15093485 0.041830301 1.5926435e-38
0.12951821 0.15384147 0.042514026 1.6757288e-38
0.13126203 0.049066275 0.025122702 1.5923578e-38
0.13146144 0.051674098 0.024915636 1.6199788e-38
0.1310581 0.054722548 0.02395606 1.6199417e-38
0.12768114 0.14790714 0.038603783 2.1093265e-38
0.12699181 0.15110455 0.039665103 1.638519e-38
0.12645632 0.15395191 0.041009903 1.5189952e-38
0.12855607 0.05269143 0.023892105 1.638238e-38
0.1280511 0.055709347 0.023443609 1.6382397e-38
0.12478992 0.14859343 0.037941098 2.3417635e-38
0.12443525 0.15117897 0.038576365 2.0079127e-38
0.123851 0.15373999 0.039457738 1.5245107e-38
0.12464678 0.056340277 0.022030175 1.6107231e-38
0.12468457 0.059945688 0.021157652 1.6291252e-38
0.12416929 0.062904775 0.020632267 1.6198356e-38
0.12113684 0.060190916 0.020307899 1.6567123e-38
0.1215997 0.06390439 0.019370437 1.601503e-38
0.11545956 0.1549104 0.033186316 2.0350412e-38
0.11849555 0.061418504 0.018861085 1.574062e-38
0.11780879 0.067589507 0.017039537 1.5734862e-38
0.11334831 0.15324622 0.02955538 1.6849518e-38
0.11344838 0.15570417 0.031582117 1.8047682e-38
0.11168575 0.15832102 0.031786859 1.5742442e-38
0.1150412 0.065521434 0.01719439 1.5737739e-38
0.11507359 0.068367004 0.016502708 1.5277839e-38
0.11342102 0.072011754 0.016505837 1.4358045e-38
0.11226255 0.15330581 0.028806984 1.5563077e-38
0.11140779 0.15616927 0.029225588 1.5927883e-38
0.10974509 0.15846407 0.030044556 1.3902456e-38
0.11069286 0.07626912 0.01470542 1.5369286e-38
0.11073273 0.079684079 0.014298856 1.5368578e-38
0.10563448 0.15995759 0.027853906 1.3348581e-38
0.10724103 0.07721296 0.013627023 1.6014692e-38
0.10749394 0.08039926 0.013089925 1.5646614e-38
0.10704988 0.083715454 0.01287064 1.5186728e-38
0.10426509 0.080787867 0.012445271 1.5094902e-38
0.10348132 0.084479697 0.012218684 1.5187448e-38
0.10271657 0.088795319 0.010356247 1.4818658e-38
0.10051507 0.15741909 0.021342784 1.426372e-38
0.10061276 0.15914798 0.021726727 1.583642e-38
0.10024375 0.088534005 0.0098132193 1.4909408e-38
0.10015774 0.09190163 0.0095451772 1.4908357e-38
0.098691761 0.097470701 0.0091252923 1.4266558e-38
0.097062886 0.15682057 0.020793676 1.3619437e-38
0.098257482 0.15916765 0.021317065 1.6572189e-38
0.097644269 0.088651799 0.0092507303 1.4542416e-38
0.096877396 0.092851952 0.0091287196 1.4450579e-38
0.096502483 0.096525937 0.0088320673 1.4172908e-38
0.096364319 0.10085016 0.0081145763 1.4450209e-38
0.094904065 0.10873444 0.0085325837 1.3898489e-38
0.093094051 0.14655375 0.01417008 9.376301e-39
0.093970835 0.097332299 0.0082663894 1.3983856e-38
0.093236744 0.10087521 0.0080473423 1.4449505e-38
0.092482746 0.10471369 0.0077507198 1.4172553e-38
0.092540443 0.10868137 0.0081039071 1.3253479e-38
0.092050433 0.11298008 0.0075175464 1.2517345e-38
0.090810359 0.14147635 0.011646271 1.1494606e-38
0.090668738 0.14551683 0.013518631 1.167936e-38
0.090654671 0.14908174 0.014982164 1.1592553e-38
0.090797305 0.15229306 0.016079307 1.2973706e-38
0.090072095 0.10504682 0.006948173 1.3898832e-38
0.089807093 0.10893913 0.0067682266 1.270067e-38
0.089415491 0.1132333 0.006475389 1.2425871e-38
0.089442074 0.11727193 0.0062713623 1.2609186e-38
0.087765574 0.12213314 0.0059863329 1.362334e-38
0.087118089 0.12705837 0.0089002848 1.3347477e-38
0.089562535 0.12983865 0.0086494684 1.2976872e-38
0.088229954 0.13453506 0.0098087192 1.2976163e-38
0.087918341 0.13726538 0.010089189 1.3252755e-38
0.088432729 0.14140256 0.011820883 1.3156979e-38
0.088419497 0.14524914 0.013130784 1.2703155e-38
0.088294268 0.14786489 0.013520658 1.2706009e-38
0.08616811 0.11394662 0.0055342019 1.2976877e-38
0.085791588 0.11809455 0.0056509376 1.261025e-38
0.16686386 0.011171699 0.04598093 5.3376327e-39
0.16625512 0.01251334 0.045800149 5.9808441e-39
0.16459832 0.010979995 0.045595467 4.9670397e-39
0.16380852 0.013633981 0.044705033 5.6123979e-39
0.16077226 0.014543265 0.043261766 5.1543065e-39
0.15948346 0.017463684 0.041968226 5.6149245e-39
0.15420368 0.1505354 0.062566042 1.953429e-38
0.15374479 0.15264614 0.063658595 2.1556872e-38
0.15714031 0.014882863 0.041092515 5.2483182e-39
0.15767395 0.017344967 0.040681243 5.7057076e-39
0.15002406 0.14684021 0.058968782 1.4271648e-38
0.15048426 0.14937218 0.060369551 1.8889293e-38
0.15131032 0.15188716 0.062023282 2.1737292e-38
0.15239793 0.028972253 0.039114058 9.5753891e-39
0.14838606 0.14693011 0.057839692 1.6022667e-38
0.14731085 0.14887179 0.058264673 1.9441017e-38
0.15002024 0.029683933 0.037889779 9.4832033e-39
0.14456412 0.14713989 0.055205286 1.592934e-38
0.14386341 0.14893806 0.055783808 1.7128951e-38
0.14559487 0.034578443 0.035380006 1.159972e-38
0.14128813 0.1473197 0.052947223 1.8604804e-38
0.1407029 0.14974567 0.053597689 2.0079192e-38
0.14444008 0.03594999 0.034822822 1.0865792e-38
0.14267874 0.038083717 0.034227371 1.2521356e-38
0.13801217 0.1474995 0.050689101 2.1091557e-38
0.1379993 0.15027002 0.051538527 2.2103908e-38
0.13654733 0.15269744 0.051847398 2.2471993e-38
0.14019069 0.039486706 0.033319294 1.3258551e-38
0.13907212 0.04191348 0.0321576 1.5099561e-38
0.13563985 0.15155429 0.049770355 2.0267568e-38
0.13403842 0.15419434 0.04983747 2.201029e-38
0.13620931 0.042942733 0.030343473 1.4822256e-38
0.13635671 0.045551047 0.030922651 1.5740259e-38
0.1307767 0.15503596 0.047621965 1.9799401e-38
0.12925062 0.15702815 0.0475353 2.0350794e-38
0.13330668 0.046699598 0.028999448 1.5648418e-38
0.12764236 0.15532766 0.045606792 1.7865446e-38
0.12706348 0.15714818 0.046027899 1.9519231e-38
0.13083401 0.047162354 0.027354777 1.5740625e-38
0.12420118 0.15556112 0.042749405 1.5651997e-38
0.12487638 0.15726824 0.044520259 1.7968442e-38
0.12749523 0.048653796 0.025292188 1.5923927e-38
0.12607187 0.051086679 0.024740964 1.6474936e-38
0.12499741 0.055331886 0.024764359 1.6290557e-38
0.12038335 0.15173756 0.039134979 2.3394976e-38
0.1208688 0.15468813 0.0408355 1.7675554e-38
0.12288359 0.052374125 0.023363233 1.5830288e-38
0.12212729 0.054617271 0.022626907 1.5830274e-38
0.11932281 0.15114167 0.03828454 2.3129917e-38
0.11944062 0.056319758 0.021552473 1.62909e-38
0.11828852 0.0589706 0.020737112 1.6476019e-38
0.1146265 0.15530173 0.03600657 2.1546078e-38
0.11319077 0.1583463 0.036545396 2.0443306e-38
0.11609602 0.059557259 0.020236254 1.5741334e-38
0.11496544 0.06277734 0.019519389 1.555366e-38
0.11065024 0.15939537 0.034548879 1.685091e-38
0.11277276 0.06438376 0.01848489 1.5921763e-38
0.11085868 0.06772165 0.017961264 1.5461875e-38
0.10764003 0.16023326 0.032391191 1.380954e-38
0.10773766 0.16213913 0.033424318 1.3258517e-38
0.10892045 0.069059014 0.017261297 1.518601e-38
0.10865271 0.071826726 0.016874194 1.4910131e-38
0.10426217 0.1606923 0.03072983 1.3808461e-38
0.10391021 0.16234921 0.030786097 1.4176864e-38
0.10599798 0.073149636 0.015964299 1.5650196e-38
0.10553381 0.075150967 0.014771163 1.5831021e-38
0.1019659 0.076867521 0.013329804 1.4633198e-38
0.10124105 0.07987684 0.012878716 1.4450612e-38
0.10081011 0.082823351 0.012868345 1.491194e-38
0.099090815 0.080734149 0.012518585 1.4358765e-38
0.09851104 0.08436688 0.011850864 1.5002702e-38
0.094212174 0.088553339 0.010040611 1.399211e-38
0.093850136 0.09170863 0.0096231103 1.3898493e-38
0.090868235 0.15401162 0.018910229 1.2421941e-38
0.090805471 0.15532327 0.019105732 1.2702099e-38
0.091691494 0.09257859 0.0092594624 1.3531875e-38
0.090933383 0.096203193 0.0087563992 1.3715169e-38
0.090197504 0.09975829 0.0085381567 1.4172565e-38
0.088137388 0.15335317 0.017127067 1.1413188e-38
0.088592112 0.15576619 0.018872648 1.1600073e-38
0.08849448 0.097036615 0.0080842674 1.3163429e-38
0.088158906 0.10042725 0.0078516006 1.380665e-38
0.086877704 0.10442545 0.0076854229 1.3715866e-38
0.086544812 0.10780794 0.0074532032 1.306872e-38
0.085261703 0.12941332 0.010910839 1.3440365e-38
0.084981143 0.13267499 0.011515617 1.3438912e-38
0.085015655 0.14154443 0.012850314 1.3804495e-38
0.0850541 0.14512964 0.013634384 1.2977597e-38
0.085236549 0.14920521 0.014557242 1.1045446e-38
0.085114717 0.15256016 0.015503228 9.2026129e-39
0.084805191 0.10575458 0.0070956349 1.3159089e-38
0.084575832 0.10876007 0.0071754158 1.3067282e-38
0.082965195 0.11216701 0.0063624382 1.343679e-38
0.082578361 0.12241581 0.0073457956 1.3895983e-38
0.084202349 0.126173 0.009784162 1.3807015e-38
0.08373642 0.12808448 0.010424286 1.3991758e-38
0.083453476 0.13399534 0.011305332 1.3897406e-38
0.083020329 0.13706097 0.011315167 1.3621892e-38
0.08310771 0.14121971 0.012382269 1.3896296e-38
0.082919121 0.14516029 0.012969673 1.2055654e-38
0.082793474 0.14778733 0.013361216 1.0398649e-38
0.081115901 0.11447255 0.0061070621 1.334749e-38
0.081021607 0.11644283 0.006400764 1.2704609e-38
0.16035911 0.0096323788 0.048554182 4.6911703e-39
0.15879014 0.010034546 0.046296597 4.3256206e-39
0.15999007 0.011914641 0.045011163 4.6944059e-39
0.15214747 0.15292458 0.065265715 2.219973e-38
0.1514408 0.15416571 0.066231906 2.2482786e-38
0.15661204 0.011785835 0.043859303 4.7873316e-39
0.14902788 0.15262008 0.063439906 2.2016397e-38
0.14914662 0.15418015 0.065864086 2.2388798e-38
0.15103918 0.022976056 0.043238521 7.1804509e-39
0.15202731 0.025927901 0.042000711 8.7470423e-39
0.14622027 0.15184748 0.061883926 2.1186261e-38
0.14837837 0.02585572 0.041492343 8.4697604e-39
0.14356306 0.14945427 0.058629274 1.8327469e-38
0.14307266 0.15204543 0.059444785 1.9248027e-38
0.14058703 0.15497831 0.061257839 1.9707548e-38
0.1447655 0.026797429 0.040165901 8.0095123e-39
0.14604169 0.029103056 0.03839457 8.4679724e-39
0.1400283 0.15239763 0.057157397 1.9706097e-38
0.13802236 0.15500911 0.059470057 2.0996468e-38
0.14181173 0.031109199 0.037776828 8.4683255e-39
0.14134014 0.034208 0.036861062 9.2076954e-39
0.13677245 0.15319759 0.055057406 2.2750005e-38
0.13502151 0.15546091 0.056466937 2.3028739e-38
0.13829303 0.034593746 0.037679553 8.3797256e-39
0.13853493 0.037398025 0.034659207 1.0955088e-38
0.13402054 0.15457641 0.052891135 2.3208101e-38
0.13243848 0.1564813 0.05385977 2.3116261e-38
0.13495117 0.038584203 0.033809185 1.141464e-38
0.13453895 0.040901914 0.03250438 1.4268722e-38
0.12938163 0.15735061 0.051387429 2.2289732e-38
0.12738505 0.15922146 0.052800238 2.3022259e-38
0.13153219 0.039985985 0.033113599 1.1602606e-38
0.13063172 0.0431007 0.031900764 1.4178328e-38
0.12584615 0.15825577 0.048463285 2.0903609e-38
0.12463158 0.15937258 0.050902367 2.2009925e-38
0.12758452 0.043733656 0.03136605 1.3718073e-38
0.12702811 0.046302199 0.029471636 1.5648062e-38
0.12250558 0.15801914 0.045878351 1.777362e-38
0.12132743 0.15955393 0.048624814 2.0814617e-38
0.11863536 0.15607774 0.042406321 1.9611727e-38
0.11958164 0.15785654 0.043921471 1.8045497e-38
0.11926326 0.15977308 0.045987606 1.739947e-38
0.12024915 0.050621375 0.02551955 1.6287679e-38
0.11665267 0.15385902 0.040923357 2.247087e-38
0.11591053 0.15761948 0.042016208 2.1640789e-38
0.11471909 0.15991664 0.044069827 2.154606e-38
0.11671662 0.05253002 0.024631441 1.5554784e-38
0.11387557 0.15542533 0.039369941 2.2283276e-38
0.11351675 0.15803769 0.040007293 2.1176944e-38
0.11208302 0.16082627 0.041158736 2.0075254e-38
0.11572987 0.053500831 0.022884756 1.6106519e-38
0.11348808 0.05515866 0.023100317 1.5829576e-38
0.11404192 0.057792827 0.021254003 1.5924996e-38
0.11080092 0.15979232 0.037605703 1.8418583e-38
0.10909289 0.16192076 0.038650572 1.7404416e-38
0.10681936 0.16430859 0.039347291 1.5459715e-38
0.1107367 0.057139888 0.021291137 1.5555492e-38
0.11140287 0.059783563 0.020388722 1.5556201e-38
0.11090729 0.062344298 0.019892693 1.6013595e-38
0.10656357 0.16290443 0.036136031 1.3719481e-38
0.10461661 0.1644295 0.037828922 1.3437865e-38
0.10712463 0.060384542 0.020591199 1.5553351e-38
0.10709435 0.064019889 0.019294798 1.5923934e-38
0.10753661 0.066829026 0.018765509 1.5649498e-38
0.10333157 0.16290006 0.033690035 1.3072339e-38
0.10178882 0.1646515 0.035069525 1.3532936e-38
0.10385835 0.065511778 0.019243062 1.61058e-38
0.10347098 0.068572715 0.018297076 1.5554064e-38
0.10364816 0.071861684 0.016965002 1.5462945e-38
0.1003508 0.16102278 0.030522585 1.3715904e-38
0.10027868 0.16284434 0.032655418 1.5650883e-38
0.099813521 0.069692165 0.017177552 1.527819e-38
0.099722683 0.072401792 0.016374856 1.5370741e-38
0.10064191 0.074951142 0.015015334 1.500162e-38
0.096524119 0.073391259 0.015552461 1.4357313e-38
0.096293271 0.076625496 0.013760626 1.3622635e-38
0.096948385 0.079752266 0.013308764 1.4081816e-38
0.092071712 0.15873995 0.025550187 1.6571477e-38
0.093029976 0.077541411 0.013866574 1.3071255e-38
0.092873931 0.080847964 0.013127178 1.3530076e-38
0.093677223 0.084049791 0.01229924 1.3990694e-38
0.090538681 0.15578049 0.022704124 1.352686e-38
0.089591622 0.15836506 0.024570018 1.5466574e-38
0.089881837 0.082112387 0.012499422 1.2971886e-38
0.089325368 0.084923722 0.011800975 1.2698522e-38
0.090342581 0.088218369 0.010481447 1.2607416e-38
0.089498341 0.090671778 0.010092139 1.3254947e-38
0.086706698 0.15640301 0.021371931 1.2058887e-38
0.085524499 0.15794624 0.022677541 1.2243998e-38
0.085837066 0.086292759 0.010433972 1.2335126e-38
0.086000085 0.089161672 0.0096616149 1.260957e-38
0.087169707 0.092430398 0.009137392 1.3806656e-38
0.086246073 0.095777139 0.0087497234 1.3067639e-38
0.083723545 0.15569305 0.018451214 1.0122082e-38
0.082221806 0.1581275 0.02040118 1.1048332e-38
0.083215356 0.093566313 0.0086944997 1.3252756e-38
0.08311373 0.09705051 0.0085191429 1.2604884e-38
0.083263338 0.10079561 0.0080427229 1.325491e-38
0.083029032 0.10386468 0.0082230568 1.306871e-38
0.082130075 0.10749903 0.0080111027 1.3067983e-38
0.08093816 0.12456407 0.010909379 1.4082171e-38
0.081411302 0.12823126 0.011292696 1.4083955e-38
0.081318796 0.13206834 0.011928469 1.3990317e-38
0.08058548 0.13977256 0.012821913 1.3436355e-38
0.080396354 0.14372444 0.013410985 1.3067632e-38
0.080465615 0.14799057 0.014238149 1.0491202e-38
0.080441952 0.15158506 0.015083402 9.3880607e-39
0.079859436 0.1552278 0.017140239 9.4806417e-39
0.079664528 0.15788227 0.019184887 1.0403624e-38
0.079479992 0.10859366 0.0088252425 1.3160552e-38
0.077672184 0.11198683 0.0081804693 1.3989244e-38
0.078127027 0.11645843 0.0077724457 1.2704609e-38
0.077713788 0.11969382 0.0091228485 1.3256366e-38
0.079467475 0.12456559 0.010498166 1.4358756e-38
0.078408539 0.12808408 0.011140168 1.4359473e-38
0.077984691 0.13249554 0.011278868 1.4449498e-38
0.078085065 0.13628227 0.010965019 1.4266545e-38
0.077892005 0.13982795 0.011770993 1.3621519e-38
0.077452481 0.14375429 0.01259172 1.3439268e-38
0.077096224 0.14769265 0.013335586 1.1229841e-38
0.076740324 0.15163368 0.014080346 9.3895279e-39
0.076150775 0.15495525 0.015700042 8.654125e-39
0.075113952 0.11524965 0.0082208514 1.261239e-38
0.074259162 0.13310924 0.010883093 1.5463647e-38
0.074132562 0.13575512 0.011277467 1.4912985e-38
0.073910952 0.14038537 0.011967719 1.4359809e-38
0.073784292 0.14303124 0.012362063 1.381093e-38
0.14595574 0.1556457 0.068483114 2.2571388e-38
0.14926791 0.018871471 0.044952273 6.6265695e-39
0.14920443 0.020198181 0.045149982 6.8120341e-39
0.14356983 0.15552434 0.065362692 2.164548e-38
0.14184958 0.15800415 0.067628443 2.3031278e-38
0.14540887 0.021595448 0.044865966 7.4559476e-39
0.14075074 0.15614387 0.063230336 2.099615e-38
0.13797104 0.15905002 0.065723836 2.2012091e-38
0.14202422 0.022002965 0.043748438 6.8134691e-39
0.14252746 0.02541706 0.041433454 7.6421591e-39
0.13701108 0.15669431 0.06079787 2.1457122e-38
0.1350224 0.15868461 0.063286841 2.2104292e-38
0.13850695 0.02618067 0.042051315 6.8109481e-39
0.13819149 0.029116526 0.040310323 7.1783097e-39
0.13373387 0.15703468 0.059000075 2.3118438e-38
0.13165924 0.15852819 0.061009228 2.2932968e-38
0.1350956 0.033991084 0.038726747 8.1938812e-39
0.13084972 0.15755025 0.056768835 2.3114826e-38
0.12848181 0.15967637 0.057968616 2.2932943e-38
0.13156754 0.034275144 0.037853777 7.2705012e-39
0.12608194 0.16069557 0.055683374 2.256776e-38
0.12459332 0.16286536 0.057271063 2.2756857e-38
0.12771669 0.035091698 0.036543608 6.994968e-39
0.12847817 0.038002968 0.034317315 8.5605169e-39
0.12283632 0.1611935 0.053063929 2.1643293e-38
0.1212672 0.16304791 0.05497843 2.219901e-38
0.12443042 0.038947999 0.033962369 7.4523967e-39
0.12434745 0.04179889 0.032944202 1.1041918e-38
0.119178 0.16134292 0.051149845 2.1826595e-38
0.1177128 0.1632096 0.052933633 2.1271977e-38
0.12110326 0.042766407 0.032291591 1.2421936e-38
0.12086973 0.045303896 0.03115207 1.5005562e-38
0.11610973 0.16128665 0.048289001 2.0259658e-38
0.11455154 0.16397478 0.050122321 2.1739449e-38
0.11782813 0.04682748 0.029919982 1.6015404e-38
0.11312044 0.1617614 0.045962095 2.1363078e-38
0.11183649 0.16431285 0.047586203 2.044186e-38
0.11441863 0.047116712 0.02943927 1.6201575e-38
