# .PCD v0.7 - Point Cloud Data file format
VERSION 0.7
FIELDS x y z rgb
SIZE 4 4 4 4
TYPE F F F F
COUNT 1 1 1 1
WIDTH 980
HEIGHT 1
VIEWPOINT 0 0 0 0 1 0 0
POINTS 980
DATA ascii
0.12629265 0.080253363 0.0031888485 1.5189965e-38
0.12520249 0.084186256 0.003205061 1.5189956e-38
0.12520155 0.087326601 0.0033308864 1.509704e-38
0.12644427 0.10428215 0.0041397214 1.261244e-38
0.12696877 0.10803526 0.0055212379 1.2430566e-38
0.12685275 0.11243153 0.0070509315 1.2891907e-38
0.12745699 0.1155831 0.00749892 1.3167797e-38
0.12241979 0.069527239 0.0055794716 1.7030978e-38
0.12247951 0.072725639 0.005041182 1.6388857e-38
0.12253906 0.076547995 0.0045278668 1.5282518e-38
0.12261841 0.080375426 0.0037927032 1.4361286e-38
0.1226474 0.084164992 0.003611207 1.463823e-38
0.12268755 0.087327339 0.0032936931 1.4638942e-38
0.1223691 0.10145896 0.0038549304 1.3166691e-38
0.12267219 0.10428305 0.0040838122 1.3074499e-38
0.1226005 0.10804276 0.0050118566 1.3168149e-38
0.12245801 0.11180394 0.0067173839 1.3627318e-38
0.11926281 0.070159093 0.0055579543 1.7125333e-38
0.11865177 0.072697565 0.0054280758 1.6021869e-38
0.11872628 0.076529443 0.0048043132 1.4914817e-38
0.11872516 0.080309264 0.004955709 1.3992866e-38
0.1187881 0.084121682 0.0044419765 1.3718079e-38
0.11891635 0.087956525 0.0032628775 1.3994653e-38
0.11891243 0.10114595 0.003791213 1.3259974e-38
0.11886809 0.10427824 0.004360795 1.3442939e-38
0.11877025 0.10803626 0.0055109262 1.3259966e-38
0.11882694 0.11144233 0.0069191456 1.2798988e-38
0.11484329 0.070160404 0.0054923892 1.65736e-38
0.11486573 0.072698697 0.0053719282 1.4640723e-38
0.11494384 0.076530561 0.0047481656 1.2522033e-38
0.11494272 0.080310389 0.0048995614 1.1417118e-38
0.11495277 0.084095508 0.0049401522 1.077175e-38
0.11509981 0.087937541 0.0036504269 1.0866111e-38
0.11451609 0.090470105 0.0032982826 1.0313659e-38
0.1148911 0.097504348 0.003585577 1.0772122e-38
0.11510725 0.10051117 0.0040429235 1.0957233e-38
0.11496954 0.10425606 0.0055254698 1.0955794e-38
0.11487737 0.10802234 0.0065647364 1.0956876e-38
0.11609402 0.11053909 0.0071283579 1.1600791e-38
0.11231787 0.070161164 0.0054549575 1.3251656e-38
0.11110267 0.072714202 0.0050943494 1.085964e-38
0.1111614 0.076531686 0.0046921372 9.3899301e-39
0.11116029 0.080311507 0.004843533 8.2814329e-39
0.11120765 0.08411292 0.0045516491 7.5467237e-39
0.11135072 0.087948821 0.0033727288 7.0872071e-39
0.11105895 0.091727264 0.0032973886 7.8236511e-39
0.11134727 0.096745148 0.0037251115 8.098471e-39
0.11129849 0.10050424 0.004319787 8.9253576e-39
0.11111669 0.10424449 0.0061351657 9.5753681e-39
0.11188596 0.10717542 0.0069311261 1.0585942e-38
0.10852971 0.070162281 0.0053988099 1.2517702e-38
0.10727867 0.072693542 0.0053703785 1.2609545e-38
0.10736497 0.080306284 0.0048982501 1.2056731e-38
0.1074269 0.084114045 0.0044955611 1.0861403e-38
0.10750189 0.087920949 0.0039818883 9.8523011e-39
0.10744972 0.092306525 0.004601717 8.1012904e-39
0.10749928 0.096725956 0.0043344498 6.9035207e-39
0.10747307 0.10049479 0.0047074556 8.1892303e-39
0.10769656 0.10381524 0.006567657 9.9412807e-39
0.10473856 0.080258168 0.0057469606 1.3441101e-38
0.10427932 0.084315643 0.0055024028 1.0315788e-38
0.10416377 0.087851331 0.0055422187 7.5485062e-39
0.10457668 0.091896929 0.0054100752 5.1517855e-39
0.08957506 0.11685619 0.0069879889 1.9794693e-38
0.090205289 0.12064153 0.0071490407 2.0714895e-38
0.090712644 0.12426587 0.0070514679 2.2935477e-38
0.090343013 0.12693554 0.0064021945 2.3014343e-38
0.087049626 0.11685693 0.0069505572 2.1360239e-38
0.087113291 0.12064014 0.0066581964 2.1545736e-38
0.087063618 0.12442695 0.0071427822 2.2856235e-38
0.086698592 0.12778449 0.0068826675 2.3035521e-38
0.08326222 0.11433437 0.0067933202 2.2193226e-38
0.083328381 0.11685742 0.0064505935 2.3118077e-38
0.083007507 0.12075015 0.0056816936 2.2557007e-38
0.082842663 0.12441331 0.0057728887 2.2848342e-38
0.083171412 0.1280701 0.0062412024 2.3319001e-38
0.082777008 0.13071762 0.0064415336 2.2010971e-38
0.07863225 0.11433574 0.0067246556 2.164148e-38
0.078986332 0.11685874 0.0059136748 2.2286851e-38
0.079784639 0.1201301 0.0049721003 2.126734e-38
0.079886466 0.12440047 0.0044773221 2.1637916e-38
0.07920602 0.12860319 0.0054140687 2.2754708e-38
0.078837283 0.13171308 0.0058223009 2.312129e-38
0.077891275 0.13447231 0.005518496 2.2845352e-38
0.074532755 0.11433953 0.0059967637 2.1817983e-38
0.074831091 0.11623168 0.004242003 2.1638607e-38
0.07616587 0.12942168 0.0042896271 2.0263981e-38
0.074763529 0.13195547 0.0052600503 2.0820748e-38
0.074581675 0.13512985 0.0064966679 2.1741566e-38
0.070861332 0.11371259 0.0052499771 1.9794689e-38
0.071141966 0.11560569 0.0036616921 1.9333006e-38
0.072393738 0.13319121 0.0043846369 1.9342721e-38
0.071764499 0.13570367 0.0044759512 1.9979083e-38
0.067050703 0.11371308 0.0053601861 1.2323282e-38
0.06732668 0.11592036 0.0038679242 1.3525795e-38
0.0677846 0.13361129 0.0043331385 2.1002614e-38
0.067616232 0.13620736 0.0044346452 2.1827687e-38
0.064500056 0.11434379 0.0055145025 9.7515141e-39
0.063868321 0.11560392 0.0055556297 1.0672412e-38
0.062341437 0.12063283 0.0037325025 1.3993218e-38
0.061083131 0.12502968 0.0038899779 1.4457758e-38
0.061710879 0.12754178 0.0039998293 1.3995728e-38
0.14971435 0.082983494 0.0040326118 1.5834961e-38
0.12582292 0.095804371 0.0037353039 1.3808822e-38
0.14915627 0.10025382 0.0037870407 1.4914818e-38
0.13650319 0.090120137 0.0038143396 1.4455274e-38
0.13231911 0.092089608 0.0041992664 1.4177967e-38
0.11171027 0.071437679 0.005274713 1.2055648e-38
0.1619115 0.069402486 0.0080806017 1.6758675e-38
0.17543234 0.068103001 0.0083105564 1.5097346e-38
0.17637031 0.10828717 0.0099340081 1.77736e-38
0.17541511 0.1117648 0.010504127 1.9431697e-38
0.171363 0.065875657 0.0091618896 2.1087942e-38
0.170784 0.068298817 0.0084718466 1.9429474e-38
0.17187294 0.1122753 0.010027111 1.9339499e-38
0.17071262 0.11531163 0.011232495 2.0906081e-38
0.16617009 0.065010332 0.0094791651 2.2750711e-38
0.16656397 0.068730205 0.0083152652 2.1641129e-38
0.16665269 0.11658078 0.011223078 1.8785593e-38
0.1652322 0.12000716 0.012240231 1.9153661e-38
0.16261119 0.064609744 0.0089814067 2.2006329e-38
0.16403341 0.068739213 0.0081670284 2.154964e-38
0.16273269 0.1174681 0.010766864 1.7128234e-38
0.16287693 0.12027934 0.012073159 1.7496656e-38
0.15894142 0.063614845 0.008664608 2.126733e-38
0.15918463 0.11759592 0.010652542 1.62088e-38
0.158731 0.12048396 0.011912584 1.6207363e-38
0.1582444 0.12318288 0.012263715 1.6668707e-38
0.15473652 0.059916295 0.0093914866 2.0993602e-38
0.15534461 0.063305862 0.0079634786 2.0529398e-38
0.15513986 0.11810289 0.010345995 1.5010251e-38
0.15509698 0.12064176 0.011447847 1.5009545e-38
0.15506855 0.12318382 0.012216628 1.5285777e-38
0.15064198 0.057173297 0.0095068812 2.1085796e-38
0.15131855 0.059786923 0.0087319016 2.0625184e-38
0.15136983 0.063047543 0.0077511072 2.0163483e-38
0.15101285 0.117788 0.010438919 1.4825132e-38
0.15128978 0.12064289 0.011391461 1.464074e-38
0.15157503 0.12350222 0.012177587 1.4917345e-38
0.14661925 0.057174493 0.0094472766 2.0437902e-38
0.14688407 0.05979776 0.0085554123 2.0071653e-38
0.14630368 0.063139439 0.0076797009 1.9609235e-38
0.14682303 0.11756258 0.010010302 1.5473021e-38
0.14686175 0.12064231 0.011075497 1.5745654e-38
0.14653899 0.1237304 0.012112021 1.5744955e-38
0.14365512 0.057175372 0.009403348 2.0347853e-38
0.14244455 0.059799083 0.0084895492 1.9701442e-38
0.14275748 0.062923528 0.0076183677 1.9148268e-38
0.1428045 0.11778951 0.0098167658 1.4735075e-38
0.14242649 0.120643 0.010926366 1.5194606e-38
0.14236499 0.12382232 0.012053847 1.5286098e-38
0.13863926 0.059800215 0.0084329844 1.9335514e-38
0.13870473 0.062418465 0.0075380802 1.887419e-38
0.13868819 0.11810715 0.0097685456 1.3998251e-38
0.1386134 0.12064539 0.010981143 1.4642193e-38
0.13873538 0.12409542 0.012010992 1.5195714e-38
0.13483377 0.060435437 0.0084021091 1.8782359e-38
0.13490516 0.062419593 0.0074817538 1.8503999e-38
0.13488862 0.11810827 0.0097121596 1.3625534e-38
0.13480768 0.12064715 0.010924757 1.3902488e-38
0.13474306 0.12350722 0.011928082 1.5657024e-38
0.13126659 0.060546685 0.0085538626 1.8505406e-38
0.13056239 0.063686535 0.0074680448 1.7952232e-38
0.13108903 0.11810941 0.0096558928 1.3626952e-38
0.13097627 0.12064976 0.01120162 1.3718072e-38
0.13061447 0.12350844 0.011866927 1.4276248e-38
0.12719455 0.061044499 0.0086467862 1.786183e-38
0.12725908 0.063642442 0.0079733133 1.7677433e-38
0.12727912 0.11700332 0.0096801519 1.3352176e-38
0.12720509 0.12064794 0.010700762 1.2893329e-38
0.12712088 0.12409887 0.011838853 1.3815274e-38
0.12332861 0.060989775 0.0092545748 1.8138061e-38
0.12309238 0.064234607 0.0084633827 1.7769633e-38
0.12223837 0.067485958 0.0074967742 1.7309015e-38
0.12296219 0.11616507 0.0099193454 1.3445082e-38
0.12334059 0.12065306 0.011310935 1.3169574e-38
0.12331013 0.12319324 0.01174593 1.3356472e-38
0.11909838 0.064603232 0.0088815689 1.7768909e-38
0.1182435 0.068380564 0.0076164007 1.7308665e-38
0.117792 0.11305074 0.0092559457 1.2058206e-38
0.11866204 0.11639535 0.010689676 1.2154706e-38
0.11908688 0.12023201 0.01145339 1.2156144e-38
0.11482923 0.065809913 0.0085708499 1.7494118e-38
0.11462164 0.068108663 0.0075755715 1.7493425e-38
0.11437734 0.11193832 0.010036469 1.0955071e-38
0.11454452 0.11604106 0.011238396 1.0957232e-38
0.11484223 0.11981054 0.011484802 1.0493737e-38
0.11314593 0.12827408 0.01179868 7.3633834e-39
0.11314517 0.130813 0.011900365 7.1815005e-39
0.11065915 0.066096768 0.0089375377 1.4364179e-38
0.11064044 0.06856899 0.0077433586 1.3533299e-38
0.11035027 0.10840617 0.0094599128 1.1230945e-38
0.110646 0.11177485 0.010767043 1.1138752e-38
0.11048192 0.11583419 0.011260808 1.0958679e-38
0.1074479 0.066072322 0.0092226267 1.3349265e-38
0.10678106 0.06853395 0.0081851482 1.3163436e-38
0.10614595 0.10503267 0.0090956688 1.0216074e-38
0.10747277 0.10796954 0.010567486 1.1875221e-38
0.10679915 0.11177301 0.011043608 1.1874528e-38
0.1068361 0.11621644 0.010888338 1.1785205e-38
0.10603438 0.12040555 0.01137799 1.3349276e-38
0.10616058 0.12319833 0.011491716 9.9379793e-39
0.1042711 0.069246918 0.0093026161 1.3992115e-38
0.10323258 0.072620504 0.0087967515 1.3349254e-38
0.10313027 0.076296791 0.0084559321 1.2981209e-38
0.1025427 0.080120698 0.0082111359 1.1139821e-38
0.10222504 0.083604187 0.0083459616 5.7989598e-39
0.10184662 0.087064832 0.0089794397 2.7597648e-39
0.1031695 0.11213679 0.011004329 1.2057105e-38
0.10306702 0.11621758 0.010498881 1.2335129e-38
0.10306587 0.12065656 0.010676622 1.8053007e-38
0.10282009 0.12410473 0.011335433 1.3896245e-38
0.10045763 0.077499524 0.0095765591 9.4853669e-39
0.10045687 0.080038443 0.0096783042 8.6483993e-39
0.099820584 0.083847001 0.0098214746 5.0563571e-39
0.099438503 0.087147713 0.0099479556 4.6000677e-39
0.099218391 0.11241192 0.010623038 1.2144244e-38
0.099301107 0.11621936 0.010109425 1.2791445e-38
0.099299803 0.12065579 0.010287166 1.9433489e-38
0.099257529 0.12446226 0.010772586 1.8965962e-38
0.098663703 0.12699376 0.010531604 1.2424801e-38
0.09538807 0.11241209 0.010733008 1.2513398e-38
0.094869904 0.11622055 0.0099813342 1.4265489e-38
0.094937816 0.12065364 0.0096384883 1.9244448e-38
0.094936527 0.12445281 0.009790659 2.2193223e-38
0.094779275 0.12697974 0.0094724894 1.8229504e-38
0.090754725 0.11220306 0.010489047 1.3530054e-38
0.090921983 0.11601082 0.0094207525 1.7398683e-38
0.091825932 0.12065236 0.0091753006 1.9981646e-38
0.09182442 0.12571497 0.009378016 2.2653104e-38
0.091824055 0.12698062 0.0094286799 2.2004127e-38
0.08654575 0.11241664 0.01026845 1.6750438e-38
0.086761698 0.11432561 0.0088467598 1.9613889e-38
0.082762584 0.11178441 0.010020077 1.8690166e-38
0.07893829 0.11178491 0.010074615 1.9521357e-38
0.079162523 0.11432786 0.0087340474 2.1828025e-38
0.074406311 0.10924371 0.010461748 2.1268018e-38
0.075202212 0.11178879 0.0095744729 2.1450627e-38
0.071230479 0.10924465 0.01041466 2.2098177e-38
0.071238935 0.1114734 0.0095030665 2.1545352e-38
0.067419663 0.10861105 0.010332763 1.8410698e-38
0.066735499 0.11107018 0.0091341734 1.4257944e-38
0.063964576 0.11306672 0.0084580183 1.0026272e-38
0.062697686 0.11433274 0.0084899664 1.0399057e-38
0.15777951 0.087704517 0.0031767488 1.3349638e-38
0.16280304 0.089763775 0.0031995177 1.3349289e-38
0.16233848 0.097212262 0.0035426021 1.3442915e-38
0.13135096 0.10802934 0.0059196949 1.2430568e-38
0.15216917 0.09151978 0.0047886968 1.5099203e-38
0.14510107 0.085493021 0.0022597313 1.5927876e-38
0.14020309 0.098711103 0.0038347244 1.2981234e-38
0.11116029 0.080311507 0.004843533 8.2814329e-39
0.11050975 0.10317612 0.0098367333 1.3438611e-38
0.17411551 0.063353643 0.012104452 2.0078836e-38
0.17091283 0.06008609 0.012926996 1.9526046e-38
0.17065695 0.063900352 0.012075126 2.2105712e-38
0.17218842 0.11683133 0.014217973 2.2103915e-38
0.17090507 0.12001818 0.014827013 2.1366726e-38
0.17024772 0.12353168 0.015958905 2.228759e-38
0.16514592 0.056810975 0.013711095 2.0435772e-38
0.16644758 0.060086746 0.012860715 2.1735507e-38
0.16774459 0.063992165 0.012035489 2.2567767e-38
0.1668144 0.12083569 0.014441729 1.9797602e-38
0.1664249 0.12384862 0.015581369 2.0721351e-38
0.16233456 0.056300972 0.013648987 2.1454939e-38
0.16275154 0.059960753 0.012255013 2.2007415e-38
0.16199374 0.12192742 0.014270842 1.7126073e-38
0.16261733 0.12447945 0.014827251 1.7957631e-38
0.16172771 0.12747154 0.01615721 1.8049468e-38
0.15861508 0.055740699 0.013070941 2.1821584e-38
0.15882313 0.059528653 0.011835694 2.1636114e-38
0.16008252 0.12192798 0.01424253 1.74023e-38
0.15898952 0.12483862 0.014342904 1.7220794e-38
0.15901974 0.12755039 0.015653133 1.7402678e-38
0.15461487 0.052687414 0.013139486 2.2191066e-38
0.15498738 0.055678464 0.011958063 2.1823361e-38
0.15627879 0.058902513 0.011661589 2.1360964e-38
0.15498498 0.12511265 0.014294505 1.5655267e-38
0.15494274 0.12767628 0.01539737 1.6391736e-38
0.15112151 0.052409172 0.01265949 2.191556e-38
0.15135881 0.05534368 0.01158911 2.1546767e-38
0.15090768 0.12524119 0.014239252 1.5469431e-38
0.15084921 0.12755282 0.015532017 1.5932905e-38
0.14713594 0.051939785 0.0124982 2.1271621e-38
0.14735299 0.055344868 0.011529744 2.0901394e-38
0.14765856 0.12543315 0.014198661 1.5930041e-38
0.14708866 0.12795605 0.01557821 1.6389939e-38
0.14281772 0.051765323 0.012593925 2.0809214e-38
0.14262849 0.055440746 0.0116207 2.0624443e-38
0.14288041 0.12575288 0.014140546 1.5561973e-38
0.14281534 0.12831904 0.015326679 1.6388883e-38
0.13852122 0.05211626 0.012699246 2.0348582e-38
0.1384047 0.05567323 0.011823118 2.0073068e-38
0.13778383 0.12575439 0.014065027 1.5558045e-38
0.13834652 0.12832078 0.015288293 1.6297041e-38
0.13956483 0.13088869 0.01629889 1.7585623e-38
0.13481323 0.052693292 0.012845993 1.9610298e-38
0.13457131 0.055664208 0.01187712 1.9426994e-38
0.13461851 0.058272306 0.011314988 1.905894e-38
0.13459861 0.12524603 0.013997436 1.6207697e-38
0.13452573 0.12832023 0.015120387 1.6667244e-38
0.13192023 0.05298961 0.013065159 1.9332982e-38
0.13067582 0.055584118 0.012705863 1.8966359e-38
0.13047744 0.058591854 0.011266351 1.8689797e-38
0.13103101 0.12524709 0.013944566 1.4920192e-38
0.13073233 0.12831314 0.014619052 1.5655253e-38
0.13029957 0.1312107 0.016174316 1.6760156e-38
0.1269986 0.055738416 0.012726903 1.9057854e-38
0.12697345 0.058911201 0.01122725 1.8873468e-38
0.1269536 0.1257576 0.013904452 1.4552462e-38
0.1269065 0.12831427 0.014562309 1.5655969e-38
0.12657203 0.13174392 0.016140401 1.6577225e-38
0.12301814 0.056229685 0.012562454 1.9056427e-38
0.12312099 0.058883149 0.011502564 1.859689e-38
0.12313135 0.12512212 0.013822377 1.363233e-38
0.12303074 0.12832512 0.015061319 1.4276277e-38
0.12380326 0.13131905 0.016082287 1.528974e-38
0.11999164 0.056398679 0.013024747 1.905786e-38
0.11867278 0.12194028 0.013628721 1.2062869e-38
0.11927749 0.12449104 0.014073551 1.2617464e-38
0.11914991 0.12833555 0.01556021 1.1232709e-38
0.11502534 0.061457276 0.012295842 1.8137344e-38
0.11444289 0.063795768 0.011237025 1.77707e-38
0.11421359 0.12082749 0.013518035 1.0401541e-38
0.11483299 0.12449015 0.013840735 9.298763e-39
0.11515971 0.12796797 0.015248001 7.9147341e-39
0.11400572 0.13089627 0.015920043 7.7332463e-39
0.11000178 0.061473913 0.012479365 1.7403714e-38
0.11038969 0.063995853 0.011351705 1.6020454e-38
0.11049717 0.12020711 0.013529181 1.1141606e-38
0.11050986 0.12413138 0.014167488 7.0861127e-39
0.11166348 0.12703541 0.013728857 7.1815271e-39
0.10663661 0.061442163 0.012828529 1.4730063e-38
0.10632164 0.064226367 0.011848688 1.3899215e-38
0.10529841 0.10793833 0.012869477 1.1781949e-38
0.10752428 0.12098863 0.013425231 1.1877381e-38
0.10784197 0.12385339 0.013544679 6.8062734e-39
0.10345462 0.065393865 0.01247251 1.3715852e-38
0.10234578 0.068255082 0.011665165 1.3808088e-38
0.10148694 0.071014777 0.011333942 1.3623673e-38
0.10148164 0.088840485 0.012047887 2.9459456e-39
0.10352071 0.10495645 0.013391018 9.4741985e-39
0.10283412 0.10808962 0.01346463 1.1410644e-38
0.10211228 0.11048581 0.012924194 1.1962759e-38
0.099966608 0.068962485 0.01323092 1.104474e-38
0.099408925 0.072199456 0.01268518 8.6476763e-39
0.098683245 0.075902849 0.012238801 7.8225973e-39
0.098298922 0.079928577 0.011643767 7.0850309e-39
0.097660728 0.083748564 0.011787176 6.3499476e-39
0.097659968 0.086295098 0.011889219 5.8843437e-39
0.099056982 0.10869152 0.013807952 1.1224834e-38
0.098926909 0.11048675 0.012876987 1.1776571e-38
0.096130274 0.077264585 0.013506591 7.1772307e-39
0.096129902 0.078541651 0.013557732 7.361615e-39
0.094973855 0.10920318 0.013767898 1.1776921e-38
0.095104486 0.11048789 0.012820363 1.2052795e-38
0.090723775 0.10887657 0.014442444 1.2234329e-38
0.09128204 0.11048902 0.012763739 1.2510931e-38
0.087419003 0.10828667 0.014191151 1.2698511e-38
0.086185463 0.11049053 0.01268822 1.454276e-38
0.082815006 0.10856562 0.013812244 1.4450955e-38
0.079508528 0.10536508 0.014385581 1.3622624e-38
0.078625634 0.10780267 0.013569474 1.4635712e-38
0.074693412 0.10756478 0.013687432 1.7581649e-38
0.069284894 0.10536812 0.014234126 2.0620871e-38
0.070730112 0.1072973 0.013331831 2.163719e-38
0.066787243 0.10537458 0.013863683 1.979074e-38
0.066901505 0.10666118 0.013249636 1.9974055e-38
0.063408583 0.10835575 0.01376611 1.4172196e-38
0.062433049 0.11112559 0.013362169 1.0945737e-38
0.13507512 0.097103573 0.0038690567 1.2797929e-38
0.13515322 0.10824758 0.0056789517 1.2522404e-38
0.15856974 0.094743334 0.003955245 1.2336939e-38
0.13443023 0.086312003 0.0039312243 1.4085419e-38
0.074581675 0.13512985 0.0064966679 2.1741566e-38
0.10227297 0.11638544 0.010438263 1.1235614e-38
0.11375929 0.11351056 0.013663113 1.8781989e-38
0.16889885 0.052597769 0.017601669 2.1828372e-38
0.17086196 0.054707989 0.015713453 1.8506837e-38
0.17116015 0.12499938 0.018658638 2.2569588e-38
0.1698506 0.12742275 0.020112514 2.2568509e-38
0.16608085 0.052122816 0.017140508 2.2843635e-38
0.16654171 0.055212207 0.015419364 2.0903206e-38
0.16637903 0.12578571 0.017493308 2.1181225e-38
0.16616 0.1282244 0.019964874 2.1273808e-38
0.16501886 0.13096465 0.020683169 2.1463583e-38
0.16118655 0.048746005 0.017332971 2.2381965e-38
0.16248138 0.051346719 0.017122686 2.2657469e-38
0.16286653 0.054437272 0.015083611 2.1637892e-38
0.16293639 0.12878935 0.01856339 1.9893008e-38
0.16119412 0.13094491 0.01962477 2.0352221e-38
0.15835845 0.048232965 0.017270446 2.2010632e-38
0.15866756 0.051455349 0.015958488 2.2469464e-38
0.16000101 0.054165028 0.014529765 2.2187491e-38
0.15837887 0.12930526 0.01751554 1.8598683e-38
0.15844339 0.13208286 0.020255148 1.9707521e-38
0.15475896 0.047830276 0.017200947 2.1917002e-38
0.15508877 0.050722323 0.015520096 2.2284344e-38
0.15485916 0.12962605 0.017476261 1.767996e-38
0.15475716 0.13224036 0.020025969 1.9246561e-38
0.15092576 0.04815717 0.016656637 2.154788e-38
0.15094876 0.050132751 0.016235769 2.1823384e-38
0.15133965 0.12930734 0.017411232 1.7126066e-38
0.15074627 0.13207945 0.019890666 1.8509373e-38
0.14706326 0.04749915 0.016739905 2.1272707e-38
0.14848341 0.050331533 0.014205396 2.1548202e-38
0.14781994 0.12962814 0.017371893 1.7221859e-38
0.14708579 0.13222808 0.019244492 1.8510091e-38
0.14573392 0.13546677 0.020577431 1.9338039e-38
0.14303027 0.047877006 0.016599894 2.0625907e-38
0.14328796 0.13220896 0.018297613 1.8510072e-38
0.14322124 0.13608137 0.019563913 1.9890836e-38
0.14257863 0.13864712 0.019657135 2.0809911e-38
0.13893254 0.047941007 0.016525865 1.9981614e-38
0.13760459 0.050334759 0.014044106 2.016743e-38
0.13877819 0.13231403 0.017709255 1.8323533e-38
0.13897839 0.1358293 0.019590974 2.0074525e-38
0.14016202 0.13910836 0.020640731 2.0534425e-38
0.13402642 0.047865264 0.016608894 1.9520268e-38
0.1341193 0.050807774 0.014411628 1.9979798e-38
0.13433266 0.13220654 0.017942309 1.8047306e-38
0.13418186 0.13514239 0.020142794 1.9985202e-38
0.13059007 0.048241206 0.016858876 1.9241874e-38
0.13029757 0.051320821 0.015351355 1.9332635e-38
0.13073543 0.13297829 0.018053293 1.7864368e-38
0.12998575 0.13515027 0.020331144 1.9157261e-38
0.12711887 0.048756115 0.016828001 1.8782703e-38
0.12653089 0.051389769 0.016257584 1.9240454e-38
0.1254448 0.05417528 0.014017582 1.9333704e-38
0.12707353 0.13306135 0.017868876 1.7222603e-38
0.12646423 0.13546805 0.020124912 1.8239245e-38
0.12270811 0.051583305 0.015874922 1.942376e-38
0.12288508 0.05417604 0.013979673 1.9424124e-38
0.12240482 0.13262819 0.017448545 1.3813511e-38
0.12263817 0.13546033 0.019734144 1.3628068e-38
0.11897223 0.051722154 0.016539931 1.9331564e-38
0.11852256 0.054937314 0.014946282 1.9242252e-38
0.11895911 0.13221112 0.017714381 9.8519297e-39
0.11876882 0.13546592 0.019843698 8.6526719e-39
0.1149539 0.055870056 0.016432047 1.8596876e-38
0.11547326 0.058931548 0.01456064 1.8321015e-38
0.11582345 0.12963763 0.016897619 7.3640939e-39
0.11526728 0.13237414 0.017749608 8.1928064e-39
0.11493079 0.13594365 0.019639194 9.9498721e-39
0.1112474 0.056662366 0.016533971 1.8322063e-38
0.11149316 0.059704076 0.015233219 1.8413918e-38
0.10719001 0.05711247 0.016867161 1.6479968e-38
0.10730137 0.059125166 0.015948534 1.6111548e-38
0.10461867 0.057755586 0.016854703 1.473008e-38
0.10308418 0.060537647 0.016317844 1.3992849e-38
0.10185696 0.063908398 0.015058398 1.3623282e-38
0.10176342 0.10403177 0.017331421 9.1071985e-39
0.1011119 0.10662046 0.015757382 1.0672e-38
0.098984838 0.064452842 0.016839325 1.1687956e-38
0.097999193 0.067954883 0.015735269 9.2891038e-39
0.097028218 0.071956024 0.016310036 7.5387769e-39
0.098881163 0.10529919 0.018173575 9.7507532e-39
0.098168522 0.10693344 0.016226709 1.0579454e-38
0.095616229 0.06932041 0.017184377 9.3830903e-39
0.095701516 0.071934201 0.016623139 8.184854e-39
0.094429351 0.075705752 0.015420735 9.3851923e-39
0.094395377 0.079855278 0.015836596 9.0160762e-39
0.094714411 0.082732074 0.016707301 8.0058774e-39
0.0940319 0.10497516 0.018338859 1.0671283e-38
0.094625719 0.10725169 0.016353726 1.1222669e-38
0.091802523 0.075765282 0.017052293 1.1140149e-38
0.091756448 0.079599023 0.017538965 1.0217467e-38
0.091755688 0.082168393 0.017641783 9.4781558e-39
0.089821607 0.10143923 0.018384993 1.1318075e-38
0.090585575 0.10402428 0.017610133 1.1224451e-38
0.091128856 0.10713501 0.015629828 1.1685087e-38
0.086908028 0.10404849 0.016333222 1.2052424e-38
0.08639352 0.10662483 0.015539169 1.2420852e-38
0.08279971 0.10144895 0.017947555 1.2423368e-38
0.082997091 0.10404117 0.016719937 1.2790346e-38
0.083193868 0.10662577 0.015491843 1.2971513e-38
0.078894228 0.10144247 0.018223107 1.3253129e-38
0.079162307 0.10388386 0.016573131 1.362119e-38
0.075176544 0.10452764 0.016414821 1.4817208e-38
0.07078696 0.1044692 0.016722739 1.8503943e-38
0.066810302 0.10370857 0.017383873 1.9056406e-38
0.062615007 0.10480505 0.017115295 1.6013249e-38
0.06174241 0.10704828 0.015857697 1.4631724e-38
0.061073303 0.11301568 0.017421365 1.048802e-38
0.059608728 0.10787161 0.018194556 1.3156625e-38
0.05864276 0.11189301 0.017465413 1.1130133e-38
0.058627658 0.11558243 0.01682055 1.1135516e-38
0.058347464 0.1192434 0.016486466 1.1967778e-38
0.057801642 0.12348481 0.016957998 1.399464e-38
0.055322096 0.11258339 0.018319666 1.1320238e-38
0.05456908 0.11558209 0.017872512 1.0768512e-38
0.054589078 0.11943277 0.017915785 1.1412441e-38
0.055038229 0.1234448 0.018250048 1.316596e-38
0.051571518 0.11590327 0.018396974 1.1138372e-38
0.051249072 0.11943625 0.018533766 1.1414599e-38
0.051891103 0.12200543 0.018646181 1.1785184e-38
0.15054102 0.08456713 0.0044384003 1.5559821e-38
0.15421861 0.085623696 0.0034831762 1.3808814e-38
0.13185872 0.090472929 0.0032498837 1.2979426e-38
0.11188596 0.10717542 0.0069311261 1.0585942e-38
0.085911706 0.12257629 0.0073772073 1.5097396e-38
0.099310398 0.10996878 0.0093110204 1.5930038e-38
0.1386514 0.097674929 0.0086129308 1.7956195e-38
0.16194504 0.045750529 0.020795763 2.0078476e-38
0.16621488 0.043736838 0.021961212 2.118376e-38
0.16625676 0.047580399 0.020364285 2.2107882e-38
0.16630401 0.050359011 0.0184744 2.2939791e-38
0.16756792 0.12969819 0.021671176 2.2470203e-38
0.16623445 0.13231489 0.023615062 2.2565251e-38
0.16618159 0.1345199 0.025847375 2.3023726e-38
0.16257741 0.04710561 0.019164622 2.2197917e-38
0.16255511 0.13245171 0.022457838 2.1273807e-38
0.16199487 0.13525616 0.025064051 2.1642604e-38
0.15714386 0.040477365 0.021946371 1.8787765e-38
0.15847436 0.043173067 0.021073103 2.0999368e-38
0.15888527 0.046341866 0.018703938 2.1828386e-38
0.15984191 0.13356024 0.02171129 2.0258905e-38
0.15828517 0.13605854 0.024790883 2.1179805e-38
0.15457496 0.040210761 0.021397114 1.9524591e-38
0.15462682 0.043258421 0.020240903 2.0904299e-38
0.15471798 0.046073817 0.018130958 2.1640062e-38
0.15460363 0.1361962 0.02385217 2.0534084e-38
0.15452445 0.13883737 0.025847435 2.1638638e-38
0.15068346 0.040516734 0.021518409 1.9248369e-38
0.1507777 0.043319017 0.019630253 2.0445102e-38
0.15085556 0.046074964 0.018073678 2.1273057e-38
0.15211704 0.13356254 0.021596789 1.9612467e-38
0.15072934 0.13619818 0.023794711 2.0350046e-38
0.15063918 0.13883851 0.025789738 2.1550753e-38
0.14678308 0.040480442 0.021792769 1.8417884e-38
0.14690574 0.043320164 0.019572914 1.9891226e-38
0.14764595 0.13593252 0.023427069 1.9705761e-38
0.1428978 0.04048159 0.021735191 1.8695548e-38
0.14300773 0.043273933 0.019958019 1.9983047e-38
0.14377442 0.046077065 0.017968714 2.090429e-38
0.13903458 0.040520191 0.021345854 1.8323558e-38
0.13914752 0.043298766 0.019679308 1.952388e-38
0.13862452 0.046078593 0.017892361 1.9891556e-38
0.13795364 0.1374265 0.021541476 2.0352195e-38
0.13822946 0.13964927 0.023970068 2.0442953e-38
0.13483857 0.04021661 0.021104515 1.795871e-38
0.13499498 0.043395422 0.019932985 1.9153654e-38
0.13540581 0.046079546 0.017844617 1.9336243e-38
0.13477977 0.13694927 0.022676408 2.0078117e-38
0.1351559 0.13946266 0.024751008 2.0446902e-38
0.13213007 0.040090844 0.021226168 1.7588131e-38
0.13089406 0.043193318 0.020553589 1.8693739e-38
0.12989417 0.046350464 0.018274248 1.8968169e-38
0.13079685 0.13703015 0.022420406 1.9892672e-38
0.13088639 0.13938057 0.02494657 2.0262536e-38
0.12646638 0.043675229 0.021190345 1.8874174e-38
0.12611346 0.046882138 0.01888293 1.8597589e-38
0.12629867 0.13977459 0.024215102 1.7684289e-38
0.1247361 0.14272881 0.025561392 1.3253202e-38
0.12217511 0.044370338 0.021583617 1.9241508e-38
0.12235187 0.047162876 0.019696236 1.8965294e-38
0.12252989 0.049943134 0.017808437 1.914898e-38
0.12250391 0.13743109 0.021312535 1.2703247e-38
0.12223579 0.14010821 0.024418473 1.1140934e-38
0.12214591 0.14272958 0.025523007 1.1049072e-38
0.118937 0.045665503 0.021587431 1.9058912e-38
0.11824508 0.048218265 0.02042824 1.8873823e-38
0.11864148 0.13743223 0.021255195 8.4668863e-39
0.11837772 0.14010218 0.02413851 9.8473251e-39
0.11782879 0.14316225 0.025476277 1.2890441e-38
0.11464544 0.048681803 0.021072686 1.8321011e-38
0.1145343 0.052067831 0.018632889 1.8409253e-38
0.11477905 0.13743338 0.021197975 1.1056224e-38
0.11529209 0.13983877 0.023904264 1.2894397e-38
0.11079776 0.049052641 0.021402121 1.8411775e-38
0.11072876 0.052327894 0.019730747 1.8780191e-38
0.10965358 0.055093303 0.017823696 1.8419661e-38
0.10792752 0.049551368 0.021579802 1.7951873e-38
0.10674318 0.052234493 0.020668685 1.7031359e-38
0.10707864 0.055094067 0.017785549 1.6942024e-38
0.10364808 0.053034946 0.021322191 1.5834252e-38
0.10278831 0.056018285 0.020011008 1.5004504e-38
0.10192758 0.058955356 0.01786375 1.4176518e-38
0.10143686 0.10067421 0.023531258 7.727864e-39
0.10167524 0.10330261 0.021638274 8.554752e-39
0.09976355 0.056916796 0.021420002 1.4174738e-38
0.09891165 0.05989204 0.02010864 1.3070171e-38
0.097098105 0.063781485 0.017985463 1.1684371e-38
0.098418154 0.091931149 0.022135437 5.4290689e-39
0.098416246 0.096361101 0.023313582 6.073051e-39
0.098901913 0.10003825 0.023023307 7.3591011e-39
0.098313972 0.1036014 0.020456493 9.1075404e-39
0.095976494 0.060252544 0.021580875 1.3526461e-38
0.094432667 0.063856021 0.021118402 1.2883601e-38
0.094610311 0.067647658 0.01890415 1.0674514e-38
0.093876928 0.072145268 0.018272758 1.0216364e-38
0.09402182 0.084197074 0.02009213 7.8232938e-39
0.094684899 0.087353945 0.021729767 7.1815439e-39
0.094688892 0.090984717 0.022667587 7.1797194e-39
0.094977275 0.096149608 0.023142934 7.1768622e-39
0.094859339 0.1001869 0.022213101 8.5551149e-39
0.094747908 0.10311633 0.020193517 9.8436747e-39
0.091130957 0.065112159 0.021620214 1.5557256e-38
0.091220275 0.067746669 0.021059752 1.3255975e-38
0.0911588 0.071512885 0.020459116 1.2242918e-38
0.089553595 0.075622439 0.0193488 1.1693327e-38
0.089460678 0.079453006 0.020168126 1.0859993e-38
0.090232953 0.083602674 0.02045697 9.6646953e-39
0.090983681 0.087011956 0.021627843 9.0214866e-39
0.091180213 0.091646127 0.022266746 8.5608574e-39
0.091212243 0.096178055 0.022198498 9.0175308e-39
0.090757586 0.099646136 0.021441042 1.0306445e-38
0.087200612 0.067676328 0.021998227 1.6573912e-38
0.087067232 0.071748205 0.021258533 1.4361248e-38
0.086124122 0.07553646 0.020740211 1.3349628e-38
0.086154833 0.079422444 0.020673871 1.2427676e-38
0.086105995 0.083278827 0.021161258 1.1600809e-38
0.086525515 0.087254658 0.021680474 1.0403687e-38
0.086687431 0.091656357 0.021950245 1.0492288e-38
0.08673387 0.096189231 0.021798968 1.1227338e-38
0.08632338 0.099460788 0.020255744 1.1684734e-38
0.083171383 0.067821324 0.021944284 1.6937698e-38
0.082583971 0.071484894 0.021445394 1.5188143e-38
0.082166046 0.075503983 0.021236181 1.3532953e-38
0.082164899 0.07938087 0.021391511 1.2610642e-38
0.082163736 0.083257765 0.021546781 1.1874876e-38
0.082162589 0.087134659 0.021701992 1.1507149e-38
0.082173742 0.091660552 0.021800041 1.1781931e-38
0.082258873 0.096200623 0.021399319 1.1965267e-38
0.082455225 0.099461935 0.020198405 1.2146074e-38
0.079430036 0.06767863 0.02188313 1.5182426e-38
0.07815066 0.071568809 0.021908641 1.4633864e-38
0.078234576 0.075484827 0.02151078 1.3897777e-38
0.078233421 0.079363629 0.02166611 1.3529723e-38
0.078284174 0.083258919 0.021489263 1.3531152e-38
0.078283012 0.087135807 0.021644473 1.3255633e-38
0.078307159 0.09166456 0.021659493 1.2701036e-38
0.078434199 0.09621235 0.021009445 1.260849e-38
0.078587078 0.099463083 0.020141065 1.297511e-38
0.07554321 0.072856583 0.022032857 1.4907243e-38
0.074454762 0.075823516 0.021992624 1.5278552e-38
0.074404597 0.083260067 0.021431744 1.5093461e-38
0.07440345 0.087136962 0.021587014 1.4267271e-38
0.074402109 0.091659993 0.021768272 1.3253852e-38
0.07440076 0.096183039 0.021949351 1.2699967e-38
0.074612364 0.10009103 0.020774484 1.3529364e-38
0.074233815 0.10270755 0.01920557 1.4356949e-38
0.070361674 0.076740727 0.022111595 1.6201943e-38
0.070397839 0.079340972 0.021993816 1.6107604e-38
0.070525028 0.083261222 0.021374226 1.555444e-38
0.070505291 0.087133452 0.021640301 1.435983e-38
0.070504911 0.091454782 0.022521079 1.3622629e-38
0.070410572 0.096163459 0.022556603 1.2609206e-38
0.070556551 0.10006574 0.021825433 1.3805578e-38
0.071015112 0.1027085 0.019157827 1.6018622e-38
0.067339905 0.076310217 0.022049546 1.6571086e-38
0.066532396 0.079348259 0.021825492 1.6477101e-38
0.066587821 0.083245873 0.021648824 1.5464035e-38
0.066492096 0.087100349 0.022357821 1.4358749e-38
0.066354282 0.091448739 0.022641242 1.3532577e-38
0.066470616 0.096154884 0.02283138 1.2795729e-38
0.066697463 0.10006985 0.021657109 1.3713397e-38
0.066508956 0.10270984 0.01909101 1.7214317e-38
0.063885622 0.078683943 0.022093356 1.6294499e-38
0.063452452 0.08364518 0.02228564 1.4818668e-38
0.063451551 0.086664975 0.022406578 1.4266918e-38
0.062586673 0.091626339 0.022592485 1.3255999e-38
0.063016914 0.096587308 0.022797585 1.2886813e-38
0.062760465 0.10006254 0.021932065 1.3898499e-38
0.063290261 0.1027108 0.019043326 1.5743136e-38
0.059994958 0.096803904 0.022761464 1.389851e-38
0.058951713 0.10021318 0.022382021 1.5556942e-38
0.059014529 0.10381039 0.020400226 1.5923572e-38
0.057816863 0.10818042 0.019181252 1.4079661e-38
0.056850582 0.11043223 0.019257128 1.260667e-38
0.05684562 0.12715787 0.019926906 1.3905323e-38
0.055137098 0.10101149 0.022857904 1.6479627e-38
0.054999962 0.10394195 0.021972358 1.611049e-38
0.054978952 0.10766773 0.02137059 1.5188519e-38
0.053866535 0.11145473 0.020054519 1.2057464e-38
0.052984133 0.12394255 0.01974088 1.3352483e-38
0.054201424 0.12718362 0.021390259 1.3718408e-38
0.050928131 0.1006892 0.022782564 1.5926804e-38
0.051078156 0.10393908 0.02213645 1.5465474e-38
0.050958291 0.10795583 0.021572709 1.4358402e-38
0.050396279 0.11158019 0.020608544 1.1690852e-38
0.049639225 0.1153234 0.019345999 1.11398e-38
0.049123034 0.11944064 0.019503236 1.1415684e-38
0.050051183 0.12347087 0.020679474 1.2708559e-38
0.050976411 0.12736571 0.022725761 1.3625128e-38
0.047176212 0.10070589 0.022060275 1.408324e-38
0.047241449 0.10394488 0.021857321 1.3532227e-38
0.047128826 0.10766314 0.021754444 1.2518427e-38
0.046516299 0.11189088 0.02116406 1.1044394e-38
0.046235412 0.11557783 0.020862699 1.0678109e-38
0.046323359 0.11944648 0.020574093 1.141461e-38
0.046689183 0.1233254 0.022125065 1.2151809e-38
0.047781721 0.1259204 0.02324605 1.2796464e-38
0.043158501 0.097456001 0.022537768 1.2518812e-38
0.043225318 0.10069942 0.022335112 1.2794657e-38
0.043103173 0.10407534 0.021801174 1.2517354e-38
0.042714119 0.10782312 0.021945596 1.150358e-38
0.042555302 0.11158309 0.022002816 1.1781602e-38
0.042088047 0.11557709 0.022135675 1.2240786e-38
0.042492256 0.11926844 0.022114813 1.2516277e-38
0.043684632 0.12290436 0.023064554 1.2886859e-38
0.040567338 0.10069227 0.022629023 1.2702104e-38
0.039918929 0.10360441 0.022736013 1.3069462e-38
0.038622588 0.10781095 0.022885263 1.2976184e-38
0.038726926 0.11169735 0.022542119 1.2148952e-38
0.038944155 0.1152525 0.023188114 1.1230613e-38
0.040130079 0.1194583 0.0233742 1.3161647e-38
0.12662636 0.096808203 0.0017300248 1.3809897e-38
0.13357669 0.10013491 0.0048143268 1.3073411e-38
0.10727867 0.072693542 0.0053703785 1.2609545e-38
0.10679915 0.11177301 0.011043608 1.1874528e-38
0.16233456 0.056300972 0.013648987 2.1454939e-38
0.10227297 0.11638544 0.010438263 1.1235614e-38
0.10491499 0.10152508 0.023269475 1.5745303e-38
0.16643891 0.13599928 0.028663099 2.2753985e-38
0.16223432 0.039488867 0.024985015 1.7502045e-38
0.1628851 0.13630347 0.027871788 2.2194698e-38
0.16090438 0.13763246 0.02889657 2.2379447e-38
0.15703167 0.037540525 0.024829865 1.6030861e-38
0.15859924 0.03938242 0.02472657 1.7778276e-38
0.15832052 0.13913363 0.028417945 2.2197195e-38
0.1544303 0.036674701 0.024756551 1.6762684e-38
0.15414658 0.038306549 0.023816764 1.8236018e-38
0.15444121 0.13968079 0.027881861 2.1919884e-38
0.15439916 0.14153412 0.028956354 2.1921319e-38
0.150528 0.036242552 0.02468133 1.712896e-38
0.15057459 0.0383076 0.023763895 1.8144911e-38
0.15053466 0.13968879 0.028024435 2.1826974e-38
0.15114714 0.14153509 0.028908193 2.1460348e-38
0.14636526 0.036763757 0.024640441 1.6208445e-38
0.14700252 0.038633168 0.0237239 1.7405196e-38
0.14634566 0.13841064 0.028511524 2.1272374e-38
0.14272295 0.036894821 0.024591684 1.6947088e-38
0.14274126 0.03888277 0.024338007 1.786796e-38
0.13914582 0.036570914 0.024525642 1.6204862e-38
0.13861215 0.038418099 0.023791015 1.7216496e-38
0.1375549 0.14150301 0.027704298 2.0258933e-38
0.13491803 0.037113793 0.024484634 1.5929347e-38
0.13583027 0.038490228 0.023886085 1.7126443e-38
0.13495709 0.14150378 0.027665794 2.0353995e-38
0.13488664 0.14283982 0.028719187 2.0260011e-38
0.13231629 0.037547864 0.024463475 1.6576173e-38
0.13101509 0.038848169 0.024496257 1.721936e-38
0.13106038 0.14150494 0.027607977 2.0539462e-38
0.13072389 0.14336102 0.028678358 2.0537664e-38
0.12711188 0.041449144 0.02454257 1.8783784e-38
0.12716366 0.14150611 0.02755028 1.8606929e-38
0.12679771 0.1431482 0.028111041 1.7133257e-38
0.12385987 0.041450106 0.02449435 1.9331197e-38
0.12199733 0.042859107 0.023522198 1.933443e-38
0.12302081 0.14454995 0.027944386 1.1693006e-38
0.11806902 0.043905772 0.023839593 1.915113e-38
0.11850366 0.14367202 0.027508557 1.2613867e-38
0.11442792 0.045027666 0.024497747 1.8688731e-38
0.11355331 0.046755634 0.023553073 1.8504328e-38
0.10992762 0.047029808 0.024010599 1.850433e-38
0.10638076 0.048679546 0.023773909 1.7859671e-38
0.10215645 0.051927246 0.023841321 1.6198722e-38
0.10108025 0.093453273 0.026239514 4.2305453e-39
0.10172988 0.0960529 0.02635324 5.610991e-39
0.10208393 0.099634215 0.026251733 7.450938e-39
0.099791408 0.053156443 0.024606228 1.5829952e-38
0.098118037 0.055368204 0.024169505 1.4636071e-38
0.098602019 0.093488321 0.025203228 4.8766294e-39
0.099467307 0.095651411 0.025302649 5.2440078e-39
0.09510757 0.056277614 0.024661779 1.5464015e-38
0.093883663 0.059448037 0.024170101 1.5554758e-38
0.095354944 0.092840284 0.02512908 6.9956757e-39
0.09155076 0.060525037 0.024779201 1.795543e-38
0.090727143 0.062934801 0.024529815 1.721534e-38
0.087210625 0.064266548 0.024113834 1.8506835e-38
0.082661971 0.064592876 0.024059474 1.7677068e-38
0.081724346 0.066235185 0.02386117 1.7119942e-38
0.079024985 0.064887181 0.024434447 1.6568947e-38
0.078940585 0.067534015 0.023871958 1.5551919e-38
0.075072549 0.064862967 0.024708509 1.6660399e-38
0.075106606 0.067478441 0.024591267 1.5922477e-38
0.074417107 0.071156442 0.024150133 1.5370019e-38
0.073928595 0.074025542 0.024057567 1.5373622e-38
0.071355082 0.067835286 0.024772406 1.6753301e-38
0.070957199 0.071513154 0.024613619 1.6293071e-38
0.070402823 0.074582875 0.024027646 1.620231e-38
0.068727188 0.093497187 0.024760425 1.3163805e-38
0.067916937 0.068764821 0.024758637 1.7124237e-38
0.066615373 0.071365021 0.024843514 1.6754377e-38
0.065644316 0.074872695 0.024302244 1.6569662e-38
0.067428291 0.093497567 0.024741113 1.3164881e-38
0.062062137 0.072666287 0.024828017 1.7029183e-38
0.06213969 0.075292543 0.024489522 1.657036e-38
0.061865732 0.079406574 0.024094224 1.6018635e-38
0.061802842 0.082898848 0.024233222 1.4726834e-38
0.061801553 0.087225534 0.024406433 1.3898843e-38
0.06136623 0.095230043 0.024720609 1.3163435e-38
0.05834467 0.075638607 0.024891913 1.6203738e-38
0.058197908 0.079179049 0.024809122 1.5558391e-38
0.058318555 0.083110496 0.024301171 1.4544957e-38
0.058337882 0.087010227 0.024346411 1.3898857e-38
0.057687089 0.09155345 0.024518788 1.3622999e-38
0.057964116 0.095910959 0.024697423 1.454495e-38
0.057035506 0.098692678 0.024795055 1.6017206e-38
0.056842312 0.12856397 0.026989639 1.3627322e-38
0.056841925 0.12986387 0.027041674 1.3165982e-38
0.055557132 0.075917989 0.024861813 1.573954e-38
0.054255351 0.079168156 0.024972677 1.5095593e-38
0.054316476 0.083084166 0.024796784 1.4635708e-38
0.054378048 0.086996369 0.024620771 1.4082891e-38
0.054392472 0.091545053 0.024719834 1.4728633e-38
0.054417565 0.096093841 0.024763346 1.6478557e-38
0.054177776 0.099212728 0.024773538 1.693773e-38
0.0555415 0.12856436 0.026970327 1.3436112e-38
0.054303139 0.13050826 0.026696265 1.3443253e-38
0.051653534 0.079818882 0.024960101 1.5093443e-38
0.050785229 0.083502218 0.025094807 1.481938e-38
0.050371945 0.086973421 0.025116444 1.5005929e-38
0.05043003 0.09153305 0.024994195 1.6203749e-38
0.050541773 0.096098587 0.024594903 1.6203035e-38
0.050540984 0.098694608 0.024698794 1.6384909e-38
0.050434619 0.13050625 0.026471853 1.2981919e-38
0.046819776 0.087155521 0.025182307 1.5743123e-38
0.046529993 0.091534205 0.024936378 1.4913735e-38
0.046645045 0.096099749 0.024537086 1.4177238e-38
0.04664427 0.09869577 0.024640977 1.4269421e-38
0.046364576 0.12763017 0.026224911 1.2886863e-38
0.047085866 0.12986676 0.026897132 1.2703187e-38
0.043195754 0.088270806 0.025173247 1.509953e-38
0.042612672 0.09153235 0.024961591 1.3714829e-38
0.042748436 0.095730044 0.024464488 1.2242925e-38
0.042747557 0.098696917 0.02458328 1.2611358e-38
0.041804999 0.12422846 0.025925636 1.3623352e-38
0.042834863 0.12648562 0.026498437 1.371447e-38
0.039013386 0.092357472 0.025274873 1.325527e-38
0.038710505 0.096081339 0.025085926 1.2702813e-38
0.038418546 0.099803418 0.024849415 1.2425884e-38
0.037875131 0.10389039 0.024719 1.3712302e-38
0.037546739 0.11622155 0.025208116 8.179927e-39
0.037980095 0.11972792 0.025755346 8.4604404e-39
0.039454907 0.12310799 0.026312947 1.3071248e-38
0.03571032 0.10777168 0.025843322 1.0121369e-38
0.035557017 0.11167336 0.025797129 9.5621104e-39
0.036033198 0.11557104 0.026160479 8.8209468e-39
0.036032423 0.11817086 0.026264668 7.8118298e-39
0.1350348 0.070540793 0.0034717321 1.7124631e-38
0.12286806 0.092426166 0.0014987588 1.3902457e-38
0.12906352 0.081384286 0.003605485 1.5098472e-38
0.1074269 0.084114045 0.0044955611 1.0861403e-38
0.074831091 0.11623168 0.004242003 2.1638607e-38
0.1127868 0.10647781 0.010790527 1.5191751e-38
0.13488862 0.11810827 0.0097121596 1.3625534e-38
0.063195184 0.097754173 0.019325018 1.1961676e-38
0.05043003 0.09153305 0.024994195 1.6203749e-38
0.16584465 0.13866019 0.032156885 2.2484236e-38
0.16211709 0.029229276 0.028576016 7.2773325e-39
0.16214323 0.03195411 0.027795851 7.4581126e-39
0.16218524 0.036041066 0.026514351 1.0680321e-38
0.16231142 0.13915691 0.030855119 2.2658904e-38
0.16142949 0.14167646 0.033069909 2.2756867e-38
0.15821068 0.031913608 0.028069496 7.9187474e-39
0.15843318 0.035869449 0.026535273 1.2430229e-38
0.15956891 0.14026688 0.029983163 2.2934044e-38
0.15793389 0.14216402 0.032036781 2.2384108e-38
0.15428418 0.031901017 0.028122067 1.0222879e-38
0.15471494 0.035146892 0.02570045 1.4368116e-38
0.15431556 0.14356288 0.031038225 2.2013522e-38
0.15036689 0.031915933 0.027953267 1.2800416e-38
0.15048121 0.034822702 0.025624692 1.5749251e-38
0.15022244 0.14327943 0.030823112 2.118484e-38
0.14645045 0.031930842 0.027784586 1.3353241e-38
0.14657307 0.034823865 0.025566757 1.5382597e-38
0.14654176 0.14027074 0.029790044 2.1642598e-38
0.14647564 0.14292233 0.031118631 2.1552901e-38
0.14703563 0.1456033 0.033013761 2.2196109e-38
0.14256358 0.032166615 0.027152419 1.2801503e-38
0.14266492 0.03482502 0.025508821 1.5107469e-38
0.14286999 0.13999768 0.031226039 2.0994331e-38
0.14267635 0.14259507 0.032256663 2.1366716e-38
0.13878368 0.032121792 0.027469993 1.2336569e-38
0.13875678 0.034826174 0.025450885 1.4642906e-38
0.13876091 0.14311565 0.031790495 2.0720268e-38
0.13553408 0.032764502 0.027989686 1.3624783e-38
0.13453116 0.035252184 0.026206136 1.4825488e-38
0.13481617 0.14417966 0.029772699 2.0628075e-38
0.13460556 0.14560699 0.032829523 2.0999721e-38
0.13101994 0.036107689 0.027789712 1.6481795e-38
0.12963644 0.039385237 0.025498211 1.7493792e-38
0.13221075 0.14418043 0.029734075 2.0630556e-38
0.13040991 0.14590375 0.032028556 2.0450502e-38
0.12752193 0.037200823 0.027381182 1.7401222e-38
0.12694955 0.039271772 0.026454866 1.7951887e-38
0.12765124 0.14418179 0.029666483 1.8788833e-38
0.12679555 0.14624216 0.032238722 1.7406244e-38
0.12303537 0.040359691 0.026440322 1.9424826e-38
0.12263456 0.14652702 0.031187415 1.1507506e-38
0.11968163 0.041120023 0.027421892 1.9703216e-38
0.11907461 0.14618805 0.030787349 1.2429471e-38
0.11435598 0.041011162 0.028339386 1.9332654e-38
0.11444419 0.043078162 0.026221573 1.8964589e-38
0.11512769 0.14359446 0.030958533 1.3812739e-38
0.11628718 0.14691994 0.032610297 1.3810239e-38
0.11102349 0.043785557 0.026899815 1.8871306e-38
0.10751269 0.044635057 0.028132856 1.8321006e-38
0.10603735 0.046849027 0.026781738 1.8043342e-38
0.10238118 0.047996625 0.027726769 1.7582009e-38
0.10150525 0.050361872 0.026521564 1.6658965e-38
0.098652527 0.048860952 0.028420866 1.8044773e-38
0.098034732 0.05146604 0.026889622 1.6844811e-38
0.094364114 0.051734261 0.027471483 1.7491613e-38
0.093807153 0.05501762 0.025592923 1.6203379e-38
0.092741109 0.12796785 0.031501889 1.6296251e-38
0.0905407 0.052505702 0.027946055 1.8228795e-38
0.090369605 0.055549361 0.026897788 1.8227729e-38
0.090114914 0.059141129 0.025703311 1.8781979e-38
0.090124056 0.12862238 0.031489253 1.7949676e-38
0.086875498 0.052787013 0.028403401 1.8779465e-38
0.086282752 0.055441376 0.028056264 1.8596873e-38
0.086484328 0.059481762 0.026775301 1.8873823e-38
0.086379319 0.062960893 0.025800884 1.8782346e-38
0.082337163 0.055802017 0.028170943 1.8136259e-38
0.082603186 0.059501532 0.026496053 1.8228089e-38
0.082992338 0.062701531 0.025740266 1.832028e-38
0.078830972 0.055854887 0.028240263 1.7491243e-38
0.078503624 0.059401393 0.027654529 1.7122832e-38
0.078721702 0.06277965 0.026347339 1.6846253e-38
0.074645936 0.059512414 0.028241217 1.7119603e-38
0.074652091 0.062702134 0.027284801 1.675189e-38
0.070517823 0.060637005 0.028475225 1.7859309e-38
0.070698358 0.063336857 0.027474046 1.7580918e-38
0.07035502 0.066089995 0.025688469 1.7306092e-38
0.066871904 0.064687625 0.026915312 1.7856088e-38
0.066911846 0.067020878 0.02567482 1.7492325e-38
0.06397453 0.064561516 0.028535366 1.7764591e-38
0.062839471 0.067247801 0.027625203 1.730685e-38
0.062928237 0.070518367 0.025755703 1.6937706e-38
0.058817282 0.067581877 0.028150856 1.6845862e-38
0.058592558 0.071287021 0.025922298 1.6385618e-38
0.057325557 0.073904738 0.025808275 1.6110126e-38
0.056657001 0.13183562 0.028118789 1.4551399e-38
0.054876313 0.067856513 0.028198779 1.574242e-38
0.054786727 0.071038067 0.026799679 1.574313e-38
0.05369623 0.075021654 0.025799215 1.5924999e-38
0.054051369 0.13248731 0.028106272 1.4642135e-38
0.054590672 0.13484636 0.028809249 1.4918369e-38
0.052197516 0.068487585 0.028517902 1.5742766e-38
0.051749304 0.071390547 0.02822727 1.5559439e-38
0.05029723 0.075045444 0.028418899 1.5186708e-38
0.050291955 0.07873147 0.026898205 1.5093087e-38
0.049289718 0.082151942 0.026019394 1.4911216e-38
0.050143227 0.13248846 0.028048396 1.3351776e-38
0.050797597 0.13531694 0.029601276 1.2246515e-38
0.050868511 0.13778669 0.03127408 1.2521328e-38
0.048269898 0.07633388 0.028773963 1.4724312e-38
0.047222331 0.079140067 0.02837044 1.5277479e-38
0.046564922 0.083191901 0.026306629 1.4911934e-38
0.044946119 0.086275637 0.026120126 1.5559439e-38
0.046337038 0.13146637 0.028751791 1.2979046e-38
0.047430292 0.13497123 0.03053838 1.215251e-38
0.042834669 0.083066799 0.028337419 1.4726823e-38
0.042095289 0.086542375 0.026374578 1.4636054e-38
0.041898936 0.12826855 0.02825743 1.2794298e-38
0.042764753 0.13123377 0.0300017 1.2330823e-38
0.044327527 0.13386607 0.031019986 1.3808413e-38
0.039762974 0.083527789 0.028935909 1.42655e-38
0.038443625 0.087038219 0.027770162 1.3807374e-38
0.037910238 0.090313345 0.026177526 1.343931e-38
0.037444413 0.12370499 0.027508199 8.8256174e-39
0.038521335 0.127119 0.02894783 9.8364944e-39
0.039966866 0.13125232 0.030850589 8.8281425e-39
0.035182133 0.08810547 0.029051304 1.3165224e-38
0.034443527 0.091629215 0.027088821 1.3623693e-38
0.034375757 0.09602204 0.027020991 1.288614e-38
0.035027221 0.09993045 0.027187288 1.1775505e-38
0.034917697 0.1038305 0.027842283 1.0667368e-38
0.033647954 0.10807194 0.027826548 9.2837397e-39
0.033321187 0.11165582 0.027965307 1.0017332e-38
0.033501223 0.11556721 0.028791845 9.6500026e-39
0.034442008 0.11969696 0.028637707 9.0107079e-39
0.03469646 0.12340149 0.029623866 1.0019102e-38
0.035678372 0.12689075 0.030278683 1.0019494e-38
0.031691939 0.091593236 0.02913928 1.3255607e-38
0.032561779 0.09987396 0.029483855 1.2606686e-38
0.032560617 0.10379653 0.029641032 1.1403862e-38
