# .PCD v0.7 - Point Cloud Data file format
VERSION 0.7
FIELDS x y z rgb
SIZE 4 4 4 4
TYPE F F F F
COUNT 1 1 1 1
WIDTH 985
HEIGHT 1
VIEWPOINT 0 0 0 0 1 0 0
POINTS 985
DATA ascii
0.18644719 0.11156661 0.031600058 1.8974659e-38
0.18084088 0.040031515 0.044765592 2.1732259e-38
0.18209761 0.042854294 0.04407829 2.1179088e-38
0.18277578 0.045860253 0.042117536 2.0623024e-38
0.18434414 0.10875919 0.030011594 1.6942419e-38
0.18398026 0.11150032 0.030933797 1.7585982e-38
0.17775717 0.039948657 0.043932855 2.154678e-38
0.17854734 0.04248146 0.042704523 2.1084377e-38
0.17940867 0.044967681 0.041240931 2.0623742e-38
0.17989543 0.10543507 0.028940439 1.5196422e-38
0.18056709 0.10857617 0.029302061 1.5932195e-38
0.18089657 0.11141746 0.030100942 1.6577193e-38
0.17477292 0.039813139 0.042785883 2.1270189e-38
0.17513798 0.042156056 0.041347146 2.0901069e-38
0.17478859 0.044531383 0.040057361 1.9981258e-38
0.17826681 0.10580751 0.028415024 1.4919479e-38
0.17687424 0.10847733 0.028304636 1.4917695e-38
0.1702245 0.039362974 0.041131437 2.0624824e-38
0.17140251 0.041721843 0.0400545 2.0348607e-38
0.17232899 0.044465289 0.039393187 1.9793992e-38
0.17180204 0.10532164 0.026733279 1.4918061e-38
0.17274904 0.1082016 0.026578367 1.4732938e-38
0.17256323 0.11092117 0.026849091 1.5008782e-38
0.16664594 0.038949937 0.039807081 2.0347154e-38
0.16639578 0.040872134 0.038496852 2.007236e-38
0.16824552 0.10444569 0.025933266 1.5194978e-38
0.16839188 0.10812939 0.025568545 1.5102068e-38
0.16803005 0.11131672 0.026311398 1.5283946e-38
0.16254926 0.039429337 0.039143503 1.9887608e-38
0.16280153 0.041597918 0.037621498 1.9518835e-38
0.16470568 0.1041945 0.025009453 1.4548187e-38
0.16431713 0.10834845 0.025692999 1.4915896e-38
0.15925506 0.039451472 0.038936079 1.9241881e-38
0.15902647 0.041779481 0.037336826 1.8966372e-38
0.15860736 0.044512779 0.035601854 1.8599739e-38
0.1610163 0.10409536 0.024012983 1.4179414e-38
0.16058385 0.10827798 0.024796128 1.4826936e-38
0.15502149 0.042468615 0.037148774 1.8505399e-38
0.1555779 0.045360588 0.035180092 1.8138046e-38
0.15459692 0.047734678 0.033833981 1.7677077e-38
0.15733105 0.1041524 0.022985637 1.3627312e-38
0.1569577 0.10812085 0.023594141 1.4733322e-38
0.15622708 0.11075454 0.023438632 1.5287548e-38
0.15133777 0.042995811 0.036025226 1.8597616e-38
0.15177444 0.045316406 0.034493446 1.8138393e-38
0.15183821 0.047972701 0.033024728 1.7585227e-38
0.15357085 0.10139801 0.022515774 1.3627668e-38
0.15360054 0.10392552 0.022121787 1.3168135e-38
0.15330891 0.10794818 0.022947133 1.4089379e-38
0.14887084 0.042929515 0.035358965 1.8872759e-38
0.14804272 0.045235403 0.033599138 1.8137333e-38
0.14829606 0.048457257 0.031948984 1.7400136e-38
0.14985761 0.10040637 0.021696448 1.353618e-38
0.14964908 0.10402391 0.02183485 1.3535837e-38
0.14934266 0.10681247 0.022351921 1.3628408e-38
0.14433935 0.04602845 0.033261418 1.8044425e-38
0.14414799 0.048717469 0.030840456 1.7309025e-38
0.14282 0.05158031 0.029797494 1.6846983e-38
0.14363244 0.097385071 0.020602047 1.2893008e-38
0.14531156 0.10037249 0.020568073 1.3352888e-38
0.14587866 0.10398149 0.021039605 1.3904611e-38
0.14564222 0.10671305 0.02135253 1.3905696e-38
0.13972008 0.046440698 0.032114983 1.8227035e-38
0.13959949 0.048720211 0.030320644 1.7217911e-38
0.13978748 0.051974498 0.028880775 1.6756576e-38
0.14085707 0.096998356 0.019916713 1.1785192e-38
0.14092854 0.10003934 0.020250976 1.1785921e-38
0.14164704 0.10326608 0.020960391 1.1788426e-38
0.13601966 0.046341263 0.031115651 1.7773572e-38
0.13574705 0.048697107 0.029733717 1.5743475e-38
0.13628329 0.052237086 0.027860999 1.3628027e-38
0.13655248 0.09303274 0.019545853 1.1140194e-38
0.13721162 0.096183442 0.019344032 1.0680628e-38
0.13729957 0.099767022 0.020305574 1.1233079e-38
0.13221359 0.048971504 0.028770626 1.3440742e-38
0.13251323 0.052176796 0.02706939 1.2886852e-38
0.13389039 0.054670021 0.026701152 1.0950783e-38
0.13185155 0.08419206 0.021125793 8.83385e-39
0.13181415 0.087396912 0.020808935 1.0677744e-38
0.13334987 0.091987483 0.019406915 1.2152523e-38
0.1332396 0.096221618 0.019504607 1.1693707e-38
0.12933585 0.049918734 0.028537929 1.3990352e-38
0.12837307 0.052293546 0.027196884 1.3439667e-38
0.1286622 0.055717923 0.025573611 1.2797885e-38
0.12830505 0.05961331 0.024674118 1.2246495e-38
0.12842181 0.063989423 0.023806393 9.6639652e-39
0.12851959 0.068053387 0.022680402 4.8769979e-39
0.12780607 0.070953198 0.02273339 5.4291179e-39
0.13035569 0.088143073 0.020958483 1.0765282e-38
0.12573576 0.05357907 0.026793063 8.64264e-39
0.12530255 0.055821672 0.026212513 8.0912599e-39
0.12559459 0.059837066 0.025467277 8.0116563e-39
0.12602554 0.06444063 0.024639368 5.4258851e-39
0.12612027 0.067991517 0.023935258 4.048668e-39
0.12467316 0.10614958 0.015689492 1.6662876e-38
0.12129226 0.09954647 0.016115665 1.2334808e-38
0.12087244 0.10229035 0.015435696 1.6756252e-38
0.12141734 0.10731446 0.014552772 1.7579463e-38
0.11827174 0.097211055 0.015763462 1.2057115e-38
0.11838126 0.099690102 0.015166402 1.3069455e-38
0.11848158 0.10344946 0.014420986 1.91587e-38
0.1184428 0.1071038 0.012814999 1.9887567e-38
0.11983958 0.10977676 0.013611495 1.500269e-38
0.11487132 0.096806578 0.014909506 1.3622272e-38
0.11429912 0.099652313 0.013878226 1.5369678e-38
0.11444598 0.10315099 0.012606502 1.9615721e-38
0.11470059 0.10637846 0.011014163 2.2653786e-38
0.11025414 0.096995614 0.013598263 1.8321368e-38
0.11014536 0.099242888 0.012577415 2.0348567e-38
0.11041963 0.10285243 0.01079452 2.1456402e-38
0.11069459 0.10648901 0.0096524358 2.3312516e-38
0.11076126 0.10898804 0.0091568828 2.1738672e-38
0.10557064 0.095992558 0.012337446 2.2014249e-38
0.10658276 0.099029146 0.0106408 2.2742797e-38
0.10752007 0.10265785 0.0095654726 2.1636477e-38
0.10736132 0.10657782 0.00871557 2.2943053e-38
0.10670501 0.11040192 0.0088057518 2.2568132e-38
0.10554016 0.11287161 0.00797683 2.3374426e-38
0.10265517 0.095258392 0.010686338 2.1361671e-38
0.10396403 0.10755675 0.0075778961 2.146037e-38
0.10269433 0.11050787 0.0085010529 2.2565636e-38
0.10227123 0.1134792 0.0080084205 2.3307453e-38
0.097202361 0.092887811 0.010845959 2.1725418e-38
0.099172711 0.094400786 0.0093154907 2.1083644e-38
0.10038906 0.11026254 0.0062478185 1.9707584e-38
0.10040802 0.1124557 0.0055904984 2.2564201e-38
0.095352143 0.092838086 0.010346293 2.0620136e-38
0.095533133 0.094144784 0.0082240105 1.8689063e-38
0.096956909 0.1136116 0.0044016838 2.0352898e-38
0.092615992 0.094432674 0.0075018406 1.4352664e-38
0.089604676 0.099054836 0.005368948 1.307016e-38
0.20141466 0.053692974 0.03916657 1.4552812e-38
0.1853219 0.073892497 0.029535234 1.2889021e-38
0.19055542 0.078546129 0.030475616 1.1508242e-38
0.17437041 0.07143148 0.025598168 1.48219e-38
0.16477649 0.077329256 0.022275984 1.3901387e-38
0.15713999 0.093009643 0.020994425 1.289121e-38
0.16230506 0.10013854 0.025868475 1.8695555e-38
0.19147217 0.040981241 0.051730156 2.1924546e-38
0.1926109 0.043247342 0.049815595 2.099684e-38
0.19303876 0.045542218 0.048051655 1.9518821e-38
0.19487467 0.10996809 0.036215246 2.109014e-38
0.19319384 0.11325743 0.037341654 2.2287257e-38
0.18825869 0.040455423 0.050159574 2.2472705e-38
0.18927602 0.042670764 0.04820931 2.2287586e-38
0.19107415 0.11070912 0.034109116 2.0629144e-38
0.19043511 0.11359238 0.035454988 2.1823748e-38
0.18914746 0.11650822 0.035557866 2.1641875e-38
0.18486625 0.040035464 0.049222767 2.2010632e-38
0.1857869 0.04208637 0.046763778 2.2192151e-38
0.18738559 0.11348184 0.033315361 1.998377e-38
0.18654299 0.11683097 0.034350812 2.0443309e-38
0.18129332 0.039145395 0.048377216 2.173155e-38
0.18243816 0.04149469 0.045962512 2.1639344e-38
0.18374601 0.11364778 0.0314852 1.8045166e-38
0.18317066 0.11704841 0.033044338 1.9060743e-38
0.17586093 0.036782272 0.048291266 2.1730797e-38
0.17750347 0.038891517 0.047706008 2.173081e-38
0.17934988 0.041411705 0.045128465 2.1359887e-38
0.17977309 0.11335113 0.030753314 1.6391004e-38
0.17943053 0.1166914 0.032137454 1.7312977e-38
0.17399968 0.036732249 0.04778862 2.1179804e-38
0.17357892 0.038528606 0.046774447 2.1272703e-38
0.17592353 0.11317735 0.030835927 1.5745665e-38
0.17566285 0.11663678 0.031286418 1.6941314e-38
0.17023176 0.038877077 0.044546723 2.1085076e-38
0.17252851 0.11343836 0.028789222 1.5469777e-38
0.17230037 0.1163828 0.030588269 1.6850908e-38
0.16469346 0.036482193 0.04527539 1.9887976e-38
0.16523248 0.037877515 0.0442909 2.0347154e-38
0.16830662 0.11340138 0.027583003 1.5559798e-38
0.16760436 0.11641977 0.029110253 1.6943485e-38
0.16097099 0.036382161 0.044269979 1.942879e-38
0.16154879 0.038014784 0.0423311 1.9703937e-38
0.16357872 0.11284258 0.026885808 1.5563058e-38
0.16342059 0.1161679 0.027480304 1.6759099e-38
0.1572485 0.036282137 0.043264687 1.9058931e-38
0.15745065 0.038283132 0.041851521 1.9150391e-38
0.16004547 0.11256786 0.025880456 1.5378675e-38
0.15954404 0.11620363 0.026933312 1.7127868e-38
0.15429494 0.038822018 0.040266633 1.8781969e-38
0.1546436 0.040747814 0.038456202 1.8690501e-38
0.15655336 0.11280609 0.024768412 1.574709e-38
0.15567769 0.1163496 0.02576226 1.7311529e-38
0.154522 0.11998715 0.025299966 1.8695921e-38
0.15005428 0.039155364 0.040162385 1.8872759e-38
0.15096161 0.041544743 0.03727746 1.8780925e-38
0.15154415 0.10964691 0.023433328 1.4551432e-38
0.15262625 0.11236849 0.023876846 1.5285764e-38
0.15217644 0.11658861 0.024647415 1.6484302e-38
0.15202352 0.11929014 0.024754822 1.8236358e-38
0.14629427 0.039711915 0.039188087 1.8872742e-38
0.14685264 0.041761778 0.036893427 1.9057131e-38
0.14905678 0.10895295 0.022890568 1.4091181e-38
0.14869189 0.1124452 0.023481667 1.5195009e-38
0.14864099 0.11612054 0.023719072 1.6392845e-38
0.14307991 0.039680868 0.038661003 1.8780891e-38
0.14283247 0.042042784 0.037167132 1.887416e-38
0.14332582 0.044519909 0.034561217 1.8228453e-38
0.14534369 0.1085844 0.021942973 1.4274835e-38
0.14459985 0.11263978 0.023488998 1.4459592e-38
0.14509809 0.11532455 0.023661613 1.5474797e-38
0.13909468 0.042186551 0.036650836 1.8229877e-38
0.13981993 0.044797078 0.033890605 1.7584547e-38
0.14124398 0.10529388 0.021489799 1.1604743e-38
0.14116463 0.1084728 0.022224247 1.2156809e-38
0.14160773 0.11178043 0.023076057 1.1418234e-38
0.13556322 0.042651467 0.035344064 1.8139478e-38
0.13558099 0.045042798 0.033225715 1.767887e-38
0.13568476 0.10127731 0.020783842 1.1325266e-38
0.13706268 0.10434682 0.020955205 1.0127801e-38
0.1371472 0.108554 0.022466063 8.1938686e-39
0.13263378 0.043179639 0.035062611 1.667013e-38
0.13137937 0.045713216 0.033534944 1.4823696e-38
0.13075595 0.047631271 0.030457318 1.3715538e-38
0.13261957 0.10047405 0.020574152 1.1787727e-38
0.13241103 0.10476849 0.021278441 1.0587355e-38
0.13242336 0.10832491 0.021608055 6.4414397e-39
0.13393378 0.11992066 0.019110978 7.453805e-39
0.12722826 0.049021997 0.030558705 1.3531866e-38
0.12767419 0.089659862 0.024137437 1.0765283e-38
0.12791151 0.091996811 0.021818817 1.1686871e-38
0.12871546 0.09612567 0.020306885 1.1875941e-38
0.12842435 0.10070374 0.020780563 1.2152193e-38
0.12836237 0.10459205 0.020434022 1.2796796e-38
0.1245212 0.050337784 0.030297399 1.0759552e-38
0.1238656 0.052680336 0.028753817 9.4720069e-39
0.1229032 0.056705512 0.027484477 7.9108287e-39
0.12310579 0.060205229 0.027032197 7.918732e-39
0.12347838 0.064326756 0.027133346 6.6258576e-39
0.12477612 0.069001324 0.025472164 5.0638933e-39
0.1258333 0.071329258 0.024227321 6.1648781e-39
0.12444684 0.092976071 0.022301614 1.1409217e-38
0.1247246 0.09611053 0.020323634 1.1688683e-38
0.12520361 0.10027476 0.018571317 1.3162001e-38
0.12497506 0.10426677 0.018627346 1.6943079e-38
0.12541312 0.10696984 0.018897176 1.4359764e-38
0.12072104 0.056653537 0.028656244 9.657522e-39
0.12094742 0.060371943 0.02760148 9.1078823e-39
0.12001151 0.092918478 0.021355569 1.1593971e-38
0.12116808 0.095910333 0.018944085 1.177978e-38
0.1225971 0.10040303 0.017356634 1.2980509e-38
0.1219213 0.10399076 0.016432583 1.8971779e-38
0.12182966 0.10633998 0.015924275 2.0346753e-38
0.11678207 0.092393629 0.020044863 1.1871995e-38
0.11765194 0.09504997 0.017564595 1.2148942e-38
0.11299741 0.092332952 0.019190431 1.2146794e-38
0.1136668 0.094861917 0.016828001 1.2702818e-38
0.10946447 0.092635058 0.018507183 1.3069828e-38
0.10988578 0.095063068 0.016361475 1.4635336e-38
0.1055567 0.092133023 0.017181039 1.4817914e-38
0.10635644 0.094790451 0.015356779 1.8136981e-38
0.1016964 0.091990806 0.015592456 1.6569287e-38
0.10214609 0.093392842 0.01369071 1.8868802e-38
0.10228232 0.11396717 0.0089686513 2.3397434e-38
0.097701937 0.091798805 0.01455617 2.0161676e-38
0.098641515 0.093174629 0.012241125 2.10815e-38
0.093784213 0.091562502 0.013348997 2.0162762e-38
0.093082607 0.09302526 0.010739863 1.7404804e-38
0.090140432 0.09230762 0.012720168 1.434941e-38
0.090611935 0.093625061 0.010993004 1.3235909e-38
0.1926327 0.063018508 0.033418655 1.1323498e-38
0.18718953 0.069687925 0.030037999 1.2151818e-38
0.18409719 0.07957568 0.027073979 1.2890822e-38
0.1864236 0.087736361 0.025331914 1.3256733e-38
0.16825947 0.091057055 0.02197361 1.3719153e-38
0.13922209 0.096293785 0.021688223 1.279719e-38
0.18955579 0.052885711 0.044065356 1.7406609e-38
0.19402313 0.11499851 0.038974583 2.2661057e-38
0.19310373 0.11896331 0.040255725 2.2576067e-38
0.18676852 0.033435352 0.057272851 1.9707544e-38
0.18722226 0.03640864 0.055376589 2.1733691e-38
0.18817864 0.039104953 0.052688777 2.2197909e-38
0.19132397 0.11558302 0.03740555 2.2469465e-38
0.19000158 0.11854505 0.037621558 2.2287973e-38
0.18921521 0.12161296 0.039461672 2.2562413e-38
0.18168372 0.030125834 0.056552112 1.6672292e-38
0.18292025 0.032817312 0.056075096 1.980227e-38
0.18354201 0.036274306 0.054154992 2.1643648e-38
0.18429846 0.038431101 0.051335037 2.1828395e-38
0.18626937 0.11940985 0.037076056 2.1455309e-38
0.18555987 0.1214202 0.038141429 2.154715e-38
0.17918369 0.030058652 0.055876911 1.7960138e-38
0.17944363 0.032501571 0.054741204 1.980225e-38
0.18002452 0.036056079 0.05240804 2.1273429e-38
0.18272637 0.11913706 0.034305215 2.025748e-38
0.18187749 0.12190854 0.036849916 2.0534432e-38
0.17543364 0.029957883 0.054864168 1.8883887e-38
0.17585991 0.032320298 0.053203404 1.9525303e-38
0.17678061 0.035626814 0.050368607 2.1089026e-38
0.17899838 0.11903689 0.033298433 1.9705741e-38
0.17803669 0.12223355 0.035548329 1.9430951e-38
0.17168358 0.029857114 0.053851485 1.814275e-38
0.17214957 0.032203399 0.052087426 1.9247653e-38
0.17268828 0.035325326 0.049378335 2.0626638e-38
0.17527038 0.11893671 0.032291591 1.8692308e-38
0.17451777 0.12223361 0.034343541 1.9062177e-38
0.17484999 0.12512892 0.03513217 2.053443e-38
0.16793352 0.029756345 0.052838743 1.7866512e-38
0.16837287 0.032119118 0.051181436 1.9339123e-38
0.16898084 0.035671018 0.048856199 2.0626979e-38
0.16938648 0.038030393 0.047307789 2.1452424e-38
0.1711117 0.11817164 0.032007813 1.758704e-38
0.17074102 0.12216406 0.03343451 1.8970348e-38
0.17109993 0.12502816 0.034119368 2.0719914e-38
0.16418347 0.029655576 0.051825941 1.8326414e-38
0.16459554 0.032034807 0.050275266 1.9429872e-38
0.16540569 0.035219148 0.047997415 1.9888692e-38
0.16781437 0.11873635 0.030277967 1.8321752e-38
0.16682701 0.12221704 0.032932401 1.8877793e-38
0.16105841 0.029571608 0.050981939 1.8416786e-38
0.1607109 0.031997792 0.04968226 1.9338051e-38
0.1612235 0.034881234 0.046612203 1.9245125e-38
0.16346505 0.11861948 0.029103339 1.8324975e-38
0.16329812 0.12155219 0.031324565 1.8877427e-38
0.16172478 0.12477624 0.031587422 1.9798311e-38
0.15676838 0.032393165 0.048690677 1.8873835e-38
0.15686074 0.034628518 0.04576391 1.8875623e-38
0.15847746 0.1190489 0.029755414 1.7770723e-38
0.15898073 0.12166136 0.030649304 1.9245838e-38
0.15922475 0.12470906 0.03091228 1.979866e-38
0.15244734 0.032487303 0.047832966 1.8782008e-38
0.15261662 0.035319366 0.045006096 1.8506858e-38
0.15261048 0.037579603 0.042777181 1.8689811e-38
0.15536159 0.11896517 0.028913915 1.8230976e-38
0.15540229 0.1213335 0.029707074 1.9154368e-38
0.14803487 0.033029102 0.046681702 1.8873468e-38
0.14839882 0.035435244 0.045347273 1.8505416e-38
0.14883709 0.037802756 0.043806255 1.8781287e-38
0.14446557 0.035418041 0.044854283 1.8689443e-38
0.14528435 0.03825698 0.042204976 1.8689073e-38
0.14697289 0.11845803 0.025648892 1.676092e-38
0.14719889 0.12073975 0.026651919 1.7592452e-38
0.14126141 0.036654569 0.044069469 1.8596869e-38
0.14105754 0.038566321 0.041958451 1.8320283e-38
0.14351445 0.1175841 0.025328755 1.3172063e-38
0.14317186 0.12151816 0.026321948 1.1601166e-38
0.13779151 0.039154746 0.040635169 1.8227398e-38
0.13717821 0.040949978 0.037831068 1.8505043e-38
0.139938 0.11336108 0.023700833 8.9267505e-39
0.1398252 0.11722048 0.024755955 8.5626595e-39
0.1395033 0.12135533 0.025109351 8.8406981e-39
0.13881443 0.12486424 0.025043964 9.7644593e-39
0.1380761 0.12794822 0.024417758 9.8569968e-39
0.13357633 0.039454944 0.040318191 1.8413925e-38
0.13421206 0.041269645 0.037476659 1.8322437e-38
0.13530295 0.11029258 0.023054481 7.0882609e-39
0.13645554 0.11296926 0.023291707 6.9031368e-39
0.13608819 0.11711923 0.023746848 5.8925988e-39
0.136269 0.12085631 0.022793293 6.8102447e-39
0.13590041 0.12502825 0.023243606 6.9874192e-39
0.13592911 0.12759575 0.022841215 7.7213759e-39
0.12972783 0.040041439 0.039489388 1.6021499e-38
0.13016126 0.042182252 0.037626445 1.5653801e-38
0.12982327 0.044537418 0.035066366 1.482582e-38
0.13215637 0.10955923 0.022761166 5.8907743e-39
0.13216913 0.11328026 0.023691297 6.6297897e-39
0.13323349 0.11644461 0.021521211 6.6269282e-39
0.13432977 0.12035995 0.020716012 6.9953604e-39
0.13439713 0.12288515 0.020215273 8.0058732e-39
0.12698787 0.040078484 0.039431632 1.5461158e-38
0.12647681 0.042912014 0.038003087 1.4543864e-38
0.12666109 0.045818739 0.035517514 1.3992835e-38
0.12666979 0.089242689 0.02500397 1.0305382e-38
0.12609899 0.091119908 0.024460673 1.1040087e-38
0.12964264 0.11194696 0.023269296 7.2712046e-39
0.12271446 0.043771125 0.0374946 1.3527929e-38
0.12267789 0.046414085 0.036487877 1.2977251e-38
0.12276107 0.049243055 0.033738494 1.1595039e-38
0.12136042 0.053141855 0.030964673 9.7493085e-39
0.12171414 0.06639909 0.02833581 6.165227e-39
0.12305784 0.070220284 0.027920425 5.6170755e-39
0.12199122 0.072727732 0.030283093 6.8120327e-39
0.12336874 0.089793853 0.02736479 9.8451292e-39
0.12325978 0.091916971 0.024571657 1.0946463e-38
0.11956602 0.050140254 0.034471154 1.1037557e-38
0.11976141 0.053107567 0.032381535 1.0761686e-38
0.11758828 0.057530053 0.032899916 1.1507124e-38
0.11832041 0.061023913 0.030620873 1.0306051e-38
0.11915559 0.065427504 0.029681027 8.5622938e-39
0.11938459 0.070147149 0.030212879 7.3651813e-39
0.12036878 0.072898678 0.030858278 7.4563119e-39
0.11954799 0.089444049 0.026833117 1.0029124e-38
0.12001657 0.091700368 0.024074912 1.1133001e-38
0.11631376 0.061367311 0.032112002 1.0772775e-38
0.11643237 0.06581255 0.031230628 9.5749995e-39
0.11569393 0.08895307 0.024858534 1.1134405e-38
0.11615765 0.09085276 0.021775782 1.1689398e-38
0.11136636 0.086617492 0.025556028 1.1593591e-38
0.11141312 0.088784985 0.023478389 1.1778676e-38
0.11242968 0.090752579 0.020769 1.1962757e-38
0.10824132 0.086533509 0.024712145 1.196381e-38
0.10762769 0.088709794 0.022568047 1.2331136e-38
0.10846663 0.091150768 0.019594967 1.3158424e-38
0.10384142 0.088634573 0.021657586 1.334388e-38
0.10497367 0.090552233 0.018755376 1.3897407e-38
0.099963784 0.08860936 0.020946503 1.3713719e-38
0.10124564 0.090452053 0.017748594 1.4539898e-38
0.096219212 0.088508718 0.01993531 1.6569275e-38
0.097517669 0.090351872 0.016741812 1.8317366e-38
0.091782957 0.085856192 0.019258201 1.7492703e-38
0.092613697 0.088332675 0.018625379 1.9238282e-38
0.093789697 0.090251707 0.015734971 2.0621929e-38
0.088662505 0.085772358 0.018415511 1.6848773e-38
0.08910495 0.088106327 0.017117381 1.8134463e-38
0.089198112 0.091029532 0.014309585 1.5090222e-38
0.087711096 0.095135115 0.013055503 1.0667746e-38
0.087778479 0.097660311 0.012554824 1.1587563e-38
0.085328579 0.085800283 0.018019557 1.4724301e-38
0.085144937 0.088370807 0.016911685 1.4724649e-38
0.085009128 0.091506742 0.015876889 1.242086e-38
0.084885061 0.096125983 0.015245259 1.131741e-38
0.084534466 0.09934815 0.014486015 1.2885784e-38
0.084109664 0.10212477 0.013797939 1.316271e-38
0.082167149 0.10004652 0.014483154 1.2244716e-38
0.082312703 0.10258537 0.013560534 1.2982267e-38
0.16903019 0.051914282 0.03013742 1.7676371e-38
0.15991399 0.058336258 0.026369095 1.6019364e-38
0.14732137 0.10525309 0.019767761 1.7408411e-38
0.18330736 0.12338647 0.039936304 2.1837058e-38
0.18585363 0.030685522 0.06075865 1.51082e-38
0.18616435 0.031817548 0.05955404 1.7777539e-38
0.18849173 0.12430822 0.041704237 2.2663206e-38
0.18840626 0.12636077 0.041787326 2.239238e-38
0.18207002 0.029946476 0.059867978 1.5566307e-38
0.18365696 0.031750165 0.058876872 1.8327494e-38
0.18477462 0.12416045 0.040534019 2.1917754e-38
0.18440217 0.12676308 0.040601075 2.2381615e-38
0.17838828 0.028641321 0.058698654 1.6212013e-38
0.18112309 0.12460298 0.039084077 2.1363476e-38
0.18098444 0.12670231 0.039319158 2.2102492e-38
0.17464943 0.028398655 0.057612538 1.8142363e-38
0.17861569 0.12453558 0.038406909 1.989047e-38
0.17722028 0.12660119 0.0383026 2.0997223e-38
0.17088559 0.028297514 0.056596041 1.7037839e-38
0.17312573 0.12683392 0.037214339 2.0718479e-38
0.16702062 0.028242759 0.055894554 1.7033895e-38
0.16936049 0.12673277 0.036197603 2.099757e-38
0.16358107 0.02824343 0.054699779 1.7129318e-38
0.1659767 0.12625086 0.035099804 2.0720608e-38
0.15922731 0.028976671 0.053507686 1.7403725e-38
0.16231763 0.12409764 0.034005344 1.933948e-38
0.16256082 0.12619904 0.033851802 1.9982345e-38
0.15675977 0.029379345 0.052304268 1.8049453e-38
0.15544881 0.030992173 0.051258802 1.8691239e-38
0.15981025 0.12403027 0.033328176 1.9522077e-38
0.15876243 0.12717423 0.032815933 1.9797948e-38
0.15195423 0.029774591 0.051603556 1.8229192e-38
0.15198827 0.031050272 0.051350653 1.8690526e-38
0.1547955 0.12389552 0.031973898 1.9614639e-38
0.15496513 0.12579858 0.032052338 1.9708269e-38
0.14944318 0.029707119 0.050925434 1.8503628e-38
0.14807248 0.031586088 0.04955703 1.8873121e-38
0.15040754 0.12377762 0.030788839 1.9339861e-38
0.1520128 0.12602019 0.031827569 1.9524626e-38
0.14387794 0.032189272 0.048352599 1.9149336e-38
0.14601962 0.12365969 0.029603779 1.6855234e-38
0.14571811 0.12521368 0.030258656 1.5844685e-38
0.13979274 0.035503425 0.046368897 1.8413561e-38
0.14185078 0.12550402 0.028710127 9.3931446e-39
0.13614188 0.036679544 0.045825899 1.8133744e-38
0.13559359 0.038095973 0.044326067 1.8043014e-38
0.13920924 0.12665892 0.027110159 1.1417856e-38
0.13210395 0.038164474 0.044407666 1.7861466e-38
0.12899914 0.039355807 0.043307006 1.6387402e-38
0.1241942 0.040418439 0.041235507 1.4914451e-38
0.12409195 0.042085834 0.040688276 1.4540289e-38
0.12460852 0.08640378 0.032421947 8.1866841e-39
0.12530437 0.088971995 0.032085598 9.5688941e-39
0.12212774 0.040445916 0.041189075 1.5094871e-38
0.12105852 0.042697348 0.040079057 1.4082532e-38
0.1207388 0.075356163 0.033098578 6.8109593e-39
0.12104487 0.078234561 0.033119738 6.4428859e-39
0.12211448 0.086974137 0.031617343 8.1870512e-39
0.12216553 0.088887639 0.031237841 9.1072055e-39
0.11846325 0.044171713 0.039413035 1.4363423e-38
0.11811095 0.046931274 0.038537025 1.3988142e-38
0.11652198 0.050129876 0.037388384 1.2978318e-38
0.11660314 0.054133229 0.035794377 1.1869075e-38
0.11796609 0.074858211 0.032701254 7.7325429e-39
0.11793756 0.078211777 0.032268107 7.6399871e-39
0.11693919 0.081098668 0.03139925 7.6338789e-39
0.11817816 0.086390324 0.030652583 8.7402166e-39
0.11965448 0.088820167 0.030559719 8.834552e-39
0.1136283 0.051052943 0.036665499 1.5281788e-38
0.1137979 0.054202735 0.035829544 1.2980808e-38
0.11394227 0.058008492 0.034969151 1.2060289e-38
0.11366776 0.061832674 0.034157515 1.1324176e-38
0.11412945 0.066179551 0.032741249 1.0218585e-38
0.1144951 0.070647798 0.031934977 9.4820794e-39
0.11425796 0.074652843 0.031985879 9.205145e-39
0.11435032 0.078115381 0.031299293 8.6530559e-39
0.11430946 0.082462095 0.030394137 9.1115145e-39
0.11473402 0.08603438 0.02930665 1.0213189e-38
0.11088842 0.054166205 0.035270214 1.4914087e-38
0.11040762 0.05797755 0.034353912 1.3441457e-38
0.11019385 0.061773904 0.03339678 1.2612052e-38
0.11046317 0.066162847 0.032157302 1.196992e-38
0.11047488 0.070680283 0.031525254 1.1416391e-38
0.11142448 0.074258007 0.03128618 1.0308623e-38
0.11054283 0.082360886 0.029376924 1.1134774e-38
0.11103868 0.085246615 0.02821523 1.1409558e-38
0.10713065 0.05831442 0.033381522 1.4359467e-38
0.1063844 0.061693721 0.032481015 1.2980853e-38
0.10677305 0.065811701 0.031741261 1.2428391e-38
0.10787815 0.070657142 0.031049311 1.1507519e-38
0.10558832 0.078881525 0.028726995 1.2057837e-38
0.10692894 0.082104437 0.02843374 1.2053877e-38
0.10723436 0.085340045 0.026795089 1.2054938e-38
0.10286233 0.07859581 0.028034508 1.2426258e-38
0.10316235 0.082003213 0.027416468 1.2610283e-38
0.10344076 0.085731126 0.02625668 1.2792874e-38
0.10015589 0.082177378 0.026552081 1.2886149e-38
0.099542439 0.085704111 0.025540292 1.3621182e-38
0.095369697 0.086016886 0.024325967 1.4727531e-38
0.091135025 0.085764222 0.023064077 1.6289112e-38
0.087222934 0.085243709 0.021652341 1.5367895e-38
0.08241725 0.087582611 0.019494414 1.4725019e-38
0.082587153 0.093951635 0.018231511 1.150072e-38
0.082638144 0.095862322 0.017852664 1.1684387e-38
0.080371112 0.089889161 0.019513667 1.426335e-38
0.080313027 0.092821591 0.018718362 1.205352e-38
0.079811215 0.09661705 0.017740905 1.1132977e-38
0.079403907 0.10002672 0.016316473 1.1414976e-38
0.079433173 0.10440981 0.015634716 1.3533648e-38
0.078732371 0.10684185 0.015575826 1.3995355e-38
0.076566935 0.10091981 0.016196907 1.1139831e-38
0.076441586 0.10327473 0.015678108 1.1877382e-38
0.17421204 0.06798511 0.024500728 1.4637504e-38
0.17264837 0.077450357 0.022534728 1.3442562e-38
0.18227819 0.078156285 0.02744472 1.3257447e-38
0.18670434 0.054341629 0.033392906 1.4174378e-38
0.16952685 0.062087752 0.027418554 1.6478547e-38
0.1926109 0.043247342 0.049815595 2.099684e-38
0.1450901 0.083630197 0.023216963 1.611372e-38
0.17173585 0.075489007 0.025129497 1.427124e-38
0.12709484 0.08789327 0.027554691 1.7033499e-38
0.18451422 0.019021131 0.066665649 5.9851545e-39
0.18484618 0.022112928 0.065181315 6.7230657e-39
0.18531792 0.025776006 0.063148022 7.4559476e-39
0.18553311 0.029184751 0.062036455 1.1603355e-38
0.18776686 0.1285947 0.042843699 2.2488185e-38
0.18063289 0.018960975 0.065960824 5.2468496e-39
0.18166849 0.025615774 0.061705291 8.7470465e-39
0.18205953 0.028498687 0.061220229 1.2981976e-38
0.18473518 0.1287854 0.041334391 2.2483147e-38
0.18390673 0.13094851 0.042776287 2.2486384e-38
0.17812423 0.019534685 0.065151453 5.0592326e-39
0.1772497 0.021923721 0.063244224 8.0109136e-39
0.17789635 0.025514424 0.060686529 1.1327067e-38
0.17796454 0.028069489 0.060179889 1.4554302e-38
0.18065722 0.128995 0.040167451 2.1924555e-38
0.18012358 0.13084686 0.041754484 2.2293676e-38
0.17352349 0.022032954 0.062576711 1.0038849e-38
0.1739938 0.02547171 0.060089827 1.4736872e-38
0.17688511 0.12889361 0.039148748 2.2102126e-38
0.17627618 0.13113725 0.04089886 2.1830917e-38
0.16956869 0.022418641 0.061495662 1.2527059e-38
0.17015278 0.025399581 0.059281111 1.5381173e-38
0.17311299 0.12879226 0.038130045 2.0908964e-38
0.1722624 0.13093039 0.040628314 2.1000073e-38
0.16583696 0.022538282 0.061147511 1.2892243e-38
0.16630892 0.025327794 0.058471501 1.5470866e-38
0.16934088 0.1286909 0.037111223 2.1641492e-38
0.16877414 0.13054189 0.038689435 2.1365263e-38
0.16307229 0.022976868 0.060295403 1.2799705e-38
0.16222186 0.025359519 0.058396161 1.5010259e-38
0.16161871 0.027630262 0.05576545 1.657719e-38
0.16556877 0.12858954 0.03609252 2.1183376e-38
0.16492307 0.13083264 0.037832737 2.1090827e-38
0.1584594 0.025701925 0.05785954 1.5468337e-38
0.15910396 0.027562685 0.055086315 1.6483935e-38
0.16179664 0.12848815 0.035073817 2.0351489e-38
0.16160907 0.13059622 0.03643924 2.0445478e-38
0.15437086 0.025924668 0.057114959 1.6481763e-38
0.15461448 0.028438605 0.054726422 1.7585616e-38
0.15676716 0.12835303 0.033715487 1.9798301e-38
0.15784609 0.12985516 0.034408987 1.9799392e-38
0.15085328 0.026174635 0.056270361 1.7034225e-38
0.15081477 0.028319575 0.055113673 1.7677098e-38
0.15392956 0.12795761 0.033014834 1.9799394e-38
0.15353347 0.13023058 0.034905732 1.979975e-38
0.14738892 0.026402101 0.055268764 1.7678149e-38
0.14703783 0.028629676 0.053524315 1.859653e-38
0.1499247 0.12687007 0.0329808 1.9525683e-38
0.14939573 0.12968591 0.034159482 1.9896251e-38
0.14366311 0.028821997 0.05229032 1.9609589e-38
0.14286037 0.030956067 0.049911916 1.9426992e-38
0.14697993 0.12649426 0.031400502 1.796267e-38
0.14583552 0.12948152 0.033290803 1.6670135e-38
0.14045441 0.029485799 0.051666141 1.9517034e-38
0.13949299 0.03225597 0.049509585 1.8966023e-38
0.13793314 0.034653537 0.047793567 1.8324239e-38
0.14229035 0.12732568 0.029937148 1.0775719e-38
0.14232796 0.12949562 0.032250762 1.123418e-38
0.13553113 0.032276459 0.050396323 1.8689426e-38
0.13543543 0.035224713 0.046987772 1.8227746e-38
0.13940004 0.12978503 0.02933985 1.1513961e-38
0.13220337 0.033328108 0.049395144 1.8871652e-38
0.13150212 0.035818435 0.047050714 1.8042986e-38
0.12928244 0.033608884 0.048796833 1.7861467e-38
0.12731412 0.036793895 0.046964943 1.6935922e-38
0.12748919 0.038603052 0.044631958 1.6384179e-38
0.12381664 0.039163627 0.044879198 1.6013614e-38
0.12405467 0.079600684 0.034725726 4.4127799e-39
0.12490794 0.083325796 0.034194887 6.8091419e-39
0.12528425 0.086442359 0.03365767 8.2796014e-39
0.12055689 0.040177621 0.043455064 1.5739509e-38
0.11927709 0.041811943 0.041180015 1.5096299e-38
0.12194771 0.079118513 0.034244239 5.7967906e-39
0.12162516 0.082726948 0.033413231 6.8091447e-39
0.12169331 0.08528202 0.032906592 7.5434811e-39
0.11623523 0.043474212 0.041586161 1.620158e-38
0.11575758 0.046591438 0.03975606 1.6479571e-38
0.11841354 0.080087386 0.033070982 7.2726297e-39
0.11801448 0.082789503 0.032405376 7.5427426e-39
0.11917859 0.085214429 0.032227457 7.6360425e-39
0.11191013 0.044682048 0.041732013 1.7769623e-38
0.11274385 0.046916343 0.039387345 1.7679935e-38
0.1131947 0.049308233 0.037962258 1.6755464e-38
0.11401275 0.07996913 0.031882465 8.5594295e-39
0.1153042 0.081280462 0.031968772 7.8161416e-39
0.10812145 0.044580244 0.04070878 1.8044774e-38
0.10887977 0.046851888 0.038570642 1.7954728e-38
0.10945669 0.050484397 0.036690176 1.7308642e-38
0.10880452 0.054296754 0.035726488 1.5558021e-38
0.1084038 0.058115847 0.034830689 1.3900645e-38
0.11020654 0.078590237 0.031117141 1.0492643e-38
0.11153209 0.081179105 0.03095001 1.030717e-38
0.10496426 0.044495411 0.039856136 1.7674559e-38
0.10568458 0.050383039 0.035671413 1.6754755e-38
0.10578683 0.054215662 0.034911513 1.5647341e-38
0.10546428 0.057824083 0.034080565 1.4450955e-38
0.10530078 0.067394368 0.032067478 1.2242895e-38
0.10560125 0.070806749 0.031448483 1.1783031e-38
0.10633218 0.07465627 0.030858338 1.1322417e-38
0.10678878 0.078316025 0.030231595 1.1689757e-38
0.1009652 0.047686286 0.037886381 1.6567854e-38
0.10120222 0.050583221 0.03627491 1.6013603e-38
0.10183659 0.054192007 0.034297705 1.5092736e-38
0.10211697 0.057946913 0.033132851 1.4264769e-38
0.10221922 0.061779521 0.032372832 1.334784e-38
0.10233849 0.066250898 0.031486154 1.2610283e-38
0.10236931 0.070767157 0.030800939 1.2518096e-38
0.10256007 0.074554898 0.029839635 1.2334783e-38
0.10305873 0.077547081 0.029361784 1.2242944e-38
0.098121107 0.048158176 0.037216961 1.6660036e-38
0.097349942 0.050858952 0.036297977 1.6107574e-38
0.097613096 0.054285355 0.034289479 1.5369317e-38
0.09807533 0.057965152 0.032720208 1.4631756e-38
0.098177314 0.061803155 0.031959057 1.3989971e-38
0.098566383 0.06614954 0.030467451 1.3898503e-38
0.098685712 0.070620917 0.029580832 1.38074e-38
0.098787934 0.074453555 0.028820932 1.3345702e-38
0.098890215 0.078286149 0.028060913 1.3344265e-38
0.098040909 0.081774034 0.027109623 1.3069824e-38
0.094435155 0.051905803 0.035430491 1.6477797e-38
0.093513787 0.0543207 0.033975005 1.6290193e-38
0.093888938 0.058045425 0.032607496 1.5554068e-38
0.093946368 0.061908744 0.031946242 1.5279621e-38
0.094589889 0.066145293 0.029901206 1.4818654e-38
0.094732523 0.07060837 0.028963923 1.4266939e-38
0.095015824 0.074352168 0.02780211 1.3898507e-38
0.095118105 0.078184791 0.02704221 1.2886159e-38
0.095220327 0.082017399 0.026282251 1.3527571e-38
0.094659835 0.084555589 0.025605798 1.4359096e-38
0.090714931 0.054370277 0.033898413 1.6571475e-38
0.089820266 0.058304898 0.032578349 1.629343e-38
0.089841366 0.061952017 0.031628549 1.5926072e-38
0.090536773 0.066172265 0.029483736 1.5187437e-38
0.090864092 0.070550434 0.028144717 1.4359494e-38
0.091243714 0.07425081 0.026783407 1.3531878e-38
0.091253489 0.078130685 0.026223242 1.3254574e-38
0.09089455 0.082204632 0.026461542 1.33435e-38
0.091516405 0.084471114 0.024756849 1.4634926e-38
0.087063223 0.059401028 0.03185755 1.6752599e-38
0.086633384 0.062210374 0.031161308 1.6017185e-38
0.086408764 0.066230617 0.029215276 1.5188512e-38
0.086715132 0.070626341 0.02792573 1.4267288e-38
0.087097347 0.074332155 0.026563942 1.3622631e-38
0.086779922 0.078380696 0.02670145 1.3164526e-38
0.086649179 0.082343452 0.026438057 1.2700657e-38
0.0874632 0.084516428 0.024335563 1.4264757e-38
0.082270622 0.066290133 0.028943956 1.4820092e-38
0.082366884 0.070791192 0.028103471 1.3715196e-38
0.083124548 0.074645467 0.027460933 1.3530798e-38
0.083788097 0.078546338 0.027017832 1.3164553e-38
0.083146751 0.082888655 0.025948107 1.3163096e-38
0.082656503 0.085470311 0.023872256 1.4448794e-38
0.079140306 0.06651511 0.028211057 1.4728605e-38
0.079350233 0.069878958 0.027577162 1.4083607e-38
0.07883364 0.085916869 0.024004459 1.500377e-38
0.079070479 0.088924013 0.020411134 1.4543882e-38
0.077923894 0.093042217 0.019248307 1.2332964e-38
0.079159796 0.10796934 0.016519189 1.4270507e-38
0.075067699 0.082799785 0.023739874 1.5555507e-38
0.075298667 0.085933186 0.022806644 1.4912297e-38
0.075325072 0.089476086 0.020745873 1.3989621e-38
0.075409174 0.092974626 0.018569171 1.2333322e-38
0.075511426 0.096807264 0.017809153 1.0860334e-38
0.074967951 0.099984221 0.017006099 1.1047623e-38
0.075484902 0.10523225 0.016069353 1.2338712e-38
0.075549304 0.10849827 0.016926229 1.3811676e-38
0.075206518 0.1116535 0.017844558 1.3719848e-38
0.071535021 0.082833074 0.022759438 1.4545296e-38
0.071336687 0.085915975 0.021542132 1.3898508e-38
0.071250677 0.089190803 0.019470215 1.2795039e-38
0.071340293 0.09302824 0.018141747 1.1783393e-38
0.071344167 0.09691792 0.017577946 1.0954661e-38
0.071643859 0.10064679 0.016423702 1.1323817e-38
0.071647763 0.10453772 0.015859663 1.1876649e-38
0.07199201 0.10864343 0.016784489 1.3441454e-38
0.073312193 0.1116026 0.017332971 1.3625849e-38
0.067814648 0.082925431 0.021715105 1.2336218e-38
0.067469716 0.08561153 0.020935655 1.2611005e-38
0.06719625 0.089560576 0.019827724 1.1410317e-38
0.067373395 0.093369715 0.018917024 1.1229499e-38
0.067476004 0.09721633 0.018154323 1.0768114e-38
0.067578614 0.10106296 0.017391503 1.1506779e-38
0.067666799 0.10473148 0.016978681 1.2334755e-38
0.065050185 0.085736148 0.020375252 1.2242941e-38
0.065152884 0.089585565 0.019611955 1.0859997e-38
0.065255582 0.093435012 0.018848658 1.1504289e-38
0.065358281 0.097284429 0.01808542 1.1687231e-38
0.065145254 0.10112535 0.017236769 1.2152516e-38
0.17354313 0.057751432 0.027772129 1.6570382e-38
0.17390281 0.06317059 0.026022494 1.5466196e-38
0.14670786 0.074687101 0.018715084 1.3441144e-38
0.15713999 0.093009643 0.020994425 1.289121e-38
0.14084959 0.068763785 0.021944165 1.0217516e-38
0.14782029 0.089780666 0.022463918 1.5469786e-38
0.1702245 0.039362974 0.041131437 2.0624824e-38
0.13430911 0.11190703 0.02358532 1.5376141e-38
0.15376769 0.02815523 0.057371318 9.2966302e-39
0.17982806 0.017359175 0.068888426 5.2468482e-39
0.18127918 0.13364154 0.046785712 2.2394538e-38
0.17568386 0.015442558 0.069197774 5.2479244e-39
0.17597944 0.018343672 0.06731689 5.1553714e-39
0.17911774 0.13318792 0.044873357 2.2574952e-38
0.1775029 0.13482973 0.045500576 2.2576755e-38
0.17177731 0.015379891 0.068486691 6.2599141e-39
0.17222223 0.018456094 0.066684186 7.364475e-39
0.17125304 0.020900808 0.065091848 9.3931937e-39
0.17550665 0.13289312 0.043233752 2.1740888e-38
0.1749624 0.13476151 0.044814527 2.2203315e-38
0.16925406 0.015956916 0.067672551 7.1818858e-39
0.16836517 0.018607639 0.066353738 8.9339686e-39
0.16861957 0.020874806 0.064723909 1.0866149e-38
0.17170697 0.13279098 0.042207539 2.1091208e-38
0.17091691 0.13490057 0.043406546 2.2103928e-38
0.16489431 0.019063972 0.065832138 9.9448933e-39
0.164307 0.021169946 0.064179718 1.1327102e-38
0.16790728 0.13268891 0.041181386 2.1182678e-38
0.16754058 0.13436306 0.042146087 2.1366359e-38
0.16068181 0.021876708 0.06303525 1.1418572e-38
0.16410759 0.13258681 0.040155232 2.0997924e-38
0.16329779 0.13469583 0.041348875 2.1276311e-38
0.157242 0.022089221 0.061911404 1.2431622e-38
0.15679058 0.024370052 0.060392678 1.491801e-38
0.15967463 0.13246766 0.038958013 2.0354715e-38
0.16003089 0.13406175 0.039785922 2.1092623e-38
0.15330437 0.022461213 0.060705721 1.3993194e-38
0.15362415 0.024284959 0.05953747 1.4825827e-38
0.15650819 0.1323826 0.038102865 1.9707558e-38
0.15622568 0.1339595 0.038758218 2.0813174e-38
0.14913681 0.023154467 0.060648382 1.6022241e-38
0.14945388 0.024743229 0.058716953 1.6573964e-38
0.15270853 0.13228047 0.037076771 1.9799396e-38
0.1523124 0.13395384 0.038033426 2.0719191e-38
0.14583197 0.025240779 0.057898581 1.822987e-38
0.14890884 0.1321784 0.036050558 2.0079199e-38
0.14836389 0.13498819 0.036776543 2.0356516e-38
0.14219539 0.026177876 0.057056069 1.9518469e-38
0.14106153 0.027805246 0.055351436 1.9702153e-38
0.14510915 0.13207629 0.035024405 1.5287578e-38
0.1447704 0.13500705 0.035620749 1.5012443e-38
0.13738561 0.029568434 0.055033267 1.9516318e-38
0.14130944 0.13197416 0.033998191 1.1140897e-38
0.14110857 0.13475591 0.034692645 1.169227e-38
0.13458323 0.030104466 0.054679453 1.9331212e-38
0.13877632 0.13190612 0.033314049 1.2062111e-38
0.13782774 0.134094 0.034365118 1.3074825e-38
0.13156006 0.030420251 0.054310083 1.9055343e-38
0.13043821 0.032043092 0.052609682 1.8871652e-38
0.12670195 0.032803006 0.05202806 1.8320648e-38
0.12652241 0.03520862 0.050350845 1.7490534e-38
0.12281495 0.033383697 0.05111444 1.8502888e-38
0.12317917 0.036264054 0.049344599 1.712319e-38
0.11959609 0.03396783 0.050283372 1.868979e-38
0.11927623 0.036432095 0.048983514 1.7767481e-38
0.11943793 0.039159819 0.047321379 1.6937338e-38
0.11571634 0.036846101 0.04844594 1.7950429e-38
0.11573887 0.040129624 0.046778321 1.6846218e-38
0.11405376 0.042594887 0.045395613 1.7030283e-38
0.11155382 0.040181719 0.046671629 1.7951509e-38
0.11102936 0.043100655 0.044105709 1.7953657e-38
0.10770097 0.040096633 0.045744896 1.8227373e-38
0.10739523 0.043170772 0.043336511 1.7952947e-38
0.10416496 0.040775418 0.044630766 1.7952227e-38
0.10355815 0.043074615 0.042140186 1.7400863e-38
0.099574596 0.043695189 0.041443408 1.6661133e-38
0.099471897 0.046298474 0.040086627 1.6751884e-38
0.095750004 0.04354962 0.04115361 1.7397601e-38
0.095649362 0.047086447 0.039399862 1.6936982e-38
0.094833851 0.050353192 0.037974536 1.6477801e-38
0.091736674 0.044461057 0.040183246 1.794972e-38
0.091758668 0.047249876 0.03894031 1.7579488e-38
0.092052519 0.050805457 0.037379444 1.6845872e-38
0.088339537 0.047915004 0.038536787 1.7396526e-38
0.088009834 0.051033735 0.037246406 1.7213239e-38
0.088259339 0.054677375 0.035273492 1.6662592e-38
0.087423325 0.057226807 0.034518838 1.6661135e-38
0.084381104 0.051476575 0.036801517 1.6938447e-38
0.084587455 0.054681696 0.034848094 1.6571822e-38
0.084069043 0.061958991 0.032621205 1.6202292e-38
0.081370264 0.052285954 0.035981655 1.647928e-38
0.08054778 0.054677203 0.034323215 1.6109407e-38
0.081077248 0.058363385 0.03265363 1.5926448e-38
0.081227839 0.062204145 0.031787813 1.5926425e-38
0.080304623 0.075038873 0.028894007 1.3622989e-38
0.081040889 0.078916527 0.02829957 1.3255642e-38
0.08112675 0.082133703 0.027661562 1.3346765e-38
0.077008426 0.055084117 0.033675373 1.5924291e-38
0.076940864 0.058401249 0.032328367 1.5374355e-38
0.077379942 0.062122516 0.030861676 1.5373612e-38
0.076524764 0.066192828 0.02967149 1.5004105e-38
0.077257752 0.071527801 0.028776348 1.4174721e-38
0.077771485 0.074970804 0.028209984 1.3990342e-38
0.077874482 0.078831427 0.027444422 1.4083967e-38
0.077977479 0.082692079 0.02667892 1.4637137e-38
0.077466279 0.1109693 0.020722926 1.4087206e-38
0.07695961 0.11389204 0.021392345 1.4086853e-38
0.076740742 0.11664589 0.021470666 1.4643221e-38
0.073103011 0.059430979 0.031969547 1.5002676e-38
0.073093444 0.062226616 0.0308339 1.4726819e-38
0.073456794 0.066632502 0.029440582 1.4819372e-38
0.07367444 0.071097173 0.028347373 1.4450928e-38
0.073971778 0.074868716 0.027183831 1.463714e-38
0.074074805 0.078729324 0.026418269 1.4821895e-38
0.074143469 0.081303082 0.025907874 1.5189603e-38
0.07619971 0.11093526 0.020380914 1.3996438e-38
0.074944109 0.11399733 0.020009577 1.3626223e-38
0.070248008 0.063594259 0.030590951 1.5370029e-38
0.069304377 0.066912673 0.029359996 1.4817941e-38
0.069626719 0.071104892 0.027817726 1.5186363e-38
0.069975317 0.07485687 0.026554763 1.4727191e-38
0.070275068 0.078627221 0.025392056 1.454243e-38
0.070035696 0.081514187 0.024732351 1.4175797e-38
0.069866896 0.11076509 0.018670678 1.2887933e-38
0.070761442 0.11363452 0.019384623 1.2979768e-38
0.065613747 0.068306051 0.02834481 1.389923e-38
0.06577155 0.0710245 0.026889324 1.4542789e-38
0.066073507 0.07480032 0.02572614 1.3805224e-38
0.066475421 0.078525119 0.024365902 1.2607063e-38
0.066304505 0.081606828 0.023685098 1.2242228e-38
0.065964222 0.10680237 0.018409967 1.3439657e-38
0.066698104 0.10982224 0.01904875 1.3440034e-38
0.066772431 0.11232861 0.018906236 1.3715891e-38
0.062432706 0.071982168 0.026712239 1.3805588e-38
0.061867058 0.074879847 0.025490403 1.3254553e-38
0.06227234 0.078609101 0.024130285 1.2516982e-38
0.062677652 0.082331307 0.022771537 1.233475e-38
0.062519848 0.08613456 0.021710932 1.2887222e-38
0.062351465 0.089987896 0.020872116 1.2885751e-38
0.062454462 0.093848534 0.020106614 1.3253111e-38
0.062330365 0.097828053 0.019782782 1.2611361e-38
0.062261373 0.10171241 0.019070745 1.1500339e-38
0.063041985 0.10557123 0.019047499 1.2059244e-38
0.059034288 0.079035617 0.024060726 1.2793946e-38
0.059098214 0.082503401 0.022995234 1.2147851e-38
0.059311539 0.09408962 0.020600796 9.8437153e-39
0.059647441 0.097683989 0.020130455 1.0302157e-38
0.059848845 0.10200544 0.019826174 9.7443226e-39
0.17784393 0.083206363 0.023781538 1.3994647e-38
0.17686801 0.074819557 0.025413394 1.4823689e-38
0.18168357 0.063425161 0.028907597 1.6293442e-38
0.1646685 0.072761409 0.02312088 1.4637871e-38
0.15111299 0.063984267 0.027863801 1.5007003e-38
0.13746393 0.080248408 0.017420769 8.9296329e-39
0.11552837 0.10754996 0.014467537 1.7681036e-38
0.13721783 0.11061879 0.023721874 1.2428042e-38
0.15536159 0.11896517 0.028913915 1.8230976e-38
0.1749624 0.13476151 0.044814527 2.2203315e-38
0.11043665 0.068302028 0.035563409 1.2980135e-38
0.074074805 0.078729324 0.026418269 1.4821895e-38
0.18249157 0.13441578 0.049604237 2.2675098e-38
0.18156424 0.13603348 0.050249755 2.2953832e-38
0.17793919 0.13638514 0.048473299 2.2763683e-38
0.17388825 0.13744199 0.047139645 2.2666444e-38
0.17263162 0.1397844 0.047369123 2.2204044e-38
0.1661457 0.017420433 0.068629861 8.3793528e-39
0.17069535 0.13749468 0.045825899 2.2659604e-38
0.16977218 0.14047098 0.046087444 2.2764773e-38
0.16292536 0.018187173 0.068219244 9.5750276e-39
0.16664207 0.13722619 0.044658244 2.1830563e-38
0.16593292 0.1399287 0.045493364 2.2387357e-38
0.15936241 0.015679516 0.069233537 8.8360262e-39
0.15953457 0.018651001 0.067494869 1.0126409e-38
0.16304523 0.13728911 0.043759823 2.1831632e-38
0.16241089 0.13950974 0.044608891 2.3211668e-38
0.15558477 0.019251779 0.066752791 1.1228089e-38
0.15478405 0.020995386 0.064763546 1.2335849e-38
0.15883744 0.13716668 0.043048322 2.2108951e-38
0.15846127 0.13980085 0.043037593 2.2480244e-38
0.15250576 0.019429058 0.066220224 1.2614939e-38
0.15191375 0.021052554 0.065018237 1.3441113e-38
0.15511608 0.13696653 0.04171145 2.2201856e-38
0.15481511 0.13990358 0.042258322 2.2114306e-38
0.14908597 0.02213569 0.062958658 1.5098838e-38
0.15134405 0.1368151 0.040526807 2.2012053e-38
0.15098304 0.14008579 0.041189969 2.1555381e-38
0.15017626 0.14350486 0.040415525 6.2452131e-39
0.14455047 0.023353226 0.061810791 1.7679929e-38
0.14342239 0.024570353 0.060897231 1.8694805e-38
0.14864869 0.13754055 0.040163517 2.2197924e-38
0.14729825 0.13890094 0.039864182 2.2754301e-38
0.14038917 0.023379445 0.061716199 1.8052323e-38
0.14047986 0.024849586 0.060293138 1.9152563e-38
0.14346914 0.13879803 0.038830101 1.6762349e-38
0.13760948 0.023396753 0.061651468 1.850936e-38
0.13655341 0.025899082 0.060375929 1.9979816e-38
0.13704273 0.028327644 0.058718741 1.988439e-38
0.13844267 0.13726628 0.03740716 1.4831535e-38
0.14005302 0.13890895 0.038570642 1.5010217e-38
0.13300577 0.026299737 0.059785843 2.0347858e-38
0.13274483 0.028826527 0.058136702 1.969964e-38
0.13449435 0.13262668 0.037273169 1.2802882e-38
0.13521233 0.13651654 0.037376165 1.5201073e-38
0.13685903 0.13882315 0.037708104 1.9616389e-38
0.12914312 0.029527657 0.057151079 1.9147545e-38
0.13172618 0.13339773 0.037056744 8.2853649e-39
0.13171807 0.1360575 0.036742508 1.6305275e-38
0.13201801 0.13921192 0.036294103 2.2202895e-38
0.12544149 0.030491106 0.056574881 1.92426e-38
0.12415963 0.03196431 0.055125415 1.887597e-38
0.12120858 0.03073895 0.055621624 1.9333723e-38
0.12160814 0.031895742 0.054436326 1.9058931e-38
0.11865339 0.030670293 0.054931581 1.9609951e-38
0.1175701 0.032733239 0.053302407 1.9150405e-38
0.11407262 0.03340178 0.052352011 1.9148978e-38
0.11359534 0.035840765 0.050359368 1.8503252e-38
0.10981414 0.034324221 0.051744163 1.9238659e-38
0.11039174 0.036722027 0.05000025 1.8594729e-38
0.10598135 0.034221224 0.050709009 1.9422678e-38
0.10656631 0.036619239 0.048967123 1.8502885e-38
0.10278738 0.034135394 0.049846411 1.896241e-38
0.10247895 0.036615297 0.048546433 1.8319915e-38
0.1026631 0.039360054 0.046887159 1.7768547e-38
0.099058479 0.037926659 0.048039138 1.7398711e-38
0.098886162 0.040351152 0.046435595 1.7030637e-38
0.094807565 0.040999986 0.045883119 1.7211053e-38
0.091698229 0.041187942 0.045340061 1.8043696e-38
0.091195256 0.042975508 0.043247581 1.7950432e-38
0.087292761 0.043784894 0.042666614 1.7766776e-38
0.08735472 0.046345279 0.040967524 1.7674922e-38
0.083418548 0.044583529 0.042007506 1.6568238e-38
0.082999647 0.050108507 0.038993299 1.7214664e-38
0.079446256 0.044534005 0.041275442 1.6017929e-38
0.079816163 0.047669284 0.040027618 1.7491241e-38
0.080233485 0.050983638 0.038202226 1.6846972e-38
0.07690841 0.045114368 0.040456712 1.6199812e-38
0.076192737 0.047824122 0.039400041 1.7029167e-38
0.076329291 0.051362798 0.037719667 1.6201217e-38
0.075027704 0.053959213 0.037061989 1.5739534e-38
0.076327324 0.11903643 0.025094986 1.519389e-38
0.073179543 0.048905618 0.03864938 1.5648748e-38
0.072403133 0.051638268 0.037722468 1.5097028e-38
0.072400928 0.054998241 0.035992205 1.5094525e-38
0.072031915 0.058068871 0.034686267 1.4999814e-38
0.074561685 0.11917389 0.023311138 1.3903871e-38
0.068752915 0.055673428 0.035861492 1.4632471e-38
0.068622977 0.058805637 0.034300208 1.4540257e-38
0.068196476 0.06267757 0.032505214 1.5093076e-38
0.066853106 0.065195672 0.031440973 1.5371482e-38
0.068199873 0.1156752 0.021431327 1.2795375e-38
0.070518881 0.11829441 0.022236764 1.2428359e-38
0.065024942 0.059463792 0.034054577 1.4173276e-38
0.064732075 0.062661342 0.032831609 1.4818294e-38
0.064328372 0.066522278 0.031001031 1.445133e-38
0.065825999 0.11523851 0.021924376 1.3346744e-38
0.066510618 0.11773076 0.022393644 1.2425887e-38
0.062079489 0.063524596 0.032583952 1.463463e-38
0.060959697 0.066982724 0.030824006 1.417256e-38
0.060647547 0.071172647 0.02850163 1.3713033e-38
0.061953187 0.11055694 0.021643639 1.2422281e-38
