# .PCD v0.7 - Point Cloud Data file format
VERSION 0.7
FIELDS x y z rgb
SIZE 4 4 4 4
TYPE F F F F
COUNT 1 1 1 1
WIDTH 990
HEIGHT 1
VIEWPOINT 0 0 0 0 1 0 0
POINTS 990
DATA ascii
0.14416867 0.14055175 0.038404554 2.3325853e-38
0.14383841 0.14380941 0.039554149 2.341769e-38
0.14971691 0.081629336 0.01319173 1.3348185e-38
0.14899582 0.085198402 0.014448613 1.1048344e-38
0.14864415 0.089691341 0.015086293 8.651974e-39
0.14807296 0.093074501 0.01649648 7.5445391e-39
0.14756441 0.096160382 0.018282831 7.7311024e-39
0.14738888 0.099094331 0.020401895 8.3782738e-39
0.14700529 0.10166138 0.021425188 6.0784348e-39
0.14376611 0.12333897 0.030066013 1.3803093e-38
0.14335144 0.12590253 0.03026253 1.3711219e-38
0.14141458 0.12866421 0.029379964 1.3431062e-38
0.14174542 0.14526986 0.038481414 2.341769e-38
0.14157516 0.14640905 0.038935453 2.341769e-38
0.14641821 0.086741567 0.012991905 9.0150421e-39
0.14500707 0.090071589 0.013102829 8.3724977e-39
0.1447292 0.093448162 0.014238834 1.0401513e-38
0.14477003 0.096561372 0.016507357 1.0590216e-38
0.14462814 0.098721296 0.017767072 7.6406682e-39
0.1408475 0.12716398 0.029518902 1.3709783e-38
0.1389142 0.13003217 0.028376997 1.3157352e-38
0.13646841 0.13102192 0.02722165 1.3985317e-38
0.13524261 0.13278899 0.026837766 1.3805251e-38
0.13294405 0.13293439 0.025603533 1.2696005e-38
0.12979269 0.13563159 0.02329582 1.4079658e-38
0.1271975 0.13807446 0.021822393 1.5738461e-38
0.2093111 0.067043543 0.046402931 9.3924356e-39
0.20418146 0.054325044 0.032913089 9.9427325e-39
0.19826165 0.052253544 0.024920106 9.2037101e-39
0.1985209 0.055217266 0.024376571 1.0584842e-38
0.19194847 0.072919488 0.031124234 1.4729351e-38
0.19517565 0.080169976 0.040124297 1.6203766e-38
0.19840646 0.061980039 0.036712945 1.1602604e-38
0.20478803 0.049308896 0.035252571 1.1232722e-38
0.18948701 0.045182794 0.019175231 1.224293e-38
0.17318851 0.078159034 0.023456752 1.1963828e-38
0.16932738 0.096184999 0.033876926 1.4729701e-38
0.17307025 0.10609552 0.045249224 1.8425452e-38
0.17312098 0.095628262 0.039824128 1.722259e-38
0.17232907 0.095520407 0.038428724 1.9254488e-38
0.21459156 0.023362488 0.04528904 1.1236338e-38
0.21631885 0.026409119 0.045878232 9.9459821e-39
0.21103889 0.073727369 0.064565599 2.2571387e-38
0.20995566 0.07865262 0.06693992 2.2667567e-38
0.20878825 0.082067847 0.067413658 2.2577861e-38
0.21327096 0.022907913 0.042856991 1.0500933e-38
0.21492082 0.026531994 0.043672502 1.0406585e-38
0.20626771 0.08678028 0.067278564 2.2665752e-38
0.20558473 0.091351002 0.06910044 2.267654e-38
0.2106275 0.01954779 0.039766252 9.8569982e-39
0.21147767 0.022810817 0.039137691 9.4878556e-39
0.20027864 0.093829453 0.067884713 2.2383038e-38
0.20803475 0.019840479 0.036675841 8.9346944e-39
0.20948911 0.023136199 0.036717385 9.3967572e-39
0.19828218 0.09537679 0.06550771 2.1087615e-38
0.19690084 0.097517818 0.067099005 2.1736949e-38
0.19463724 0.10000923 0.068336546 2.3031641e-38
0.206269 0.021207511 0.032971382 1.0500574e-38
0.19583461 0.098380446 0.064701438 2.0906118e-38
0.19370598 0.10202745 0.065192223 2.2107175e-38
0.19179156 0.10465828 0.06665054 2.2659988e-38
0.19092554 0.10345644 0.062582493 2.0170677e-38
0.18939787 0.10569808 0.064177543 2.2379803e-38
0.18644458 0.10726446 0.061723888 2.1465727e-38
0.18493158 0.10903192 0.063735574 2.2477011e-38
0.18424881 0.10828593 0.059250921 2.0449803e-38
0.18304044 0.11069429 0.061136544 2.1922419e-38
0.1806792 0.11334775 0.063091695 2.1645813e-38
0.18051931 0.11220664 0.058169186 2.0814997e-38
0.17906043 0.1152657 0.060048461 2.0171418e-38
0.17728925 0.11742264 0.061543256 1.7130033e-38
0.17709923 0.11365868 0.055789977 1.7962662e-38
0.17609525 0.11606103 0.056975663 1.7316919e-38
0.17499557 0.11903434 0.05952543 1.1506084e-38
0.1857124 0.027614087 0.018224299 9.939829e-39
0.17488676 0.11430693 0.05418089 1.6577561e-38
0.17350483 0.11671177 0.054396272 1.3537646e-38
0.17222956 0.11972882 0.056466192 8.7445466e-39
0.1699622 0.12185419 0.058144331 9.3037908e-39
0.18301374 0.02456066 0.016409695 9.9394885e-39
0.18337542 0.028355002 0.017381012 1.1229855e-38
0.17077684 0.11754027 0.052268356 1.0124615e-38
0.16917679 0.12013131 0.054304004 8.0098599e-39
0.16775888 0.12184927 0.056196749 7.4599133e-39
0.18106228 0.030207098 0.016452223 1.2242936e-38
0.17971537 0.03255862 0.017126054 1.3162385e-38
0.17886788 0.036065102 0.017827928 1.3897436e-38
0.1786119 0.039036602 0.017537773 1.4266264e-38
0.16858846 0.11870179 0.050952762 8.2864215e-39
0.1670512 0.121025 0.051306695 7.0861057e-39
0.16664845 0.12363935 0.052720994 6.0737432e-39
0.17543584 0.036646515 0.017054975 1.4541365e-38
0.17583889 0.03977403 0.016711593 1.4633201e-38
0.17520663 0.042948067 0.016606867 1.4818297e-38
0.16543928 0.12089923 0.049338669 6.3445904e-39
0.17134836 0.039687335 0.015139818 1.5003062e-38
0.16056454 0.11616391 0.04300195 1.8883155e-38
0.15997323 0.11861853 0.044499934 2.0448264e-38
0.16748631 0.041493714 0.013326883 1.5187797e-38
0.16860723 0.045026094 0.012745172 1.518851e-38
0.15917581 0.1124756 0.039340973 1.1232038e-38
0.15851265 0.11520682 0.040682942 1.6211678e-38
0.1571269 0.11879385 0.042957693 2.2492099e-38
0.15683812 0.12173805 0.043626726 2.3132753e-38
0.16540581 0.042774051 0.012169719 1.5280347e-38
0.16489008 0.04578501 0.011671245 1.5466169e-38
0.1655829 0.048999697 0.011800706 1.5647336e-38
0.15593529 0.11591387 0.038304448 1.3439695e-38
0.15509993 0.11973262 0.039911985 1.7678936e-38
0.15404433 0.12262523 0.041426241 2.1838874e-38
0.15312073 0.12581834 0.042510033 2.341769e-38
0.16218618 0.046695977 0.010451257 1.5466172e-38
0.16106296 0.04942587 0.011067629 1.5555849e-38
0.16144216 0.053701967 0.010735929 1.5371818e-38
0.15991294 0.05720216 0.010668695 1.4728956e-38
0.15222943 0.10862267 0.031165183 1.0583399e-38
0.1522446 0.11229682 0.033127695 1.288651e-38
0.1524502 0.11634196 0.035455197 1.3620838e-38
0.15289432 0.12095284 0.038293421 1.4077527e-38
0.15221554 0.12358525 0.039329946 1.7213654e-38
0.15063107 0.12687211 0.041050732 2.2304166e-38
0.14994961 0.13017242 0.040585041 2.341769e-38
0.15805891 0.053685129 0.010037422 1.5186723e-38
0.15726686 0.05762285 0.009632647 1.5278176e-38
0.15670609 0.061358988 0.010043144 1.5188167e-38
0.15591004 0.065112948 0.011332035 1.5371122e-38
0.1507712 0.11003104 0.032060742 1.1134098e-38
0.14948744 0.11268151 0.032812059 1.2148937e-38
0.14864662 0.11659637 0.033015609 1.3433552e-38
0.14655679 0.13098848 0.04232955 2.341769e-38
0.14571506 0.13460243 0.040871948 2.3325854e-38
0.14408147 0.13904528 0.041547805 2.341769e-38
0.15423137 0.054341644 0.0084424317 1.50956e-38
0.15331841 0.057432413 0.0088661015 1.5003033e-38
0.15345913 0.06134212 0.0092416108 1.5093768e-38
0.15353745 0.065779388 0.010308921 1.5277483e-38
0.15250477 0.069024444 0.01040113 1.5001623e-38
0.14648068 0.11253318 0.032471687 1.1318442e-38
0.14541674 0.11712289 0.031357437 1.3156973e-38
0.14550185 0.12060976 0.031585813 1.3802667e-38
0.14355266 0.13838916 0.04073292 2.341769e-38
0.14985856 0.062534153 0.0089286566 1.472681e-38
0.14923969 0.06562233 0.010020614 1.4818287e-38
0.14906085 0.069717497 0.010599822 1.4819021e-38
0.14917922 0.073543161 0.011477798 1.463498e-38
0.14889878 0.077053547 0.012434751 1.4359467e-38
0.14871293 0.080242455 0.013005197 1.3440731e-38
0.14542553 0.099188268 0.020728469 8.3786172e-39
0.14192653 0.11843178 0.029666901 1.3526099e-38
0.14221328 0.12139493 0.029919863 1.389417e-38
0.14570278 0.073488623 0.011071622 1.4542076e-38
0.14478958 0.076810807 0.011071116 1.3899571e-38
0.14548972 0.080969483 0.011502743 1.1687608e-38
0.14513099 0.084671855 0.012372553 9.2941275e-39
0.14270622 0.096844196 0.016510248 9.5714234e-39
0.14332908 0.098968446 0.018186927 5.7939165e-39
0.13907847 0.1215356 0.02927801 1.3983129e-38
0.13847169 0.12540665 0.029565513 1.3709424e-38
0.14171171 0.078072995 0.0099805892 1.2978676e-38
0.14104557 0.08086735 0.010300875 9.9369717e-39
0.14194891 0.085533857 0.011016101 9.4770614e-39
0.14132845 0.089355052 0.012218297 1.2151455e-38
0.14070618 0.092468947 0.014098585 1.3349941e-38
0.13964123 0.095898569 0.016174167 8.2785294e-39
0.14148575 0.098719358 0.016427696 5.0541823e-39
0.13435942 0.12887087 0.028142452 1.3616507e-38
0.1386894 0.082495451 0.0096588731 1.0302894e-38
0.13826048 0.085365266 0.010802895 1.3438929e-38
0.13774592 0.088809073 0.01217562 1.4913715e-38
0.13128546 0.13062137 0.026501179 1.2511619e-38
0.13074806 0.13282388 0.025041938 1.2329001e-38
0.12769568 0.13078234 0.025570989 1.2420483e-38
0.12760097 0.13319236 0.024612725 1.3248826e-38
0.12598521 0.13457504 0.022245169 1.5275319e-38
0.20960337 0.05468598 0.038921714 8.3771962e-39
0.19872811 0.070225447 0.032956004 1.3348576e-38
0.19931877 0.072464794 0.032409281 1.3716275e-38
0.18413991 0.076742411 0.024357438 1.3807736e-38
0.21250695 0.059619725 0.043278933 6.996424e-39
0.20214418 0.063723922 0.036205918 1.2151826e-38
0.19622746 0.07800734 0.039805561 1.5928613e-38
0.19414681 0.088383794 0.045106292 1.602081e-38
0.17882222 0.056167096 0.016204536 1.4817218e-38
0.17737943 0.065188825 0.018839866 1.4265836e-38
0.16049862 0.11405547 0.0349558 1.4730428e-38
0.15633729 0.11620638 0.033045292 1.8323924e-38
0.17426538 0.10511827 0.046235502 1.6852003e-38
0.19420552 0.096390545 0.066030264 2.2398865e-38
0.21216518 0.018104404 0.043069303 9.7651754e-39
0.21334463 0.020707905 0.04421562 1.0777534e-38
0.20997894 0.017907351 0.03975901 9.4885871e-39
0.18850255 0.10619104 0.0690718 2.2288709e-38
0.18671703 0.10831985 0.068529487 2.2565981e-38
0.18415213 0.11000907 0.066108733 2.2292629e-38
0.18270969 0.11271842 0.06758073 2.2108601e-38
0.18160555 0.11558744 0.069198966 2.192171e-38
0.18069398 0.11389244 0.065068483 2.1552196e-38
0.17927793 0.11666031 0.066642642 1.9985243e-38
0.17784894 0.11871554 0.067747474 1.6023355e-38
0.17715448 0.11776672 0.064238608 1.6853094e-38
0.17519426 0.1200268 0.065525591 1.2062153e-38
0.17295378 0.12105933 0.062803745 9.8512543e-39
0.17295247 0.12290692 0.065648854 1.2060348e-38
0.17043394 0.12180111 0.060685784 9.6708063e-39
0.1666652 0.12251016 0.057495832 6.9942632e-39
0.17883247 0.023395181 0.017090589 1.0771036e-38
0.17784256 0.027242005 0.017539829 1.1966355e-38
0.17684358 0.030730575 0.017312407 1.3346421e-38
0.17477518 0.028152764 0.016990066 1.3071978e-38
0.17388588 0.031544805 0.017184258 1.3898504e-38
0.17027915 0.032839417 0.015507638 1.4174364e-38
0.17072195 0.036054999 0.015348673 1.4635343e-38
0.16910693 0.038188785 0.014439672 1.491194e-38
0.16824657 0.033741266 0.014191896 1.4451315e-38
0.16668391 0.036586314 0.013911605 1.4361283e-38
0.1658169 0.039252222 0.013535142 1.5095608e-38
0.1632151 0.040809155 0.012064457 1.5004486e-38
0.16259819 0.0437603 0.011650026 1.5375398e-38
0.15942687 0.041961372 0.0107674 1.4819383e-38
0.15963453 0.044501275 0.010623336 1.5095973e-38
0.14535767 0.12976676 0.044929385 2.341769e-38
0.15619397 0.045412421 0.0095051229 1.4819739e-38
0.1563524 0.048692167 0.01018858 1.5094526e-38
0.15574586 0.051631212 0.0097768307 1.5185642e-38
0.14626211 0.10988125 0.033742785 9.4839053e-39
0.14451882 0.13309696 0.043084621 2.341769e-38
0.15281722 0.04936251 0.0088592172 1.4816506e-38
0.1534532 0.052564293 0.0087266266 1.5002324e-38
0.15117764 0.056878477 0.0085280836 1.4635328e-38
0.14357433 0.11201397 0.032501698 1.076635e-38
0.14258799 0.1143629 0.031441689 1.214461e-38
0.15033394 0.053051859 0.0079064965 1.4634238e-38
0.14916298 0.056950331 0.0082232654 1.4358747e-38
0.14873713 0.060757399 0.0087187886 1.4542426e-38
0.14682364 0.065261304 0.0096102953 1.463427e-38
0.14672071 0.067712069 0.010341167 1.472684e-38
0.14620534 0.071161151 0.011716008 1.4818639e-38
0.14015663 0.11376983 0.031851888 1.2513022e-38
0.14023107 0.11571175 0.030555218 1.3064052e-38
0.14605057 0.061624765 0.0093913078 1.45417e-38
0.14451236 0.065146625 0.0093276501 1.454172e-38
0.14412603 0.068509221 0.010387719 1.4725757e-38
0.14332092 0.072200924 0.010746837 1.4358043e-38
0.13743389 0.11788374 0.029716879 1.3707621e-38
0.13555667 0.12065092 0.030006409 1.3891656e-38
0.13556391 0.12338351 0.030026793 1.3800549e-38
0.14059573 0.072936416 0.0093809068 1.3806645e-38
0.14036801 0.076140344 0.0096148849 1.2885403e-38
0.13700897 0.092047274 0.015396059 1.2057749e-38
0.13555866 0.093736738 0.017165542 8.1837792e-39
0.13336957 0.12108818 0.029743195 1.3710867e-38
0.13270804 0.12449494 0.029531002 1.4078563e-38
0.13678128 0.077367693 0.0092018843 1.1499582e-38
0.13645828 0.080923736 0.0093677044 1.1595396e-38
0.1356985 0.084974706 0.010487288 1.3623696e-38
0.13509205 0.088054478 0.012016416 1.3348178e-38
0.13502187 0.091372788 0.014480472 9.9383773e-39
0.13478243 0.094033241 0.015680581 6.4378482e-39
0.12928635 0.12535295 0.028114259 1.3986377e-38
0.12963492 0.12799253 0.027812481 1.2604535e-38
0.13364741 0.081125468 0.0087881088 1.2704603e-38
0.13362461 0.084866971 0.0097957253 1.3349281e-38
0.13278586 0.086891502 0.011086434 1.2243248e-38
0.12622899 0.12870556 0.02676332 1.2695642e-38
0.12483048 0.13190292 0.0250718 1.3798404e-38
0.12349051 0.13004753 0.025775731 1.3614361e-38
0.2121028 0.052283019 0.042473555 9.1158445e-39
0.20665357 0.054201305 0.035895228 1.1231669e-38
0.20161104 0.051978439 0.026363194 9.2044304e-39
0.2181893 0.052226722 0.045116305 8.9328741e-39
0.21838123 0.049503595 0.042801857 5.6163594e-39
0.21704748 0.060397357 0.046663225 9.024002e-39
0.20120049 0.058117807 0.033162862 9.4813788e-39
0.19705001 0.062853307 0.033022106 1.3257088e-38
0.19458371 0.083649516 0.041882187 1.5375436e-38
0.18393761 0.096906871 0.045589685 1.6301717e-38
0.17045462 0.10644519 0.040033251 1.3259253e-38
0.16152978 0.099836737 0.028599769 1.519356e-38
0.15176535 0.12301371 0.032733619 1.2886868e-38
0.14880258 0.12743887 0.03381592 1.3714126e-38
0.15026909 0.081917137 0.014549553 1.1505716e-38
0.17231643 0.12244706 0.069947422 1.3537989e-38
0.16981161 0.12134907 0.064920723 1.1145603e-38
0.1690346 0.122852 0.067698181 1.3444691e-38
0.16702718 0.12157476 0.063300431 9.9506204e-39
0.16618872 0.1229361 0.065435797 1.0681011e-38
0.16354907 0.12143719 0.062310576 7.1775544e-39
0.16242057 0.12308884 0.063625962 6.4443446e-39
0.16118315 0.12588517 0.064017236 8.1888827e-39
0.17465472 0.025239199 0.01820904 1.2056762e-38
0.16054982 0.12372512 0.062312186 6.7176973e-39
0.16020256 0.12604904 0.063238531 8.3754138e-39
0.17161959 0.022865355 0.017320961 1.2058533e-38
0.17150849 0.026674032 0.01762858 1.30709e-38
0.17112124 0.02977702 0.017497241 1.3714469e-38
0.16879088 0.023781925 0.016566277 1.2978699e-38
0.16799471 0.026662827 0.016275465 1.3621921e-38
0.16916895 0.030103266 0.015946954 1.3989981e-38
0.16509649 0.027386397 0.014858484 1.3809565e-38
0.16519096 0.031061113 0.014558524 1.4268006e-38
0.16474569 0.034225792 0.014229476 1.4178328e-38
0.16151953 0.031818449 0.013693392 1.4544225e-38
0.16217279 0.035336524 0.013265461 1.4544245e-38
0.16032243 0.038348377 0.012512088 1.4728629e-38
0.15828487 0.035446942 0.012250423 1.4452761e-38
0.15818092 0.039140284 0.011616111 1.4636078e-38
0.14278406 0.12943195 0.048221946 2.341769e-38
0.15563452 0.035043865 0.010927349 1.3808125e-38
0.15392992 0.039097667 0.010425001 1.4176893e-38
0.15492302 0.04263404 0.010019481 1.4636781e-38
0.14033914 0.13201037 0.048149288 2.341769e-38
0.15074855 0.040014416 0.0092512965 1.3902094e-38
0.15103137 0.043743789 0.0087679923 1.4085056e-38
0.15118873 0.046923488 0.0089986324 1.445061e-38
0.14746803 0.044905573 0.0089502931 1.4176187e-38
0.14757127 0.048564017 0.0083984137 1.4450593e-38
0.14605218 0.051519871 0.0091997385 1.4632808e-38
0.13731709 0.11079049 0.03350687 1.1593943e-38
0.14348441 0.052368879 0.0093932152 1.4448783e-38
0.14284015 0.055886924 0.0096655488 1.4357296e-38
0.14250541 0.059919864 0.0096639395 1.4449851e-38
0.14167088 0.062318683 0.010199755 1.4540998e-38
0.13426802 0.11210215 0.032085299 1.3158767e-38
0.13439459 0.11490516 0.031195939 1.3526113e-38
0.13993484 0.056927294 0.0086781979 1.4266154e-38
0.13945103 0.059731573 0.0091646314 1.444878e-38
0.13913649 0.063552737 0.0094148517 1.4449523e-38
0.13950863 0.067576796 0.010123581 1.4357684e-38
0.13785571 0.070861876 0.0099287629 1.389848e-38
0.13120568 0.11573173 0.030553997 1.3802713e-38
0.13091433 0.11942604 0.030282915 1.3711588e-38
0.13603806 0.063809633 0.0088895261 1.3805581e-38
0.13519412 0.066972911 0.0093442798 1.3990683e-38
0.13452852 0.071798623 0.010359854 1.2792506e-38
0.13339543 0.075982511 0.0097847581 1.1501748e-38
0.13193291 0.08820492 0.013901174 9.662889e-39
0.13101903 0.08894819 0.014924288 7.0724711e-39
0.12813812 0.11667866 0.029963464 1.4447303e-38
0.12746954 0.11956561 0.029828191 1.4263684e-38
0.12691957 0.12276536 0.029245883 1.4629946e-38
0.13188085 0.072434902 0.0097956359 1.1595766e-38
0.13074195 0.07657522 0.0090727806 1.2241104e-38
0.13057846 0.080444396 0.0088278651 1.3071941e-38
0.12993568 0.083845675 0.010304093 1.279322e-38
0.12931985 0.0868752 0.013186008 1.011882e-38
0.1292437 0.089570612 0.01584059 6.0683566e-39
0.12467536 0.12065612 0.029016852 1.4724291e-38
0.12405467 0.12379366 0.028698027 1.4170762e-38
0.12256372 0.12672094 0.027977884 1.3247747e-38
0.12835056 0.078098804 0.0068131089 1.3622261e-38
0.12775531 0.08027336 0.0079199076 1.353041e-38
0.11624354 0.1418916 0.032839417 1.1963472e-38
0.11520672 0.13923249 0.030513465 1.1498569e-38
0.11477262 0.14213736 0.031671435 1.11323e-38
0.20149064 0.062940449 0.031952411 1.233514e-38
0.214616 0.057785004 0.042481422 8.0087612e-39
0.20529389 0.058307648 0.035713017 1.0035277e-38
0.19140077 0.075958967 0.037272096 1.4178684e-38
0.20424181 0.051596761 0.035520732 1.040551e-38
0.17461616 0.050090224 0.013654083 1.5094166e-38
0.15965199 0.096007615 0.021087259 1.6388494e-38
0.16390502 0.12334938 0.06794548 9.4824816e-39
0.16284174 0.12468222 0.069388896 9.5775541e-39
0.16144603 0.12376025 0.065992951 7.7311136e-39
0.16092673 0.12474723 0.066775799 8.0066004e-39
0.16646215 0.021254539 0.016678751 1.2519154e-38
0.16294137 0.02164185 0.015189022 1.1783412e-38
0.15964773 0.025401592 0.014378786 1.3162741e-38
0.1593014 0.028871775 0.014335006 1.4177591e-38
0.1429747 0.12475893 0.053088725 2.341769e-38
0.15629315 0.030065894 0.013174415 1.3717339e-38
0.15588063 0.032644928 0.012742966 1.4084326e-38
0.14261895 0.12586316 0.051924914 2.341769e-38
0.14066094 0.12922671 0.052391052 2.3325854e-38
0.15227932 0.031605035 0.011524498 1.2798269e-38
0.15298122 0.034720331 0.01128453 1.3532971e-38
0.1403743 0.10353765 0.039535224 1.0116351e-38
0.1396026 0.13195571 0.051058948 2.341769e-38
0.13759732 0.13351066 0.05126217 2.3417689e-38
0.15004283 0.032395512 0.010328531 1.2060352e-38
0.14969677 0.035442829 0.0099650025 1.2797196e-38
0.14879084 0.03837508 0.0095244944 1.3624078e-38
0.1383428 0.10483548 0.038020253 9.1965551e-39
0.13463002 0.13493359 0.050402522 2.341769e-38
0.13226181 0.13851671 0.050930798 2.3417687e-38
0.14655918 0.03639695 0.0093762279 1.2702478e-38
0.14607978 0.038891375 0.0094150007 1.3164171e-38
0.14543295 0.043197513 0.0091187358 1.3624078e-38
0.14372456 0.046608001 0.0094199777 1.4174375e-38
0.13530079 0.10617924 0.036218822 9.2004829e-39
0.14221811 0.04322046 0.0082070827 1.3071623e-38
0.14125258 0.047144026 0.0085987747 1.3898157e-38
0.14047897 0.050628722 0.0095082819 1.4357319e-38
0.13972893 0.054093808 0.0098642707 1.435732e-38
0.13284862 0.10669482 0.034566998 9.5703458e-39
0.13159943 0.10933623 0.03307116 1.2425144e-38
0.1385085 0.047590673 0.0071313381 1.3619401e-38
0.13780704 0.050522208 0.008282572 1.4080721e-38
0.13693696 0.054475605 0.0088582039 1.417435e-38
0.13627598 0.058218986 0.0093635321 1.4356587e-38
0.12824786 0.11040068 0.031674266 1.315949e-38
0.12798369 0.11344269 0.030981362 1.3711215e-38
0.13452607 0.055225343 0.0080250204 1.3897774e-38
0.13386965 0.05949834 0.0087076426 1.3805223e-38
0.13314205 0.063053489 0.009042263 1.3713027e-38
0.13257679 0.066652894 0.010828704 1.3805576e-38
0.13165063 0.069648206 0.010985017 1.3437876e-38
0.12549961 0.11123806 0.029915929 1.3620464e-38
0.12508947 0.11448558 0.030235857 1.408033e-38
0.12451047 0.11743213 0.030031979 1.4356237e-38
0.11830157 0.14825803 0.043775499 2.0072726e-38
0.1304155 0.060750335 0.0080454051 1.3988175e-38
0.13104725 0.063686252 0.0082466006 1.4078208e-38
0.1294404 0.067463458 0.009549737 1.3344237e-38
0.1286189 0.070647329 0.010069311 1.2239329e-38
0.12817746 0.073637664 0.010035634 1.2056729e-38
0.12534368 0.087210268 0.016169965 9.1064894e-39
0.12442493 0.087966263 0.017195642 8.3753844e-39
0.12266701 0.11529213 0.029422641 1.3897768e-38
0.12227571 0.11845137 0.030035526 1.4172567e-38
0.11980468 0.12103206 0.030658841 1.4263678e-38
0.11578721 0.14791831 0.041375875 1.6668713e-38
0.11516726 0.14992154 0.041891366 1.5837111e-38
0.12588382 0.071765602 0.0098889172 1.2420859e-38
0.12673563 0.074167877 0.0097619295 1.2610267e-38
0.12470722 0.085041583 0.014457792 1.0765994e-38
0.11970544 0.12391685 0.029230595 1.3801285e-38
0.11495191 0.14289297 0.035101533 1.2703523e-38
0.1145885 0.14492461 0.036815584 1.3254219e-38
0.11339837 0.14808002 0.039352983 1.3717349e-38
0.11319417 0.15025121 0.040324569 1.3718783e-38
0.11277503 0.13597134 0.030943424 1.2328314e-38
0.11211675 0.13895541 0.030797035 1.1315966e-38
0.11193109 0.14225796 0.033533573 1.0766378e-38
0.11178684 0.14519106 0.03512165 1.122949e-38
0.1108247 0.14828143 0.037008464 1.1877006e-38
0.11053228 0.13587889 0.030350268 1.223862e-38
0.10952526 0.1383267 0.030759931 1.168438e-38
0.10942119 0.14191665 0.032093823 1.1224471e-38
0.10876948 0.14536758 0.033588648 1.1136186e-38
0.10869819 0.14815305 0.035242856 1.1231581e-38
0.21278846 0.053636163 0.038225591 7.6410591e-39
0.19269252 0.070226818 0.030727297 1.362443e-38
0.16020244 0.09695366 0.021086216 1.4820099e-38
0.15770108 0.065675944 0.01105845 1.5278559e-38
0.18289077 0.10922253 0.063687861 1.5110005e-38
0.15807199 0.12516871 0.069862604 9.1137019e-39
0.14793468 0.11629418 0.058718204 9.459845e-39
0.14732915 0.11573467 0.056451529 1.6287256e-38
0.14602828 0.11912365 0.057459921 1.9432698e-38
0.15825522 0.020734727 0.015123874 1.0676728e-38
0.14384016 0.12072501 0.054822862 2.3406524e-38
0.14270604 0.12323394 0.05634892 2.3417326e-38
0.15486783 0.022284538 0.014247894 1.0955427e-38
0.15413609 0.025073886 0.014543414 1.2612785e-38
0.1529395 0.028400242 0.013636887 1.3073414e-38
0.13923654 0.12807649 0.056094617 2.3233657e-38
0.13729596 0.13115011 0.055772871 2.3234019e-38
0.15053737 0.026088148 0.012873769 1.1690843e-38
0.15049338 0.028940797 0.012123257 1.2059991e-38
0.1391964 0.10100329 0.040021926 8.9253211e-39
0.1348421 0.13320675 0.055272222 2.3234006e-38
0.13308704 0.13536343 0.05524978 2.2954904e-38
0.1471979 0.030181557 0.010709912 1.1139122e-38
0.14638937 0.033495933 0.010558218 1.1878468e-38
0.13694373 0.1005668 0.038120925 6.8077293e-39
0.13321382 0.13458408 0.05255568 2.341769e-38
0.12975526 0.14019799 0.054634273 2.3325854e-38
0.12918705 0.14338169 0.055103898 2.3417682e-38
0.14363074 0.03402698 0.010127455 1.160008e-38
0.14280766 0.038095623 0.0098367035 1.2613144e-38
0.13393185 0.0970788 0.034728259 5.8868128e-39
0.13387889 0.10036361 0.03606534 6.4425201e-39
0.13398612 0.1035887 0.036794305 8.1874226e-39
0.12928176 0.1415287 0.052769005 2.341769e-38
0.12893134 0.14387365 0.053703725 2.341769e-38
0.14086041 0.038601339 0.0088646412 1.2060689e-38
0.13005453 0.09348309 0.030833542 6.1616439e-39
0.13125053 0.097240627 0.032447219 6.9024053e-39
0.13084596 0.10082793 0.033754081 7.5463594e-39
0.13057104 0.10492149 0.034486741 9.4781586e-39
0.13832414 0.042274415 0.0080958605 1.2609214e-38
0.13779855 0.045791805 0.0094979405 1.3806674e-38
0.13511878 0.050812393 0.0097959042 1.4173629e-38
0.12906203 0.093648911 0.030045509 5.7010329e-39
0.12821978 0.097317517 0.029812753 7.6389137e-39
0.12775123 0.10126007 0.031490684 8.7438306e-39
0.12762827 0.10562506 0.032740831 1.0858575e-38
0.13284224 0.050377011 0.0089908242 1.3987795e-38
0.13089359 0.054365128 0.0093865395 1.3438601e-38
0.13118672 0.05775702 0.01000914 1.371302e-38
0.12549284 0.095862359 0.025198102 9.2987798e-39
0.12539229 0.097646862 0.027491629 9.2962855e-39
0.12477833 0.10175687 0.029129952 1.0493751e-38
0.12416422 0.10586664 0.030768186 1.1873435e-38
0.12298331 0.10942847 0.030179828 1.3529691e-38
0.11790371 0.14720783 0.046455801 2.090644e-38
0.11677527 0.14917286 0.047630191 1.6842306e-38
0.11633033 0.15182698 0.048235297 1.7311173e-38
0.12972704 0.055706143 0.0090681016 1.3437882e-38
0.12946385 0.05746749 0.0097701848 1.3896329e-38
0.12665325 0.062802047 0.0094015598 1.3897396e-38
0.1262902 0.065054536 0.010036677 1.3346027e-38
0.12315011 0.088724524 0.019917667 8.5547267e-39
0.12305748 0.091256291 0.022245467 1.0214956e-38
0.12269789 0.094487876 0.023915827 1.0584131e-38
0.12208852 0.097969085 0.025384188 1.1416053e-38
0.1212464 0.10196275 0.027198136 1.1967072e-38
0.12077647 0.10615152 0.028726399 1.2427312e-38
0.12000591 0.11021882 0.02876845 1.2887553e-38
0.11931741 0.1136657 0.029807031 1.3530432e-38
0.11881214 0.11732757 0.030688405 1.380523e-38
0.11531043 0.14786449 0.043797374 1.9062527e-38
0.11454731 0.1502859 0.04512611 1.5650908e-38
0.11348695 0.15301672 0.046516031 1.5193539e-38
0.12396991 0.062967896 0.0092740655 1.3530048e-38
0.12388229 0.065986276 0.0097213984 1.2977257e-38
0.12273926 0.069324672 0.010124534 1.2977616e-38
0.12190726 0.072469056 0.011058211 1.3346754e-38
0.1211381 0.085174382 0.016401798 1.1041855e-38
0.12002236 0.087848365 0.018168479 1.0861788e-38
0.12053132 0.090296805 0.020736933 1.1415294e-38
0.12004215 0.09572944 0.02318716 1.2978344e-38
0.11969072 0.09808135 0.024124622 1.3254577e-38
0.11904639 0.10239327 0.025843412 1.2610283e-38
0.11807126 0.1067605 0.027299434 1.2977621e-38
0.11636615 0.11038136 0.026917696 1.3162731e-38
0.11589962 0.11401206 0.028511733 1.3346746e-38
0.11531246 0.117432 0.029728055 1.3437875e-38
0.11483037 0.12090057 0.030863374 1.3896709e-38
0.1143617 0.12515907 0.030914515 1.3984586e-38
0.11118931 0.1508168 0.042264104 1.3904593e-38
0.11004251 0.15330407 0.043946981 1.3902445e-38
0.11378801 0.11168048 0.02612862 1.307266e-38
0.11326081 0.1152084 0.027534783 1.4174341e-38
0.11229438 0.12167627 0.030112982 1.4540285e-38
0.111121 0.12490264 0.030788928 1.4080379e-38
0.1098392 0.12839289 0.031509012 1.4266566e-38
0.11032867 0.13237727 0.032140821 1.3436105e-38
0.10788924 0.14910454 0.037904382 1.1693682e-38
0.10801727 0.15107495 0.04001981 1.2062499e-38
0.10763776 0.15283966 0.042534828 1.2155062e-38
0.10870194 0.12628971 0.029389322 1.3621187e-38
0.10791844 0.12894318 0.030105352 1.3528627e-38
0.10716408 0.13299508 0.03067553 1.2699225e-38
0.10657978 0.13737287 0.03124249 1.2056385e-38
0.10614717 0.14139327 0.032275707 1.168797e-38
0.10562158 0.14491069 0.033677697 1.104583e-38
0.10566753 0.14843205 0.035791576 1.0955419e-38
0.10530668 0.15107229 0.037864804 1.1692999e-38
0.10385638 0.13879655 0.031029224 1.2241139e-38
0.10311127 0.14135569 0.031729162 1.1874148e-38
0.10278279 0.14488092 0.032751143 1.1045082e-38
0.10182685 0.14822723 0.034479976 1.0861442e-38
0.20761722 0.070312083 0.045378387 1.556056e-38
0.18913221 0.085859001 0.038345724 1.4270518e-38
0.17213243 0.07668522 0.020307124 1.399177e-38
0.14949369 0.09850961 0.01777631 1.5648776e-38
0.15101206 0.12331566 0.068987727 1.0221103e-38
0.14971724 0.11404203 0.062326759 5.2418288e-39
0.15001202 0.11733809 0.063115358 6.07376e-39
0.14877859 0.12060404 0.066056132 7.917646e-39
0.14737236 0.12252513 0.067269444 1.0314407e-38
0.14825475 0.11231139 0.058323383 1.0561445e-38
0.14801982 0.11413929 0.060162306 6.7065388e-39
0.14755923 0.1179563 0.061342001 7.6277804e-39
0.14585644 0.12089458 0.063790381 9.3783932e-39
0.14460605 0.12344876 0.065317512 1.4262983e-38
0.14570796 0.11962689 0.059956223 1.5471459e-38
0.14373201 0.12183201 0.06065774 2.1287058e-38
0.14166504 0.12511981 0.063177347 2.2390185e-38
0.14058667 0.12884952 0.064634681 2.0715189e-38
0.1421982 0.12365833 0.058996826 2.3417683e-38
0.13969329 0.12624457 0.060310781 2.3134971e-38
0.1384798 0.13008748 0.062474668 2.1456368e-38
0.13714969 0.13230747 0.063435256 1.9793977e-38
0.1386005 0.12827864 0.058272153 2.2863796e-38
0.13673019 0.13125773 0.059278101 2.2667139e-38
0.13456386 0.13373846 0.061193943 2.0436428e-38
0.14971936 0.020695984 0.013269424 8.2821069e-39
0.14973199 0.023620218 0.013293892 1.122948e-38
0.13500279 0.13289896 0.05754742 2.3325783e-38
0.13294432 0.13516819 0.058549076 2.2107843e-38
0.13121101 0.13807327 0.06022644 2.0062581e-38
0.12959969 0.14048976 0.06111145 1.720204e-38
0.14618105 0.020836085 0.012271225 7.7300107e-39
0.1454407 0.023893863 0.012342632 9.5710773e-39
0.14587158 0.027733684 0.011350691 1.0493762e-38
0.13149306 0.13693041 0.056588054 2.3230753e-38
0.13015819 0.13914829 0.057543397 2.3042389e-38
0.12835759 0.14178783 0.058693916 2.2484159e-38
0.14265561 0.024885535 0.011307538 9.1093873e-39
0.14176607 0.02803272 0.011473954 9.9420178e-39
0.14035109 0.031455547 0.011323094 1.086324e-38
0.13922739 0.030456692 0.011236757 1.0218952e-38
0.13827151 0.033682019 0.010309726 1.095469e-38
0.1376822 0.037140399 0.0091120601 1.1323488e-38
0.13579038 0.033914655 0.010037303 1.0953984e-38
0.13403112 0.03724283 0.0098910332 1.13217e-38
0.11704588 0.14751166 0.053216845 1.8412506e-38
0.11645204 0.15000573 0.054195166 1.6023324e-38
0.11503005 0.15330535 0.0550493 1.6206263e-38
0.12978283 0.051091909 0.0095404387 1.3897051e-38
0.11716408 0.14851129 0.050083339 1.7768921e-38
0.11471111 0.15190879 0.051694065 1.6849836e-38
0.11303324 0.15363899 0.053463757 1.6298442e-38
0.12663865 0.052750587 0.010515988 1.3621917e-38
0.12488168 0.056268752 0.010831296 1.3988524e-38
0.12409511 0.058934301 0.011551261 1.3803418e-38
0.11248446 0.15388653 0.048804104 1.6574316e-38
0.11058056 0.15498731 0.050817609 1.5653804e-38
0.12271324 0.056285143 0.010361582 1.3896682e-38
0.12235975 0.058651149 0.011304617 1.3805559e-38
0.12048668 0.063568354 0.010824412 1.3069813e-38
0.1183663 0.091101408 0.021166623 1.2059947e-38
0.1180011 0.093994498 0.022618294 1.2978325e-38
0.11745286 0.097936809 0.023508072 1.3439325e-38
0.11701244 0.10196579 0.025256604 1.2977267e-38
0.11641604 0.10595697 0.026847541 1.3160941e-38
0.10900575 0.15446785 0.046041667 1.418012e-38
0.10723931 0.15588771 0.04864496 1.4640029e-38
0.11730564 0.066416353 0.010962814 1.4080718e-38
0.11704051 0.068190873 0.011670113 1.3897759e-38
0.11582971 0.083529353 0.016824543 1.2334385e-38
0.1152792 0.087308824 0.018104255 1.2243642e-38
0.11435419 0.090389729 0.019959092 1.2794659e-38
0.1137408 0.093890429 0.021434247 1.3530791e-38
0.11344439 0.098082572 0.022656858 1.3622269e-38
0.11304188 0.10211667 0.024415553 1.3343895e-38
0.11222696 0.10583538 0.025956273 1.3620467e-38
0.11264712 0.10999343 0.025662035 1.3530792e-38
0.11240762 0.11332531 0.027218223 1.325634e-38
0.11165541 0.11727875 0.028651536 1.3623347e-38
0.11092299 0.12055904 0.029745251 1.3989275e-38
0.10579622 0.15394768 0.043889582 1.2980522e-38
0.10434252 0.15588534 0.04626596 1.4364157e-38
0.11318773 0.080945849 0.015035778 1.3346038e-38
0.11239952 0.083615184 0.0157561 1.3437876e-38
0.11205572 0.087080479 0.016812563 1.3531143e-38
0.11133885 0.090713084 0.018585384 1.3717686e-38
0.11034757 0.094252586 0.019588083 1.4541713e-38
0.10993677 0.098035276 0.02108866 1.4175799e-38
0.10926741 0.1025278 0.023024738 1.3896339e-38
0.10856146 0.10599744 0.024082541 1.3895629e-38
0.1092124 0.11012858 0.024615705 1.3897778e-38
0.10834593 0.11350501 0.026280046 1.399105e-38
0.10764772 0.1169662 0.027819037 1.3807753e-38
0.10762578 0.12074874 0.028849244 1.3898161e-38
0.10776401 0.12467542 0.029140413 1.3621566e-38
0.10589135 0.12828973 0.029404938 1.3437867e-38
0.10266417 0.15150838 0.038873851 1.2152202e-38
0.1026026 0.15375757 0.042086154 1.2796125e-38
0.10205132 0.15547408 0.04474318 1.4552507e-38
0.1078946 0.096825182 0.018787503 1.4909799e-38
0.10580456 0.10755551 0.022635013 1.4078571e-38
0.10475928 0.1134775 0.024495184 1.4542073e-38
0.10415119 0.1172241 0.02630493 1.4357698e-38
0.10355926 0.12082332 0.027512342 1.4081469e-38
0.10311151 0.12424985 0.028396487 1.3806324e-38
0.10257012 0.12818035 0.029286057 1.3346395e-38
0.10331666 0.13309002 0.029678583 1.279142e-38
0.10228741 0.13688922 0.03078568 1.2607757e-38
0.10103327 0.13972351 0.03118217 1.2333699e-38
0.099934995 0.15072593 0.038202822 1.2243669e-38
0.099452257 0.15297917 0.040646672 1.2150408e-38
0.10016412 0.12510768 0.026967645 1.3897771e-38
0.09974128 0.1282115 0.027702749 1.3253129e-38
0.099095821 0.13256869 0.029069185 1.2516621e-38
0.098189652 0.13718021 0.029555947 1.2057463e-38
0.098524034 0.14108656 0.030328244 1.1873436e-38
0.097995222 0.14462331 0.031737685 1.1782304e-38
0.097375274 0.14789322 0.033363879 1.2336889e-38
0.096641123 0.14975408 0.035975873 1.2326883e-38
0.097308457 0.1285838 0.026291043 1.2885426e-38
0.096190572 0.13280764 0.027545124 1.1874131e-38
0.094469368 0.13745004 0.027950227 1.1782328e-38
0.094584942 0.14118439 0.028657556 1.2885405e-38
0.093795002 0.14461985 0.030261338 1.2425519e-38
0.093699515 0.14774901 0.032315671 1.2052434e-38
0.094126642 0.14987758 0.034778863 1.1864419e-38
0.091297686 0.1411227 0.027637124 1.3251997e-38
0.090694606 0.14353038 0.028382063 1.3805216e-38
0.19669041 0.072516739 0.037965655 1.2246181e-38
0.19572318 0.053815365 0.027269542 1.12295e-38
0.1872966 0.079720497 0.033030212 1.4637864e-38
0.14241722 0.12924483 0.029828727 1.3342095e-38
0.17929164 0.034311861 0.017477036 1.3529731e-38
0.17340577 0.11952296 0.064417809 1.3172452e-38
0.15964773 0.025401592 0.014378786 1.3162741e-38
0.14038992 0.12791948 0.063070446 1.7877289e-38
0.14691281 0.12401378 0.069806874 1.3074493e-38
0.14390945 0.1252718 0.067105353 1.5926786e-38
0.14297599 0.12770602 0.069869429 1.6941331e-38
0.14172903 0.1258837 0.065505147 2.1745537e-38
0.14066306 0.12918021 0.067133486 2.0628429e-38
0.13907075 0.13191715 0.068751901 1.8966395e-38
0.13664389 0.13328622 0.065353841 1.8412504e-38
0.13500977 0.13594133 0.068041563 1.7676747e-38
0.13440168 0.13927186 0.069728374 1.8138804e-38
0.134305 0.13424772 0.063388973 1.7309017e-38
0.13242441 0.13675417 0.064653635 1.6570024e-38
0.13124999 0.14002225 0.066626698 1.6387439e-38
0.13008121 0.14319512 0.069235623 1.8601564e-38
0.13113716 0.13805002 0.062609762 1.4726784e-38
0.12907162 0.14097992 0.063776374 1.500267e-38
0.1269815 0.14376915 0.066281915 1.5373989e-38
0.12553233 0.14195913 0.06224823 2.0258824e-38
0.12380588 0.14420089 0.064026803 1.9610637e-38
0.12288082 0.14633393 0.065458417 2.0346093e-38
0.13970485 0.019880235 0.01162976 6.3482071e-39
0.1390956 0.02372092 0.011853397 8.3750452e-39
0.12082058 0.1421791 0.060957074 2.3411914e-38
0.12082952 0.14430708 0.062093854 2.2840757e-38
0.11935437 0.14762039 0.063027948 2.2193593e-38
0.11884582 0.1510264 0.063907385 2.1084363e-38
0.13623166 0.020234466 0.01034686 5.8886457e-39
0.13647646 0.024174273 0.010420024 7.4573769e-39
0.13660508 0.02814123 0.011102885 8.8367268e-39
0.13633716 0.031484067 0.010665953 9.8504934e-39
0.11725253 0.14529154 0.059458673 2.1546067e-38
0.11757475 0.14891827 0.060390949 2.1361694e-38
0.11640173 0.15213647 0.062099516 1.8877416e-38
0.11477202 0.15466085 0.062718034 1.7401883e-38
0.13299084 0.024405181 0.0086220205 5.6149315e-39
0.13283896 0.028113812 0.01009658 7.3630527e-39
0.13266367 0.032046676 0.010182768 9.3877636e-39
0.13136262 0.034573019 0.010784507 1.0493029e-38
0.1160304 0.14372399 0.055155843 2.2752145e-38
0.11628598 0.14559755 0.056734204 1.9150435e-38
0.11630118 0.15042806 0.056900769 1.7404105e-38
0.11427885 0.15309381 0.059218317 1.6387081e-38
0.11243111 0.15589827 0.061068803 1.4916264e-38
0.12879759 0.027983844 0.0078956485 5.8900764e-39
0.12798738 0.031217903 0.0088962615 7.4545337e-39
0.12883508 0.035451084 0.010694027 1.0402634e-38
0.12793946 0.038784206 0.012389421 1.2976545e-38
0.12649506 0.042080104 0.013341427 1.3619031e-38
0.11445773 0.15181111 0.055186868 1.639281e-38
0.11209822 0.15464106 0.055835783 1.5286447e-38
0.11023366 0.15696177 0.058656514 1.5102075e-38
0.10870612 0.15916045 0.059750527 1.6111547e-38
0.12625182 0.03189525 0.0077235103 6.4410992e-39
0.12453371 0.036830306 0.0088250637 7.2762563e-39
0.12426659 0.038617909 0.0095376372 9.9416605e-39
0.12396812 0.043896765 0.01207459 1.352828e-38
0.12349761 0.047814369 0.01230219 1.371338e-38
0.12391764 0.052619457 0.010915458 1.3713747e-38
0.1090501 0.15596452 0.053334653 1.5192467e-38
0.10755622 0.1575997 0.055993497 1.6298832e-38
0.10690409 0.16017608 0.057263196 1.8594774e-38
0.12074143 0.049083948 0.01197809 1.3346044e-38
0.12218201 0.052327812 0.010664165 1.3621187e-38
0.11792856 0.054782927 0.012518495 1.3805196e-38
0.10692769 0.15653485 0.051045865 1.593111e-38
0.10455763 0.15789063 0.053341448 1.657255e-38
0.10418016 0.15991671 0.056156635 1.8413974e-38
0.1151157 0.060481936 0.013058841 1.3438592e-38
0.11596483 0.062930763 0.012954235 1.3345335e-38
0.11334366 0.071208447 0.015749633 1.4540998e-38
0.11289907 0.074183404 0.016935527 1.362118e-38
0.1140638 0.078331858 0.015857816 1.3069808e-38
0.10190582 0.15679893 0.048667014 1.2599181e-38
0.1008426 0.15794334 0.051302433 1.2604589e-38
0.11230278 0.066180915 0.013599217 1.3530408e-38
0.11115676 0.071103305 0.014481246 1.4266209e-38
0.11055672 0.074330211 0.015583575 1.3806275e-38
0.1101048 0.078675777 0.015416682 1.362047e-38
0.10962147 0.082480252 0.015572786 1.3895613e-38
0.10955077 0.086787015 0.016359627 1.4817556e-38
0.10931391 0.090003282 0.017856777 1.4542062e-38
0.10866565 0.092710733 0.018720806 1.4910127e-38
0.10769194 0.099226773 0.021318167 1.4175433e-38
0.10733789 0.10159624 0.022262692 1.3989971e-38
0.098513067 0.15611954 0.046089232 1.1771571e-38
0.098560929 0.1575845 0.049241364 9.5607091e-39
0.10654646 0.078272134 0.014693171 1.4171142e-38
0.10676199 0.082921386 0.014538765 1.4357648e-38
0.10636866 0.086488128 0.015625119 1.4632789e-38
0.1062752 0.090608537 0.016644031 1.5000889e-38
0.10557842 0.094567895 0.018057555 1.5092722e-38
0.10467911 0.098406047 0.020296723 1.4356947e-38
0.10423177 0.10201073 0.021654576 1.4264757e-38
0.10418969 0.10554489 0.022398889 1.4264756e-38
0.10318762 0.10979828 0.022950381 1.4358748e-38
0.10247952 0.11453727 0.024839342 1.4817585e-38
0.10221398 0.11631435 0.025547743 1.4542083e-38
0.096991599 0.15126419 0.039478898 1.1770851e-38
0.096083105 0.15345617 0.041993052 9.6553682e-39
0.094896853 0.15587503 0.045100152 9.9283748e-39
0.10353941 0.082170188 0.014345944 1.4358381e-38
0.10157782 0.086555362 0.014653623 1.4358033e-38
0.1016081 0.090869129 0.015964001 1.5092368e-38
0.10101491 0.094734043 0.017347157 1.4539567e-38
0.10048217 0.098303735 0.018770605 1.4356945e-38
0.1003744 0.1020866 0.019884944 1.4542077e-38
0.10052389 0.10598969 0.020811439 1.4908702e-38
0.10016197 0.10963535 0.022107184 1.491122e-38
0.10014313 0.11344206 0.023153007 1.5095604e-38
0.099782765 0.11707991 0.024445772 1.4359835e-38
0.099594653 0.1207951 0.025612682 1.435909e-38
0.098652184 0.12384048 0.026396304 1.4082109e-38
0.097355664 0.12925535 0.028124422 1.2792861e-38
0.094209135 0.15041718 0.0385831 1.1492828e-38
0.092517197 0.15238908 0.041509092 9.1922573e-39
0.093090475 0.15537882 0.043960094 1.0207131e-38
0.099306881 0.087525398 0.013450861 1.4356594e-38
0.098772705 0.091100663 0.014875919 1.4630636e-38
0.097942472 0.095015854 0.016220212 1.4263681e-38
0.097040594 0.098591536 0.016682923 1.4725721e-38
0.096764028 0.10229218 0.017923474 1.4634979e-38
0.096316397 0.10590547 0.019285679 1.4911912e-38
0.096469998 0.10980648 0.020214796 1.5279267e-38
0.09610945 0.11345407 0.021512687 1.5554445e-38
0.095576763 0.11701879 0.022933573 1.5095959e-38
0.094957769 0.12054393 0.024416834 1.4818639e-38
0.094942093 0.1243425 0.025461078 1.3989605e-38
0.094824076 0.12816641 0.026388645 1.2701383e-38
0.093913496 0.13271841 0.02692318 1.1597892e-38
0.094063699 0.10292646 0.016992837 1.4728233e-38
0.093618453 0.10590583 0.01818049 1.4910473e-38
0.092969418 0.10975093 0.018929601 1.5003036e-38
0.092435539 0.11332357 0.020353675 1.5187804e-38
0.092392087 0.11664653 0.021719337 1.5738808e-38
0.091757834 0.12064666 0.022922605 1.5095244e-38
0.090824902 0.12442847 0.024105281 1.3711221e-38
0.090709388 0.12810075 0.024994522 1.2330436e-38
0.090544045 0.1324586 0.02632314 1.1504957e-38
0.090809643 0.13698208 0.026855469 1.1964906e-38
0.089763343 0.14092043 0.027610898 1.3253104e-38
0.090232074 0.1443076 0.029821575 1.3524335e-38
0.087023735 0.12800273 0.023842335 1.2424071e-38
0.086290896 0.13242632 0.02482444 1.2242171e-38
0.085930347 0.13670415 0.026297092 1.2979063e-38
0.085683644 0.13883576 0.027927935 1.3068027e-38
0.21497115 0.052343607 0.038031071 5.9826112e-39
0.21331096 0.051424623 0.035681725 6.8116684e-39
0.21122348 0.052241892 0.034668922 8.0091242e-39
0.20628756 0.069527268 0.042512327 1.5097423e-38
0.19302025 0.083438993 0.040653437 1.4730782e-38
0.16697446 0.10547411 0.035093963 1.2798645e-38
0.15612143 0.10849279 0.029364139 1.3437903e-38
0.14751083 0.13308917 0.038005918 2.2399592e-38
0.16702718 0.12157476 0.063300431 9.9506204e-39
0.14778948 0.1160478 0.060752183 7.1671596e-39
0.096749485 0.13069573 0.026918113 1.2333681e-38
0.10278589 0.10933337 0.022576511 1.2701752e-38
0.11334366 0.071208447 0.015749633 1.4540998e-38
0.12065238 0.1488881 0.069152832 2.1640418e-38
0.11836362 0.13979927 0.060875237 2.3417686e-38
0.11801523 0.14432488 0.062968612 2.302622e-38
0.11931318 0.14754874 0.065824658 2.1367055e-38
0.11812359 0.15092975 0.067365676 2.0903203e-38
0.11644495 0.15330733 0.067065358 2.0444754e-38
0.11735493 0.13996783 0.06007427 2.3323335e-38
0.11611682 0.14386517 0.061048985 2.2283979e-38
0.11547953 0.152518 0.065076768 1.9616815e-38
0.11390173 0.15484548 0.065815955 1.8232774e-38
0.13200948 0.019501179 0.0098195076 4.6908368e-39
0.12928319 0.025880456 0.011036485 6.4418265e-39
0.11164087 0.1562672 0.063677311 1.6204114e-38
0.10998231 0.15767378 0.064394891 1.5931123e-38
0.1268881 0.031739682 0.011073649 8.5601722e-39
0.12484908 0.035376489 0.011681557 1.0587736e-38
0.12455559 0.039121926 0.012931049 1.3252412e-38
0.10723782 0.15892819 0.061919868 1.6386703e-38
0.123712 0.032831907 0.01028496 7.7318408e-39
0.12314641 0.034968883 0.010919452 9.1151228e-39
0.12296176 0.039502203 0.012013078 1.2702489e-38
0.12074941 0.043056846 0.012137234 1.3437879e-38
0.1206364 0.045603842 0.012910187 1.3437869e-38
0.10475248 0.15971479 0.06086117 1.9325505e-38
0.11862224 0.046715766 0.01267913 1.3254203e-38
0.11734599 0.049068242 0.013279021 1.3437157e-38
0.10082173 0.15846354 0.05529213 1.6014019e-38
0.10165185 0.15949024 0.056569576 1.8228868e-38
0.11478895 0.052996844 0.013106108 1.3805216e-38
0.11300373 0.058352709 0.014371455 1.343931e-38
0.11197889 0.061335027 0.014331162 1.3804504e-38
0.098293483 0.15860188 0.054090738 1.500634e-38
0.11041689 0.062480807 0.014278084 1.3712294e-38
0.10878068 0.066839159 0.015145838 1.3622988e-38
0.10825378 0.06923306 0.014515251 1.4357306e-38
0.095648766 0.15799171 0.051049769 1.1592568e-38
0.10631317 0.0701693 0.014734328 1.4174706e-38
0.10525215 0.073693454 0.015308499 1.4264037e-38
0.10348785 0.075893462 0.015277058 1.4262618e-38
0.092414439 0.15841827 0.048803747 1.2238271e-38
0.10172945 0.078508049 0.014633417 1.4356593e-38
0.10052717 0.081804425 0.014842391 1.4542423e-38
0.089878023 0.15271704 0.042583287 1.1122975e-38
0.090015113 0.15571249 0.044498652 1.1687265e-38
0.089756906 0.15833825 0.046606779 1.1692657e-38
0.098430455 0.08284235 0.013781428 1.4541704e-38
0.097263753 0.086590022 0.014596283 1.4356236e-38
0.096228421 0.090471774 0.015167475 1.4539165e-38
0.095781982 0.093459904 0.016358525 1.3988888e-38
0.087810457 0.14923427 0.039987206 1.1681141e-38
0.087791324 0.15223262 0.041304708 1.2882187e-38
0.087273777 0.15539929 0.043142915 1.3345668e-38
0.094359577 0.090840638 0.015148908 1.4448772e-38
0.094169676 0.093963563 0.016159475 1.4358018e-38
0.092365563 0.097593009 0.016970962 1.5001598e-38
0.091712117 0.10145852 0.017726958 1.4636384e-38
0.090800107 0.10519496 0.018664956 1.4726438e-38
0.089362323 0.11667544 0.02300781 1.5554777e-38
0.085343778 0.14356869 0.033727527 1.3524338e-38
0.086914778 0.14621972 0.03652066 1.2417654e-38
0.089093149 0.10630965 0.01870659 1.4818982e-38
0.088121355 0.10914016 0.018812031 1.4635314e-38
0.087607384 0.1125796 0.020182997 1.4727889e-38
0.087077677 0.11588703 0.021803319 1.5094881e-38
0.086534739 0.11975771 0.023044258 1.4634619e-38
0.085760117 0.12362678 0.02369523 1.3252761e-38
0.083809316 0.12750933 0.023853511 1.2608481e-38
0.083951473 0.13972241 0.030458033 1.3897413e-38
0.084513664 0.14254199 0.03245014 1.4634601e-38
0.083916247 0.12118015 0.022025645 1.4634232e-38
0.082988143 0.12343603 0.022403181 1.2974016e-38
0.082274556 0.1274492 0.023423791 1.2699585e-38
0.081780493 0.13169327 0.024999887 1.2794627e-38
0.19542104 0.078208178 0.037855238 1.5653099e-38
0.18794823 0.089743137 0.040755987 1.4915537e-38
0.21638286 0.065833509 0.054568112 1.538121e-38
0.15390235 0.074123055 0.012106776 1.5371109e-38
0.11396605 0.15541479 0.068148494 1.9154003e-38
0.11177486 0.15699974 0.069721133 1.722147e-38
0.10871184 0.1579814 0.067743123 1.6020416e-38
0.10653204 0.15871277 0.064292997 1.5372562e-38
0.11713892 0.042279601 0.012844384 1.1416774e-38
0.11632019 0.045149088 0.013165414 1.3346037e-38
0.11523885 0.05117631 0.013972849 1.3713009e-38
0.11470145 0.054772586 0.015406311 1.3713712e-38
0.11452234 0.055971324 0.015884221 1.3621871e-38
0.099360645 0.15926665 0.059452653 1.8505102e-38
0.11423308 0.045303226 0.013318807 1.2519157e-38
0.11264813 0.049282759 0.014030993 1.3436802e-38
0.11292917 0.053903043 0.013954729 1.3713384e-38
0.11243927 0.056709051 0.014436781 1.3622984e-38
0.096273899 0.16007611 0.057157457 1.7767894e-38
0.10950017 0.053185135 0.013920486 1.3804853e-38
0.10880345 0.056955665 0.014229208 1.3620819e-38
0.10829657 0.060829312 0.014401287 1.3528273e-38
0.10733861 0.064895332 0.014851362 1.3345681e-38
0.093732536 0.15879577 0.052081525 1.2881117e-38
0.09344852 0.16096094 0.054127812 1.537364e-38
0.091910124 0.16262241 0.056450576 1.7216853e-38
0.10496664 0.06172356 0.014807254 1.3621554e-38
0.10399485 0.065965563 0.014764309 1.3896336e-38
0.10342067 0.069552839 0.015012205 1.4264752e-38
0.10382283 0.072564393 0.015242159 1.4447358e-38
0.090328336 0.16142157 0.05142653 1.2335831e-38
0.088439345 0.16348886 0.054205388 1.1968148e-38
0.10162729 0.066390425 0.014335304 1.3529705e-38
0.10011643 0.069871247 0.014848232 1.3989244e-38
0.099799812 0.074012399 0.014509916 1.4080723e-38
0.099285543 0.077245504 0.014677525 1.4264757e-38
0.087361872 0.1590628 0.047317475 1.0952573e-38
0.0870381 0.1612277 0.049615681 1.0953261e-38
0.086636424 0.1633988 0.052566111 1.1415325e-38
0.096639454 0.074134111 0.013466239 1.3804138e-38
0.096364319 0.078275979 0.0136621 1.426549e-38
0.095294833 0.081730485 0.014012486 1.4449869e-38
0.095406473 0.084879845 0.014346242 1.4356234e-38
0.085912764 0.14841413 0.039671391 1.3064063e-38
0.085375428 0.15201041 0.041104853 1.4264383e-38
0.085046172 0.15586413 0.04285863 1.205495e-38
0.084354758 0.15867233 0.04549247 9.6639498e-39
0.083014786 0.16127419 0.047831953 9.7565195e-39
0.092625439 0.080221146 0.013726443 1.4358031e-38
0.092932642 0.085573405 0.014923126 1.4264392e-38
0.091655672 0.089816183 0.01544854 1.4356943e-38
0.090848863 0.093301296 0.016226351 1.4449489e-38
0.090580165 0.097374558 0.016714543 1.5001944e-38
0.090132356 0.10037148 0.01790911 1.4360162e-38
0.083783984 0.14549714 0.03624475 1.343644e-38
0.083539903 0.14861363 0.038320541 1.371446e-38
0.08317709 0.15228081 0.039626747 1.3808078e-38
0.081852317 0.15557735 0.041641682 1.2239675e-38
0.080359519 0.15859205 0.043936908 1.0400447e-38
0.079686582 0.16150782 0.045428157 9.8505102e-39
0.087688088 0.093372732 0.016345084 1.4357656e-38
0.086759865 0.09702599 0.016985297 1.4910127e-38
0.086461127 0.10054541 0.017631561 1.4268698e-38
0.086792529 0.10449362 0.018224418 1.4544201e-38
0.086112142 0.10747182 0.018127143 1.4636387e-38
0.085395634 0.11226685 0.020038456 1.49112e-38
0.084768653 0.1164625 0.021710932 1.5094158e-38
0.084320903 0.11945942 0.022905469 1.4634966e-38
0.082761705 0.14309654 0.034068823 1.4452725e-38
0.080829024 0.14486033 0.036169529 1.4267975e-38
