# .PCD v0.7 - Point Cloud Data file format
VERSION 0.7
FIELDS x y z rgb
SIZE 4 4 4 4
TYPE F F F F
COUNT 1 1 1 1
WIDTH 975
HEIGHT 1
VIEWPOINT 0 0 0 0 1 0 0
POINTS 975
DATA ascii
0.11534607 0.040167246 0.03679198 1.8413187e-38
0.11155003 0.03846927 0.038673759 1.8966359e-38
0.11111991 0.040337011 0.037527144 1.8413554e-38
0.10737616 0.041735977 0.036279559 1.8045489e-38
0.10696056 0.043736324 0.034269392 1.7216094e-38
0.10768035 0.089210287 0.030067682 5.7960591e-39
0.10784793 0.09236899 0.028850019 6.8112802e-39
0.10349856 0.042097159 0.03565079 1.813769e-38
0.10351984 0.044465035 0.034679472 1.7584876e-38
0.10330966 0.047116458 0.033298373 1.7309004e-38
0.10524249 0.092401952 0.027944207 7.2683347e-39
0.099902153 0.042149574 0.036461353 1.8227736e-38
0.099470407 0.044665299 0.035290241 1.7953656e-38
0.10008827 0.048188165 0.032679796 1.7769269e-38
0.095945507 0.045058917 0.034993529 1.7951159e-38
0.096159205 0.048298657 0.032300889 1.7950794e-38
0.091489792 0.045889672 0.034728587 1.7030649e-38
0.09203513 0.048308849 0.032584488 1.7121753e-38
0.091068387 0.051415205 0.030919552 1.684372e-38
0.088901371 0.045841835 0.034344852 1.7119959e-38
0.088043809 0.048708171 0.032985151 1.7488013e-38
0.088425368 0.05203554 0.030670702 1.6842283e-38
0.087202698 0.054575898 0.029943585 1.6567845e-38
0.083824024 0.049610063 0.032771111 1.8132305e-38
0.084158167 0.052094474 0.031379521 1.7396179e-38
0.084110171 0.055294454 0.029388428 1.684408e-38
0.083337039 0.05838301 0.028886974 1.6569278e-38
0.080147907 0.053365022 0.031070292 1.739943e-38
0.080623507 0.055795193 0.0292539 1.7489805e-38
0.080759943 0.059628233 0.028343797 1.6291283e-38
0.080391765 0.063315295 0.027828753 1.5832809e-38
0.079793513 0.08449775 0.025098085 1.3163442e-38
0.07947138 0.086754285 0.024768293 1.3070492e-38
0.076354086 0.056076795 0.030415833 1.7215714e-38
0.076255679 0.059724569 0.028209448 1.6753329e-38
0.076425686 0.063309155 0.027232349 1.6384909e-38
0.074317157 0.081487626 0.024648845 1.3531863e-38
0.076249957 0.084109053 0.024613023 1.3255993e-38
0.075766772 0.087493852 0.024118364 1.2515928e-38
0.072396874 0.056031615 0.030080318 1.6755841e-38
0.071958005 0.059541397 0.027708709 1.6293438e-38
0.071740031 0.06269367 0.026603639 1.6109749e-38
0.070451468 0.072366238 0.025203884 1.3992861e-38
0.0712246 0.076000504 0.024867237 1.3623725e-38
0.072384298 0.080159061 0.024523437 1.3532946e-38
0.072065085 0.084183261 0.024992764 1.2796453e-38
0.071740031 0.08790426 0.023460984 1.2330104e-38
0.068517089 0.05661004 0.029729843 1.610869e-38
0.068425119 0.05934611 0.027686357 1.583354e-38
0.06771329 0.063104071 0.025946259 1.5283215e-38
0.067322105 0.067506395 0.02533865 1.48208e-38
0.068247914 0.072438568 0.025712252 1.4267655e-38
0.068193614 0.076648399 0.026222527 1.3349295e-38
0.068480909 0.080394864 0.026057482 1.3164892e-38
0.068408728 0.084317729 0.025784016 1.2335123e-38
0.068302065 0.08794491 0.023617625 1.1962738e-38
0.066585794 0.091041133 0.022293925 1.2976586e-38
0.064959764 0.060155898 0.028548539 1.555764e-38
0.063938469 0.063457474 0.027541637 1.4821866e-38
0.064062566 0.068252601 0.027245581 1.4819365e-38
0.064636588 0.072234228 0.026964962 1.4174393e-38
0.064496294 0.076926328 0.026795685 1.3254584e-38
0.064570248 0.079673141 0.026464403 1.2794678e-38
0.064311415 0.084992297 0.02576232 1.1781237e-38
0.064555109 0.088365644 0.025123775 1.2516265e-38
0.064008698 0.090993501 0.02191186 1.4543895e-38
0.061723009 0.064817384 0.027887583 1.4634267e-38
0.061722994 0.067414425 0.02756387 1.5094161e-38
0.060687646 0.072069965 0.026827633 1.3251008e-38
0.061075911 0.077790633 0.026172936 1.2425183e-38
0.061075911 0.079089157 0.026011109 1.2332981e-38
0.060428783 0.088166855 0.024782121 1.4081814e-38
0.060013339 0.09183608 0.022903502 1.472574e-38
0.059498727 0.095435135 0.020679176 1.3069457e-38
0.057840377 0.072536759 0.026340783 1.3346053e-38
0.056546167 0.079005443 0.025339544 1.2791791e-38
0.055100232 0.084422141 0.023937225 1.2794683e-38
0.056321651 0.08820489 0.024057209 1.3438627e-38
0.055955321 0.091636628 0.022351444 1.3070901e-38
0.056277364 0.095375605 0.020201623 1.2148589e-38
0.055310935 0.098913081 0.019615173 1.1965262e-38
0.054988801 0.10763387 0.018479526 1.3257434e-38
0.054301441 0.10993913 0.020126581 1.3625153e-38
0.053440064 0.080506265 0.024684846 1.187381e-38
0.052293748 0.084306449 0.024038553 1.2241855e-38
0.052478656 0.087834418 0.023626566 1.2058149e-38
0.051716581 0.09173768 0.022006333 1.1134418e-38
0.052024379 0.095483854 0.020679891 1.1225543e-38
0.05191423 0.099237189 0.020519078 1.0951836e-38
0.051854998 0.10359738 0.020141184 1.1599705e-38
0.052419588 0.1072808 0.020004809 1.1969927e-38
0.05266355 0.11053105 0.020825088 1.2703543e-38
0.050075129 0.084079936 0.023732722 1.2517708e-38
0.049298599 0.088480562 0.023067296 1.2145668e-38
0.04813382 0.091835193 0.022473752 1.1782328e-38
0.047736287 0.095519193 0.021699905 1.2056035e-38
0.048780933 0.099638283 0.021598399 1.1688323e-38
0.048780933 0.10334834 0.021135926 1.242694e-38
0.050075129 0.10680406 0.020900011 1.2061375e-38
0.15115045 0.077127039 0.011923671 1.270212e-38
0.14849776 0.090069719 0.0095521212 1.2795759e-38
0.13715822 0.078536153 0.010080218 1.3258164e-38
0.12207994 0.10087442 0.010500014 1.1140551e-38
0.11162919 0.074342087 0.011797547 6.9917366e-39
0.13387144 0.050023936 0.022253275 1.8412847e-38
0.088688046 0.075128943 0.028878748 1.1232368e-38
0.1735495 0.14222972 0.037111223 2.2863071e-38
0.17300326 0.14454725 0.037419379 2.3228215e-38
0.1691331 0.01569251 0.054003239 7.8265518e-39
0.1700308 0.017594993 0.052457869 8.2889425e-39
0.17008823 0.14259987 0.036543965 2.2484595e-38
0.16535038 0.01549447 0.053509414 7.3666597e-39
0.1661943 0.017506972 0.05155158 7.8272637e-39
0.1664539 0.14201178 0.036070168 2.2752174e-38
0.16604479 0.14467514 0.036525667 2.312525e-38
0.16341479 0.015550684 0.05239594 7.3662715e-39
0.16192874 0.01797989 0.051461875 7.549197e-39
0.16230038 0.14245595 0.035389423 2.2382303e-38
0.16202174 0.14524727 0.036527872 2.2847598e-38
0.15837736 0.018880151 0.051222444 7.6407004e-39
0.15710847 0.021245964 0.049717546 8.1928078e-39
0.15905544 0.14239597 0.034908354 2.0724934e-38
0.15932602 0.14482573 0.036684096 2.2016411e-38
0.15542078 0.014798433 0.052305102 7.6378291e-39
0.15411903 0.019345663 0.051542342 8.2846349e-39
0.15399081 0.021570962 0.050226629 8.7459802e-39
0.15386353 0.14230002 0.03413868 2.0537304e-38
0.15151554 0.019297544 0.051156342 8.834936e-39
0.15052785 0.022662625 0.04982388 9.9409206e-39
0.15056752 0.025373239 0.048473001 1.1047268e-38
0.15061858 0.14224006 0.03365761 2.0351474e-38
0.1507345 0.14479756 0.035394132 2.099613e-38
0.15151554 0.14925267 0.034956396 2.3231494e-38
0.15151554 0.15186484 0.034630716 2.341769e-38
0.14665176 0.023232188 0.049525976 1.1600425e-38
0.14663197 0.026289653 0.047964454 1.3074116e-38
0.14629568 0.14195101 0.033552289 2.0443658e-38
0.14761032 0.14460921 0.034947276 2.0442593e-38
0.14266431 0.026237641 0.04771322 1.3810269e-38
0.14153276 0.028771929 0.046434402 1.5835701e-38
0.14265978 0.14175831 0.033334553 2.0168146e-38
0.13900483 0.026662987 0.048014879 1.4456339e-38
0.13763884 0.028699968 0.045857131 1.6667264e-38
0.13910866 0.14133909 0.032444596 1.9615708e-38
0.13849811 0.14378777 0.033677757 2.0539801e-38
0.13474226 0.028737601 0.046774924 1.685238e-38
0.1345129 0.14170049 0.032522798 1.9063615e-38
0.1309755 0.030583449 0.045383334 2.0069846e-38
0.13221815 0.14082864 0.03208226 1.9616068e-38
0.1274333 0.031260267 0.046039402 2.0620859e-38
0.12669376 0.032804221 0.044716656 2.0437204e-38
0.12725502 0.13790138 0.030681014 1.7961209e-38
0.1263485 0.14008036 0.032310843 1.6208803e-38
0.1231679 0.033701729 0.043870091 2.0068776e-38
0.1233611 0.13782941 0.030103743 1.0586347e-38
0.12267321 0.13978907 0.031284213 1.0128888e-38
0.11884815 0.033636771 0.043431759 2.0163121e-38
0.11946717 0.036177956 0.042189121 1.9331944e-38
0.11895958 0.13980184 0.030214131 1.2058161e-38
0.11543304 0.033968516 0.043167353 1.9976928e-38
0.11492425 0.036094002 0.041515648 1.9424837e-38
0.1115512 0.034539018 0.042984724 1.9882938e-38
0.11154985 0.036722645 0.041438758 1.9425543e-38
0.10761693 0.037525579 0.041510701 1.9057128e-38
0.10648742 0.040496133 0.039696693 1.8414268e-38
0.10367647 0.038331203 0.041581273 1.933192e-38
0.10341531 0.040377822 0.040064096 1.8597227e-38
0.10009667 0.038591564 0.041009903 1.9333355e-38
0.099311128 0.040740974 0.039750338 1.859652e-38
0.095263898 0.041064877 0.039407849 1.8318858e-38
0.093940318 0.043954108 0.037376642 1.7765655e-38
0.091272563 0.042257577 0.038205445 1.7397974e-38
0.090815037 0.044143759 0.037222147 1.693699e-38
0.088380992 0.042293295 0.038784564 1.7032393e-38
0.086671099 0.044582576 0.036840796 1.7305408e-38
0.082789898 0.04471847 0.036734819 1.8500738e-38
0.083073467 0.047893368 0.035419405 1.8226301e-38
0.078891039 0.045076147 0.036717772 1.8136981e-38
0.079025894 0.048518717 0.035241544 1.8043696e-38
0.079229906 0.051713124 0.034194767 1.7583443e-38
0.075069934 0.048678629 0.0353477 1.7491592e-38
0.075162441 0.052346617 0.034069479 1.7307215e-38
0.074038029 0.054872915 0.033019185 1.7215372e-38
0.071129397 0.04883498 0.034935117 1.7860387e-38
0.071230516 0.052285336 0.033598363 1.7309741e-38
0.070144087 0.054800957 0.032441914 1.6571103e-38
0.068203956 0.049103864 0.034897864 1.7123898e-38
0.06722571 0.05246187 0.033822477 1.6662574e-38
0.067061692 0.055123605 0.0324471 1.6016504e-38
0.063973725 0.053126216 0.033419847 1.5648422e-38
0.063397974 0.056063488 0.032061398 1.5372929e-38
0.063005239 0.059227079 0.030815363 1.5464007e-38
0.063005239 0.074203543 0.028948426 1.3714498e-38
0.063005239 0.075505845 0.028786063 1.3529741e-38
0.063329726 0.081697777 0.028063059 1.2425903e-38
0.063654199 0.08444792 0.027769148 1.2149304e-38
0.062356234 0.087214567 0.027228773 1.2609922e-38
0.059581071 0.056544669 0.032502174 1.4538851e-38
0.059425175 0.059927285 0.031208038 1.4354429e-38
0.059472203 0.063602313 0.030120194 1.4266194e-38
0.059327617 0.068492286 0.029106736 1.4266555e-38
0.059435785 0.073486432 0.028500438 1.2976214e-38
0.059574828 0.076372676 0.028161645 1.2700339e-38
0.059574828 0.081023753 0.027581811 1.224222e-38
0.059760258 0.084561996 0.027168691 1.2793964e-38
0.057790011 0.11486854 0.025131941 1.334638e-38
0.056035161 0.060218386 0.031476557 1.3622579e-38
0.05570358 0.064026855 0.030718923 1.4265827e-38
0.055667579 0.068281189 0.029176414 1.3805916e-38
0.055704102 0.072766326 0.028028429 1.3438613e-38
0.055866346 0.076676227 0.027565479 1.2515588e-38
0.055866346 0.080745921 0.027058125 1.2608134e-38
0.056051761 0.084121376 0.02666527 1.2886173e-38
0.05456838 0.11311667 0.022827387 1.3438549e-38
0.055292994 0.11558734 0.023793042 1.2979053e-38
0.051435083 0.068980753 0.029442549 1.3530425e-38
0.051626846 0.072825506 0.028426111 1.3713007e-38
0.051818401 0.076663308 0.027410448 1.2147855e-38
0.050998956 0.080167599 0.026397347 1.1781249e-38
0.051972419 0.088324971 0.02552706 1.2428713e-38
0.051712826 0.11254299 0.022469044 1.2428389e-38
0.051627055 0.11586466 0.023060977 1.2703887e-38
0.050565571 0.11948091 0.022705078 1.2243962e-38
0.048352361 0.06898126 0.029431283 1.3713742e-38
0.047570556 0.072810113 0.028270185 1.3528986e-38
0.047805101 0.076635875 0.02714932 1.242624e-38
0.048039272 0.080454484 0.026029289 1.1874139e-38
0.047429487 0.08433412 0.025340676 1.2151071e-38
0.047429502 0.087589867 0.024934709 1.2704992e-38
0.046780527 0.10060088 0.023215115 1.1964544e-38
0.046780527 0.10515894 0.022646904 1.3438257e-38
0.047657177 0.10799257 0.022571266 1.2796812e-38
0.047947854 0.11177944 0.023452997 1.3072688e-38
0.048026919 0.11468811 0.023684561 1.4173628e-38
0.047058582 0.11982639 0.02255851 1.2885768e-38
0.049027115 0.12233673 0.021862745 1.3347846e-38
0.044338658 0.073696062 0.02823931 1.3625122e-38
0.043668464 0.076653101 0.027203739 1.2516632e-38
0.043826848 0.080506504 0.026294291 1.1498897e-38
0.043900251 0.08462134 0.026047111 1.0390367e-38
0.044595942 0.08829315 0.025099814 1.1221953e-38
0.043985486 0.092174351 0.024410903 1.0119206e-38
0.043659955 0.096243449 0.023725212 9.6560675e-39
0.044025362 0.099976465 0.023331046 9.9333802e-39
0.043985471 0.10390535 0.022948503 1.094536e-38
0.044046134 0.10779206 0.023362637 1.1685065e-38
0.044121712 0.11918722 0.022535741 1.3532234e-38
0.040867329 0.07798551 0.027181923 1.2884703e-38
0.040867329 0.093005449 0.025309563 9.2833123e-39
0.040867329 0.096270658 0.024902582 8.7320078e-39
0.040867329 0.09953586 0.024495482 8.2692402e-39
0.040867329 0.10280106 0.024088502 8.3621e-39
0.15117422 0.070565045 0.013161004 1.3072694e-38
0.15692827 0.058810167 0.015968442 1.8323522e-38
0.14321899 0.076381147 0.012317419 1.5098118e-38
0.13764217 0.079177335 0.011500478 1.334963e-38
0.11209777 0.064356275 0.015150726 8.0919661e-39
0.08673963 0.070058167 0.029420614 1.4453106e-38
0.076425686 0.063309155 0.027232349 1.6384909e-38
0.16612792 0.01509146 0.055918336 7.4563442e-39
0.16090588 0.015649885 0.055062532 7.4555931e-39
0.15761057 0.015596915 0.054742873 7.2704871e-39
0.15633659 0.017530236 0.05414021 7.0900419e-39
0.15718666 0.14620148 0.038665056 2.2197567e-38
0.15747246 0.1500624 0.038695693 2.2670753e-38
0.15633659 0.15244602 0.037321866 2.3417687e-38
0.15338576 0.01566131 0.054336607 8.2824755e-39
0.15372556 0.017481979 0.053753138 8.1009541e-39
0.15363812 0.1459524 0.038178027 2.1089775e-38
0.15366 0.14985694 0.037581265 2.3325483e-38
0.15372556 0.15239777 0.036934793 2.341769e-38
0.15111454 0.015468933 0.053610981 9.4810215e-39
0.14945589 0.018748119 0.053631842 9.2055122e-39
0.14850353 0.021315064 0.052489102 1.0126029e-38
0.1491057 0.14647762 0.037231922 2.0905749e-38
0.14912255 0.14973302 0.03674376 2.2769802e-38
0.14915627 0.15231331 0.036257386 2.2591168e-38
0.14634925 0.01963779 0.054411769 1.0220735e-38
0.14535761 0.021641411 0.052993774 1.1048339e-38
0.1455195 0.14588392 0.036511362 2.0907885e-38
0.14576177 0.14961828 0.036719143 2.0458809e-38
0.14188099 0.14573513 0.036435008 2.1001514e-38
0.13769323 0.023836352 0.052245557 1.1972115e-38
0.13711534 0.025491707 0.050593615 1.3537612e-38
0.13675392 0.14291508 0.03556174 1.9155459e-38
0.13786681 0.14592682 0.036245406 2.091076e-38
0.13405296 0.026523151 0.050810695 1.3719153e-38
0.13382789 0.14502491 0.036284804 2.0355075e-38
0.13009238 0.027328674 0.051005483 1.4732942e-38
0.12961167 0.02923803 0.04993093 1.8229548e-38
0.129714 0.14198934 0.034956872 1.970971e-38
0.12980318 0.14518361 0.036100566 2.0633436e-38
0.12602665 0.030152276 0.049226284 1.9978021e-38
0.1264877 0.14189093 0.034313679 1.6761609e-38
0.12585104 0.1454653 0.034876049 1.5657804e-38
0.12505165 0.14946994 0.035020769 1.5753238e-38
0.12203035 0.030756142 0.048855126 2.0346799e-38
0.12174055 0.032609224 0.047051966 2.0528311e-38
0.12260638 0.14217624 0.033727705 1.0588412e-38
0.12216377 0.14548613 0.034700453 1.2523821e-38
0.12207302 0.14984183 0.03452599 1.1146652e-38
0.11843219 0.031018052 0.048280716 2.0347525e-38
0.11978227 0.032573037 0.046761632 2.0255321e-38
0.11880314 0.14225587 0.032941401 1.3071604e-38
0.11827469 0.14519058 0.034097314 1.5471558e-38
0.11405371 0.03130161 0.048095584 2.0162408e-38
0.11365329 0.032533806 0.046862721 2.0069136e-38
0.11521298 0.14251699 0.032368302 1.8788803e-38
0.11440754 0.14558178 0.033138752 1.6939131e-38
0.11012587 0.031229023 0.047513247 1.9885095e-38
0.11012293 0.032992892 0.046274066 1.9883662e-38
0.10750732 0.031180631 0.047125101 1.9884755e-38
0.106433 0.033719517 0.045741141 1.9701784e-38
0.10542166 0.036237232 0.044142842 1.9424841e-38
0.10235995 0.034343664 0.04561621 1.9792899e-38
0.1024951 0.036723033 0.043845534 1.988367e-38
0.098738194 0.034611627 0.045122385 1.9792883e-38
0.098549962 0.037091669 0.043583989 1.9609233e-38
0.094414517 0.034879595 0.044692814 1.9423399e-38
0.094852239 0.037387397 0.042861104 1.905534e-38
0.090486676 0.034807004 0.044110477 1.9516677e-38
0.090646029 0.037391283 0.043246329 1.9425922e-38
0.09101285 0.040569685 0.041603267 1.8318505e-38
0.087868139 0.034758613 0.043722332 1.97025e-38
0.086787432 0.037729334 0.043043852 1.9701078e-38
0.0866649 0.040841982 0.041763842 1.8043689e-38
0.082958341 0.038280398 0.042544127 1.8780544e-38
0.082829565 0.041174479 0.041484714 1.8134104e-38
0.078804553 0.041129604 0.041223943 1.8503971e-38
0.07800591 0.043589745 0.03909874 1.8321358e-38
0.074775338 0.042398509 0.040798783 1.7214664e-38
0.074889123 0.04469391 0.038928628 1.6844803e-38
0.070847511 0.042325921 0.040216446 1.638635e-38
0.071232796 0.044845887 0.038715005 1.6568592e-38
0.071478352 0.047398701 0.037641168 1.7216099e-38
0.06822893 0.042277526 0.039828241 1.5833901e-38
0.067168981 0.044811882 0.038560271 1.6201953e-38
0.066975027 0.048120737 0.03707701 1.6755834e-38
0.063253671 0.045601055 0.038664997 1.5279281e-38
0.063318357 0.048655957 0.037274957 1.5464734e-38
0.063318908 0.051504955 0.035900891 1.5649477e-38
0.060373262 0.046073273 0.038172424 1.4543518e-38
0.059351832 0.048808433 0.03729558 1.3988173e-38
0.059506744 0.052486002 0.035883963 1.4452404e-38
0.057770491 0.055659473 0.034547627 1.4265859e-38
0.0577005 0.12035592 0.027083516 1.3811355e-38
0.056445435 0.049941614 0.037098825 1.436018e-38
0.05534184 0.052699432 0.036461532 1.3715909e-38
0.055197209 0.056157723 0.034825981 1.3713754e-38
0.053853944 0.060171604 0.033395529 1.3715531e-38
0.053201184 0.063434198 0.032890558 1.4357319e-38
0.055159464 0.11782965 0.02640456 1.3070903e-38
0.055196941 0.12078243 0.026769936 1.2891897e-38
0.051644742 0.057296865 0.035459161 1.3622631e-38
0.051130116 0.060159646 0.034770131 1.3896695e-38
0.050897971 0.064167239 0.033471465 1.4634262e-38
0.050590187 0.066660598 0.032095253 1.3806289e-38
0.051886588 0.12050466 0.026160657 1.1416038e-38
0.04806605 0.060558632 0.034513831 1.4080374e-38
0.047357917 0.064196363 0.033727288 1.4817563e-38
0.04536812 0.11306418 0.025524497 1.233765e-38
0.046487138 0.11673377 0.025235474 1.2609181e-38
0.046891227 0.12029658 0.024852216 1.2979053e-38
0.044007286 0.065475456 0.03328979 1.5001941e-38
0.043374956 0.068381891 0.032017231 1.3438192e-38
0.042757109 0.072737686 0.030158401 1.3163463e-38
0.041451588 0.083519921 0.02861774 1.1957699e-38
0.041451588 0.08875937 0.027964592 9.0118065e-39
0.041451588 0.1084073 0.025515318 8.7273261e-39
0.043350399 0.11240384 0.02547282 1.0941752e-38
0.043350399 0.11633469 0.02498281 1.1125818e-38
0.03948459 0.069967829 0.031879067 1.2979762e-38
0.03948611 0.073025703 0.031031072 1.3164532e-38
0.038927764 0.076830231 0.030294418 1.3069453e-38
0.039665252 0.081061676 0.030013919 1.2609195e-38
0.039045364 0.085290119 0.029665172 1.2327944e-38
0.039191574 0.08884798 0.02846247 1.1591825e-38
0.039076328 0.092357837 0.02741313 1.122085e-38
0.038719743 0.096624859 0.026912451 9.4702721e-39
0.038985699 0.10091759 0.026587307 8.7345007e-39
0.03900063 0.10487466 0.026605725 9.2873046e-39
0.039627671 0.10852885 0.026074708 9.8376127e-39
0.040586144 0.11293568 0.026349008 1.0481886e-38
0.040353894 0.11629887 0.025996685 1.2514112e-38
0.037170678 0.090149209 0.028165817 1.2609167e-38
0.036501199 0.092562765 0.028171718 1.2788887e-38
0.035797298 0.096952133 0.02774781 1.2235013e-38
0.035706192 0.10093258 0.027492762 1.2047383e-38
0.036020666 0.10421167 0.027258694 1.1868042e-38
0.03636983 0.10780875 0.0268628 1.2329369e-38
0.032878399 0.09811084 0.027546048 1.0952203e-38
0.16292909 0.086020947 0.0078757405 1.3257802e-38
0.14405639 0.096944004 0.011154354 1.1326375e-38
0.0577005 0.12035592 0.027083516 1.3811355e-38
0.14824082 0.016293362 0.057660699 9.114041e-39
0.14768644 0.017575808 0.056907952 9.206231e-39
0.14616723 0.016279783 0.057859659 9.1154675e-39
0.14542867 0.017990336 0.056855977 9.6686427e-39
0.14106777 0.022078723 0.055604875 1.1691913e-38
0.13703519 0.022687934 0.05534631 1.0772841e-38
0.13389944 0.023908123 0.054042876 1.1421451e-38
0.13192987 0.025189154 0.053586662 1.2155425e-38
0.13301793 0.14664872 0.039628446 2.1000816e-38
0.12894854 0.025686111 0.053483427 1.2798624e-38
0.12930378 0.14766093 0.03792423 2.0176418e-38
0.12930378 0.14963704 0.037677884 1.9152939e-38
0.12531191 0.026398201 0.052666068 1.4550325e-38
0.12470812 0.029007956 0.052023411 1.8603013e-38
0.12667769 0.14958851 0.037288547 1.8699508e-38
0.12129089 0.026345212 0.052406847 1.3906067e-38
0.12142548 0.028947286 0.051536739 1.8417201e-38
0.12011245 0.14749105 0.036561608 1.0593788e-38
0.12011245 0.14880846 0.036397398 7.7429377e-39
0.11755088 0.027083728 0.05200088 1.5005593e-38
0.11722374 0.029396612 0.050848126 1.90604e-38
0.11682984 0.14743038 0.036074936 1.0198488e-38
0.11765049 0.14991572 0.035888672 5.3477487e-39
0.11329398 0.027546078 0.051506042 1.8603346e-38
0.11350469 0.029471017 0.050448775 1.9607814e-38
0.11486027 0.14937012 0.035536647 3.0418392e-39
0.1097675 0.029549655 0.050114036 1.979325e-38
0.10582611 0.030267648 0.049431145 1.9792906e-38
0.10145956 0.031285316 0.049258292 1.9701772e-38
0.10172981 0.032535568 0.048124194 1.9977638e-38
0.10014465 0.11965495 0.038044274 1.5559418e-38
0.10014465 0.12097426 0.037879825 1.2233928e-38
0.098829716 0.031236712 0.048868358 1.9703557e-38
0.097417325 0.033012468 0.047823012 1.9885803e-38
0.094001889 0.033212833 0.047283828 1.9700353e-38
0.090169311 0.033328503 0.046539545 1.9425201e-38
0.085973233 0.034220517 0.045541942 1.9334076e-38
0.085316718 0.03618452 0.045198262 1.9608168e-38
0.081834495 0.034854621 0.045518994 1.914826e-38
0.081771493 0.036645968 0.044606984 1.8963859e-38
0.079105765 0.034830138 0.045450926 1.7863648e-38
0.077993572 0.037393175 0.044284701 1.8135547e-38
0.074174777 0.038367122 0.044267595 1.7492326e-38
0.074155807 0.040589236 0.042968869 1.7401568e-38
0.070111215 0.040542949 0.042705297 1.6386347e-38
0.066036731 0.041822542 0.042356908 1.5556235e-38
0.063326612 0.042454407 0.042124867 1.5186726e-38
0.061927974 0.044008937 0.040956318 1.546187e-38
0.05839926 0.045787308 0.039948702 1.4268e-38
0.057086214 0.047519609 0.039535046 1.3806638e-38
0.054363251 0.048814617 0.039254844 1.4176522e-38
0.053147063 0.051399074 0.038458407 1.3899928e-38
0.052807152 0.12405738 0.030368686 1.2063225e-38
0.051163495 0.053113952 0.038964868 1.3160941e-38
0.050520971 0.12249136 0.029200792 1.1234545e-38
0.046634853 0.057405218 0.037340581 1.2791082e-38
0.045597047 0.060152151 0.036230564 1.3711959e-38
0.043217897 0.060770392 0.036406636 1.4266208e-38
0.042353123 0.064031802 0.0355497 1.5278538e-38
0.039219528 0.065316759 0.035645545 1.4359458e-38
0.038522601 0.067659438 0.034739077 1.3713376e-38
0.037027985 0.081547782 0.033292294 1.297833e-38
0.0373905 0.084043451 0.032016814 1.279215e-38
0.0373905 0.1103919 0.02873224 1.1590019e-38
0.037843198 0.11280949 0.028702796 1.1955943e-38
0.037027985 0.1158499 0.029016197 1.3798767e-38
0.035713047 0.072947942 0.034166276 1.390028e-38
0.035713047 0.08548142 0.032603979 1.2974753e-38
0.034462452 0.089152828 0.031321108 1.2701748e-38
0.033779651 0.093528032 0.030290842 1.3069401e-38
0.033451349 0.095827453 0.029954791 1.2703442e-38
0.033451349 0.099779718 0.029462099 1.187162e-38
0.034107894 0.10572025 0.028820395 1.2420492e-38
0.034204006 0.10951689 0.028701186 1.2053487e-38
0.035713047 0.11252731 0.029232383 1.2695268e-38
0.031532049 0.089652121 0.031199753 1.2242936e-38
0.031464338 0.092957184 0.030421019 1.2147841e-38
0.030614436 0.096948601 0.029515266 1.0212817e-38
0.030825287 0.10104861 0.028908551 9.1093649e-39
0.030849457 0.10490411 0.02881366 8.9264184e-39
0.031453311 0.10820955 0.028789639 9.3873909e-39
0.027372658 0.097430855 0.02965486 9.1115005e-39
0.027823478 0.10116737 0.029460788 8.7434368e-39
0.027823478 0.10380597 0.02913177 8.5597434e-39
0.15400529 0.085891373 0.0089259148 1.362624e-38
0.080759943 0.059628233 0.028343797 1.6291283e-38
0.090673313 0.08763244 0.025338531 1.5099193e-38
0.14665176 0.023232188 0.049525976 1.1600425e-38
0.044046134 0.10779206 0.023362637 1.1685065e-38
0.15321369 0.013969358 0.063623965 7.4538274e-39
0.14818992 0.0138156 0.061528206 8.9318021e-39
0.14964354 0.014253661 0.061013103 8.9289379e-39
0.14686933 0.013791196 0.061332464 8.7492017e-39
0.14516661 0.015427377 0.061126828 8.9310791e-39
0.14137518 0.017051589 0.061117828 8.8374625e-39
0.14136124 0.019707356 0.059037924 1.003672e-38
0.13916142 0.021541614 0.058186889 1.0772467e-38
0.1372622 0.01700981 0.061182976 7.7318394e-39
0.13718642 0.019484773 0.059980035 8.8374611e-39
0.13718337 0.021505058 0.057893634 1.0038493e-38
0.13380685 0.02068989 0.059864402 8.4690023e-39
0.13311478 0.022782419 0.057631314 1.0125662e-38
0.12924424 0.021529432 0.059752047 8.468289e-39
0.13124922 0.14973541 0.041015267 1.7866541e-38
0.1252712 0.021456007 0.059163094 8.2882292e-39
0.12581785 0.023319256 0.056635618 1.0492278e-38
0.11997379 9.7893178e-05 0.061028004 3.7685106e-39
0.1226225 0.02140706 0.058770418 8.9310651e-39
0.12189722 0.023435291 0.056981921 1.0770649e-38
0.1173251 4.8950315e-05 0.060635328 1.9328586e-39
0.1175727 0.024572939 0.056596577 1.0765673e-38
0.11467639 0 0.060242653 2.4853051e-39
0.11517537 0.02513032 0.05514729 1.0763891e-38
0.11404285 0.026716705 0.054014802 1.5004869e-38
0.10984924 0.02702982 0.054278493 1.8232052e-38
0.10566862 0.027006689 0.054500997 1.9886536e-38
0.10619396 0.028870914 0.052309871 1.9976922e-38
0.10543881 0.13005516 0.041875362 8.1013478e-39
0.10540596 0.13270499 0.042304218 8.4679667e-39
0.10179064 0.027575996 0.053506672 1.960707e-38
0.10223785 0.030120894 0.051558435 1.9423036e-38
0.10177402 0.12249887 0.040482461 9.2047905e-39
0.10202938 0.12554064 0.040424764 9.6686441e-39
0.10185027 0.1296528 0.040564418 1.1046196e-38
0.097898886 0.027692169 0.053245842 1.9057488e-38
0.097883135 0.030388758 0.051124156 1.9425192e-38
0.098281771 0.12001809 0.039756417 1.6850492e-38
0.097796232 0.12180638 0.039630234 1.3071214e-38
0.098068058 0.12546806 0.03983742 1.1602946e-38
0.097943142 0.1289442 0.040834427 1.2523472e-38
0.093486801 0.02884119 0.053457201 1.877877e-38
0.093998522 0.030712765 0.051432908 1.9239756e-38
0.091688275 0.03257212 0.049664617 1.9424495e-38
0.093859643 0.12557392 0.040096343 1.3256007e-38
0.093486801 0.12849844 0.041034102 1.3257821e-38
0.089799017 0.030694038 0.051652193 1.9056078e-38
0.089050889 0.032523382 0.04927361 1.942485e-38
0.090217084 0.12573557 0.039721906 1.4821516e-38
0.090838104 0.12844948 0.040641427 1.5373631e-38
0.085638314 0.03110753 0.051653445 1.8962431e-38
0.087072834 0.032486826 0.048980355 1.9242244e-38
0.081764728 0.031897113 0.050632238 1.8322794e-38
0.082160801 0.033795077 0.049096763 1.8873824e-38
0.077925682 0.032207713 0.050694764 1.7586322e-38
0.07764177 0.034099285 0.049142599 1.7770031e-38
0.074176118 0.034987304 0.047949731 1.7034239e-38
0.073885858 0.036873952 0.046448171 1.7399774e-38
0.069856256 0.036323927 0.04828757 1.6847673e-38
0.070199579 0.038029253 0.046156764 1.6660777e-38
0.066999808 0.036324281 0.048536658 1.6383455e-38
0.065759838 0.038507145 0.047204614 1.583137e-38
0.066633016 0.040047646 0.044960558 1.5740262e-38
0.062096447 0.039654288 0.046975791 1.4913714e-38
0.062020987 0.041703552 0.045078754 1.5278915e-38
0.057894006 0.042997312 0.044805527 1.5279274e-38
0.058061481 0.044520065 0.043112576 1.4819012e-38
0.054203242 0.043938968 0.044302404 1.4082902e-38
0.05409649 0.045749474 0.043585062 1.3898869e-38
0.053211421 0.12533316 0.034346223 1.3538703e-38
0.051107615 0.044003166 0.045186818 1.3897432e-38
0.050320804 0.046835281 0.043900251 1.3620844e-38
0.05040741 0.049313888 0.041770279 1.3528643e-38
0.04948993 0.052300215 0.040852249 1.2791051e-38
0.050339818 0.12534328 0.032486141 1.2153986e-38
0.049452171 0.12801684 0.034464598 1.2521693e-38
0.047134563 0.047916025 0.044100881 1.2885423e-38
0.046206191 0.050441541 0.042481899 1.2239681e-38
0.046941102 0.053322747 0.040632188 1.2791766e-38
0.046193182 0.055547021 0.039951205 1.334424e-38
0.047825664 0.12524687 0.032527268 1.2612441e-38
0.047134563 0.12764181 0.034162402 1.297979e-38
0.043161497 0.051828891 0.043014944 1.3069434e-38
0.042341024 0.054319054 0.041125536 1.3619028e-38
0.042837262 0.057046935 0.039428771 1.3342444e-38
0.041577742 0.059431002 0.038772106 1.3440369e-38
0.039188445 0.055741757 0.041929007 1.4264403e-38
0.038387924 0.058437325 0.040453613 1.3436436e-38
0.038820118 0.061403543 0.038450658 1.4082886e-38
0.038061202 0.063776329 0.037701011 1.4450937e-38
0.034237832 0.062400952 0.039844155 1.3253513e-38
0.034558177 0.065397337 0.038160384 1.3162723e-38
0.034119755 0.068315223 0.036745608 1.2889725e-38
0.033543438 0.072558299 0.036265731 1.4543124e-38
0.034262091 0.076933317 0.035925627 1.3623697e-38
0.033973247 0.080810964 0.035573483 1.3438228e-38
0.033995211 0.084098868 0.034555495 1.3252406e-38
0.033665568 0.087069735 0.03413552 1.30673e-38
0.034105092 0.11353971 0.030902028 1.3248812e-38
0.032566696 0.11607811 0.033410668 1.362371e-38
0.031242341 0.062903106 0.039839983 1.2147157e-38
0.031046361 0.065696351 0.038783073 1.2059241e-38
0.030948311 0.068750151 0.038048029 1.2150003e-38
0.030611932 0.072933324 0.037621439 1.3440027e-38
0.030245692 0.076713346 0.037062705 1.3897425e-38
0.030658096 0.080542676 0.035515428 1.4450215e-38
0.030945718 0.084406123 0.034284532 1.3989589e-38
0.03050068 0.0878051 0.033567369 1.297761e-38
0.029709458 0.094935179 0.032559454 1.1778338e-38
0.029709458 0.1094892 0.030745149 9.6679154e-39
0.030492336 0.11250553 0.031506002 1.0587731e-38
0.029771954 0.11592992 0.032499015 1.2797536e-38
0.028593689 0.11932659 0.032407582 1.371734e-38
0.027269304 0.078110464 0.037346125 1.4268702e-38
0.02643016 0.080900624 0.036580861 1.3902058e-38
0.026779413 0.08441247 0.034222603 1.3624734e-38
0.02708897 0.088794768 0.033208251 1.3254547e-38
0.026721865 0.092680812 0.032827437 1.260847e-38
0.026647985 0.095250562 0.032313943 1.0581245e-38
0.025753349 0.10081598 0.031230748 8.5597742e-39
0.025988668 0.10450381 0.031061172 8.3764479e-39
0.026653379 0.10831454 0.03156364 9.2969777e-39
0.026195854 0.11251223 0.032216787 1.0774983e-38
0.026509434 0.11534335 0.031062007 1.3165603e-38
0.023296267 0.089331523 0.03534919 1.298013e-38
0.023549229 0.092549525 0.034306884 1.2059628e-38
0.022660166 0.096564204 0.032950878 9.2044276e-39
0.022563845 0.10034546 0.032280982 7.9144006e-39
0.023070097 0.10420074 0.032646537 7.3615982e-39
0.023296267 0.10726983 0.033113003 8.0066313e-39
0.024055183 0.11288272 0.030489802 1.2798977e-38
0.0193232 0.10188136 0.033186555 6.993166e-39
0.15765771 0.070265055 0.011342883 1.5742771e-38
0.15773121 0.099442855 0.010514677 1.399537e-38
0.11882713 0.093827531 0.0084143281 9.2930359e-39
0.094181031 0.076556228 0.027562559 1.6295214e-38
0.063318908 0.051504955 0.035900891 1.5649477e-38
0.098451272 0.029050108 0.053227544 1.2059982e-38
0.096479088 0.031759202 0.051621497 1.2150372e-38
0.160478 0.0089315064 0.069081664 4.6951122e-39
0.15651186 0.0090545528 0.069233418 5.2472125e-39
0.15667531 0.011490073 0.067171276 6.5343584e-39
0.15253867 0.0098465718 0.069300652 6.9035137e-39
0.1525954 0.01210095 0.066990316 7.2708711e-39
0.14817317 0.010107134 0.068780839 7.2744598e-39
0.14860822 0.012027275 0.066399276 8.1016954e-39
0.14543943 0.010069933 0.068713427 7.6414333e-39
0.14422239 0.012494739 0.066827059 8.1038379e-39
0.14035541 0.0130217 0.067288995 7.3659296e-39
0.14073977 0.015193205 0.064310491 8.0084249e-39
0.13743682 0.013936687 0.067026615 6.8145677e-39
0.13668105 0.015134066 0.064046502 6.8142005e-39
0.13270421 0.016814243 0.064063072 6.5365038e-39
0.13203502 0.019438032 0.061791599 7.3641219e-39
0.12743355 0.0017078966 0.067044973 8.9357482e-39
0.12676667 0.003033787 0.066779315 9.3931222e-39
0.12676667 0.016415928 0.065111101 4.3267066e-39
0.1286342 0.01966795 0.062609434 6.6276471e-39
0.12425603 0.0016300604 0.065897048 8.1103203e-39
0.12383237 0.0035148486 0.066277564 1.0689626e-38
0.12445074 0.01963596 0.062832773 6.3507113e-39
0.12089863 0.0014915541 0.062691867 5.3477263e-39
0.12031162 0.0042247027 0.064753354 1.2443515e-38
0.11943093 0.0069128573 0.065191329 1.4010434e-38
0.11943093 0.01761857 0.063856781 2.3931319e-39
0.12038144 0.020040963 0.061787486 7.3637604e-39
0.11973184 0.022741318 0.059187889 1.1139444e-38
0.11683366 0.0014259815 0.06242764 1.015315e-39
0.11650605 0.0041278675 0.063399911 1.2724422e-38
0.11602193 0.0080072135 0.064159632 1.0877236e-38
0.11743028 0.017581597 0.063560188 1.4697477e-39
0.11625969 0.020198591 0.062378526 7.6378445e-39
0.1165669 0.023274384 0.059663832 1.0677068e-38
0.11268046 0.0013683364 0.062488735 8.3128949e-40
0.11245787 0.0040598363 0.063025355 1.3929809e-38
0.11238784 0.0074095279 0.062880337 1.4202372e-38
0.11235756 0.020530343 0.062137842 8.369639e-39
0.11255786 0.023862138 0.059496343 1.1503199e-38
0.10817893 0.0013425127 0.063852131 3.3241364e-39
0.1081506 0.0040205494 0.063627243 1.4752014e-38
0.10790335 0.0076556951 0.063363254 1.262573e-38
0.10842735 0.021095306 0.061766744 1.1047219e-38
0.10866463 0.023973651 0.059179425 1.5651948e-38
0.10753684 0.12917835 0.045102537 6.3571628e-39
0.10779575 0.13562627 0.043318808 8.100252e-39
0.10409258 0.0012765527 0.063584745 9.4904214e-39
0.10489285 0.0037001073 0.06340307 1.612846e-38
0.10475948 0.0066417232 0.063016295 1.6400695e-38
0.10409258 0.021349758 0.061082482 1.3628052e-38
0.10476364 0.023881089 0.058264077 1.8328199e-38
0.10646951 0.12695251 0.04420042 6.9063878e-39
0.10646951 0.12894849 0.043951631 5.8962057e-39
0.1050113 0.13501897 0.043484807 9.0207426e-39
0.10458747 0.13870023 0.044603705 1.2612797e-38
0.10435441 0.14290366 0.044950247 2.0266471e-38
0.10009128 0.0012026057 0.06299156 1.2904109e-38
0.10009128 0.021275811 0.060489297 1.2154009e-38
0.10062793 0.023838647 0.058212757 1.7313694e-38
0.10074696 0.13450545 0.043982267 1.2152872e-38
0.10067807 0.13846989 0.045764685 1.5565209e-38
0.10142505 0.1417397 0.045673251 1.9434561e-38
0.097423747 0.021226507 0.06009376 1.0396554e-38
0.096363306 0.023821272 0.058591783 1.5284699e-38
0.095859632 0.026292108 0.055151224 1.8417877e-38
0.096785352 0.13115165 0.042473674 1.3810622e-38
0.096637294 0.13452625 0.043813884 1.4733633e-38
0.09653455 0.13808076 0.045393109 1.6944148e-38
0.092360243 0.023953129 0.058609486 1.3165657e-38
0.093067348 0.026938129 0.055159748 1.7862204e-38
0.093067348 0.13080375 0.042212069 1.4271971e-38
0.09232834 0.13431241 0.044356287 1.5193192e-38
0.088182762 0.02438036 0.057969689 1.2058564e-38
0.088816643 0.027586933 0.055401146 1.7310821e-38
0.0889557 0.13020203 0.041540623 1.6297737e-38
0.088229984 0.13402778 0.044138551 1.7955813e-38
0.085419834 0.02501931 0.057813704 1.085536e-38
0.08450608 0.027581144 0.055885017 1.5929697e-38
0.083923519 0.03006348 0.052884042 1.9053545e-38
0.085119843 0.12997903 0.041061699 1.6942402e-38
0.08462581 0.13395317 0.04222244 1.8966775e-38
0.080480173 0.02751394 0.05540067 1.3535138e-38
0.081172198 0.030036058 0.052812934 1.8322087e-38
0.080776781 0.13015853 0.041630805 1.6666523e-38
0.080381334 0.13310573 0.042562425 1.8507581e-38
0.076642156 0.028485905 0.055295885 1.2705395e-38
0.076724112 0.03053296 0.052760601 1.5744562e-38
0.076385677 0.13035923 0.042303264 1.6109766e-38
0.076083437 0.1332421 0.042917311 1.7675982e-38
0.072709262 0.031532638 0.05355984 1.5467258e-38
0.072495654 0.033882223 0.051196992 1.6667616e-38
0.072732523 0.13005739 0.040658712 1.8037214e-38
0.072082132 0.13316816 0.042324126 1.7033182e-38
0.068747699 0.032071378 0.054424584 1.5280357e-38
0.069073051 0.034509599 0.050943136 1.6482117e-38
0.066747069 0.032703511 0.054044604 1.3812441e-38
0.064717352 0.035185978 0.051391721 1.5189952e-38
0.060858309 0.035329267 0.051429749 1.279111e-38
0.060964316 0.037976168 0.048695803 1.4727889e-38
0.05707562 0.036066774 0.051829576 1.4633572e-38
0.057027116 0.039182521 0.0493536 1.4265862e-38
0.057288051 0.041576222 0.047778487 1.4911228e-38
0.056361243 0.13002054 0.039476335 1.9063616e-38
0.056610391 0.1339528 0.039896905 1.7585602e-38
0.056076899 0.136887 0.039450824 1.602332e-38
0.054076254 0.036483992 0.051665664 1.3811719e-38
0.053171784 0.038916226 0.050789773 1.4452763e-38
0.053483725 0.042327952 0.047383726 1.4358789e-38
0.054304287 0.12621026 0.036439359 1.5199306e-38
0.053304508 0.12965168 0.03755796 1.5101363e-38
0.053409338 0.13349217 0.039472461 1.5466556e-38
0.050409913 0.039956339 0.050341189 1.4729316e-38
0.049890608 0.042633157 0.048027396 1.4081815e-38
0.048442721 0.045850154 0.045914054 1.3437522e-38
0.049764663 0.13033222 0.036260903 1.3441839e-38
0.049665809 0.13292658 0.03821516 1.4270507e-38
0.046410471 0.043895196 0.049248159 1.3161651e-38
0.044989824 0.046830237 0.046970189 1.2700297e-38
0.044136524 0.049288005 0.04449749 1.2607747e-38
0.045079589 0.12944417 0.035284102 1.3533315e-38
0.041844457 0.047512323 0.047175705 1.3068004e-38
0.041141033 0.050446972 0.04441148 1.2884693e-38
0.040157825 0.053206429 0.043410003 1.3344602e-38
0.039092869 0.048154294 0.046936214 1.2977972e-38
0.037094414 0.050789073 0.046306908 1.2702451e-38
0.037820965 0.054290712 0.043534398 1.3713383e-38
0.036179096 0.057124861 0.042322576 1.343498e-38
0.034292012 0.055745512 0.046286047 1.334351e-38
0.033825964 0.058522604 0.042812943 1.2513422e-38
0.032200426 0.061043292 0.041235089 1.3527215e-38
0.033604294 0.11804068 0.035360157 1.4084703e-38
0.03243345 0.12019271 0.036953449 1.4825487e-38
0.030412793 0.059650555 0.044875622 1.1963123e-38
0.029399544 0.06236957 0.04105562 1.1687243e-38
0.028539807 0.065451592 0.040474117 1.1322405e-38
0.028221697 0.068953693 0.039650023 1.1409959e-38
0.028221697 0.072280318 0.039235294 1.2334431e-38
0.029474109 0.11793885 0.035769999 1.3992136e-38
0.025808781 0.062667117 0.043636501 1.0494069e-38
0.02548191 0.065820888 0.041665792 1.0400796e-38
0.025857598 0.069036953 0.040302575 1.0858918e-38
0.025318354 0.072979987 0.039390206 1.1873444e-38
0.025356263 0.076735608 0.038375854 1.2980132e-38
0.024243027 0.080190711 0.037650168 1.2974743e-38
0.026521653 0.11768706 0.034337938 1.3991758e-38
0.022288054 0.066229381 0.043171942 9.6654071e-39
0.022104681 0.069430307 0.041871965 1.0400821e-38
0.021492541 0.073085293 0.040159702 1.0951844e-38
0.021873236 0.076958582 0.038715243 1.1784477e-38
0.021642864 0.081121482 0.038016021 1.3163806e-38
0.022062957 0.084882542 0.037246585 1.3256714e-38
0.020938426 0.088699467 0.036819756 1.2333332e-38
0.0207358 0.092847601 0.036053836 1.1138742e-38
0.020264298 0.095419697 0.035152793 9.4824536e-39
0.020500034 0.10511626 0.034234226 6.6251107e-39
0.021620572 0.10884313 0.034193099 8.0083927e-39
0.022062957 0.11151451 0.033926666 1.0133194e-38
0.018731385 0.070624359 0.042088509 9.5728037e-39
0.017568141 0.07322035 0.04113698 9.5710577e-39
0.017756194 0.077395298 0.0405882 1.1139099e-38
0.017519474 0.081032418 0.039844453 1.2058913e-38
0.017782718 0.085177541 0.039112628 1.2610269e-38
0.017116785 0.089174204 0.038514197 1.1780164e-38
0.017116785 0.093183175 0.038014412 1.1230924e-38
0.017438978 0.097010285 0.035420597 8.7405796e-39
0.017155111 0.10064775 0.034797072 7.543809e-39
0.017695069 0.10495473 0.035105705 5.9808105e-39
0.01767239 0.10928208 0.036382377 7.2736891e-39
0.018731385 0.11210899 0.03691715 1.0034886e-38
0.014396638 0.081584513 0.04006964 1.168868e-38
0.013832897 0.085423723 0.039360762 1.2516649e-38
0.013612777 0.089178264 0.038438976 1.1779438e-38
0.01374346 0.09313871 0.037625194 1.0768511e-38
0.013406515 0.096932679 0.036988497 9.109718e-39
0.013251394 0.10107162 0.036109507 7.8204183e-39
0.013787091 0.10514855 0.036021531 6.7183769e-39
0.013526231 0.10860667 0.036230385 7.3623212e-39
0.010195255 0.089469239 0.038454235 1.0862123e-38
0.010325521 0.093110695 0.037340641 1.0037022e-38
0.010193676 0.10921419 0.035652936 8.0984401e-39
0.18834794 0.078072049 0.012693524 1.0487602e-38
0.15271045 0.06038446 0.014967382 1.7585242e-38
0.12110405 0.064599752 0.015944839 1.2796101e-38
0.11312854 0.070317894 0.012779534 7.8189792e-39
0.12445074 0.01963596 0.062832773 6.3507113e-39
0.13901196 0.011373188 0.069621205 6.7223496e-39
0.13544634 0.012492009 0.069199622 4.9720928e-39
0.13031799 0.0018185601 0.069503367 8.3851206e-39
0.13009298 0.0072186142 0.069815278 1.7466849e-39
0.13277182 0.013315596 0.069458544 4.0479995e-39
0.1307627 0.015294295 0.068909407 4.877358e-39
0.12898043 0.001793839 0.069305062 8.5680601e-39
0.12772502 0.0046345443 0.069144011 8.1981846e-39
0.12741414 0.0089609586 0.069194794 9.2195209e-40
0.12707929 0.012538455 0.068698406 1.5640859e-39
0.12769572 0.016556054 0.067780852 4.8777238e-39
0.12347466 0.0052930042 0.068719208 1.1516854e-38
0.12298879 0.0086491629 0.068397641 5.1578812e-39
0.12294939 0.012462139 0.068086207 7.3540564e-40
0.12350026 0.016481359 0.067215204 3.3147225e-39
0.11977473 0.0087225586 0.067201018 6.3568181e-39
0.11937761 0.01239612 0.06755662 1.010552e-39
0.11970587 0.016021337 0.066571891 2.0239851e-39
0.11694261 0.009623345 0.066516697 4.8791713e-39
0.11551294 0.012130048 0.066371024 1.2860571e-39
0.11548221 0.0165544 0.065942228 1.1942454e-39
0.11159246 0.0095244683 0.065723538 7.4530861e-39
0.11170915 0.011431318 0.066114783 2.2962475e-39
0.11180116 0.017269995 0.065298855 2.114394e-39
0.11092368 0.018906068 0.064453363 5.3347447e-39
0.10824862 0.0094626732 0.065227866 6.0705371e-39
0.10698798 0.011159245 0.06584549 2.204412e-39
0.10732281 0.017548885 0.065099478 4.3173669e-39
0.10720915 0.019395519 0.064240754 7.5445363e-39
0.10256408 0.004325144 0.065012455 1.7046099e-38
0.10326278 0.0084282979 0.065042853 7.2737536e-39
0.10410562 0.010749053 0.064953148 1.7452346e-39
0.10373005 0.019599617 0.063691497 9.2901562e-39
0.10019654 0.0036969557 0.065345645 1.4834489e-38
0.10062572 0.009361811 0.065111697 7.350455e-40
0.099554628 0.020037957 0.062600613 9.3917069e-39
0.098885864 0.14013408 0.047528982 1.7868653e-38
0.10008925 0.14362533 0.047784388 2.0632026e-38
0.10089216 0.14621012 0.047073603 2.3309592e-38
0.096073806 0.0012000427 0.064934313 1.1610833e-38
0.097946882 0.0032648221 0.065468431 1.2620629e-38
0.095451325 0.02087516 0.06221813 9.4763776e-39
0.095739901 0.13985306 0.047599792 1.758918e-38
0.097946882 0.14235686 0.048129499 1.9434171e-38
0.092728555 0.020610366 0.062011003 8.9242562e-39
0.092866942 0.13666786 0.047054946 1.5468679e-38
0.092059314 0.13810566 0.047263503 1.6114791e-38
0.089910358 0.021258745 0.062015414 8.7394683e-39
0.088759869 0.022542082 0.06100291 8.2731891e-39
0.088854343 0.1365937 0.046460032 1.7310446e-38
0.088570938 0.13815193 0.047242165 1.7586321e-38
0.084362835 0.023813114 0.060352266 8.9210318e-39
0.085510492 0.1365319 0.045964301 1.9519234e-38
0.085892111 0.13810243 0.046844959 1.9980893e-38
0.080942482 0.02477302 0.059972405 9.1965509e-39
0.080443352 0.13598929 0.045676708 1.9519208e-38
0.075824067 0.026778229 0.058527291 1.0216056e-38
0.076368779 0.13568912 0.045304418 1.9152202e-38
0.072574377 0.028312642 0.058271408 1.0952575e-38
0.072985753 0.13540326 0.044728816 1.8506485e-38
0.068582892 0.03024837 0.057344198 1.3716988e-38
0.068686783 0.13472758 0.043995976 1.8232048e-38
0.064383864 0.032031585 0.056218088 1.1967099e-38
0.064875096 0.13396437 0.043941855 1.7861811e-38
0.060443103 0.032809138 0.056139231 1.1225222e-38
0.060766056 0.034083061 0.05501008 1.2146461e-38
0.060443103 0.13225658 0.043742299 2.0442229e-38
0.060443103 0.13360046 0.04357475 2.0255664e-38
0.057094544 0.03274725 0.055642784 1.1869861e-38
0.056419075 0.034338225 0.054323792 1.3345337e-38
0.058090985 0.13199919 0.042401254 2.0166725e-38
0.058090985 0.13334118 0.042234004 1.970647e-38
0.055085421 0.13887697 0.042110324 1.6211294e-38
0.052607119 0.035305019 0.054036975 1.2980128e-38
0.048222959 0.039261449 0.052985549 1.2702486e-38
0.047048897 0.041968793 0.05298084 1.3346763e-38
0.047788978 0.13484864 0.040902674 1.4551452e-38
0.043708101 0.043638825 0.051590323 1.2241854e-38
0.045709491 0.135344 0.041139185 1.3816743e-38
0.040689558 0.043983273 0.051568449 1.1597208e-38
0.040368631 0.046119552 0.050438702 1.2150387e-38
0.037672967 0.044483289 0.051255763 9.8447999e-39
0.036675423 0.04712069 0.050437152 1.1414243e-38
0.03365469 0.052472331 0.049654901 1.2152855e-38
0.032496065 0.054750107 0.048686981 1.2239695e-38
0.030975848 0.12297675 0.040462673 1.4272658e-38
0.028146714 0.059033573 0.047498226 1.0951487e-38
0.029556841 0.12118326 0.039453685 1.4542074e-38
0.025618166 0.06038712 0.047458351 1.0402595e-38
0.023127198 0.062298156 0.046335578 9.4827941e-39
0.020603895 0.063764684 0.046078622 8.9313902e-39
0.019621134 0.066018298 0.045174181 9.1133053e-39
0.019302398 0.068879634 0.044429898 9.6650582e-39
0.017581642 0.06427025 0.045764387 8.0062249e-39
0.016306102 0.066241972 0.045156658 7.5463313e-39
0.016315252 0.069374815 0.044300497 8.3764507e-39
0.015289813 0.076186448 0.042914927 1.0216417e-38
0.015289813 0.11107829 0.038565397 8.3789142e-39
0.012670428 0.063731536 0.045092165 5.6098602e-39
0.012893677 0.066199444 0.044818103 5.8875219e-39
0.012893647 0.069559164 0.044399321 6.9927932e-39
0.013218373 0.07348597 0.043109477 8.3725201e-39
0.012781948 0.077649847 0.042354941 1.0030955e-38
0.01181221 0.081221759 0.041763663 1.0952542e-38
0.011277199 0.084835254 0.041232646 1.2241497e-38
0.012614727 0.11102886 0.038168788 8.3764507e-39
0.010884553 0.063474543 0.044855297 5.3279105e-39
0.010884553 0.066162318 0.044520259 3.8592446e-39
0.010884553 0.070193969 0.044017673 6.6200801e-39
0.010549694 0.073883459 0.043507338 7.3630429e-39
0.009162426 0.077361532 0.042864978 7.9133594e-39
0.0089411736 0.08155676 0.042138755 1.0402951e-38
0.0091387928 0.085516296 0.041165411 1.1966311e-38
0.0086021125 0.088140801 0.04041785 1.1046496e-38
0.0088753998 0.11248919 0.038442731 8.2867761e-39
0.19243208 0.075290896 0.013145626 8.835645e-39
0.1647968 0.081689097 0.011983097 1.3350004e-38
0.12439378 0.10121465 0.012234688 1.0955068e-38
0.096587628 0.061734542 0.029639304 1.5372191e-38
0.06978488 0.039054114 0.045049489 1.6570032e-38
0.11486791 0.013748042 0.068746984 6.4321001e-40
0.11419632 0.015083302 0.068479419 1.0109261e-39
0.11150995 0.013685986 0.068249166 4.5954042e-40
0.11128607 0.015478738 0.067991972 9.1944377e-40
0.1080244 0.012970582 0.068323016 3.6770212e-40
0.1080244 0.015666857 0.067986906 1.6544977e-39
0.10385376 0.013005432 0.067181349 5.5137451e-40
0.10382411 0.016095094 0.067301214 3.4018832e-39
0.098749653 0.0053641871 0.067365408 1.2535713e-38
0.09923327 0.0078069195 0.067337513 7.3608695e-39
0.10081127 0.01172059 0.067562819 1.0105534e-39
0.10009542 0.017029576 0.067132771 5.8850374e-39
0.10009283 0.018865652 0.06588459 8.2813642e-39
0.098749653 0.14619513 0.049809694 2.2472692e-38
0.095640361 0.0041565001 0.067193508 8.103482e-39
0.095911682 0.0080286786 0.06717211 2.1125948e-39
0.095791176 0.017489854 0.066427469 7.2654425e-39
0.095523417 0.019158058 0.065924346 8.0055144e-39
0.095995247 0.14350615 0.049984992 1.961643e-38
0.091910481 0.003905192 0.066970527 4.0476156e-39
0.091849178 0.019198019 0.065281332 8.6483713e-39
0.092369512 0.14034966 0.049577832 1.6851648e-38
0.091083437 0.14156188 0.05025202 1.7039628e-38
0.087910295 0.020904992 0.064135909 8.5561939e-39
0.088004142 0.13993208 0.048972666 1.7401584e-38
0.087720752 0.14149974 0.049753606 1.712608e-38
0.084358066 0.021327227 0.06422776 8.371074e-39
0.083157539 0.022625133 0.063375711 9.1035971e-39
0.083532512 0.13944437 0.048971653 1.9799741e-38
0.085030615 0.14145002 0.049354732 1.9890137e-38
0.07984741 0.023452576 0.062604427 9.2926533e-39
0.079748243 0.13925424 0.048493505 1.9703941e-38
0.075943828 0.024668023 0.062340677 8.6483783e-39
0.077258632 0.13703816 0.047715664 1.9521353e-38
0.07546699 0.13902502 0.047809601 1.9615341e-38
0.072924972 0.025164604 0.06202811 8.1888071e-39
0.071320578 0.026805274 0.061327338 9.2004745e-39
0.071214288 0.13692646 0.046819568 1.8507205e-38
0.071630597 0.13914114 0.047455251 1.9338395e-38
0.067752123 0.028397623 0.060167015 1.0862529e-38
0.067184716 0.13685198 0.04622221 1.8417158e-38
0.067596599 0.13906661 0.046857357 1.8693041e-38
0.064854532 0.029064119 0.060326934 1.1688298e-38
0.063614592 0.03036733 0.059638143 1.2147153e-38
0.06382674 0.13589148 0.045836389 1.8322438e-38
0.063509434 0.13745351 0.046612918 1.8045128e-38
0.059797183 0.031597614 0.058230817 1.1041174e-38
0.060065806 0.13537274 0.045334816 1.9981595e-38
