# .PCD v0.7 - Point Cloud Data file format
VERSION 0.7
FIELDS x y z rgb
SIZE 4 4 4 4
TYPE F F F F
COUNT 1 1 1 1
WIDTH 985
HEIGHT 1
VIEWPOINT 0 0 0 0 1 0 0
POINTS 985
DATA ascii
0.13022992 0.12992461 0.030369043 1.3719519e-38
0.12932354 0.13285929 0.030805886 1.1142684e-38
0.12781388 0.034201548 0.020068288 1.4636052e-38
0.12715876 0.037486121 0.019223392 1.4819021e-38
0.1272897 0.12757474 0.028618991 1.3262837e-38
0.12653488 0.13003173 0.029359937 1.0862165e-38
0.12649332 0.13286722 0.031131864 1.0864657e-38
0.12435743 0.035822242 0.020156801 1.564806e-38
0.12330301 0.038066462 0.019091249 1.6109389e-38
0.12218812 0.040212065 0.018345177 1.6478887e-38
0.1228843 0.130395 0.029108584 9.9420192e-39
0.12243761 0.1323864 0.030576229 1.142036e-38
0.11947109 0.038044676 0.018783092 1.7490157e-38
0.11965871 0.040229127 0.018033683 1.7028834e-38
0.11780444 0.1276387 0.02745086 9.2087366e-39
0.11861575 0.13012333 0.029219449 1.0774627e-38
0.11497191 0.038624495 0.018593729 1.7951852e-38
0.11480071 0.041739613 0.01759845 1.7858932e-38
0.11633459 0.12749727 0.028266847 9.5818056e-39
0.11072062 0.03933005 0.018448889 1.8135899e-38
0.11064561 0.04263705 0.017858505 1.8042613e-38
0.10981669 0.046311975 0.017485499 1.7768565e-38
0.10708487 0.0428527 0.018285751 1.8042634e-38
0.10687125 0.04652673 0.017594814 1.776678e-38
0.10695189 0.049181193 0.017447174 1.7580224e-38
0.10337603 0.043586195 0.018414021 1.7584167e-38
0.10297436 0.046431899 0.017552078 1.7490527e-38
0.10189308 0.049215317 0.016824186 1.7123181e-38
0.09913066 0.046557248 0.018071115 1.7210706e-38
0.098782212 0.049901843 0.017190397 1.6753326e-38
0.098073334 0.053040937 0.016773105 1.6387402e-38
0.0952411 0.050805241 0.017527103 1.601792e-38
0.095319003 0.054102048 0.01680243 1.5924656e-38
0.0942536 0.056866556 0.016722083 1.5923568e-38
0.093288213 0.12877175 0.026565671 2.3417331e-38
0.092122555 0.050861061 0.017822623 1.5463697e-38
0.091790542 0.054195091 0.017425418 1.5554442e-38
0.091497838 0.057929367 0.016751409 1.5555523e-38
0.090433866 0.060692206 0.016671002 1.5280005e-38
0.089898765 0.10357371 0.022351086 6.9889004e-39
0.090134799 0.10502607 0.021526873 7.6332034e-39
0.091743961 0.13099724 0.025944173 2.341769e-38
0.090419427 0.13352084 0.026227534 2.3325854e-38
0.087781012 0.058210805 0.017371893 1.5462947e-38
0.087676644 0.061756164 0.016700268 1.5463306e-38
0.085659176 0.065474242 0.016607165 1.5003404e-38
0.088402823 0.10085565 0.022879362 5.97724e-39
0.088110685 0.10606098 0.022741973 8.1859989e-39
0.088164032 0.13496946 0.024925351 2.341769e-38
0.086591139 0.13735442 0.026176214 2.3233659e-38
0.084880203 0.058955848 0.01781863 1.5278176e-38
0.084197506 0.062363058 0.017704666 1.5095252e-38
0.082975268 0.065987721 0.017345011 1.4911569e-38
0.082538009 0.068851829 0.016593277 1.4636401e-38
0.081879377 0.091045752 0.019467831 1.1418553e-38
0.083488867 0.093353361 0.021008134 9.4842402e-39
0.083840832 0.13779643 0.025884271 2.3325854e-38
0.0792045 0.06712018 0.017678559 1.4268354e-38
0.078729987 0.070474073 0.016590178 1.2612416e-38
0.07794404 0.086882681 0.018351912 1.288939e-38
0.078592986 0.089696795 0.019418895 1.1233075e-38
0.080426231 0.092440039 0.020962179 8.6548972e-39
0.077694312 0.14874844 0.025317729 2.1361732e-38
0.074862406 0.070640445 0.017078578 1.2057447e-38
0.074939191 0.074513257 0.016530037 1.2335472e-38
0.074326485 0.07838437 0.017303705 1.390134e-38
0.074873716 0.082134619 0.018010736 1.3716233e-38
0.075067818 0.085642159 0.01896888 1.1969233e-38
0.075169444 0.088240772 0.019847512 1.0953618e-38
0.073515311 0.11408363 0.022494674 1.3251686e-38
0.075941116 0.14692038 0.02439189 2.339537e-38
0.075295925 0.14882466 0.024522185 1.5442532e-38
0.072298706 0.070631459 0.016872644 1.2518732e-38
0.072363287 0.074516058 0.01697135 1.3163775e-38
0.07166943 0.077937454 0.01787132 1.3164515e-38
0.072041094 0.08190982 0.018761158 1.1325587e-38
0.072023958 0.084450766 0.019039452 8.9281686e-39
0.07157971 0.11463367 0.021639824 1.3160931e-38
0.069857448 0.11734542 0.021387815 1.3527205e-38
0.067035735 0.071780294 0.017022967 1.3254917e-38
0.067027166 0.073050752 0.017162204 1.3070523e-38
0.066505268 0.12110798 0.022198617 1.3248801e-38
0.065240189 0.14992267 0.025424719 1.5468007e-38
0.062661722 0.14700994 0.022756517 1.8231343e-38
0.062929168 0.14939657 0.024291992 1.6201587e-38
0.062433243 0.15235537 0.025345445 1.4545667e-38
0.057060286 0.13374816 0.020598769 1.2239335e-38
0.059244573 0.14966786 0.022964358 1.4088261e-38
0.058863804 0.15284437 0.024377942 1.4269753e-38
0.057590708 0.1556911 0.025113583 1.4086812e-38
0.0549604 0.13430071 0.021075428 1.1775091e-38
0.054231778 0.13799053 0.021096706 1.085675e-38
0.053792998 0.1419818 0.021271646 1.0033098e-38
0.053817332 0.14580294 0.021527469 1.1504666e-38
0.054614276 0.1495052 0.022823155 1.2613173e-38
0.055169165 0.15320486 0.024201334 1.3442882e-38
0.056322247 0.15569966 0.024957359 1.3625484e-38
0.0526582 0.13476259 0.022192657 1.1866561e-38
0.050590277 0.13819242 0.021880567 1.1316657e-38
0.050833464 0.14563581 0.022659779 1.1137311e-38
0.05107975 0.14938295 0.023610651 1.1598295e-38
0.052116811 0.15234025 0.024065554 1.2150024e-38
0.12046762 0.10117263 0.012526929 1.2889034e-38
0.1391679 0.085210562 0.014264882 1.160045e-38
0.13557841 0.062205777 0.011224926 1.2610991e-38
0.11420912 0.09469676 0.0094224215 1.5560181e-38
0.13390718 0.083048791 0.012765288 1.5928236e-38
0.1512932 0.082983226 0.015521467 1.8138405e-38
0.0883867 0.078534633 0.012304544 1.2243994e-38
0.12518358 0.096025825 0.016921878 1.3256732e-38
0.11994687 0.09397693 0.016353726 1.8511881e-38
0.13871208 0.085862368 0.017937362 2.0168524e-38
0.15595493 0.043355823 0.01615572 7.8272637e-39
0.11982185 0.088865176 0.015452385 1.4735809e-38
0.10860471 0.091454148 0.013687253 1.4727553e-38
0.12651062 0.12669766 0.025891483 1.2891561e-38
0.12493706 0.12315982 0.023785651 1.5749978e-38
0.10236236 0.12061182 0.02428478 1.888103e-38
0.087684661 0.096952781 0.021130562 1.242767e-38
0.0549604 0.13430071 0.021075428 1.1775091e-38
0.16827339 0.030541435 0.02906996 1.1149571e-38
0.16958787 0.033216625 0.02907759 1.1420383e-38
0.17060009 0.037114114 0.028461695 1.0039599e-38
0.17208037 0.041256189 0.027683198 8.4697688e-39
0.17214692 0.078470618 0.031798601 2.1099111e-38
0.17123947 0.081372917 0.032344401 2.2574617e-38
0.17058311 0.085053861 0.03435868 2.2769085e-38
0.17034833 0.089284122 0.035176694 2.3233659e-38
0.17025901 0.092841715 0.035902202 2.341769e-38
0.16836905 0.097018495 0.034644663 2.341769e-38
0.1677992 0.10083374 0.036769092 2.341769e-38
0.16778196 0.10338985 0.037048936 2.341769e-38
0.16563942 0.029856145 0.027943969 1.022472e-38
0.16639256 0.033263862 0.0271101 9.3038399e-39
0.16734867 0.03651695 0.026573896 8.3797186e-39
0.1669281 0.098862678 0.033402562 2.341769e-38
0.16635108 0.10133626 0.034009516 2.3325854e-38
0.1654049 0.10494193 0.035506666 2.341769e-38
0.16217768 0.026237428 0.027839601 9.7640599e-39
0.16240239 0.029881164 0.025735438 1.0960458e-38
0.16188912 0.10580283 0.034760594 2.3325136e-38
0.16124353 0.10843083 0.03654176 2.3325854e-38
0.16007397 0.11110973 0.036945939 2.3142183e-38
0.15817182 0.025434792 0.026747942 1.1976794e-38
0.15977792 0.028934166 0.02479893 1.2067894e-38
0.15925436 0.10654825 0.033299983 2.2675816e-38
0.15802471 0.1093133 0.034321725 2.2767294e-38
0.15742683 0.11233214 0.036246061 2.249035e-38
0.156858 0.11496537 0.036973 2.239528e-38
0.15415514 0.02214323 0.026104212 1.2897296e-38
0.1546202 0.024935722 0.026151419 1.2436678e-38
0.15540031 0.11293577 0.033527493 2.2485671e-38
0.15376131 0.11639777 0.034973502 2.2296952e-38
0.15236598 0.11882962 0.036842942 2.2299091e-38
0.14924479 0.014055982 0.024892807 9.4814292e-39
0.15051392 0.017435163 0.024282694 1.0869728e-38
0.15149643 0.021201938 0.023426354 1.1788792e-38
0.15103287 0.11752059 0.034168124 2.2568852e-38
0.14961721 0.11942443 0.036162555 2.2387703e-38
0.146905 0.013203651 0.023205578 9.6661694e-39
0.14843041 0.01628764 0.021997273 9.4853767e-39
0.14624713 0.12112396 0.035324514 2.2477389e-38
0.14509767 0.12441655 0.036559045 2.2574642e-38
0.1429458 0.010372385 0.023368061 9.2094792e-39
0.14336248 0.012180433 0.022943377 9.025804e-39
0.14247175 0.12177163 0.033914387 2.1553981e-38
0.14222522 0.12539053 0.035634696 2.1924581e-38
0.14121744 0.12888342 0.036064386 2.2572128e-38
0.1384351 0.010298237 0.02232784 4.7866184e-39
0.13884148 0.012374535 0.020884097 5.4294864e-39
0.14009576 0.12194511 0.032625437 2.1367058e-38
0.13897011 0.12552609 0.033556998 2.1274893e-38
0.1378817 0.12937284 0.034691393 2.1740903e-38
0.13769773 0.13306943 0.036005795 2.2488544e-38
0.13662019 0.13586909 0.036772549 2.0549567e-38
0.13523416 0.010316506 0.022744119 6.4410964e-39
0.13421887 0.013792083 0.022422791 6.3488924e-39
0.13356957 0.017878711 0.021683097 6.7194826e-39
0.13360298 0.021806404 0.021782875 8.0073333e-39
0.13276677 0.024693787 0.023011565 9.8516173e-39
0.13400784 0.12993807 0.032753348 1.8879983e-38
0.13354748 0.13334668 0.033748269 1.5284369e-38
0.13305272 0.13658458 0.035685539 1.5005617e-38
0.1310353 0.018012717 0.023073316 7.7339792e-39
0.13105263 0.022242218 0.023288846 9.5717766e-39
0.13014987 0.025674224 0.023133397 1.1877385e-38
0.12992844 0.028499305 0.021052599 1.2889736e-38
0.13027611 0.13388616 0.032726645 1.1692287e-38
0.12944083 0.13699812 0.035106599 1.4638952e-38
0.12654197 0.030036062 0.022703171 1.4269425e-38
0.12574539 0.033210367 0.021730065 1.5004127e-38
0.12552936 0.13430831 0.033198714 1.2706425e-38
0.12578437 0.1361891 0.035059869 1.5473763e-38
0.12213963 0.012641296 0.021378279 6.441472e-39
0.12361182 0.030842632 0.023569524 1.51878e-38
0.12248546 0.033653319 0.022871375 1.5831375e-38
0.12196766 0.13396758 0.033057868 1.2525254e-38
0.12226684 0.13564639 0.034969568 1.4179399e-38
0.11798702 0.13319199 0.032521248 1.0499838e-38
0.11486405 0.034384564 0.021862984 1.8044052e-38
0.11403291 0.12675603 0.032968163 9.0271941e-39
0.11455512 0.12961671 0.032479823 9.0236012e-39
0.11416635 0.13262492 0.03278774 6.5379374e-39
0.1111685 0.034364358 0.022010982 1.7952584e-38
0.11130978 0.036704317 0.020327032 1.8412122e-38
0.11081694 0.13061166 0.032995224 6.2559751e-39
0.10740799 0.037823021 0.02152127 1.8045875e-38
0.10281396 0.038620785 0.021040142 1.7309384e-38
0.1024632 0.041286513 0.020074427 1.7401221e-38
0.10003953 0.12046047 0.030539513 2.3400661e-38
0.098677233 0.038678676 0.021344841 1.638422e-38
0.098200813 0.041453183 0.02080369 1.6570748e-38
0.098061815 0.044618011 0.018883169 1.6936641e-38
0.097778231 0.12204146 0.030231178 2.3229264e-38
0.096181214 0.12495942 0.03055805 2.3133516e-38
0.094823226 0.042538613 0.021293342 1.6201966e-38
0.094429836 0.045398757 0.020434082 1.62938e-38
0.094860137 0.048456505 0.01891011 1.6203395e-38
0.094326377 0.12547831 0.029574513 2.3046031e-38
0.093317553 0.12999111 0.029238105 2.3325492e-38
0.093206555 0.13272007 0.029018641 2.3048542e-38
0.091094136 0.045894057 0.020694852 1.5740287e-38
0.090254202 0.048917606 0.020620346 1.5279663e-38
0.08950454 0.052682653 0.019726634 1.5279634e-38
0.091154382 0.13448076 0.028620899 2.323366e-38
0.08981809 0.1369348 0.029932797 2.332513e-38
0.088425815 0.13970855 0.031224906 2.3133215e-38
0.086789757 0.051219195 0.02125603 1.5003784e-38
0.086661905 0.053673208 0.020666361 1.5094901e-38
0.086551204 0.056146368 0.01872927 1.5370397e-38
0.086289436 0.094953418 0.022979736 8.2896249e-39
0.08589837 0.097208306 0.024700701 6.7176693e-39
0.086629242 0.10233563 0.025864005 6.2530954e-39
0.085541293 0.10511405 0.026238561 7.7271647e-39
0.084813207 0.1077833 0.027253866 9.2930471e-39
0.087313712 0.13832736 0.02856952 2.3324058e-38
0.085957259 0.13976935 0.030587792 2.2954201e-38
0.083983153 0.054199383 0.020899296 1.5002718e-38
0.08259505 0.058168843 0.020658672 1.5094528e-38
0.082320839 0.061521679 0.019474149 1.4910864e-38
0.082538858 0.095098108 0.023544729 5.711076e-39
0.082843691 0.097002715 0.02480638 5.5220058e-39
0.082053274 0.10834868 0.026771605 1.0302869e-38
0.083452582 0.13886704 0.027474821 2.3325854e-38
0.082229555 0.141049 0.029211283 2.3325853e-38
0.080040947 0.058613092 0.021235883 1.4819397e-38
0.079512551 0.062382147 0.019993484 1.4634987e-38
0.078868896 0.065104321 0.018766046 1.4452035e-38
0.078794315 0.094049841 0.02285254 3.7721063e-39
0.079786628 0.096315354 0.025365353 3.4079999e-39
0.078683525 0.10927901 0.025645792 1.1685771e-38
0.078951046 0.14494632 0.030122221 2.341769e-38
0.078421548 0.14820302 0.029909194 2.3416596e-38
0.074906588 0.063120663 0.021097243 1.417616e-38
0.074890196 0.066256955 0.019008458 1.3071255e-38
0.073014885 0.085500643 0.020291805 9.2962813e-39
0.074956357 0.090090662 0.022390485 5.9811776e-39
0.075774163 0.093316793 0.023692667 4.1365546e-39
0.074997216 0.10933518 0.026064157 1.2423345e-38
0.074842304 0.1121776 0.025489807 1.2882546e-38
0.073312014 0.15015161 0.029491186 1.6375952e-38
0.073035657 0.1513142 0.030598819 1.9246945e-38
0.071716487 0.06314218 0.020704329 1.3347837e-38
0.071119249 0.06594348 0.019925714 1.2610994e-38
0.069643095 0.070042044 0.020448625 1.279501e-38
0.06960547 0.073704258 0.020189404 1.2979402e-38
0.069312617 0.077590287 0.020311594 1.2242556e-38
0.070499882 0.081700683 0.019560874 9.014291e-39
0.071002856 0.085846111 0.022832096 7.082161e-39
0.072451085 0.088905066 0.022625029 6.98386e-39
0.072035521 0.11042546 0.025962234 1.2790702e-38
0.070001543 0.11276907 0.024786353 1.3068016e-38
0.070496529 0.14941433 0.030074596 1.8683376e-38
0.069914401 0.15136409 0.029964209 2.0814637e-38
0.068500519 0.066997826 0.02073133 1.2887568e-38
0.067813963 0.070141494 0.020317435 1.3163092e-38
0.067606688 0.073393762 0.021326542 1.2795015e-38
0.067793533 0.07722646 0.021772623 1.1780147e-38
0.068405658 0.081056297 0.022271216 9.380575e-39
0.066410661 0.11374348 0.025124669 1.3343523e-38
0.065940857 0.11698833 0.024157524 1.3527566e-38
0.0651609 0.11990583 0.023115754 1.3434985e-38
0.066753238 0.14881578 0.028328359 2.0908623e-38
0.065632418 0.15265399 0.028308988 1.6479609e-38
0.065353557 0.15519994 0.030075908 1.5650172e-38
0.063930884 0.11388806 0.025340319 1.3068381e-38
0.062809557 0.11723822 0.025317729 1.3066955e-38
0.061883554 0.12111755 0.024972141 1.3432484e-38
0.063229591 0.12373576 0.023299158 1.417366e-38
0.062566683 0.15390167 0.027053177 1.482443e-38
0.061941013 0.1568459 0.02936691 1.5560898e-38
0.059193164 0.1226529 0.025720537 1.3801631e-38
0.059212476 0.15429816 0.026174486 1.435945e-38
0.058168709 0.15747738 0.028146863 1.4178673e-38
0.053606108 0.12693933 0.024149895 1.3068009e-38
0.053691015 0.12911539 0.024062634 1.2974023e-38
0.05410561 0.15737624 0.027199209 1.3532569e-38
0.051511049 0.12653866 0.025197566 1.3159834e-38
0.050837442 0.13004827 0.024825633 1.2881087e-38
0.050513864 0.13371603 0.023549259 1.2235359e-38
0.049710423 0.15054533 0.024583042 1.1599364e-38
0.050537318 0.15350845 0.025012493 1.196636e-38
0.050400451 0.15671158 0.027151167 1.3071978e-38
0.046825141 0.13462766 0.025002897 1.2237532e-38
0.046674535 0.13749477 0.024160385 1.1689755e-38
0.047069907 0.14181605 0.023292303 1.0217875e-38
0.047135264 0.1454453 0.023926318 1.058019e-38
0.04704079 0.1492385 0.024558425 1.1319885e-38
0.04650256 0.15287282 0.026582479 1.2796094e-38
0.042817712 0.13825379 0.025210738 1.1413534e-38
0.04268764 0.14138201 0.025066674 1.0675998e-38
0.042661801 0.14521234 0.025486231 1.141104e-38
0.042744249 0.14886257 0.02606827 1.2792499e-38
0.043686658 0.15151212 0.026984334 1.3528957e-38
0.12011847 0.097507372 0.0097767711 1.4637148e-38
0.078018188 0.13580886 0.0043885708 1.8502531e-38
0.076241434 0.14746949 0.0059902072 1.9705041e-38
0.06888172 0.13815325 0.0036320686 1.5831719e-38
0.11192223 0.10743277 0.010835588 1.4913738e-38
0.12411374 0.077749044 0.0099447966 1.5465112e-38
0.092223734 0.11727334 0.014183342 1.5645895e-38
0.12422517 0.10056323 0.017840385 1.8235676e-38
0.13630545 0.058223933 0.014908254 1.3901385e-38
0.16031188 0.054625615 0.016329587 7.731108e-39
0.129632 0.095098808 0.016298652 1.6945643e-38
0.10746914 0.10491993 0.016454577 1.4359481e-38
0.1725795 0.060348615 0.024699271 9.5779044e-39
0.17202774 0.0642993 0.023848236 8.3800661e-39
0.11412351 0.047064096 0.016066313 1.2334065e-38
0.10239114 0.11701141 0.023470283 1.6761954e-38
0.074483424 0.11366095 0.021952629 1.1042931e-38
0.16813104 0.026170626 0.0333004 1.022473e-38
0.11130978 0.036704317 0.020327032 1.8412122e-38
0.16724637 0.10650839 0.041381538 2.341769e-38
0.16396794 0.021683723 0.031613588 9.9462974e-39
0.16513881 0.024557427 0.031569004 9.9484666e-39
0.16624707 0.027702004 0.0295192 1.0316557e-38
0.1657204 0.10577806 0.038070917 2.341769e-38
0.16484104 0.10829964 0.039963365 2.341769e-38
0.16361566 0.11158949 0.04199928 2.341769e-38
0.16081089 0.020750076 0.031727552 9.9444827e-39
0.16134252 0.023912579 0.029507041 9.8544689e-39
0.16249965 0.10963941 0.038097978 2.341769e-38
0.16123869 0.11257534 0.039887667 2.3325854e-38
0.16033956 0.11576939 0.041547894 2.3234019e-38
0.15743425 0.01756072 0.031362653 1.0133582e-38
0.15774879 0.02084744 0.029399157 1.1053005e-38
0.15896468 0.023305818 0.030159056 1.16991e-38
0.15863994 0.11350507 0.03804642 2.2678334e-38
0.15720978 0.11680341 0.040057838 2.2677255e-38
0.15577748 0.12024608 0.042490304 2.3141103e-38
0.15543658 0.12314515 0.042768061 2.341769e-38
0.15357007 0.017022446 0.029666066 1.243597e-38
0.15479746 0.020099938 0.027261615 1.3445439e-38
0.15425086 0.11811908 0.038687587 2.2303071e-38
0.1530818 0.12079844 0.040865779 2.2582901e-38
0.15277196 0.12436673 0.042065799 2.3233657e-38
0.15155403 0.12703368 0.042716146 2.341769e-38
0.14961427 0.0088334978 0.028127372 1.1052698e-38
0.15056919 0.012823299 0.027455091 1.1421105e-38
0.15162854 0.016281649 0.026447594 1.2067184e-38
0.14964773 0.1214301 0.038965344 2.2301264e-38
0.14924091 0.1247136 0.040596604 2.2769447e-38
0.1486595 0.12737507 0.042395175 2.332585e-38
0.14654189 0.0091329068 0.026331604 1.050058e-38
0.14610074 0.12543361 0.03848505 2.2673648e-38
0.14522901 0.12781969 0.041343451 2.3232218e-38
0.14251705 0.0082297772 0.025781512 9.0272516e-39
0.14231537 0.12875377 0.039227128 2.2672589e-38
0.14034036 0.13259205 0.039574981 2.313787e-38
0.13953994 0.0086839497 0.024111271 5.4309452e-39
0.13747171 0.13669831 0.039807916 2.2208364e-38
0.13403243 0.0094621032 0.024528384 7.0868274e-39
0.13248542 0.012571126 0.023666203 6.9932024e-39
0.13407846 0.13789883 0.038371146 1.6941722e-38
0.13273756 0.13926505 0.041058958 1.8975717e-38
0.13054349 0.0089333206 0.025938332 8.1924743e-39
0.12980381 0.013551891 0.024962664 7.3677204e-39
0.12890607 0.017340019 0.024965465 8.1009653e-39
0.12888186 0.020930663 0.025358677 9.7561776e-39
0.12857389 0.024116397 0.024455786 1.2062135e-38
0.12948073 0.14017904 0.039588988 2.0265748e-38
0.12959635 0.14263116 0.041716993 2.2013503e-38
0.12524574 0.0086853802 0.026141524 7.5481614e-39
0.12572196 0.01271823 0.026189446 6.8141963e-39
0.12551481 0.016836345 0.026201487 8.1009709e-39
0.12528069 0.02082473 0.027029455 1.1324574e-38
0.12581274 0.02501066 0.026112914 1.252097e-38
0.12471418 0.027982086 0.024404168 1.4080389e-38
0.12483625 0.13766357 0.037031114 1.7500619e-38
0.12495576 0.14037369 0.039676368 1.851439e-38
0.12519172 0.14272422 0.040674686 1.8603311e-38
0.12215993 0.009205386 0.023608267 7.3648576e-39
0.12308167 0.013173148 0.024932742 6.533655e-39
0.12312427 0.016487375 0.024965823 7.0868288e-39
0.12269111 0.022944808 0.027652144 1.2704639e-38
0.12172183 0.025902584 0.027453125 1.3715921e-38
0.12185524 0.029051691 0.02568841 1.4821894e-38
0.12085448 0.03184773 0.024352551 1.5834256e-38
0.12107156 0.13704677 0.036858618 1.4272324e-38
0.12096867 0.13985983 0.039473295 1.5845028e-38
0.12188338 0.14268318 0.040767014 1.85104e-38
0.11758921 0.026940599 0.027123213 1.4635367e-38
0.11794484 0.029406875 0.025581002 1.5097068e-38
0.11829862 0.031864971 0.024037778 1.6295944e-38
0.11888582 0.13425119 0.035410404 1.1422867e-38
0.11745629 0.13673106 0.036182761 9.6715266e-39
0.11711732 0.13988553 0.038998902 1.0865787e-38
0.11366658 0.02686803 0.026966989 1.5371122e-38
0.11396262 0.029238179 0.025744796 1.5373284e-38
0.1144648 0.031890824 0.02356559 1.676015e-38
0.11194722 0.122308 0.036273599 8.559061e-39
0.11206916 0.12497981 0.035907865 8.5612148e-39
0.11232607 0.12838653 0.034964025 7.9133314e-39
0.11377406 0.13428567 0.03478086 6.2631792e-39
0.11334805 0.13631375 0.037739396 6.8134901e-39
0.11440171 0.13900369 0.03842026 8.6587956e-39
0.11109559 0.02688536 0.026650369 1.5652009e-38
0.10997061 0.029497758 0.025954485 1.574208e-38
0.11034706 0.031956613 0.024414182 1.6847338e-38
0.10912013 0.12112249 0.036299288 8.0977381e-39
0.10948041 0.12498068 0.035699725 6.9020802e-39
0.10927543 0.12847111 0.036043406 6.4411006e-39
0.1100024 0.13279983 0.034656405 6.4403691e-39
0.10627468 0.030381843 0.026033521 1.5925386e-38
0.10624003 0.0331444 0.025219023 1.6755875e-38
0.10591646 0.036214739 0.02298367 1.80466e-38
0.10659638 0.12218705 0.036610901 5.5205849e-39
0.10581118 0.12425226 0.036741555 4.6929864e-39
0.1067521 0.13134193 0.036626935 6.6201263e-39
0.10335654 0.030799925 0.026123524 1.5834249e-38
0.10246381 0.0338642 0.025210679 1.6110511e-38
0.10292885 0.037088141 0.022709906 1.7033158e-38
0.10040344 0.1211009 0.034710109 1.6194292e-38
0.10112216 0.12383328 0.036114335 8.2691799e-39
0.10011679 0.12995546 0.03666538 1.251191e-38
0.098682687 0.034586251 0.025202036 1.5742792e-38
0.098864347 0.036831662 0.023191571 1.6110136e-38
0.098991781 0.12217621 0.033302307 2.1174985e-38
0.097990334 0.12509349 0.03406322 1.8778299e-38
0.097708255 0.12878199 0.035561621 1.9801844e-38
0.097631156 0.1326104 0.036199927 2.1743711e-38
0.096598327 0.1361291 0.036657393 2.2573492e-38
0.094036669 0.038345039 0.025125742 1.5556952e-38
0.093796924 0.041230485 0.022711396 1.5833543e-38
0.094945595 0.12650636 0.033109903 2.313419e-38
0.094670579 0.12908392 0.033287883 2.3230391e-38
0.094183475 0.13324933 0.033478022 2.2769804e-38
0.093862861 0.13658006 0.034594297 2.2852276e-38
0.092896 0.14033023 0.036713004 2.1733691e-38
0.091734961 0.038602978 0.025544703 1.5005586e-38
0.090478092 0.041475296 0.023968339 1.5372211e-38
0.088648468 0.045961872 0.022595644 1.5186751e-38
0.090827718 0.13782482 0.033342004 2.2856941e-38
0.08971478 0.14066821 0.03480798 2.2475186e-38
0.089255959 0.1442745 0.036224306 1.8225593e-38
0.089719906 0.14676242 0.037232161 1.740015e-38
0.087508142 0.042156175 0.025075316 1.5186384e-38
0.086194336 0.045392707 0.02442497 1.5003083e-38
0.085680038 0.048915833 0.023094416 1.4820109e-38
0.08590126 0.098637074 0.027392983 6.0733733e-39
0.084704131 0.10009809 0.028757453 5.3329328e-39
0.08515501 0.1412809 0.033865273 2.2856225e-38
0.085485861 0.14434092 0.035426557 2.1078906e-38
0.085539877 0.14711247 0.03675282 1.6747186e-38
0.083331466 0.045740634 0.025291264 1.463571e-38
0.081999719 0.049416006 0.024518371 1.4635716e-38
0.081348136 0.053482205 0.023365915 1.4726485e-38
0.081074446 0.056433663 0.022137165 1.4910868e-38
0.081433579 0.098105967 0.028047919 5.2443427e-39
0.081428826 0.10076341 0.029551208 5.702458e-39
0.081741154 0.10486016 0.028690636 7.4520184e-39
0.083051831 0.14217211 0.031844676 2.3233296e-38
0.081163928 0.14445393 0.034227788 2.3322957e-38
0.081488892 0.147387 0.036136389 2.1092224e-38
0.079401195 0.1519818 0.03652966 1.9247856e-38
0.078801841 0.050277233 0.025230765 1.4451323e-38
0.078012317 0.053188741 0.024874985 1.4542444e-38
0.077736229 0.057153627 0.023395956 1.4543174e-38
0.077210426 0.060939282 0.022155643 1.4450965e-38
0.077528507 0.097161144 0.028346658 5.5205807e-39
0.077465951 0.10070688 0.029504597 7.1757748e-39
0.077815115 0.10482441 0.028538167 8.7391572e-39
0.079192117 0.14603777 0.031793118 2.341769e-38
0.077370107 0.14854486 0.035138428 2.3402929e-38
0.076574981 0.15204924 0.035752475 2.2651684e-38
0.076812834 0.15457416 0.03649509 2.1547102e-38
0.074919283 0.054165781 0.02517885 1.4264749e-38
0.073941365 0.057065994 0.024744213 1.3989995e-38
0.074388325 0.060709149 0.022794247 1.4083274e-38
0.073173702 0.091043636 0.024977982 5.7888943e-39
0.073207512 0.093724445 0.026291668 6.2556234e-39
0.073582813 0.096834347 0.02882129 7.1789936e-39
0.073557004 0.10069118 0.029243708 8.7427305e-39
0.073796406 0.10472957 0.028705418 1.0306098e-38
0.073057145 0.10832277 0.026870549 1.2607379e-38
0.07325694 0.14956561 0.034488022 1.6100831e-38
0.073389858 0.15256798 0.034256637 2.1920983e-38
0.071670845 0.15460885 0.03586179 2.2845792e-38
0.071041077 0.057410568 0.025056481 1.4082542e-38
0.070370838 0.060723677 0.02391988 1.3531515e-38
0.069521219 0.064190835 0.021561801 1.205961e-38
0.069370121 0.086589709 0.024015129 7.1743651e-39
0.069923103 0.089534551 0.026435912 7.9093854e-39
0.069817171 0.093046993 0.027711451 8.8341765e-39
0.069671556 0.096817195 0.028560042 9.389186e-39
0.069585294 0.10063408 0.029195905 1.0768159e-38
0.06967932 0.10457464 0.029191852 1.1777999e-38
0.069896564 0.10853383 0.028149366 1.2790699e-38
0.070225 0.14929794 0.031041861 1.8674394e-38
0.069882572 0.15300968 0.032591701 2.0257164e-38
0.068986207 0.15612996 0.035021245 2.0257867e-38
0.067770913 0.16107239 0.036091924 1.8229179e-38
0.067154199 0.061942875 0.025075018 1.2886095e-38
0.066587582 0.064458653 0.024471521 1.2886484e-38
0.066381902 0.068003267 0.023620963 1.3162717e-38
0.066904932 0.073167622 0.02222836 1.279573e-38
0.066166013 0.078070715 0.023691535 1.1225178e-38
0.066109419 0.081646666 0.024586022 9.3812826e-39
0.065895885 0.085267186 0.026817501 8.8335053e-39
0.06574735 0.089034855 0.027665496 1.0031316e-38
0.066137403 0.092453122 0.028147399 1.0675948e-38
0.065967306 0.096833616 0.028145134 1.19674e-38
0.065792173 0.1007015 0.028508127 1.1872665e-38
0.06579712 0.10458021 0.028824151 1.2331899e-38
0.065925077 0.10853589 0.028713405 1.3067635e-38
0.066275537 0.1113361 0.027714372 1.3343521e-38
0.067032233 0.15329802 0.031763554 1.7029252e-38
0.065901399 0.15696821 0.033379972 1.6389594e-38
0.065416232 0.16116688 0.035022199 1.5651652e-38
0.064032316 0.16436446 0.035485148 1.4913376e-38
0.062817842 0.085468069 0.02713412 1.0677757e-38
0.063115329 0.089006558 0.027561486 1.1320967e-38
0.063097939 0.091581583 0.027843595 1.1876649e-38
0.061887845 0.10133959 0.028263688 1.2424428e-38
0.061913446 0.10458601 0.028456271 1.2700666e-38
0.062013149 0.10852316 0.028452575 1.2976175e-38
0.061861545 0.11213335 0.027762294 1.2792507e-38
0.061503932 0.11607994 0.026295185 1.2423757e-38
0.063160062 0.1584487 0.031852245 1.5193537e-38
0.061721146 0.16124725 0.034010053 1.4087538e-38
0.061368585 0.16435027 0.035491526 1.4457077e-38
0.058210015 0.10159227 0.028342724 1.3068043e-38
0.058061153 0.10461177 0.027981818 1.2976558e-38
0.058131158 0.1085298 0.028084934 1.2976901e-38
0.058196545 0.11308525 0.028258026 1.3161266e-38
0.058450535 0.11767447 0.027233303 1.3252423e-38
0.057631269 0.1218655 0.026453912 1.343609e-38
0.057953835 0.1612629 0.032362461 1.4083965e-38
0.057209 0.16423351 0.03513217 1.4916239e-38
0.054535821 0.10500352 0.027926147 1.3160568e-38
0.053999573 0.1089288 0.02816993 1.3252776e-38
0.054169685 0.11332261 0.028832614 1.3345322e-38
0.054023102 0.11744666 0.02923578 1.325457e-38
0.053960323 0.12121284 0.029221356 1.3346048e-38
0.053514868 0.1245189 0.028601944 1.3434656e-38
0.054825008 0.15900087 0.030204594 1.426836e-38
0.053989336 0.16143388 0.031721115 1.4637853e-38
0.053706869 0.16441801 0.034380674 1.5372566e-38
0.050147444 0.10583086 0.027811587 1.3619751e-38
0.050890952 0.1099457 0.028357863 1.3712307e-38
0.050955206 0.11312096 0.028716266 1.3805948e-38
0.050838828 0.11767074 0.029203951 1.3621196e-38
0.050109595 0.12131543 0.029290557 1.3345308e-38
0.049814582 0.12526137 0.027718663 1.3160202e-38
0.048658177 0.12898065 0.027478874 1.2882886e-38
0.049510762 0.15896736 0.030218303 1.4083558e-38
0.050024673 0.16149083 0.032545447 1.1683658e-38
0.050810084 0.16425511 0.033665955 1.3346819e-38
0.047063977 0.11829701 0.028805375 1.3804868e-38
0.046346337 0.12146685 0.029066205 1.3528647e-38
0.046153486 0.12508501 0.028934836 1.3344243e-38
0.045740768 0.12946996 0.028136849 1.2513061e-38
0.045678079 0.13263957 0.0265674 1.242014e-38
0.045539886 0.15729851 0.030024886 1.1592883e-38
0.046448678 0.16103533 0.033108056 9.1003882e-39
0.043073729 0.12544782 0.02910012 1.3069102e-38
0.041953892 0.12910879 0.029027522 1.2331199e-38
0.041591808 0.13320795 0.027745605 1.2147876e-38
0.041564554 0.13623533 0.027062714 1.1872348e-38
0.040828168 0.15013611 0.027491987 1.1031487e-38
0.04198806 0.15257457 0.028918505 9.4702231e-39
0.042245269 0.15622145 0.031211257 8.0884026e-39
0.038415849 0.12994239 0.029019117 1.1412107e-38
0.037911475 0.13302015 0.028789461 1.1595771e-38
0.037543654 0.13701122 0.028226972 1.2055647e-38
0.037624121 0.14090852 0.028329194 1.2240792e-38
0.037899405 0.14454925 0.028974295 1.2058194e-38
0.038608208 0.14851499 0.030079007 1.140742e-38
0.039122313 0.15225343 0.031569004 8.915264e-39
0.039533421 0.15482557 0.031903803 9.1057495e-39
0.035841927 0.1303889 0.028749466 1.1135134e-38
0.035820246 0.13360767 0.029102027 1.1780513e-38
0.034727961 0.13692383 0.0286569 1.2056373e-38
0.034594446 0.14074042 0.029399455 1.1775852e-38
0.03574641 0.14455149 0.030300677 1.1407081e-38
0.069285601 0.14770702 0.0023670197 1.7779378e-38
0.14407751 0.070798904 0.010241628 1.6387062e-38
0.13065071 0.076751933 0.010803878 1.5834255e-38
0.092885375 0.10172668 0.01542151 7.4527288e-39
0.12981707 0.090073496 0.016476452 1.3624801e-38
0.16348831 0.067055672 0.018991351 1.1325294e-38
0.15602475 0.090561584 0.019309342 1.9983421e-38
0.14259884 0.085081726 0.018040657 1.8321735e-38
0.11590847 0.12072372 0.017892897 9.9402045e-39
0.12581241 0.053872928 0.01307112 1.4819383e-38
0.13212962 0.063737661 0.015400529 1.4913734e-38
0.17097685 0.07371597 0.024624527 1.5566295e-38
0.084197506 0.062363058 0.017704666 1.5095252e-38
0.071041077 0.057410568 0.025056481 1.4082542e-38
0.092828214 0.048582003 0.022956669 1.224329e-38
0.15103287 0.11752059 0.034168124 2.2568852e-38
0.098313272 0.04158327 0.020343959 1.6569312e-38
0.048658177 0.12898065 0.027478874 1.2882886e-38
0.16554868 0.1098543 0.044581532 2.341769e-38
0.16444595 0.11263471 0.045157194 2.341769e-38
0.16331837 0.1154092 0.045256078 2.341769e-38
0.1615196 0.017895103 0.034946859 9.210931e-39
0.16157889 0.019341156 0.034606934 9.4863996e-39
0.16063002 0.11727139 0.045044124 2.3325854e-38
0.15925339 0.11978464 0.045657694 2.341769e-38
0.15709947 0.016042501 0.033586562 9.8570123e-39
0.1571977 0.12046696 0.044920802 2.3325854e-38
0.15636139 0.12339716 0.045444548 2.341769e-38
0.15191436 0.0063217282 0.032479465 1.1421135e-38
0.15189691 0.008908093 0.032762706 1.2069726e-38
0.15240058 0.012995437 0.032600462 1.2158659e-38
0.15384065 0.12542808 0.044849634 2.341769e-38
0.15189366 0.12737808 0.044823647 2.341769e-38
0.15076114 0.0085918903 0.031573415 1.169951e-38
0.14862323 0.12865496 0.044812739 2.3325854e-38
0.14462978 0.12921825 0.045140386 2.3234019e-38
0.14221101 0.12938023 0.043844938 2.2585422e-38
0.14143014 0.13121547 0.044710934 2.2862002e-38
0.13950956 0.13514093 0.0446527 2.341769e-38
0.13821062 0.13644186 0.044635355 2.3234013e-38
0.13570365 0.13846278 0.044041038 2.0442684e-38
0.13326634 0.13995114 0.044511497 1.9713692e-38
0.12794185 0.14238884 0.043512583 2.1370307e-38
0.12756722 0.00681144 0.02850312 8.8385625e-39
0.12223971 0.01766865 0.029548109 1.0038873e-38
0.12157281 0.020902649 0.02982235 1.2429838e-38
0.12035859 0.024291769 0.029539227 1.3533322e-38
0.11957026 0.14115405 0.042339087 1.5567411e-38
0.12001035 0.14231558 0.043535411 1.676664e-38
0.11953047 0.022057682 0.0302037 1.3168112e-38
0.11768079 0.024159357 0.029699624 1.4085408e-38
0.11570242 0.14118013 0.041862726 1.2429191e-38
0.1180736 0.14232863 0.043296933 1.5010981e-38
0.11305718 0.024687588 0.029691875 1.5372547e-38
0.11121608 0.13733667 0.040882707 8.1924518e-39
0.11256471 0.13982335 0.041999996 1.1049084e-38
0.10863619 0.026159108 0.028799593 1.5746014e-38
0.10808867 0.027602613 0.028384387 1.5743885e-38
0.10726441 0.11783205 0.039254069 9.5728401e-39
0.10715973 0.13335033 0.040953755 7.3623395e-39
0.10886386 0.13577953 0.041143417 7.8247525e-39
0.10659263 0.026024312 0.029038429 1.5746375e-38
0.10513079 0.027871534 0.028301001 1.5560188e-38
0.10532767 0.11784511 0.039015532 9.8490178e-39
0.10464101 0.12037322 0.038575947 6.8066111e-39
0.10415275 0.12507971 0.038908184 4.8773454e-39
0.10475746 0.12829195 0.039422095 5.8875835e-39
0.10445091 0.13225508 0.040370584 7.7297011e-39
0.10430694 0.13517995 0.04080224 9.2988036e-39
0.10175584 0.02901879 0.028364122 1.5651297e-38
0.10032687 0.031528667 0.027855992 1.5649525e-38
0.10145417 0.11787122 0.038538456 1.684585e-38
0.1016224 0.12058879 0.038014531 9.6520878e-39
0.1011968 0.12523633 0.038508534 7.7275024e-39
0.10101354 0.12813115 0.039109349 8.0048166e-39
0.10091202 0.13222565 0.03915453 9.5656865e-39
0.10071155 0.1359954 0.040334105 1.1874869e-38
0.100669 0.13856661 0.040725231 1.4548197e-38
0.097686768 0.032119691 0.027847469 1.5189263e-38
0.097723022 0.13634057 0.039506376 2.1739756e-38
0.096452206 0.13972236 0.040185571 2.0999712e-38
0.095478147 0.14248101 0.040514112 1.9246568e-38
0.094919771 0.033861816 0.028457105 1.5284314e-38
0.094054595 0.035948798 0.02807343 1.5373637e-38
0.094057336 0.14000222 0.039304316 2.1087217e-38
0.092966229 0.1438327 0.040014207 1.9150068e-38
0.09221971 0.14702895 0.04061228 1.8595106e-38
0.089731827 0.037345156 0.028198779 1.4730787e-38
0.090544075 0.14393227 0.039049327 1.9331931e-38
0.089107186 0.14791819 0.039817989 1.730796e-38
0.088324398 0.15028805 0.040489376 1.675623e-38
0.086024553 0.040271401 0.027302146 1.4910512e-38
0.085465297 0.14854459 0.039537251 1.592394e-38
0.084927425 0.15144244 0.040195882 1.5833933e-38
0.082601339 0.041703671 0.027796328 1.5003052e-38
0.081164166 0.14883766 0.038428485 1.9421876e-38
0.08127059 0.15165395 0.039540887 1.5735877e-38
0.079905629 0.1542242 0.039880633 1.5553708e-38
0.078168094 0.048116475 0.027447939 1.4359126e-38
0.078261092 0.14918004 0.03810662 2.2765432e-38
0.078243673 0.15176263 0.038389444 2.0535092e-38
0.077058077 0.15527791 0.039644182 2.0165264e-38
0.075438842 0.05080387 0.027913213 1.4267282e-38
0.073945478 0.05255954 0.027415037 1.4172932e-38
0.073748633 0.14921048 0.037550807 1.969177e-38
0.073739931 0.15050177 0.037692249 2.1457838e-38
0.073525175 0.15624303 0.03897506 2.2746408e-38
0.072123736 0.1594492 0.039493144 2.1730485e-38
0.071200609 0.054365978 0.027443349 1.4081121e-38
0.069209993 0.057563245 0.026873827 1.380595e-38
0.06790328 0.060154527 0.026997864 1.3162359e-38
0.070210755 0.15739483 0.038184702 2.1641153e-38
0.069507465 0.16064915 0.038794577 2.044115e-38
0.068224043 0.16335489 0.039440989 1.90607e-38
0.063926578 0.07632181 0.028289497 1.1595034e-38
0.064241648 0.093320981 0.030204654 1.2059233e-38
0.063791558 0.096336901 0.030481696 1.261026e-38
0.065385148 0.16433875 0.038763463 1.602008e-38
0.062343955 0.078047931 0.029297531 1.1320956e-38
0.062419951 0.080705598 0.029262424 1.0584831e-38
0.060349494 0.084353179 0.029340804 1.1965611e-38
0.060384452 0.08844088 0.030032814 1.2150358e-38
0.06089972 0.092518494 0.030335486 1.2612056e-38
0.061213017 0.096354276 0.030164182 1.2609551e-38
0.061195582 0.098936886 0.030447006 1.2149649e-38
0.060742617 0.16608427 0.037801564 1.5653814e-38
0.058101878 0.084865481 0.029524326 1.2702451e-38
0.058400676 0.088419572 0.029953539 1.2978323e-38
0.057265297 0.092676073 0.030282736 1.3622594e-38
0.057057172 0.096187413 0.030644476 1.334566e-38
0.056950808 0.099405557 0.030378222 1.3159867e-38
0.05719927 0.16578536 0.037329614 1.5287523e-38
0.057864174 0.16795072 0.038664639 1.296689e-38
0.054474816 0.096204817 0.030326426 1.3623687e-38
0.053682879 0.10058303 0.030373633 1.3343514e-38
0.052571356 0.10329916 0.029859841 1.3067614e-38
0.052810073 0.16607599 0.037493587 1.5555549e-38
0.049529999 0.10192795 0.030345321 1.3712305e-38
0.049473435 0.10542621 0.029964268 1.3529349e-38
0.048482269 0.10898524 0.030234218 1.3898482e-38
0.049014807 0.11340977 0.030704081 1.3989966e-38
0.048505336 0.11677697 0.030843556 1.3804506e-38
0.048847795 0.16477869 0.037197351 1.44528e-38
0.046233431 0.10574336 0.030358016 1.4082158e-38
0.046122342 0.1094511 0.030753434 1.4266541e-38
0.045521453 0.11325882 0.03097254 1.4081432e-38
0.045175433 0.1166918 0.030421615 1.3897064e-38
0.044295609 0.11971064 0.030645728 1.380558e-38
0.044341207 0.16142756 0.03559339 1.0672394e-38
0.044983044 0.16351163 0.036578655 1.3800584e-38
0.042090952 0.1137456 0.030727863 1.426621e-38
0.04162249 0.11716357 0.030920386 1.4081456e-38
0.041569501 0.12094942 0.030895233 1.3621892e-38
0.040639222 0.12453866 0.030978918 1.2885807e-38
0.041135564 0.15814626 0.034496129 9.3791499e-39
0.041195706 0.16097338 0.035604119 1.0761719e-38
0.040784538 0.16386321 0.036097288 1.324885e-38
0.038806334 0.1221731 0.031251013 1.3528994e-38
0.038544789 0.12479897 0.031255007 1.2518085e-38
0.037408561 0.12796122 0.031108439 1.1686889e-38
0.036155775 0.14809394 0.033445477 1.0205311e-38
0.036664829 0.15223318 0.033897817 9.746824e-39
0.037309125 0.15667632 0.034412801 1.0762058e-38
0.037253439 0.16097748 0.035341322 1.1964156e-38
0.037556618 0.163885 0.035699725 1.1504296e-38
0.033918992 0.12895946 0.031191707 1.1410621e-38
0.033388138 0.1324513 0.031134844 1.178087e-38
0.032578856 0.13657573 0.031055331 1.2238956e-38
0.03255707 0.13980398 0.031408966 1.2236424e-38
0.034300178 0.14425008 0.032622397 1.1030053e-38
0.034767061 0.14676982 0.033465147 1.0849961e-38
0.034051701 0.15711969 0.034518778 1.2793917e-38
0.034679845 0.1597017 0.034881651 1.150818e-38
0.031006992 0.12998448 0.031146824 1.1872299e-38
0.030473068 0.13257435 0.031366467 1.261134e-38
0.03044863 0.13619527 0.031763077 1.2515926e-38
0.030941576 0.1396834 0.032209098 1.2605586e-38
0.074637592 0.14908546 0.0054630637 1.9599171e-38
0.14431304 0.077198744 0.012328625 1.6111922e-38
0.13273402 0.084683493 0.012147248 1.5190326e-38
0.12952618 0.086146012 0.011627734 1.454568e-38
0.13644391 0.060668111 0.015394807 1.0124236e-38
0.16358358 0.056451306 0.017663896 6.8102377e-39
0.15139148 0.039646521 0.015706539 6.1641578e-39
0.14283884 0.064065993 0.015348434 8.6534146e-39
0.15004595 0.059431523 0.014794946 1.3626223e-38
0.14467533 0.071388781 0.015449166 1.694132e-38
0.13962761 0.085152701 0.019627929 1.1142349e-38
0.16707352 0.049693316 0.020898283 6.8098649e-39
0.13228548 0.035235673 0.017019749 1.3806638e-38
0.091448396 0.1049886 0.018171489 7.9104826e-39
0.11420912 0.09469676 0.0094224215 1.5560181e-38
0.097778231 0.12204146 0.030231178 2.3229264e-38
0.089107186 0.14791819 0.039817989 1.730796e-38
0.14458705 0.12505297 0.046449304 2.1752055e-38
0.16272764 0.11928301 0.049073815 2.341769e-38
0.16061637 0.01533851 0.036580205 8.5645162e-39
0.16076785 0.12009476 0.047552109 2.341769e-38
0.1594308 0.12251253 0.049275219 2.341769e-38
0.1566368 0.0079108775 0.03628093 1.0406945e-38
0.15679979 0.01222682 0.035425901 9.9466926e-39
0.15580356 0.12432605 0.049363852 2.341769e-38
0.15305829 0.0059884936 0.033598065 1.1516185e-38
0.15359041 0.0083597749 0.03460151 1.2069354e-38
0.15379217 0.01219967 0.034374475 1.1605836e-38
0.15223271 0.12837379 0.047002792 2.341769e-38
0.14933774 0.12874946 0.048713028 2.341769e-38
0.14709193 0.13107443 0.048437953 2.341769e-38
0.14425778 0.13149318 0.047597885 2.3325854e-38
0.14104751 0.1328418 0.04712379 2.3142183e-38
0.14013594 0.1349123 0.048759878 2.3417689e-38
0.13617937 0.13907412 0.047411203 2.1833847e-38
0.13404688 0.14079916 0.046120882 2.0267249e-38
0.13165432 0.14179346 0.048468471 2.1743057e-38
0.13015898 0.14212039 0.04578495 2.183054e-38
0.12009567 0.013038352 0.033333004 6.6254695e-39
0.12046295 0.016905606 0.031778038 1.0220764e-38
0.12064445 0.01915732 0.031035244 1.1969942e-38
0.11784568 0.017032772 0.033241749 1.1142711e-38
0.11782283 0.020122007 0.031950653 1.3075205e-38
0.11593533 0.14221632 0.044033229 1.5013856e-38
0.1138939 0.020485237 0.032980978 1.3995709e-38
0.11415297 0.02308616 0.030664504 1.5005554e-38
0.11077619 0.14030857 0.043183506 1.2065041e-38
0.11262417 0.14237204 0.044653952 1.5662463e-38
0.11030255 0.020908624 0.032988191 1.399898e-38
0.10941309 0.02346468 0.031132817 1.5654163e-38
0.10692324 0.13644949 0.042280138 9.019679e-39
0.1081453 0.13938734 0.043769538 1.2065726e-38
0.10843238 0.14299172 0.046061277 1.8143837e-38
0.10520075 0.023979202 0.030667722 1.4551784e-38
0.1046582 0.13678852 0.042036891 1.0955451e-38
0.10448675 0.13978152 0.042751551 1.4183366e-38
0.10461895 0.14318635 0.045041978 1.7220072e-38
0.10250139 0.022261947 0.032170951 1.2432005e-38
0.1006856 0.024856895 0.031556606 1.3906056e-38
0.10054527 0.027710527 0.029488862 1.5285739e-38
0.1004336 0.14010081 0.041879117 1.4086497e-38
0.10037765 0.14358516 0.043574452 1.6942042e-38
0.099634498 0.14703093 0.045205832 1.8234183e-38
0.098997593 0.15084088 0.045521975 2.0627715e-38
0.098156348 0.026488602 0.031085432 1.4274111e-38
0.096998245 0.028638929 0.030503571 1.4731507e-38
0.095997721 0.030978709 0.029286146 1.4544968e-38
0.097845614 0.14039578 0.041590989 2.1552842e-38
0.096691251 0.143803 0.041823924 1.9428447e-38
0.096301377 0.14742331 0.043076277 1.9430214e-38
0.095891029 0.15112706 0.045123696 2.0443697e-38
0.093033746 0.029366672 0.031202912 1.3442922e-38
0.092951655 0.032582894 0.029896796 1.4454202e-38
0.09209235 0.034890115 0.029233932 1.4731876e-38
0.093139067 0.14806816 0.04185462 1.8874194e-38
0.092390075 0.15134065 0.043024004 1.9705393e-38
0.091547802 0.15403207 0.045356691 2.1275284e-38
0.090110824 0.030149713 0.0315063 1.2798992e-38
0.089000091 0.033003569 0.030814886 1.3442932e-38
0.089339003 0.035584033 0.029645264 1.4272327e-38
0.088833749 0.15180236 0.042022884 1.7310473e-38
0.087949321 0.15529764 0.043924153 1.9338406e-38
0.086188287 0.034078285 0.031453788 1.3072706e-38
0.085379601 0.036445335 0.030601263 1.3442925e-38
0.084303409 0.039475247 0.028774917 1.4266589e-38
0.086125106 0.15277754 0.041505218 1.6300659e-38
0.084522128 0.15590359 0.042834282 1.8603008e-38
0.083178446 0.1593997 0.04491204 2.0536595e-38
0.082141027 0.040569007 0.028627694 1.3992859e-38
0.080863923 0.15615118 0.041963041 1.6754779e-38
0.080273598 0.15968683 0.044077039 1.9151172e-38
0.077489316 0.045026302 0.029759765 1.4267665e-38
0.077303961 0.15708442 0.041563511 1.9888338e-38
0.076248646 0.16001463 0.043397307 2.182447e-38
0.073990762 0.045433298 0.03119576 1.3993585e-38
0.07346943 0.048834622 0.029479265 1.4083965e-38
0.073039025 0.16069899 0.04177177 2.1638276e-38
0.072228774 0.16410407 0.043821216 2.090143e-38
0.070502639 0.049142167 0.031172872 1.3989625e-38
0.071289837 0.051865727 0.028530002 1.4080757e-38
0.0686775 0.055768415 0.028637052 1.3807383e-38
0.070547223 0.16194776 0.040587187 2.0809214e-38
0.069060937 0.16459246 0.041962147 1.9430595e-38
0.068409801 0.16686997 0.043906689 1.8418951e-38
0.066757187 0.057771921 0.0292961 1.3347474e-38
0.066065207 0.059671104 0.028744042 1.3161622e-38
0.065166399 0.16580734 0.041022301 1.5563416e-38
0.064606056 0.16692586 0.043103695 1.547374e-38
0.061898544 0.073263213 0.032768965 1.2149283e-38
0.061074153 0.076259986 0.031223655 1.17805e-38
0.060565025 0.080283478 0.03101337 1.1317726e-38
0.060923129 0.16744986 0.040762305 1.4177964e-38
0.057516664 0.077342451 0.032000482 1.2793194e-38
0.057752937 0.080132157 0.031436563 1.2699213e-38
0.056852147 0.08369118 0.03025353 1.3162347e-38
0.056175023 0.088228315 0.030670404 1.3805202e-38
0.056157589 0.090818495 0.030954123 1.3897742e-38
0.057577342 0.16786283 0.039633095 1.2970103e-38
0.054384798 0.080142573 0.032597244 1.3805566e-38
0.053580463 0.083866224 0.032232761 1.4264739e-38
0.053393796 0.088108286 0.030988455 1.4722846e-38
0.053284377 0.092317879 0.030763626 1.4173983e-38
0.05223906 0.09667252 0.031114697 1.3621561e-38
0.051570699 0.099914581 0.031389654 1.3526486e-38
0.053365946 0.16736418 0.041337073 1.6202668e-38
0.049951881 0.085480779 0.032130301 1.4723924e-38
0.049854249 0.088876843 0.032087564 1.4633177e-38
0.049297079 0.092624485 0.032330751 1.3987817e-38
0.049488053 0.097176701 0.03082943 1.3529363e-38
0.048656955 0.10058175 0.03110224 1.3712312e-38
0.047596842 0.16524743 0.039121509 1.5556626e-38
0.048928857 0.16700134 0.041507423 1.7764305e-38
0.046075106 0.089498639 0.032600164 1.4447702e-38
0.045802042 0.093058705 0.032058299 1.4171836e-38
0.045648649 0.096816108 0.032341242 1.4080726e-38
0.045105174 0.10132048 0.031250536 1.435625e-38
0.044640899 0.10492559 0.031084061 1.4266201e-38
0.044076651 0.10870653 0.031431496 1.435874e-38
0.043733746 0.11162265 0.031710804 1.4357665e-38
0.044772625 0.16537221 0.038640499 1.5642707e-38
0.045350015 0.1675639 0.040923357 1.8596193e-38
0.042006448 0.093093708 0.032492816 1.4539195e-38
0.041850075 0.096960962 0.032111883 1.4631378e-38
0.041611791 0.10077009 0.031987965 1.4631403e-38
0.041052312 0.10508446 0.031107485 1.454136e-38
0.041165099 0.10904992 0.031108618 1.4542415e-38
0.040625155 0.11242063 0.031413674 1.4633903e-38
0.039828345 0.11553405 0.03165859 1.4449881e-38
0.041042775 0.16551378 0.037325084 1.4078253e-38
0.040797576 0.16714694 0.039502323 1.491482e-38
0.039012849 0.096830204 0.032534361 1.4540645e-38
0.037942246 0.10151994 0.032919288 1.4632479e-38
0.037169367 0.10473767 0.032671928 1.4726094e-38
0.037301317 0.10872404 0.032621324 1.4819701e-38
0.037024081 0.11291146 0.032288909 1.491049e-38
0.037162751 0.11681005 0.031694412 1.4726791e-38
0.03704676 0.12057103 0.031869888 1.3713363e-38
0.036405265 0.12462232 0.03223747 1.2054946e-38
0.036518812 0.16550723 0.037169337 1.0672403e-38
0.037314668 0.1677527 0.039897978 1.1596859e-38
0.035037667 0.10856333 0.033336699 1.4544189e-38
0.034252316 0.11252688 0.033338964 1.4727882e-38
0.033197105 0.11646228 0.03347373 1.4450563e-38
0.032924622 0.12064447 0.033141136 1.3159482e-38
0.033158228 0.12457526 0.032280505 1.2146421e-38
0.032419458 0.12767091 0.032080054 1.1686824e-38
0.031246483 0.14123514 0.035459161 1.2233614e-38
0.033166498 0.14471702 0.034053922 1.0570161e-38
0.03324908 0.1483466 0.034802675 1.1221969e-38
0.032974228 0.15179008 0.035261214 1.2604157e-38
0.032445699 0.15572959 0.035180092 1.2608124e-38
0.03281343 0.16104449 0.036065638 9.2944442e-39
0.032789901 0.16451281 0.037459254 9.6618156e-39
0.033747271 0.16745159 0.039422691 1.0491583e-38
0.031080037 0.11769496 0.033854187 1.3897041e-38
0.029828995 0.12033619 0.033788025 1.279142e-38
0.028620332 0.12429999 0.033715248 1.2514465e-38
0.028824523 0.12821098 0.032961488 1.2240719e-38
0.028400496 0.13244644 0.032109141 1.3439655e-38
0.028207079 0.13658941 0.033049345 1.297583e-38
0.028746277 0.13966253 0.034722388 1.3159144e-38
0.030904561 0.14371021 0.036703646 1.2048147e-38
0.029837519 0.14787966 0.037031591 1.3066954e-38
0.028497294 0.15172139 0.03703618 1.3436419e-38
0.028387263 0.15613762 0.037256479 1.1687591e-38
0.028265595 0.16065964 0.038022101 9.5688899e-39
0.02859962 0.16453701 0.038716674 9.5710507e-39
0.030746624 0.16712394 0.039268136 9.5728556e-39
0.026137993 0.12958029 0.033539951 1.2426938e-38
0.026120484 0.13217802 0.033824503 1.3072313e-38
0.077345207 0.14532629 0.0060424805 1.8421164e-38
0.14006118 0.079527617 0.011425436 1.4544947e-38
0.10795815 0.076423585 0.0094282031 1.5187085e-38
0.1078615 0.090750903 0.010997474 1.4083604e-38
0.12613814 0.079801753 0.016145229 1.1875964e-38
0.13931134 0.089660823 0.019017339 1.3720234e-38
0.14286408 0.095293954 0.017863035 1.6204111e-38
0.13563552 0.066781953 0.016490996 1.3809183e-38
0.13492936 0.11796457 0.025013566 2.1272745e-38
0.089175642 0.13318583 0.022488594 2.341769e-38
0.11800201 0.090151876 0.019488156 1.4640021e-38
0.073207512 0.093724445 0.026291668 6.2556234e-39
0.15306365 0.11761369 0.035908222 2.2298022e-38
0.028497294 0.15172139 0.03703618 1.3436419e-38
0.028326437 0.15839863 0.03763926 1.0582323e-38
0.15933192 0.12367934 0.052432716 2.341769e-38
0.15658164 0.12419877 0.053162992 2.341769e-38
0.15149486 0.12699342 0.051827431 2.341769e-38
0.14994478 0.13005131 0.053493381 2.341769e-38
0.14813557 0.13085908 0.052344739 2.341769e-38
0.14608476 0.13341424 0.052879512 2.341769e-38
0.143305 0.13435058 0.052300453 2.341769e-38
