# .PCD v0.7 - Point Cloud Data file format
VERSION 0.7
FIELDS x y z rgb
SIZE 4 4 4 4
TYPE F F F F
COUNT 1 1 1 1
WIDTH 984
HEIGHT 1
VIEWPOINT 0 0 0 0 1 0 0
POINTS 984
DATA ascii
0.11511725 0.13396984 0.041695476 1.353115e-38
0.11450773 0.13802579 0.042989418 1.3346032e-38
0.11285192 0.14192915 0.045344651 1.4083222e-38
0.11092669 0.1467855 0.046365559 1.2142105e-38
0.11130464 0.14918602 0.047678679 1.1867319e-38
0.11193299 0.15228628 0.048596799 1.1225204e-38
0.10866785 0.1645465 0.053860962 1.2615297e-38
0.10744488 0.16598457 0.056641191 1.3626944e-38
0.10537547 0.16730164 0.059320807 1.4363086e-38
0.11935788 0.10545415 0.028572887 1.5002334e-38
0.11861908 0.10920635 0.03062281 1.4636054e-38
0.11773032 0.11266255 0.032160163 1.3897785e-38
0.11668414 0.11664978 0.032467261 1.3896708e-38
0.11589473 0.12014627 0.033968881 1.3804494e-38
0.11510551 0.12364221 0.035470188 1.3989612e-38
0.1143167 0.12713641 0.036970749 1.4266212e-38
0.11323142 0.13050324 0.038575724 1.4176173e-38
0.11202061 0.13410813 0.039581895 1.3897774e-38
0.11113381 0.13819686 0.041320056 1.3070167e-38
0.1101523 0.14240563 0.043668717 1.270068e-38
0.1095351 0.14597498 0.044502005 1.2328656e-38
0.11004424 0.1500781 0.044907466 1.1775813e-38
0.11005294 0.1526047 0.045709252 1.1224101e-38
0.10640144 0.16423373 0.05099526 1.215073e-38
0.1038717 0.16610938 0.054514125 1.3164525e-38
0.11436367 0.11678636 0.030109346 1.4357682e-38
0.11345351 0.1207214 0.032031089 1.4266548e-38
0.11271286 0.12360162 0.033312187 1.4358762e-38
0.11144584 0.12730384 0.034428507 1.4634997e-38
0.11104774 0.13073599 0.036771327 1.426585e-38
0.11000901 0.13389623 0.037796095 1.3989967e-38
0.10870397 0.13850936 0.039218515 1.3161657e-38
0.10769337 0.14298391 0.040312767 1.2975823e-38
0.10705119 0.1465362 0.041120425 1.2147869e-38
0.10761631 0.15078869 0.041918054 1.1964543e-38
0.10750747 0.15419969 0.042821512 1.1780496e-38
0.1062938 0.15830767 0.044383675 1.0859256e-38
0.10496122 0.16111156 0.046509027 1.1137659e-38
0.10274816 0.16384217 0.048637062 1.2703187e-38
0.10197866 0.16594824 0.051336765 1.3164868e-38
0.10643899 0.14074494 0.03779535 1.2977631e-38
0.10512602 0.143417 0.037571669 1.2516639e-38
0.1047402 0.1472567 0.03850399 1.2057115e-38
0.10390872 0.15102853 0.039801627 1.196636e-38
0.10328794 0.15432996 0.040926099 1.1231285e-38
0.10268134 0.15783678 0.042893991 1.150466e-38
0.10118997 0.16106184 0.044644341 1.2794313e-38
0.099794507 0.16414978 0.046793744 1.0852834e-38
0.1033116 0.14499354 0.036257043 1.1782682e-38
0.10234594 0.14742972 0.03676939 1.1413891e-38
0.1012333 0.15096518 0.037999153 1.2057822e-38
0.10010535 0.15429664 0.039023966 1.1875195e-38
0.09951973 0.15785497 0.041161716 1.2153239e-38
0.099312067 0.16054648 0.043175176 1.2706061e-38
0.19150949 0.091347039 0.069036752 1.0587718e-38
0.1683144 0.12007269 0.060281873 1.3535115e-38
0.15540528 0.070216417 0.035460427 1.4727888e-38
0.17703819 0.019866049 0.054888785 3.6842126e-39
0.17674106 0.021021485 0.055402711 4.8816908e-39
0.1695503 0.020765901 0.043064579 4.873035e-39
0.167337 0.021975398 0.041113496 4.5071392e-39
0.16581196 0.023839533 0.039465547 4.876286e-39
0.16315937 0.026061386 0.039094567 4.6915248e-39
0.16312659 0.028991193 0.03946498 4.2323488e-39
0.16085136 0.030702561 0.038207889 4.876628e-39
0.15767419 0.033262014 0.036176324 5.4308905e-39
0.15819597 0.034937561 0.03637971 5.9815546e-39
0.15509313 0.037208229 0.034219533 6.71947e-39
0.15401381 0.040619016 0.034322694 8.0094941e-39
0.15285236 0.040628254 0.033447444 7.6410577e-39
0.150047 0.044376314 0.033085927 9.206231e-39
0.14871925 0.045955032 0.030947089 8.8360276e-39
0.14803767 0.047985733 0.030723214 9.2948505e-39
0.14758641 0.04709515 0.029181004 8.3757641e-39
0.14728928 0.048250616 0.029695004 8.5601582e-39
0.14511478 0.052958965 0.032312691 1.2610983e-38
0.14366686 0.056492567 0.031902403 1.3897407e-38
0.14060849 0.060860753 0.030800343 1.380523e-38
0.13916171 0.065306246 0.030978203 1.3896709e-38
0.13834184 0.067171901 0.031235024 1.3255287e-38
0.13823724 0.063807905 0.03025201 1.3895989e-38
0.13550228 0.070277512 0.029178381 1.4079672e-38
0.13520515 0.071432948 0.029692292 1.3896036e-38
0.13390011 0.070076287 0.028449357 1.3988545e-38
0.13302642 0.073349983 0.028420568 1.3803778e-38
0.13171655 0.076488614 0.029327586 1.3528245e-38
0.13117713 0.079160452 0.029691428 1.3530424e-38
0.10999542 0.16235957 0.067487717 1.6939864e-38
0.1085242 0.1647822 0.068853766 1.6576817e-38
0.12927103 0.080129355 0.029477865 1.3714453e-38
0.1277107 0.083777368 0.029622942 1.4082516e-38
0.10690665 0.16645649 0.066679016 1.6021844e-38
0.12553471 0.086710989 0.028962284 1.4173984e-38
0.12510252 0.089263618 0.028865352 1.4080359e-38
0.12379372 0.093009531 0.030332983 1.3345668e-38
0.12261057 0.096651047 0.031332463 1.3621543e-38
0.10455298 0.16756073 0.063529745 1.5375384e-38
0.12074846 0.097765744 0.029889941 1.4173634e-38
0.11979264 0.10074767 0.02982454 1.4449845e-38
0.11879599 0.10349828 0.030202657 1.4818256e-38
0.10240513 0.16797055 0.060271382 1.4640005e-38
0.11761558 0.10161 0.028703094 1.4726791e-38
0.1162051 0.10544965 0.028839514 1.5001616e-38
0.11573631 0.10878235 0.029687986 1.4541339e-38
0.11484492 0.11224872 0.031229839 1.417292e-38
0.10846227 0.13971487 0.044592991 1.2794309e-38
0.10719669 0.14331368 0.045620814 1.2514135e-38
0.10050565 0.16668779 0.054871783 1.4726429e-38
0.10026497 0.16772911 0.057098016 1.3441466e-38
0.1132822 0.10963008 0.028444767 1.4448766e-38
0.11275792 0.11250886 0.029373467 1.4264403e-38
0.11144698 0.11686492 0.029558495 1.4541714e-38
0.11080152 0.11977157 0.031023324 1.4449867e-38
0.10979128 0.12370014 0.032770783 1.4542814e-38
0.10851139 0.12761915 0.034055531 1.4634269e-38
0.10814273 0.13037533 0.035854563 1.4356967e-38
0.10732657 0.13399011 0.037653476 1.3898483e-38
0.10583723 0.13801825 0.038681209 1.3160941e-38
0.098930836 0.16655877 0.052642182 1.2147135e-38
0.098554611 0.16778505 0.054695129 1.2331859e-38
0.10987073 0.11708546 0.027955472 1.4633566e-38
0.10826844 0.12016997 0.029252529 1.4726443e-38
0.10735977 0.12380362 0.030435085 1.4819384e-38
0.10656661 0.12731636 0.031944603 1.5002335e-38
0.10575092 0.1305275 0.034105629 1.4450239e-38
0.10458308 0.13417283 0.035100281 1.3989959e-38
0.10406774 0.13831416 0.036545709 1.3069474e-38
0.10284919 0.14170161 0.036881402 1.2608849e-38
0.095997334 0.16448289 0.047487706 9.3748423e-39
0.09727782 0.16540563 0.049381495 9.1911517e-39
0.10566258 0.12424779 0.028443068 1.5004863e-38
0.10491872 0.12714067 0.029729813 1.5187807e-38
0.10260975 0.13479483 0.032560572 1.4175434e-38
0.10156906 0.13912925 0.033718824 1.2792888e-38
0.10077274 0.14318559 0.035223186 1.1873433e-38
0.099415421 0.14711818 0.035852596 1.1412772e-38
0.098872483 0.15011109 0.037565917 1.2151082e-38
0.097709715 0.15507393 0.039964423 1.1783728e-38
0.096741199 0.15751728 0.040478244 1.2147145e-38
0.095990181 0.16017871 0.043159902 1.2142468e-38
0.096148908 0.16317792 0.045523822 1.0482255e-38
0.099396944 0.14066523 0.032302469 1.2143894e-38
0.098391235 0.14391372 0.033460557 1.1595057e-38
0.097067297 0.14740634 0.034296736 1.1872348e-38
0.096219003 0.15080485 0.035613149 1.2059978e-38
0.095827818 0.15407124 0.037344992 1.2702455e-38
0.095082223 0.15744396 0.039765805 1.1961324e-38
0.095362961 0.148404 0.032301635 1.2519506e-38
0.21301699 0.050224245 0.0661567 6.8094978e-39
0.19211751 0.082304269 0.060580865 1.159899e-38
0.18598831 0.089982748 0.055758625 1.399142e-38
0.16370595 0.12234515 0.05892244 1.0311114e-38
0.16392946 0.019110113 0.040729105 4.8759427e-39
0.166668 0.019788444 0.041644305 4.873405e-39
0.16236931 0.018838614 0.040009141 4.9677614e-39
0.16234922 0.022113919 0.038915187 5.0595969e-39
0.15932882 0.023009121 0.037833244 5.2429246e-39
0.15913546 0.0265553 0.037963271 4.8751972e-39
0.15895241 0.029892981 0.037518322 4.8762622e-39
0.15605003 0.027423233 0.036900952 5.0588696e-39
0.15570331 0.030473709 0.03684856 5.0624654e-39
0.15580654 0.034166515 0.035971045 5.7989584e-39
0.15280825 0.034278512 0.034238696 5.6163636e-39
0.14988834 0.035771817 0.032317519 6.0744607e-39
0.14910859 0.039261073 0.033147663 7.3630317e-39
0.14989018 0.042580843 0.033392042 8.5587106e-39
0.14761871 0.036226451 0.030426711 5.7049551e-39
0.14751214 0.039711356 0.031160235 6.9027948e-39
0.14812684 0.043468356 0.031200677 8.1002604e-39
0.14561158 0.04751575 0.032664031 1.0216082e-38
0.14395928 0.048628777 0.030857772 9.3888384e-39
0.14173412 0.051133096 0.031812698 1.2242562e-38
0.14232922 0.054737389 0.031328261 1.3898112e-38
0.13860005 0.052643418 0.029648036 1.0401893e-38
0.13912511 0.055617392 0.030281246 1.2886863e-38
0.13955867 0.058878124 0.030296594 1.3621916e-38
0.13634473 0.060106874 0.029028207 1.3346037e-38
0.13484061 0.06359899 0.02971372 1.3804504e-38
0.13551891 0.066628247 0.030295655 1.3530066e-38
0.13259828 0.063883007 0.028332561 1.3620795e-38
0.13184726 0.067230076 0.028932586 1.3805206e-38
0.13013756 0.070687622 0.029088229 1.3803785e-38
0.12830091 0.0700427 0.027574539 1.371485e-38
0.12777191 0.072855085 0.027721524 1.371373e-38
0.12791955 0.076458335 0.028271645 1.3805557e-38
0.12718081 0.08074522 0.0286441 1.3806297e-38
0.10681099 0.16632584 0.06946969 1.6021481e-38
0.12487179 0.077000231 0.02737011 1.3623704e-38
0.12417895 0.080266893 0.027997628 1.3438602e-38
0.12356257 0.084606469 0.028801471 1.4357666e-38
0.12257141 0.089118272 0.028230652 1.4355871e-38
0.12197542 0.091435969 0.029261619 1.3713024e-38
0.10115719 0.1678876 0.06722033 1.4455952e-38
0.12070054 0.08532548 0.027473778 1.4540971e-38
0.11955857 0.088569641 0.027325153 1.4173283e-38
0.11967945 0.092560291 0.02852796 1.3989964e-38
0.11919165 0.096424103 0.028951675 1.4265828e-38
0.098557949 0.16838342 0.063813388 1.5837112e-38
0.11798888 0.089406103 0.026130706 1.4265846e-38
0.11672282 0.092700481 0.026737094 1.4265836e-38
0.11598158 0.096252531 0.027380139 1.4449512e-38
0.11613637 0.1008763 0.027713686 1.463463e-38
0.11478978 0.10345966 0.027713403 1.4909058e-38
0.097649395 0.16834444 0.059028402 1.3065519e-38
0.097199678 0.16950309 0.060361743 1.3066628e-38
0.11304247 0.096955895 0.0255 1.4264766e-38
0.11259681 0.1003511 0.026119992 1.4448444e-38
0.11218882 0.10446405 0.027076244 1.4632457e-38
0.11135542 0.10805562 0.027394518 1.4356247e-38
0.11045194 0.11236864 0.02822797 1.4448805e-38
0.096445799 0.16683446 0.052454844 1.0015932e-38
0.095454395 0.16843469 0.05556345 1.1495709e-38
0.094034493 0.16998447 0.057598904 1.2782126e-38
0.1104852 0.10068238 0.024463817 1.4447715e-38
0.10958725 0.10417414 0.02601701 1.4631348e-38
0.10763615 0.10909671 0.027052179 1.435806e-38
0.10863 0.11265072 0.027124017 1.4449524e-38
0.10712266 0.11608654 0.026957408 1.4634278e-38
0.10641205 0.12011877 0.028227031 1.4727532e-38
0.10373008 0.13054839 0.03286624 1.4817935e-38
0.093696594 0.16580176 0.050780922 9.1925992e-39
0.092898011 0.16774178 0.053715169 1.0389024e-38
0.10538006 0.11254025 0.02627492 1.4174724e-38
0.10439384 0.11624637 0.025720865 1.4633908e-38
0.10429573 0.12046829 0.026578769 1.4636055e-38
0.10392302 0.12415987 0.027582094 1.4912299e-38
0.10286582 0.12784463 0.029036433 1.5003767e-38
0.10222882 0.13107973 0.0308038 1.500375e-38
0.10058421 0.13482195 0.031318963 1.3992107e-38
0.093343616 0.16042964 0.043752149 1.1126517e-38
0.09231329 0.16277954 0.046226501 1.0574459e-38
0.091534257 0.16505049 0.049054772 1.0569078e-38
0.10222042 0.11683255 0.024720848 1.4541332e-38
0.10059261 0.12005368 0.024806812 1.4450945e-38
0.099965572 0.12415272 0.025202781 1.4817919e-38
0.1000694 0.1280629 0.026425481 1.5003393e-38
0.098373055 0.13120961 0.028238818 1.4911535e-38
0.098279119 0.13502502 0.029522344 1.3716237e-38
0.097768366 0.13915741 0.030811295 1.2515528e-38
0.096606195 0.14339291 0.032142878 1.1870209e-38
0.095650315 0.14604862 0.032864407 1.1963109e-38
0.093715191 0.15445828 0.036988258 1.3065139e-38
0.092812777 0.15714729 0.039260402 1.2971876e-38
0.091704547 0.15982872 0.042610094 1.1585703e-38
0.097259283 0.12546545 0.023943111 1.4909755e-38
0.096472204 0.12786004 0.024719596 1.4816842e-38
0.095411658 0.13176203 0.026359051 1.4268301e-38
0.094813108 0.13408989 0.027394459 1.3714425e-38
0.0935179 0.13967168 0.029159456 1.2333657e-38
0.093227744 0.1436677 0.030270725 1.2425507e-38
0.09237653 0.14714614 0.031379998 1.2979039e-38
0.092698097 0.15050885 0.033238575 1.3164148e-38
0.090684235 0.15362786 0.03616254 1.3624395e-38
0.090358317 0.14430691 0.028860569 1.3162716e-38
0.090224385 0.1487301 0.030371904 1.380772e-38
0.089925528 0.14989236 0.030888885 1.3991396e-38
0.21220326 0.061700404 0.069280624 5.8907757e-39
0.18656492 0.089491546 0.059125572 1.1505361e-38
0.16860431 0.11162075 0.053771213 1.3900668e-38
0.15242553 0.075048804 0.033968091 1.4633185e-38
0.13035238 0.089100778 0.030052453 1.3530411e-38
0.15999842 0.018030196 0.039599031 5.2464797e-39
0.15704024 0.01994428 0.037727565 5.7928866e-39
0.15459228 0.021313697 0.036135018 5.6124035e-39
0.15397787 0.02496466 0.036465377 5.6098854e-39
0.15275651 0.028374612 0.036481589 5.0621164e-39
0.1523208 0.021760464 0.034233943 4.8787874e-39
0.15127784 0.025256336 0.03431955 5.1535666e-39
0.15075958 0.029382527 0.035075992 4.5129041e-39
0.1486131 0.026797295 0.032410339 4.7844463e-39
0.14810085 0.029645294 0.032974526 4.6926305e-39
0.14709747 0.03239876 0.032628372 5.4276788e-39
0.14633822 0.027602494 0.029284939 4.1412265e-39
0.14601171 0.030116856 0.030226916 4.4174715e-39
0.14596164 0.032800794 0.031067908 5.2454273e-39
0.13818967 0.048302978 0.03158626 1.0030964e-38
0.13705391 0.048704982 0.03002587 8.4679457e-39
0.13708806 0.050634772 0.030346572 1.0400108e-38
0.1323908 0.058572918 0.028687596 1.2888635e-38
0.12952673 0.060578465 0.027770624 1.3069814e-38
0.12832141 0.066379696 0.028686643 1.371374e-38
0.1264053 0.063848764 0.026993379 1.362156e-38
0.12587428 0.067454219 0.027041182 1.3622633e-38
0.12429351 0.070223272 0.027422726 1.3805943e-38
0.12311137 0.068713158 0.025536567 1.3620118e-38
0.12285709 0.071793824 0.026381806 1.3895266e-38
0.12135482 0.075453162 0.026634783 1.3804166e-38
0.12078309 0.079658568 0.027646378 1.3806307e-38
0.12003255 0.082576901 0.028944463 1.4357683e-38
0.098034739 0.16873391 0.068392381 1.6392085e-38
0.11874354 0.076388419 0.025633186 1.3896685e-38
0.11801732 0.079547524 0.02599068 1.3897404e-38
0.11778367 0.083174288 0.026753813 1.4082151e-38
0.095407367 0.16894236 0.06586659 1.7125357e-38
0.11586851 0.08042115 0.024330512 1.3897399e-38
0.11464822 0.083763123 0.024493352 1.4082151e-38
0.11440396 0.087598741 0.025405079 1.4173658e-38
0.11325717 0.090970367 0.025973469 1.4265835e-38
0.094076872 0.16985849 0.062390029 1.555734e-38
0.11253995 0.085323811 0.023027778 1.4172211e-38
0.1116035 0.088148326 0.023316696 1.3897414e-38
0.11095917 0.091779649 0.02436322 1.4082516e-38
0.11082816 0.095207572 0.024528369 1.4173997e-38
0.091125965 0.1694693 0.059224039 1.3340314e-38
0.10875982 0.091982543 0.022506118 1.4174714e-38
0.10847354 0.096278012 0.023648426 1.4080723e-38
0.10640597 0.099687725 0.02387464 1.4539196e-38
0.106094 0.10347226 0.025240809 1.4630303e-38
0.10576856 0.10704321 0.026396737 1.4357338e-38
0.10480571 0.10971838 0.027123496 1.4908713e-38
0.089897275 0.16818884 0.054062083 1.1683318e-38
0.088435173 0.16962337 0.055720881 1.3161308e-38
0.10437763 0.10098273 0.0230259 1.453993e-38
0.10344452 0.10380074 0.023314863 1.4539895e-38
0.10270703 0.10737622 0.024393842 1.472575e-38
0.10243803 0.11115795 0.025318906 1.4632465e-38
0.089029312 0.16305056 0.047372729 1.149858e-38
0.088224769 0.16538034 0.049493954 1.1963488e-38
0.08730495 0.16783737 0.051430851 1.1691539e-38
0.10059744 0.1076414 0.022504285 1.472648e-38
0.09921664 0.11163485 0.023147538 1.4542786e-38
0.099523306 0.11557871 0.023676798 1.4541709e-38
0.098468065 0.11832801 0.024006307 1.4544584e-38
0.086802006 0.16205439 0.045131072 1.3251689e-38
0.085543036 0.16499428 0.046886384 1.3346408e-38
0.084864736 0.16748169 0.048541158 1.1226961e-38
0.096376777 0.11609864 0.021477699 1.4358413e-38
0.095754564 0.11964121 0.02273491 1.4358022e-38
0.095000386 0.12330562 0.023393929 1.4540588e-38
0.094098508 0.12730211 0.024524644 1.4633533e-38
0.093550086 0.13032573 0.026255503 1.4542744e-38
0.09234935 0.13499504 0.028332457 1.2975068e-38
0.091697097 0.13664067 0.028678536 1.2607733e-38
0.085377455 0.15878704 0.041770786 1.4541707e-38
0.093040824 0.12744293 0.023582041 1.4450225e-38
0.091837645 0.13082206 0.025237769 1.4175032e-38
0.090935946 0.13432854 0.026797444 1.2881384e-38
0.08905983 0.13865027 0.027431488 1.2700287e-38
0.087278724 0.14256594 0.028584599 1.2886142e-38
0.15227991 0.018534213 0.035626054 5.2457986e-39
0.14950597 0.017871499 0.03466484 4.4174799e-39
0.14857566 0.021159798 0.033838063 4.4185281e-39
0.14582062 0.022659421 0.031944633 3.9564821e-39
0.1462394 0.025418252 0.031923816 4.3241871e-39
0.14402151 0.023023725 0.029949188 3.6791722e-39
0.14454365 0.024725258 0.030176014 3.8628404e-39
0.130036 0.050450355 0.030469909 8.0120459e-39
0.1289705 0.051897794 0.02994585 8.19607e-39
0.12398648 0.062700003 0.026740372 1.2428047e-38
0.12162757 0.063216746 0.026082933 1.252061e-38
0.11778837 0.070609361 0.025926977 1.3803086e-38
0.11716104 0.074009478 0.025171906 1.3803793e-38
0.091957033 0.17022163 0.068905875 1.9702521e-38
0.11362886 0.075445086 0.024238944 1.3804142e-38
0.11313194 0.078515291 0.023950696 1.4172553e-38
0.090579271 0.16919002 0.065034986 1.7215408e-38
0.089500546 0.17108649 0.065956384 1.9148281e-38
0.11104995 0.079267919 0.02225402 1.3804135e-38
0.1101712 0.08293438 0.022521108 1.408e-38
0.1088165 0.086745977 0.022297338 1.3804857e-38
0.088445306 0.16999653 0.061074644 1.5093115e-38
0.086633444 0.17198482 0.06334646 1.7861152e-38
0.085725546 0.17423537 0.064508468 1.9616428e-38
0.10810524 0.083739221 0.021679401 1.3988529e-38
0.10605395 0.08767426 0.021678805 1.3992484e-38
0.10554761 0.090897262 0.022582307 1.4266202e-38
0.10507953 0.095005661 0.023254067 1.4264741e-38
0.086087823 0.17045812 0.057866335 1.3255317e-38
0.084043026 0.17269023 0.060317561 1.353514e-38
0.10356194 0.09139502 0.021820933 1.4173662e-38
0.10228628 0.094946235 0.022074521 1.4264027e-38
0.10197836 0.098652065 0.022519529 1.435733e-38
0.10063052 0.10245013 0.022295535 1.4907956e-38
0.083952188 0.16865197 0.052324906 1.030861e-38
0.083706737 0.17066236 0.054903492 1.1136244e-38
0.082440734 0.17314839 0.057483822 1.1597202e-38
0.10021412 0.096326053 0.020510674 1.4265473e-38
0.099295616 0.099391848 0.020939514 1.4173645e-38
0.098892927 0.10323542 0.021131128 1.42644e-38
0.097787201 0.10745865 0.021903142 1.4633552e-38
0.096688509 0.10971522 0.022033453 1.4452025e-38
0.082576454 0.1659372 0.047623754 1.2336547e-38
0.082302511 0.16834648 0.049277693 9.8465488e-39
0.081189513 0.17105612 0.052167237 9.5721395e-39
0.081448376 0.17317274 0.05422309 1.0403002e-38
0.097017646 0.10066837 0.018938422 1.3528624e-38
0.096179605 0.10322645 0.019415021 1.37123e-38
0.095252335 0.10705736 0.020347551 1.4264397e-38
0.094647646 0.11102563 0.021177322 1.4635695e-38
0.09350127 0.11404502 0.020465791 1.4267295e-38
0.083313525 0.15445331 0.040571421 1.4170754e-38
0.082909882 0.15821704 0.041836545 1.435732e-38
0.082263112 0.16177918 0.043445125 1.3715514e-38
0.081051528 0.16519471 0.045118347 1.233045e-38
0.079784036 0.16866252 0.047152802 1.0490472e-38
0.079004526 0.17125958 0.048784152 9.7583006e-39
0.092155874 0.11148682 0.020246923 1.4176152e-38
0.090896249 0.11496449 0.020105064 1.2886862e-38
0.090329528 0.11849213 0.021889925 1.4175067e-38
0.089120626 0.12189385 0.023555607 1.40836e-38
0.087450385 0.12634483 0.024292007 1.4359819e-38
0.087450325 0.12959725 0.025358677 1.3991371e-38
0.087149501 0.13336891 0.026732147 1.2608058e-38
0.083671808 0.14420494 0.03038761 1.3531503e-38
0.08138293 0.15132178 0.036537558 1.4360893e-38
0.080544591 0.15480956 0.038247317 1.4540977e-38
0.080044091 0.15848833 0.039679915 1.4264037e-38
0.07913661 0.16201738 0.041249737 1.3806641e-38
0.078024507 0.16547526 0.042889625 1.3806998e-38
0.077409863 0.16853091 0.045061603 1.1778653e-38
0.076713324 0.17153853 0.046958432 1.0029139e-38
0.085293531 0.12978789 0.024325699 1.3621885e-38
0.084318995 0.13346961 0.025272489 1.3160904e-38
0.083392084 0.13753024 0.026471391 1.343571e-38
0.082356274 0.14164326 0.028069317 1.279431e-38
0.081388712 0.14521554 0.030863911 1.3715893e-38
0.078513026 0.15645233 0.036744297 1.5187756e-38
0.078058839 0.15821856 0.037529886 1.5002299e-38
0.14603937 0.018527448 0.033694446 3.8646508e-39
0.14481711 0.019675642 0.032643467 3.4043986e-39
0.12769413 0.048778594 0.03042385 6.354328e-39
0.12651336 0.051199973 0.029487431 6.2642582e-39
0.12001169 0.059167147 0.027676493 1.1324238e-38
0.1171056 0.062345624 0.025571555 1.1047282e-38
0.1162892 0.066626161 0.025807872 1.34368e-38
0.11466205 0.069348872 0.025457278 1.3710523e-38
0.11181259 0.073219836 0.024055719 1.3712319e-38
0.086889565 0.17149046 0.068353042 2.0899279e-38
0.084988475 0.17317529 0.068060741 2.1822652e-38
0.10943347 0.074882776 0.022223502 1.3711603e-38
0.10774082 0.078238964 0.021603346 1.3620464e-38
0.082999587 0.17427468 0.065854311 1.9338405e-38
0.10579664 0.079247564 0.021360397 1.3712653e-38
0.10568255 0.082187653 0.021602869 1.3804853e-38
0.10387057 0.084602416 0.021743864 1.3896701e-38
0.081309974 0.17432889 0.062161133 1.5654913e-38
0.10255563 0.087587953 0.021076828 1.3897812e-38
0.10065317 0.089963824 0.021245778 1.3989629e-38
0.10019374 0.092717558 0.021601632 1.4447708e-38
0.07927835 0.17279509 0.057749644 1.1322408e-38
0.097661138 0.094319403 0.019814819 1.3898479e-38
0.096759379 0.097511113 0.020024896 1.3710866e-38
0.076925099 0.17368329 0.054833516 1.0588081e-38
0.076872706 0.17547961 0.05712761 1.2891542e-38
0.095253646 0.095878422 0.0182015 1.33453e-38
0.094441175 0.098949909 0.018456161 1.3159127e-38
0.093096375 0.10274339 0.018448085 1.3344236e-38
0.092489064 0.10510513 0.019498587 1.3988156e-38
0.07594502 0.17214416 0.050489396 9.3902552e-39
0.074723721 0.1743017 0.051757425 9.3884783e-39
0.090436816 0.10708094 0.018849462 1.3251691e-38
0.089204431 0.11013079 0.019665897 1.3071248e-38
0.088068783 0.11418343 0.020022929 1.2516647e-38
0.087157726 0.11772603 0.021598727 1.417506e-38
0.08594507 0.1211409 0.023269728 1.3807008e-38
0.085639417 0.1236304 0.024225026 1.4081093e-38
0.073984742 0.16865265 0.04465811 1.1504606e-38
0.073211133 0.17161348 0.046848997 9.9380199e-39
0.072885036 0.17474115 0.049761549 8.8360052e-39
0.085865378 0.11478788 0.01898855 1.2334053e-38
0.08542347 0.11755827 0.020247281 1.380736e-38
0.084575772 0.12115642 0.02240783 1.3530417e-38
0.083609462 0.12531412 0.023714662 1.3989961e-38
0.082081437 0.12895185 0.023619041 1.3436785e-38
0.081522822 0.13152784 0.024224132 1.2886488e-38
0.080308139 0.13625133 0.026325196 1.362047e-38
0.07878983 0.14215566 0.028951496 1.30709e-38
0.077876806 0.14440136 0.030100688 1.3808102e-38
0.077730417 0.14767437 0.032727808 1.4545653e-38
0.076716661 0.15056419 0.034630954 1.4727884e-38
0.075662196 0.15419446 0.036399648 1.5555471e-38
0.074728131 0.15839717 0.037979484 1.5462562e-38
0.074811578 0.16137987 0.039665401 1.463639e-38
0.073323965 0.16491139 0.0418704 1.4087525e-38
0.072715878 0.16727656 0.042922407 1.2888269e-38
0.080149174 0.13024777 0.022932887 1.2885417e-38
0.079388916 0.13320416 0.024247944 1.3346381e-38
0.07870543 0.13684186 0.025753617 1.408037e-38
0.077717602 0.14100967 0.027570039 1.3345321e-38
0.076499939 0.14443853 0.029245138 1.3807015e-38
0.12411821 0.044344455 0.030167356 5.336188e-39
0.1231584 0.047240138 0.030019552 5.4309018e-39
0.12233245 0.050885618 0.030039966 7.9194341e-39
0.11980969 0.048991501 0.028062671 4.5993656e-39
0.11930364 0.052174747 0.028931648 7.3645073e-39
0.11961538 0.055019557 0.029271066 1.0398691e-38
0.11680698 0.052639723 0.027280748 5.6149301e-39
0.11649436 0.056017041 0.027572632 7.3638122e-39
0.11645961 0.059953332 0.026676774 1.0033894e-38
0.1131143 0.058818549 0.026485115 8.8324627e-39
0.11099756 0.066511422 0.025380075 1.3434292e-38
0.10976928 0.068565905 0.025114655 1.3619758e-38
0.10941082 0.07107231 0.024564832 1.3712328e-38
0.10564959 0.070121765 0.023834169 1.3527565e-38
0.079805613 0.175338 0.066237912 1.795368e-38
0.079827666 0.17428575 0.068929166 1.9987007e-38
0.10322946 0.074369311 0.022055596 1.3436828e-38
0.10207206 0.077805042 0.021691144 1.3344593e-38
0.10266703 0.081005394 0.02192533 1.3619028e-38
0.078958333 0.17455989 0.064127326 1.6671595e-38
0.077588677 0.17603579 0.065262645 1.7410566e-38
0.099568903 0.078769773 0.02118358 1.3068738e-38
0.099261761 0.081736803 0.020766914 1.343716e-38
0.099611163 0.085134745 0.020939589 1.3620491e-38
0.076640487 0.17469779 0.061202541 1.4458144e-38
0.075360119 0.17661622 0.062733561 1.6758744e-38
0.096335649 0.083162069 0.019593328 1.2423722e-38
0.0957793 0.085896105 0.019983113 1.3163073e-38
0.096206546 0.089322835 0.020133764 1.3346741e-38
0.076111495 0.17341149 0.058323234 1.2062449e-38
0.074304819 0.17539886 0.05831264 1.3447257e-38
0.072439313 0.17723331 0.059786096 1.6301364e-38
0.092840374 0.091091216 0.018520206 1.2330422e-38
0.092216969 0.094170809 0.01845634 1.2789969e-38
0.092093885 0.097683907 0.018757433 1.3340996e-38
0.072120965 0.17612687 0.055058092 1.0683525e-38
0.070128143 0.17805132 0.056610972 1.2890473e-38
0.08910352 0.094924241 0.01773721 1.1412779e-38
0.088999093 0.097857803 0.017990261 1.1871261e-38
0.088915288 0.10196814 0.018023193 1.2791062e-38
0.088648558 0.10429338 0.018756688 1.3343513e-38
0.070271134 0.17440069 0.04935284 8.9281854e-39
0.069660723 0.17689276 0.05194366 9.0221957e-39
0.067767143 0.17949727 0.053664505 1.0682442e-38
0.085104585 0.10229409 0.017471403 1.1228798e-38
0.084014475 0.1064083 0.017815918 1.2054237e-38
0.084296346 0.11026773 0.018459082 1.2149653e-38
0.084898353 0.11208883 0.019283444 1.2056034e-38
0.082605243 0.11829054 0.020865679 1.5186327e-38
0.081995368 0.12066242 0.02192077 1.3249529e-38
0.081438124 0.12373435 0.023679286 1.3898486e-38
0.074066103 0.15149727 0.035636336 1.5094501e-38
0.071626306 0.1609849 0.039856493 1.4730028e-38
0.070401013 0.16314301 0.041118294 1.4179015e-38
0.06952405 0.16690584 0.043123886 1.2613484e-38
0.06910789 0.17018093 0.044761494 1.1227664e-38
0.06859231 0.17381541 0.047084361 9.1129452e-39
0.067063451 0.17719723 0.04855144 8.7470087e-39
0.065662324 0.18038085 0.050417364 9.7579559e-39
0.063329458 0.18346561 0.052058309 1.0036335e-38
0.081565142 0.10787743 0.016410887 1.076635e-38
0.080705166 0.11013055 0.016940594 1.1321676e-38
0.081007242 0.11455581 0.018114775 1.2242216e-38
0.079422712 0.11822695 0.019473732 1.307016e-38
0.07871902 0.12149584 0.021426737 1.2334046e-38
0.07724309 0.12475333 0.022413909 1.3253834e-38
0.077104211 0.12846056 0.023103952 1.3344588e-38
0.077202141 0.13206106 0.023854196 1.3160918e-38
0.076031208 0.13570958 0.025084943 1.3528648e-38
0.075116277 0.13926741 0.02666755 1.3344243e-38
0.074048877 0.14341828 0.028513864 1.2886858e-38
0.073518038 0.1468402 0.030624107 1.4636037e-38
0.072876632 0.14991623 0.032244444 1.43591e-38
0.071687579 0.1532355 0.034443736 1.5005181e-38
0.07002151 0.15655415 0.035946444 1.5003755e-38
0.069778383 0.16015604 0.037855819 1.5005547e-38
0.067526281 0.16322404 0.039447546 1.4267278e-38
0.066608548 0.16679262 0.041034907 1.2885065e-38
0.065388441 0.17035514 0.042942286 1.1965595e-38
0.064773381 0.17392904 0.044209272 9.6628722e-39
0.064269066 0.17763156 0.045656413 9.38773e-39
0.062710643 0.18076941 0.047575071 9.4795893e-39
0.061846912 0.18387437 0.049919695 9.0200419e-39
0.060658693 0.18781351 0.051376462 9.1122544e-39
0.074192703 0.13007426 0.022049099 1.3713735e-38
0.073808312 0.13242328 0.022748381 1.3346726e-38
0.073289931 0.13587284 0.023562223 1.2793562e-38
0.072143376 0.13934933 0.025219679 1.1685794e-38
0.071027637 0.14274713 0.026651472 1.1228791e-38
0.070212901 0.14635214 0.028205842 1.1780523e-38
0.06958431 0.14979213 0.029809445 1.2424819e-38
0.06826359 0.152704 0.032287747 1.3712316e-38
0.067305803 0.15514709 0.03389287 1.4265479e-38
0.061810553 0.17456889 0.041688025 9.7586341e-39
0.060715079 0.17804986 0.042898849 8.5597392e-39
0.060102463 0.18043193 0.04395844 8.0984205e-39
0.11985475 0.038790137 0.029915661 3.7713636e-39
0.11981976 0.041897655 0.029671669 3.8621299e-39
0.1195761 0.045214057 0.029719561 4.7837065e-39
0.11606705 0.042569101 0.027926296 2.207649e-39
0.11656046 0.045614421 0.02799651 3.5873577e-39
0.11757201 0.049962699 0.028366014 5.4270019e-39
0.1152125 0.047661662 0.025437772 1.8406756e-39
0.11466813 0.051473498 0.026027441 3.8621832e-39
0.11364114 0.055690676 0.026773363 6.3485841e-39
0.11354619 0.049519718 0.023341924 1.8548848e-40
0.11096936 0.050824136 0.024439871 2.2066107e-39
0.10964 0.054468393 0.026258737 5.3373034e-39
0.10845625 0.058617204 0.026619226 1.0675257e-38
0.10776484 0.054393917 0.02432251 3.2207458e-39
0.1069566 0.058223546 0.026323378 1.1408145e-38
0.10648048 0.063323945 0.025348097 1.3067646e-38
0.10655212 0.066873252 0.024649352 1.3436789e-38
0.1031577 0.063384324 0.024454892 1.2978665e-38
0.10315704 0.067579538 0.023485839 1.3344958e-38
0.10331428 0.071271777 0.023056775 1.3621208e-38
0.099493384 0.068387568 0.021959245 1.2789661e-38
0.10075951 0.071525276 0.02183798 1.3254231e-38
0.1000765 0.075670332 0.021464199 1.3252769e-38
0.07322365 0.17530453 0.069432616 1.9710771e-38
0.096864223 0.072342873 0.021181762 1.242408e-38
0.097328186 0.076847792 0.020372897 1.25174e-38
0.096838713 0.080068856 0.019871742 1.3160931e-38
0.070789218 0.17678794 0.065739483 1.8698445e-38
0.093712389 0.076643974 0.019111753 1.0581279e-38
0.094474196 0.081023544 0.018873483 1.1043665e-38
0.093342543 0.085185647 0.019011438 1.1413149e-38
0.069530308 0.17822085 0.061477631 1.8784887e-38
0.06615895 0.17842591 0.063134134 1.9528197e-38
0.090497434 0.081141323 0.017644525 8.7377209e-39
0.090507746 0.085282147 0.017719567 8.7409495e-39
0.090464532 0.089332402 0.0176965 1.0216047e-38
0.067518175 0.17914093 0.058180168 1.5014924e-38
0.06490767 0.18011384 0.060361579 1.7868676e-38
0.087251306 0.085798472 0.016622841 6.6244115e-39
0.086666584 0.089409947 0.016304255 7.8225791e-39
0.087054372 0.093933046 0.016849875 9.3863119e-39
0.085944176 0.097565293 0.017417371 1.0672738e-38
0.063717365 0.18200326 0.056892246 1.3446494e-38
0.061422825 0.18426327 0.058133945 1.3815261e-38
0.083535373 0.090212166 0.014524341 8.6476552e-39
0.082850099 0.093154907 0.015309781 6.9921024e-39
0.081745625 0.097072184 0.016530663 9.0139519e-39
0.08289659 0.10222948 0.016199738 9.7540406e-39
0.063195705 0.18358919 0.054088265 1.0498029e-38
0.061132431 0.18629697 0.054599926 1.077605e-38
0.080906868 0.093611717 0.013510734 9.9326207e-39
0.079231143 0.097839266 0.014399707 8.0044621e-39
0.079486609 0.10226089 0.014418513 8.6469336e-39
0.079797387 0.1062941 0.01499474 9.0168105e-39
0.078392148 0.11054218 0.016088992 9.8490669e-39
0.077582359 0.11398882 0.017214447 1.0678821e-38
0.076969028 0.11637431 0.01827544 1.1783019e-38
0.075742126 0.12114525 0.020397633 1.2239704e-38
0.074515283 0.12591615 0.022519797 1.3343866e-38
0.06608063 0.15871632 0.037109539 1.4548516e-38
0.063473523 0.16885453 0.041619092 1.2519563e-38
0.060099661 0.18197459 0.047455028 8.4679738e-39
0.059733927 0.18448922 0.049046755 8.2835713e-39
0.058566093 0.18793821 0.050107777 8.4697604e-39
0.074702859 0.10936952 0.015463531 7.5420448e-39
0.075043797 0.1141279 0.015820056 8.5547394e-39
0.074816704 0.11781645 0.017142653 9.2955344e-39
0.073213816 0.12098777 0.019220144 1.1321721e-38
0.072596192 0.12469804 0.020721853 1.2424108e-38
0.07251358 0.12783873 0.021551371 1.297907e-38
0.070357323 0.13389289 0.022518843 1.2701004e-38
0.069437146 0.13747111 0.024110466 1.1043265e-38
0.066063285 0.15059116 0.029946327 1.1414935e-38
0.065142274 0.15290511 0.031714514 1.2058919e-38
0.064994514 0.15621269 0.034369692 1.3625133e-38
0.064304888 0.15956049 0.03593272 1.3900994e-38
0.063384056 0.16314122 0.037525505 1.390028e-38
0.061311007 0.17049116 0.040128618 1.1597538e-38
0.060082316 0.17384943 0.040291861 9.2958539e-39
0.058395922 0.18182766 0.045171484 7.7307352e-39
0.055987537 0.18404791 0.047715113 7.6392613e-39
0.054516077 0.18682536 0.049284935 7.8261777e-39
0.071967006 0.11360577 0.014574051 8.740176e-39
0.070755422 0.11760151 0.015683562 7.0785303e-39
0.069450855 0.12045288 0.017165095 7.8150555e-39
0.069150686 0.12285048 0.019377887 9.6640128e-39
0.068833649 0.12801689 0.021233261 1.1964882e-38
0.066944838 0.13133547 0.0220384 1.1040056e-38
0.066246748 0.13464794 0.02269727 9.3876992e-39
0.066280723 0.13842452 0.023566037 8.1880882e-39
0.062935472 0.14850885 0.028752506 1.1043611e-38
0.061394334 0.15253289 0.030762941 1.1046911e-38
0.0606637 0.15573171 0.03251943 1.196598e-38
0.059635818 0.15929101 0.034151673 1.233259e-38
0.05871129 0.16288637 0.035750881 1.3162709e-38
0.058124065 0.16686291 0.036583185 1.2796068e-38
0.058445334 0.17086597 0.037776873 9.7554139e-39
0.05776 0.17479026 0.038636863 7.4530357e-39
0.057151079 0.17847168 0.040127635 6.625817e-39
0.055602074 0.18152484 0.04224351 6.4414397e-39
0.053316653 0.18390569 0.045595348 6.9946107e-39
0.058337271 0.15666196 0.030848324 9.8465656e-39
0.057011068 0.15985714 0.031419843 1.0122073e-38
0.056252182 0.16339675 0.033249229 1.0491571e-38
0.055385947 0.16721553 0.03433767 8.649802e-39
0.054845333 0.1710045 0.035650566 5.9800874e-39
0.053950191 0.17486981 0.036582291 6.0704754e-39
0.053965926 0.17875938 0.037876949 6.0733495e-39
0.052159071 0.18204045 0.040307924 5.4312423e-39
0.051008463 0.18378842 0.042319506 5.5234309e-39
0.053384483 0.16768277 0.032181293 4.8802167e-39
0.052397132 0.17182347 0.032926828 3.7717237e-39
0.050779581 0.18176948 0.038014516 6.8113013e-39
0.12009037 0.03155145 0.031470895 4.0479729e-39
0.11853373 0.033927292 0.030934751 3.4036741e-39
0.11844367 0.036213696 0.030643523 3.5873367e-39
0.11576313 0.03785938 0.028646082 1.6555557e-39
0.10755897 0.051000446 0.025289863 2.390646e-39
0.10694027 0.053406209 0.026359946 4.8759764e-39
0.10639024 0.051414073 0.023684204 9.1910045e-40
0.10436565 0.05408895 0.024768889 5.0588808e-39
0.10373485 0.05773145 0.025616348 1.0674167e-38
0.10172099 0.058857322 0.02450034 1.1416e-38
0.10057443 0.061540484 0.024065882 1.2610597e-38
0.097670674 0.063575745 0.021820068 1.104402e-38
0.097524405 0.065377772 0.02208215 1.187236e-38
0.095335841 0.067139566 0.021015733 1.0487681e-38
0.094101906 0.070418775 0.020742655 1.0123521e-38
0.066478491 0.17687595 0.068215176 2.0815354e-38
0.092065811 0.07158187 0.019407302 7.726813e-39
0.090648115 0.074707061 0.01904729 9.4727608e-39
0.064382255 0.17841187 0.065495774 2.0355099e-38
0.088692784 0.076983809 0.017394423 8.9224162e-39
0.087813735 0.079128504 0.016723365 8.8266767e-39
0.062458754 0.18010752 0.06338647 1.9900208e-38
0.060910344 0.18235278 0.063822597 1.8787745e-38
0.085970044 0.080682546 0.016055256 8.7416333e-39
0.085405767 0.083443284 0.016455293 7.3572794e-39
0.077402711 0.096663356 0.014580548 8.6440988e-39
0.066461086 0.12131095 0.017788857 8.3664357e-39
0.06563729 0.12357768 0.019464582 9.1058e-39
0.064608097 0.1272034 0.020556629 9.3862783e-39
0.063376427 0.12936682 0.021812409 9.5703262e-39
0.062211871 0.13251638 0.022615969 7.7235381e-39
0.059111595 0.14851402 0.029292524 1.0950698e-38
0.058492899 0.15091982 0.030362576 1.0857496e-38
0.050221264 0.18446305 0.045879453 6.7194588e-39
0.049912035 0.18645102 0.048177317 7.1818522e-39
0.061004221 0.13376504 0.021677941 8.092294e-39
0.060691774 0.13695294 0.022877038 7.4487323e-39
0.059490442 0.14093471 0.02434957 7.1700421e-39
0.058328509 0.14458063 0.025746524 7.4541371e-39
0.057169378 0.14798799 0.027705759 7.9118881e-39
0.056373715 0.15202209 0.028833568 8.3746711e-39
0.055407166 0.15549463 0.029794544 7.9172915e-39
0.054144859 0.15956599 0.030629247 8.74452e-39
0.053216815 0.16317466 0.032234401 7.4545127e-39
0.05228889 0.16678338 0.033839554 6.5332486e-39
0.047722042 0.18433601 0.043167636 6.169159e-39
0.047102094 0.18713725 0.045119628 6.7220161e-39
0.054134667 0.1528945 0.026901215 5.3343649e-39
0.053360224 0.15590596 0.02824077 5.9837294e-39
0.052294612 0.16011256 0.02879712 9.0243607e-39
0.051423848 0.16337658 0.030822456 4.8716155e-39
0.050458491 0.16770458 0.031564862 5.4326576e-39
0.054277897 0.14682159 0.021810353 1.3351036e-38
0.053658366 0.14923073 0.022882015 1.3074089e-38
0.052312136 0.15262711 0.023596227 1.2615318e-38
0.051329315 0.15552989 0.024489135 1.2709301e-38
0.049623609 0.16124333 0.026632339 6.9078115e-39
0.04955101 0.16382392 0.028775811 3.494418e-39
0.049166799 0.16669735 0.030651271 4.9741948e-39
0.12297285 0.020364314 0.032408208 4.3231151e-39
0.12245727 0.022320271 0.033364385 4.3245542e-39
0.12084949 0.022837639 0.0315395 4.6922423e-39
0.11845779 0.028482825 0.031393379 3.4958725e-39
0.11709911 0.029113173 0.030731469 3.035609e-39
0.11598134 0.031632841 0.030524075 2.5749924e-39
0.11513197 0.035002261 0.030441403 2.6693362e-39
0.11381531 0.033574164 0.029116303 1.6555571e-39
0.11293072 0.036720574 0.028671056 1.2871347e-39
0.10982573 0.03801012 0.026290119 4.6025508e-40
0.10519648 0.036624819 0.017275214 1.4283147e-38
0.1048255 0.039175153 0.018889576 1.3644216e-38
0.10395217 0.041463524 0.019427508 1.3634476e-38
0.10232574 0.051613331 0.023452491 9.2922904e-41
0.10170442 0.054029286 0.024527162 5.7960815e-39
0.10514146 0.02922219 0.010683 4.601874e-39
0.10469419 0.032247186 0.01258558 3.2221821e-39
0.10388136 0.035853267 0.014382392 5.444294e-39
0.10277104 0.039132684 0.015391201 1.3560364e-38
0.10154331 0.051890284 0.022377521 6.4392747e-40
0.099589288 0.054736495 0.023731709 5.4319681e-39
0.098717391 0.057259321 0.023619115 9.2044332e-39
0.09811461 0.059692025 0.023451537 1.2152156e-38
0.10384804 0.029405057 0.0086646378 4.4207239e-39
0.10294867 0.033407986 0.010050744 3.4083502e-39
0.10206002 0.036863446 0.011587799 2.1194541e-39
0.10120392 0.039687335 0.013238281 8.4042917e-39
0.096398473 0.058651477 0.021793664 6.9956799e-39
0.09623909 0.061453909 0.021838963 9.9401807e-39
0.10188919 0.030098408 0.0059734583 4.237783e-39
0.10089695 0.03361088 0.0073858798 4.4196337e-39
0.10003275 0.037452787 0.0090350807 4.0494148e-39
0.099322855 0.040078223 0.010412633 2.0258446e-39
0.094842136 0.059348941 0.019784212 4.4145848e-39
0.093645811 0.0621548 0.020232439 8.3664343e-39
0.092345715 0.065363854 0.020859957 9.1050895e-39
0.091556191 0.068601608 0.020225763 8.2770749e-39
0.10032219 0.030653089 0.0038205683 3.5006019e-39
0.098686099 0.035630435 0.0054346621 4.1455621e-39
0.098063946 0.038049757 0.0065107644 4.6040123e-39
0.097103834 0.041321814 0.0077662468 3.4980403e-39
0.091145575 0.06633848 0.019693762 8.9199289e-39
0.088978827 0.071709901 0.018612981 8.7362706e-39
0.062114716 0.17894319 0.067509383 2.1462149e-38
0.060959578 0.18053651 0.068572879 1.9983058e-38
0.087183893 0.074541241 0.018075228 8.8323576e-39
0.08442235 0.075865328 0.016732424 9.4748992e-39
0.082500994 0.081688941 0.016461998 9.10822e-39
0.05756247 0.13718224 0.023173809 7.0763765e-39
0.046465993 0.18448204 0.046010345 6.6297925e-39
0.046391249 0.18615556 0.047353789 7.1815215e-39
0.055379212 0.13750184 0.021207541 7.9050624e-39
0.054808259 0.14060137 0.022490323 6.4342623e-39
0.054074943 0.14437163 0.023879588 6.5268307e-39
0.053357124 0.14800391 0.025591224 6.6208101e-39
0.052236557 0.15125546 0.026558191 7.2679284e-39
0.050710917 0.15552877 0.027740091 9.2001242e-39
0.053346157 0.14119387 0.020308733 1.1964156e-38
0.052879512 0.14432991 0.02156058 1.2887544e-38
0.050118208 0.15299346 0.024515659 1.279968e-38
0.049107194 0.15623364 0.025657386 1.2157178e-38
0.04825151 0.15886985 0.026530445 9.8605575e-39
0.12372613 0.015242308 0.034010351 4.5997048e-39
0.12341428 0.016455382 0.034549922 3.9564976e-39
0.12166429 0.017219543 0.033346385 3.772458e-39
0.1185599 0.015734524 0.032179832 5.43158e-39
0.11688137 0.018543184 0.031818181 5.3379536e-39
0.11747968 0.023316115 0.031112939 3.4944628e-39
0.1168282 0.025402367 0.031310558 2.9452113e-39
0.11556637 0.019008636 0.030011475 5.2436042e-39
0.11401916 0.022727072 0.029596508 3.3121917e-39
0.11458451 0.026954919 0.029814094 1.6544781e-39
0.11337924 0.030482441 0.029960692 1.8374358e-39
0.11165118 0.023874402 0.027688146 1.1522618e-38
0.11071467 0.027216166 0.027971238 1.6541333e-39
0.11101449 0.030692488 0.028737575 8.2760127e-40
0.11024219 0.034349442 0.028071225 1.0109093e-39
0.10832036 0.02766335 0.025403649 1.1218414e-38
0.10791397 0.030929208 0.026632249 2.8490696e-39
0.10824096 0.034630775 0.027093649 9.187151e-40
0.10830265 0.019365072 0.018087834 1.3454856e-38
0.10778886 0.021761447 0.019326389 1.5581139e-38
0.10705996 0.025442958 0.020471871 1.5018959e-38
0.10595328 0.028501153 0.022151679 1.308138e-38
0.10517025 0.031546533 0.023506254 1.003995e-38
0.10609126 0.035576195 0.024302393 3.5905737e-39
0.10588145 0.019483864 0.014113307 7.1891278e-39
0.10603333 0.022369146 0.01547125 5.9891524e-39
0.10648769 0.026352227 0.016656727 5.1572716e-39
0.10520512 0.029854953 0.018054515 8.3887513e-39
0.10441715 0.033319831 0.019739449 1.2625745e-38
0.10409057 0.036332786 0.02116701 1.1886391e-38
0.10411382 0.017525911 0.009416312 3.3158715e-39
0.10388184 0.019822598 0.011041969 6.0824145e-39
0.10523355 0.024139166 0.011742115 6.0762824e-39
0.10501766 0.027239591 0.01302731 4.7859093e-39
0.10435367 0.031140953 0.015334159 3.2272324e-39
0.10353261 0.034518927 0.016916931 1.1524487e-38
0.10158348 0.038594604 0.017748535 1.5032219e-38
0.099867344 0.041423023 0.018950999 1.4020875e-38
0.09886539 0.044206828 0.019707292 6.722288e-39
0.097149074 0.051807046 0.023488998 1.6534047e-39
0.099403858 0.040390939 0.015117168 1.4493435e-38
0.098012507 0.042388141 0.016435117 1.6884349e-38
0.095473766 0.044852018 0.018240511 1.1059444e-38
0.094554186 0.053424269 0.022684425 2.4831527e-39
0.093693495 0.055975169 0.021327376 1.8370897e-39
0.096998513 0.040642947 0.01171568 4.6221185e-39
0.095267177 0.043010086 0.013310641 1.5680453e-38
0.093039334 0.045252025 0.015103966 1.7783296e-38
0.091703355 0.058151841 0.019885868 3.7695938e-39
0.09008348 0.061669677 0.020245761 8.1784641e-39
0.097889841 0.031002969 0.0043238699 3.8657537e-39
0.096850038 0.03326124 0.0045549572 3.0406495e-39
0.095151544 0.037485421 0.0054025352 4.6983716e-39
0.094528556 0.040933818 0.0080965161 4.1437447e-39
0.092904925 0.04384625 0.010065079 8.7582555e-39
0.090947807 0.045715511 0.011987478 1.5665333e-38
0.089921415 0.059518635 0.018084109 6.2484375e-39
0.087867737 0.061756998 0.019166082 1.0855321e-38
0.085422397 0.065110743 0.019708455 8.5594183e-39
0.086161137 0.068578929 0.019704521 8.1870597e-39
0.094831765 0.035025775 0.0027042329 2.393478e-39
0.092612147 0.037497312 0.0035204589 3.5923898e-39
0.091771603 0.04119727 0.0051144361 5.6159895e-39
0.089290559 0.043494344 0.0072453916 5.2482972e-39
0.084470868 0.063233018 0.016456842 7.0799974e-39
0.084157586 0.064451128 0.016998649 7.3590969e-39
0.083519518 0.069978088 0.019345433 8.9224261e-39
0.081094563 0.0721789 0.01862368 9.1078893e-39
0.088838637 0.037880719 0.0015552044 7.1747e-39
0.088450015 0.040786415 0.0034518242 4.4206945e-39
0.079829812 0.071519285 0.015913874 1.1043642e-38
0.079359889 0.073346525 0.016726673 1.0305359e-38
0.079959333 0.077399224 0.017001122 1.0213497e-38
0.075902343 0.081213951 0.017809689 8.9206324e-39
0.11677462 0.013898373 0.030780256 4.7034078e-39
0.11567676 0.017605215 0.031112105 5.8046547e-39
0.11296916 0.014361113 0.029427528 7.0760514e-39
0.11298561 0.018571615 0.028858393 9.4874394e-39
0.1098873 0.018587917 0.026515454 2.3415486e-38
0.10999507 0.022942692 0.026226848 2.3411535e-38
0.10841471 0.016662955 0.020734578 2.0383173e-38
0.10901129 0.020338774 0.022760689 2.341769e-38
0.10825789 0.024111927 0.024327189 2.1573399e-38
0.10839713 0.01519224 0.016729861 1.216699e-38
0.10785937 0.01728338 0.017659992 1.2624755e-38
0.10714239 0.020071566 0.018900216 1.4269595e-38
0.10602677 0.016031206 0.013473332 1.078258e-38
0.10613525 0.017471194 0.014920473 9.123773e-39
0.10444653 0.016590536 0.011302292 7.4660818e-39
0.094710469 0.048865676 0.023238808 1.1942216e-39
0.094071269 0.04576546 0.019439995 5.1431493e-39
0.091614544 0.047377527 0.021547258 6.4428621e-40
0.092060745 0.051488936 0.021937072 1.5626538e-39
0.091700912 0.046604455 0.016183496 1.3542644e-38
0.09039855 0.047738463 0.018563241 4.5053469e-39
0.089242756 0.050997496 0.020730108 1.1031134e-39
0.089698553 0.046943605 0.013107926 1.5658089e-38
0.088240743 0.048512518 0.015035242 1.0030543e-38
0.087041974 0.05036059 0.01807332 1.1045553e-39
0.087901294 0.044622898 0.0080426335 4.6076431e-39
0.087005913 0.046831906 0.010382205 1.0501321e-38
0.085927129 0.049241483 0.012636542 6.9042214e-39
0.084776223 0.062361181 0.018352598 1.0040315e-38
0.082806885 0.065830231 0.01808086 8.1956636e-39
0.081784427 0.068409771 0.018623233 9.1082564e-39
0.0853495 0.038392961 0.0025675893 5.1539351e-39
0.085304141 0.041160375 0.0034900308 3.5923631e-39
0.085420787 0.044397831 0.0058133304 3.3157889e-39
0.083870411 0.047158659 0.0080407262 4.9699502e-39
0.08293426 0.049616039 0.0088895559 4.5989971e-39
0.0792346 0.069012165 0.018076926 9.5696031e-39
0.084557176 0.038673401 0.0014790893 5.4287101e-39
0.083647132 0.040266871 0.0024184585 2.8551554e-39
0.081476271 0.04676342 0.0055387616 3.8660746e-39
0.075362682 0.074270368 0.016171068 1.1227296e-38
0.074467838 0.077087402 0.016677201 1.1960906e-38
0.074220598 0.081066281 0.016993612 1.0489718e-38
0.11017907 0.010773778 0.028733313 5.6023296e-39
0.11069906 0.01252228 0.028997838 9.9456332e-39
0.10858566 0.011337757 0.026544213 1.5957313e-38
0.10831928 0.013322502 0.026979476 2.1852117e-38
0.10699224 0.011901736 0.024355084 2.341769e-38
0.106601 0.013856471 0.023572087 2.2683006e-38
0.086252749 0.048529565 0.019429803 6.4392607e-40
0.085620999 0.050986171 0.020522535 1.5640873e-39
0.085147262 0.05282867 0.021342069 1.9321538e-39
0.084533989 0.049026251 0.016970485 1.8370869e-39
0.084220529 0.051370263 0.018500417 2.1136682e-39
0.083953857 0.053251058 0.019702524 2.2062141e-39
0.082194805 0.049779803 0.013691306 3.2196542e-39
0.081145465 0.043080002 0.00604105 3.4076131e-39
0.080621779 0.040194929 0.0026257634 2.1215477e-39
0.079864144 0.039625674 0.00084969401 3.3146888e-39
0.12682682 0.11720383 0.042183653 1.3070534e-38
0.12621558 0.12265623 0.043898851 1.3529347e-38
0.1488328 0.040301323 0.031756327 7.4555931e-39
0.12443072 0.12298167 0.042847544 1.3069811e-38
0.16420954 0.12045076 0.061659887 1.0677767e-38
0.15032876 0.072448254 0.032446072 1.4541707e-38
0.12388945 0.12811893 0.044478387 1.3160196e-38
0.20089191 0.07972756 0.067933604 9.8494494e-39
0.16767299 0.11524251 0.055382192 1.3625533e-38
0.16686845 0.10936433 0.051612288 1.3440034e-38
0.16714561 0.1071595 0.048960805 1.3901012e-38
0.16442788 0.097280234 0.043038234 1.4083244e-38
0.18788445 0.050837666 0.050938889 1.2886844e-38
0.19890702 0.021154374 0.058511406 6.0809165e-39
0.13685858 0.10509503 0.040382937 1.4727536e-38
0.12616038 0.13008392 0.0482658 1.3068006e-38
0.17720032 0.11004186 0.061345324 1.2612436e-38
0.19772124 0.079585254 0.06726034 1.0586647e-38
0.19964665 0.077061176 0.066748738 9.1136711e-39
0.17392862 0.10087231 0.057056248 1.0402606e-38
0.17817914 0.10770983 0.064060256 9.9419954e-39
0.12541193 0.13151735 0.047648489 1.4636775e-38
0.14511478 0.052958965 0.032312691 1.2610983e-38
0.19802243 0.083589494 0.069396615 9.8497984e-39
0.17361104 0.10746822 0.060631752 1.2704269e-38
0.1252057 0.11741108 0.038054422 1.2608476e-38
0.12936014 0.1076251 0.036079824 1.1503202e-38
0.18101388 0.094430625 0.059966788 9.3924258e-39
0.17571062 0.070940644 0.045525432 1.53729e-38
0.11826265 0.13094246 0.042040229 1.2795385e-38
0.12312382 0.12679154 0.042418584 1.1964185e-38
0.11555386 0.069974989 0.025684565 1.0954743e-38
0.12398648 0.062700003 0.026740372 1.2428047e-38
0.088915288 0.10196814 0.018023193 1.2791062e-38
0.10465801 0.039087832 0.018530756 1.3823214e-38
0.10201508 0.052821279 0.023989797 2.9445022e-39
0.12172288 0.13242421 0.043197289 1.2885053e-38
0.13484061 0.06359899 0.02971372 1.3804504e-38
0.13244706 0.071240544 0.028693587 1.3620087e-38
0.13705391 0.048704982 0.03002587 8.4679457e-39
0.089757025 0.099342316 0.019735605 1.2424808e-38
