# .PCD v0.7 - Point Cloud Data file format
VERSION 0.7
FIELDS x y z rgb
SIZE 4 4 4 4
TYPE F F F F
COUNT 1 1 1 1
WIDTH 988
HEIGHT 1
VIEWPOINT 0 0 0 0 1 0 0
POINTS 988
DATA ascii
0.15938486 0.14680582 0.029502928 1.5563755e-38
0.15902737 0.15019369 0.031940579 1.5102072e-38
0.15558475 0.1071065 0.02623266 1.0957236e-38
0.15563914 0.11096732 0.02516824 1.0312922e-38
0.15414375 0.11894877 0.025258064 1.0130348e-38
0.15335131 0.12260105 0.025544941 1.0127801e-38
0.1529976 0.12691441 0.025943458 9.4864066e-39
0.15490106 0.14370859 0.027832091 1.2802944e-38
0.1552006 0.14668375 0.028667927 1.3724887e-38
0.15517634 0.15085205 0.030713379 1.4181921e-38
0.15501402 0.15354502 0.031866252 1.4642184e-38
0.15292259 0.10831372 0.025070727 9.8523515e-39
0.15142636 0.11095622 0.026081562 6.9956953e-39
0.15144417 0.11495135 0.026261628 5.0624738e-39
0.15106174 0.11875412 0.026509583 5.4341233e-39
0.15110192 0.12259998 0.026829183 7.1850976e-39
0.15149891 0.12692031 0.026800513 8.8425044e-39
0.15153591 0.13090375 0.026868939 9.4827941e-39
0.14948636 0.13913734 0.026815116 9.4817165e-39
0.15026316 0.14284791 0.027268946 1.0036383e-38
0.1508546 0.14683314 0.028034568 1.1880625e-38
0.15122259 0.15086514 0.030084193 1.2891189e-38
0.14968565 0.15357231 0.031321824 1.3076306e-38
0.1485585 0.11360873 0.027176976 4.2337613e-39
0.14853117 0.11893813 0.027711451 4.1419832e-39
0.14811802 0.13580851 0.028696299 1.0309657e-38
0.14672856 0.1389059 0.027855635 1.0493356e-38
0.14682747 0.14287919 0.027592719 1.0217876e-38
0.14710793 0.14704952 0.027945876 1.0863947e-38
0.14751938 0.15008286 0.029535115 1.1969596e-38
0.14314075 0.13894658 0.028950512 1.4359786e-38
0.14344734 0.14290379 0.02758491 1.1965966e-38
0.14342692 0.14688946 0.027984619 1.1601493e-38
0.14322607 0.15024416 0.029312432 1.1692272e-38
0.13868393 0.091010004 0.023884356 1.6660072e-38
0.1387271 0.095023103 0.023956656 1.5188883e-38
0.13864636 0.098337919 0.024619341 1.3625506e-38
0.13923118 0.13895938 0.028101265 2.0717322e-38
0.13946244 0.14292422 0.027177691 1.7767074e-38
0.139442 0.14690988 0.0275774 1.408714e-38
0.13930079 0.14958794 0.028506458 1.3077336e-38
0.13492787 0.087476417 0.023142338 1.8777339e-38
0.13561462 0.091096297 0.022230864 1.7302915e-38
0.13567989 0.095106736 0.022192895 1.5741332e-38
0.1353997 0.099040017 0.023907661 1.4543139e-38
0.13396011 0.103025 0.024610579 1.4730046e-38
0.13394305 0.10635587 0.024944663 1.5648733e-38
0.13438743 0.13188569 0.026890576 2.2930411e-38
0.1352798 0.1351437 0.026342392 2.3301001e-38
0.1359902 0.13875818 0.025823712 2.301653e-38
0.13583763 0.14308763 0.025811553 2.3307481e-38
0.13558741 0.14691226 0.026508212 1.8505001e-38
0.13502631 0.15036726 0.026866198 1.0301424e-38
0.13007998 0.080395587 0.021930516 2.1641859e-38
0.13107462 0.083263271 0.022033215 2.0530125e-38
0.13175708 0.087158635 0.020876408 1.8966034e-38
0.13180326 0.091163084 0.020947993 1.7860042e-38
0.13173783 0.095137008 0.02156651 1.666293e-38
0.13153961 0.099087909 0.022842467 1.5835314e-38
0.13129593 0.10303865 0.024338305 1.5652008e-38
0.13127543 0.1070357 0.024739146 1.5466179e-38
0.13108929 0.11086704 0.025106311 1.6018649e-38
0.13043657 0.11476739 0.025432527 1.7399409e-38
0.12988187 0.11903363 0.025805593 2.1083648e-38
0.13019611 0.12269588 0.026207149 2.2287557e-38
0.13102239 0.12721348 0.025592804 2.3025111e-38
0.13157709 0.13100663 0.025054038 2.3024807e-38
0.13306747 0.1336496 0.024575531 2.3120568e-38
0.13299604 0.14757954 0.025972545 1.8135113e-38
0.13298243 0.15023285 0.02623862 8.7272644e-39
0.12717672 0.080161065 0.020345867 2.1178014e-38
0.12812036 0.083614625 0.019456029 2.0346812e-38
0.12797722 0.087237045 0.019485652 1.9334095e-38
0.1279795 0.091223627 0.019775629 1.8137697e-38
0.1278221 0.095172808 0.020831108 1.684768e-38
0.1276871 0.099134505 0.021777987 1.6111913e-38
0.12762085 0.10311244 0.022396684 1.5560164e-38
0.1276004 0.10710232 0.022796869 1.5280358e-38
0.12739745 0.11106881 0.024073958 1.5740257e-38
0.12746824 0.11506997 0.024035573 1.8691587e-38
0.12753947 0.11906564 0.023996711 2.2470908e-38
0.12767932 0.12305923 0.023627877 2.2846504e-38
0.1281721 0.12659843 0.023698568 2.2754322e-38
0.12910526 0.13035333 0.023836255 2.2659617e-38
0.12379345 0.079880312 0.01946497 2.0808504e-38
0.12403768 0.083947375 0.01863718 2.0163848e-38
0.1246907 0.085933968 0.018904567 2.0069142e-38
0.12466007 0.09190394 0.019503295 1.7861106e-38
0.12397988 0.095223993 0.019768119 1.6480334e-38
0.1243394 0.099012509 0.02018702 1.5834625e-38
0.12391603 0.10357828 0.020704865 1.4914441e-38
0.12395534 0.10752176 0.021727145 1.4542779e-38
0.12371004 0.11112288 0.022241414 1.5651282e-38
0.12371337 0.1151099 0.02253145 2.1553247e-38
0.12378718 0.11909945 0.02249223 2.294052e-38
0.12483352 0.12274711 0.022630632 2.2573539e-38
0.11922204 0.076158069 0.019883037 2.0718464e-38
0.11997065 0.079952545 0.018321872 2.0625538e-38
0.12072507 0.083301023 0.018231809 2.0165273e-38
0.12134746 0.091257595 0.019097924 1.7124278e-38
0.12132706 0.095237575 0.019497037 1.5282885e-38
0.12131345 0.097890899 0.019763112 1.5190682e-38
0.12060943 0.10585426 0.020493686 1.3805958e-38
0.11990181 0.1085071 0.020832777 1.3987468e-38
0.12032406 0.11137892 0.021189749 1.7771416e-38
0.12056182 0.11514089 0.021425068 2.2382664e-38
0.12121141 0.1177908 0.021758914 2.3116977e-38
0.11458217 0.072036989 0.019496143 2.016242e-38
0.11575255 0.075239778 0.018592179 1.951886e-38
0.11606261 0.07999637 0.017588019 1.9703236e-38
0.11674584 0.083321407 0.017825127 1.951595e-38
0.117273 0.10985122 0.020553946 1.7407351e-38
0.11016005 0.068506807 0.018686056 1.8415735e-38
0.11173306 0.071252503 0.018001854 1.9334804e-38
0.1119661 0.075326845 0.017314076 1.8310963e-38
0.11212577 0.078986153 0.016913593 1.933338e-38
0.10749587 0.068520449 0.018413842 1.7587774e-38
0.10779475 0.071290754 0.017376721 1.7674894e-38
0.10755436 0.075487703 0.016642392 2.0346432e-38
0.10770474 0.078945622 0.016455352 2.136308e-38
0.10349959 0.068540916 0.018005431 1.8413243e-38
0.10391232 0.071347639 0.016534686 1.9426645e-38
0.10370487 0.075205669 0.016100645 2.1087231e-38
0.10350558 0.078746028 0.016003966 2.0528672e-38
0.099707723 0.071296021 0.016995609 2.0532274e-38
0.099656582 0.075548634 0.015561759 2.0441161e-38
0.10052285 0.078429647 0.01566571 1.8872381e-38
0.094174951 0.068588674 0.017052472 2.0162789e-38
0.095717341 0.071316451 0.016587913 2.0900327e-38
0.09574154 0.075246461 0.015286744 1.9792555e-38
0.091247082 0.068070747 0.016699553 2.0437941e-38
0.092011362 0.071427092 0.01509589 2.0993602e-38
0.092219725 0.075478643 0.014627695 1.9057149e-38
0.08778365 0.068088487 0.01634562 2.0621246e-38
0.088026479 0.071447499 0.014688671 1.8504345e-38
0.088268891 0.075507492 0.014112592 1.6570366e-38
0.084408551 0.068194598 0.016009629 1.7950109e-38
0.083981469 0.071449712 0.014497936 1.6480363e-38
0.084200144 0.075502478 0.014030933 1.509346e-38
0.083942741 0.078514561 0.013971388 1.4911199e-38
0.082670763 0.13258108 0.01929158 1.0958293e-38
0.082663953 0.13390775 0.019424617 1.1598638e-38
0.079812944 0.071415991 0.014739871 1.5096344e-38
0.080157876 0.075506367 0.013840616 1.537362e-38
0.08029002 0.079528242 0.013698339 1.6572525e-38
0.08026962 0.083508223 0.014097512 1.721502e-38
0.079220355 0.13193835 0.019377589 1.0492651e-38
0.079518527 0.13428009 0.022170007 1.1602945e-38
0.075624987 0.071594782 0.01444 1.4728987e-38
0.076144606 0.075518511 0.013541937 1.5283943e-38
0.076307386 0.080211952 0.013358235 1.6940954e-38
0.076620296 0.083858572 0.013758004 1.7769294e-38
0.074736118 0.12797853 0.018012643 1.2521322e-38
0.075791687 0.13113093 0.019954324 1.1414233e-38
0.071529359 0.068704657 0.014738321 1.4820837e-38
0.072086826 0.071529135 0.013059795 1.3991047e-38
0.071914673 0.075677946 0.013056159 1.4452395e-38
0.071664974 0.080235742 0.012883723 1.611012e-38
0.071647972 0.083552383 0.013216496 1.6940593e-38
0.070139617 0.11904736 0.016640067 1.1683254e-38
0.071079642 0.12361458 0.018005431 1.0304689e-38
0.072511911 0.12732643 0.018560231 1.2798252e-38
0.072547242 0.12998578 0.021021128 1.2612045e-38
0.067634195 0.068086833 0.013939202 1.279648e-38
0.068101913 0.07154955 0.012652516 1.3810619e-38
0.067989349 0.075388081 0.012775242 1.4546756e-38
0.067685753 0.080256104 0.012477219 1.620628e-38
0.067668736 0.08357276 0.012809873 1.7679601e-38
0.066838875 0.11607935 0.01600188 1.3252766e-38
0.067601413 0.11957484 0.017009914 1.352755e-38
0.067756042 0.12255684 0.018971801 1.2143905e-38
0.063805968 0.068211287 0.013895273 1.2428762e-38
0.064117014 0.071569957 0.012245238 1.4270519e-38
0.064228356 0.075587951 0.012212753 1.4822981e-38
0.064369723 0.080273099 0.012138307 1.6298111e-38
0.064186081 0.11609294 0.015730739 1.2887226e-38
0.063673571 0.11939149 0.017694533 1.4635708e-38
0.0598097 0.068231761 0.013486981 1.1965973e-38
0.059996739 0.071554475 0.012269616 1.3441838e-38
0.060212553 0.07560011 0.011913776 1.3899945e-38
0.060512021 0.080111951 0.011725843 1.6295951e-38
0.059341848 0.11235897 0.014856815 9.4835368e-39
0.059974402 0.11543698 0.016017854 1.1598645e-38
0.05990918 0.11896731 0.017265141 1.4638213e-38
0.055544257 0.068786532 0.013104737 1.1231654e-38
0.05587399 0.071539015 0.012293577 1.2058553e-38
0.056126773 0.075596444 0.011830568 1.2797559e-38
0.056334198 0.080296278 0.011567891 1.4915893e-38
0.054999828 0.096903905 0.012852728 1.1695126e-38
0.056147724 0.099385455 0.013220787 8.653416e-39
0.056139112 0.10437234 0.01381439 7.731101e-39
0.056392893 0.10866703 0.014308035 9.8508676e-39
0.055839032 0.11185458 0.015167773 1.2059618e-38
0.055857822 0.11527424 0.016560853 1.3074489e-38
0.055957526 0.11807994 0.018116832 1.5099547e-38
0.052080095 0.071939483 0.012730062 1.0773198e-38
0.052141845 0.075616851 0.011423349 1.1600082e-38
0.052400351 0.079663098 0.010959685 1.2244372e-38
0.052698553 0.10442758 0.013543189 7.9143894e-39
0.051898494 0.1076616 0.014881551 9.5742751e-39
0.051810041 0.11129852 0.015996873 1.316631e-38
0.052201495 0.11454634 0.017374814 1.4270867e-38
0.048863292 0.072817683 0.012824953 7.912628e-39
0.04838495 0.076027855 0.011752427 8.0981108e-39
0.048349634 0.079667866 0.010768771 8.3757683e-39
0.04899019 0.10489444 0.01304096 8.283525e-39
0.047817022 0.10749009 0.015347183 9.2080107e-39
0.043947041 0.07693816 0.011388361 6.2574296e-39
0.04436855 0.079688251 0.01036191 7.1772237e-39
0.043014556 0.10625167 0.012564063 8.2845984e-39
0.044672698 0.10753962 0.013874531 8.4686716e-39
0.039740145 0.076910526 0.011627078 9.563862e-39
0.040297404 0.079956017 0.010240138 7.1711029e-39
0.039480358 0.083943874 0.010558248 5.4244109e-39
0.039595872 0.087419003 0.010516226 4.8730364e-39
0.039110154 0.091678791 0.010693908 6.2559457e-39
0.039096564 0.094332106 0.010959983 6.4399824e-39
0.040144771 0.10535931 0.012852848 8.1002268e-39
0.040361792 0.10686725 0.014374316 8.651974e-39
0.036853984 0.076876119 0.01200062 1.2605924e-38
0.036063492 0.080057621 0.011229932 1.0764541e-38
0.036086068 0.083655499 0.010809243 5.9736162e-39
0.036178112 0.087661609 0.010885835 4.9655782e-39
0.036120445 0.091641165 0.011393368 5.5183862e-39
0.036249131 0.095646851 0.01136142 5.3375963e-39
0.03619127 0.099625789 0.011868834 5.8889904e-39
0.036005452 0.10292852 0.012687922 6.6265288e-39
0.031489477 0.083945818 0.012162447 1.0952556e-38
0.031623617 0.087586612 0.012094319 8.6505125e-39
0.031984165 0.091638409 0.01141721 7.1753866e-39
0.03219147 0.095657766 0.011170208 4.8798537e-39
0.032208279 0.099646196 0.011461735 4.6018361e-39
0.032241061 0.10260339 0.012605309 4.8787663e-39
0.028820425 0.084911138 0.01198566 1.3165946e-38
0.028828204 0.087934464 0.010674715 1.2522393e-38
0.028930575 0.091695003 0.010323584 7.4545239e-39
0.028910145 0.095680036 0.010723233 1.9342893e-39
0.029784471 0.09968631 0.010543346 2.6661077e-39
0.029417649 0.10363218 0.011913836 2.8512136e-39
0.068249583 0.11221789 0.012076974 1.0211738e-38
0.082733795 0.11594734 0.013306439 1.4181178e-38
0.079930678 0.1079649 0.012116611 1.4182278e-38
0.078594863 0.11397063 0.012225807 1.2061057e-38
0.10119554 0.11829701 0.015360713 1.4833408e-38
0.11861332 0.11001182 0.017312109 1.2797545e-38
0.10861547 0.10606101 0.01576215 1.2524199e-38
0.10767622 0.10866574 0.01592654 1.3348926e-38
0.10585254 0.10917261 0.015976012 1.261243e-38
0.10289842 0.10763656 0.015542686 1.1231672e-38
0.14437047 0.10742596 0.027614892 1.8602289e-38
0.13773684 0.1045623 0.024242938 1.4180848e-38
0.131474 0.10866383 0.023725927 1.3167047e-38
0.11517757 0.1179773 0.021354496 1.2152171e-38
0.11250433 0.099154338 0.020501196 1.0771409e-38
0.12981606 0.12716702 0.025271833 1.6204813e-38
0.12675861 0.1191479 0.025009215 1.5371475e-38
0.1252664 0.10848346 0.024617195 1.4638933e-38
0.12553051 0.12783699 0.026149333 1.7586681e-38
0.17467807 0.098639011 0.032728434 2.2757918e-38
0.17487234 0.10271436 0.031587541 2.2750721e-38
0.17549804 0.10632389 0.03055656 2.1462133e-38
0.17641678 0.10944271 0.030628562 2.0996501e-38
0.17490664 0.14380628 0.033937931 1.8692676e-38
0.17482935 0.14682093 0.03468293 1.7587382e-38
0.17473239 0.15084411 0.035639763 1.5746713e-38
0.17445068 0.15492633 0.037930727 1.5008076e-38
0.17027745 0.095626593 0.032393634 2.1271994e-38
0.17091316 0.098731548 0.03055495 2.0812825e-38
0.17151472 0.10233978 0.029745758 1.9431697e-38
0.17103729 0.14721715 0.034173012 1.8048737e-38
0.17072536 0.15086548 0.035230458 1.6576133e-38
0.17040028 0.15495513 0.037742138 1.59304e-38
0.17025825 0.157673 0.03889972 1.5837833e-38
0.16681059 0.095029466 0.031796992 2.025784e-38
0.16720811 0.098622769 0.029223323 1.869302e-38
0.16754748 0.14818014 0.03362304 1.7035709e-38
0.16681689 0.15086371 0.03415525 1.5837507e-38
0.16646403 0.15495479 0.036776483 1.565489e-38
0.16627659 0.15902124 0.038289964 1.6021508e-38
0.16282701 0.095461205 0.031662285 1.8141644e-38
0.16284877 0.098639429 0.028903484 1.7959774e-38
0.16281302 0.15088423 0.033746123 1.5284301e-38
0.16262065 0.15493178 0.035257041 1.5285387e-38
0.16237554 0.15900786 0.037101984 1.583784e-38
0.16151743 0.16174315 0.038412213 1.5745292e-38
0.15866131 0.096055537 0.030486107 1.307199e-38
0.15886185 0.098788455 0.029435098 1.353083e-38
0.15881394 0.10205377 0.028277636 1.427305e-38
0.15885603 0.15222725 0.033138394 1.500845e-38
0.15869935 0.1549305 0.034292817 1.5468348e-38
0.15832008 0.15903814 0.036913037 1.602078e-38
0.1581635 0.16176032 0.038069487 1.6021156e-38
0.15437664 0.094875075 0.030558467 1.5008058e-38
0.15473865 0.098782286 0.029684544 1.2609161e-38
0.15499583 0.10285706 0.028437972 9.8487012e-39
0.15375952 0.10555615 0.027909636 9.6657616e-39
0.15473528 0.15510806 0.033636987 1.5010603e-38
0.1544123 0.15902941 0.035837352 1.5748165e-38
0.15386775 0.16231903 0.037684619 1.6115158e-38
0.14984237 0.083979279 0.029373109 2.191772e-38
0.15043902 0.086863905 0.029093862 2.0810653e-38
0.15057494 0.09071365 0.02956599 1.7952936e-38
0.1506688 0.094767079 0.029310822 1.5193185e-38
0.15060954 0.098776564 0.029933453 1.473326e-38
0.15085579 0.10285078 0.028797865 1.122627e-38
0.15078947 0.10671566 0.028479218 9.9481079e-39
0.14966521 0.1235889 0.029307127 6.1634403e-39
0.14953198 0.12692456 0.030303299 8.1899617e-39
0.14951143 0.13092981 0.030705035 9.6675399e-39
0.14961389 0.13359572 0.03031075 9.9401849e-39
0.15087496 0.15513258 0.033369243 1.3903917e-38
0.15045415 0.15903491 0.0350945 1.4920565e-38
0.15016474 0.16312724 0.037049115 1.602368e-38
0.14561698 0.079528287 0.028490424 2.2927576e-38
0.14646049 0.082870282 0.028156161 2.2376897e-38
0.14681156 0.086788677 0.027436614 2.062698e-38
0.14694807 0.090849638 0.026962161 1.8136621e-38
0.14696659 0.094870038 0.02714479 1.555946e-38
0.14682837 0.09885177 0.028205514 1.4640368e-38
0.14688596 0.10287866 0.028168499 1.288793e-38
0.14694422 0.10690136 0.028130949 9.2966358e-39
0.14702228 0.11092204 0.027983069 6.7169742e-39
0.14605483 0.11891609 0.030149043 4.5107461e-39
0.14654383 0.12291897 0.031500816 5.0614158e-39
0.14663367 0.12710308 0.032254636 7.0818177e-39
0.14652348 0.13095167 0.032196343 9.0211055e-39
0.14640705 0.13450578 0.030578196 1.0493003e-38
0.14647335 0.15196571 0.03209275 1.1969596e-38
0.1464991 0.15503168 0.03406024 1.2708949e-38
0.14624155 0.15910423 0.035791457 1.417941e-38
0.14656138 0.16270635 0.036804914 1.5193203e-38
0.14223945 0.075430773 0.027730405 2.3026585e-38
0.14263403 0.078703053 0.02731508 2.2468033e-38
0.14285807 0.082807742 0.026404798 2.0902141e-38
0.14300004 0.08687374 0.025931299 1.9792546e-38
0.14306161 0.090905257 0.025895059 1.7489093e-38
0.14304087 0.09491156 0.026296794 1.5282519e-38
0.14293838 0.098898977 0.02713728 1.4365582e-38
0.14291783 0.10290738 0.027539253 1.371912e-38
0.14291787 0.10691905 0.027831495 1.095365e-38
0.14281492 0.1109172 0.028672993 8.3732432e-39
0.14254941 0.11490346 0.030394673 6.8098579e-39
0.14228828 0.11823354 0.032050729 5.5205736e-39
0.14357828 0.12829036 0.033197105 6.3453219e-39
0.14246482 0.13136132 0.033103824 7.358015e-39
0.14263032 0.13498002 0.031416774 1.2059925e-38
0.14272624 0.15233271 0.032165945 1.049519e-38
0.14240551 0.15506995 0.034092665 1.0866125e-38
0.14233848 0.15896867 0.035657585 1.2892967e-38
0.13715939 0.071968146 0.026859522 2.2934036e-38
0.13838997 0.074841037 0.026896715 2.3021575e-38
0.13865554 0.078739405 0.026685536 2.2005628e-38
0.13897136 0.082871355 0.025338531 2.0532285e-38
0.13916065 0.086945295 0.024646103 1.8779845e-38
0.14049488 0.090947792 0.025074482 1.6844815e-38
0.14047436 0.09495052 0.025475979 1.5099558e-38
0.13957582 0.099475183 0.026243925 1.362692e-38
0.13903692 0.10295118 0.026471555 1.3258863e-38
0.13903719 0.10695904 0.026763439 1.2059991e-38
0.13884869 0.11094274 0.028043687 1.0125299e-38
0.13872321 0.11494209 0.028995275 8.6497698e-39
0.13834491 0.11893068 0.031266928 7.1732566e-39
0.13755068 0.12269017 0.031407237 8.1848484e-39
0.13706855 0.12698366 0.031386435 1.1494522e-38
0.13814852 0.13116652 0.032297909 1.141173e-38
0.13866265 0.13499863 0.030786633 1.9432708e-38
0.13875487 0.15168025 0.031523824 1.048835e-38
0.13830565 0.15510702 0.034124255 9.5714346e-39
0.13813758 0.15916032 0.035301507 8.5637553e-39
0.13937469 0.16319834 0.036284685 1.3260682e-38
0.13394375 0.071179539 0.02644974 2.2931152e-38
0.13461387 0.074723192 0.026090086 2.3020499e-38
0.13485283 0.078835808 0.025182128 2.1727958e-38
0.13509245 0.082934305 0.024272978 2.0805985e-38
0.13607334 0.086078346 0.02412951 1.8963534e-38
0.1354785 0.10298135 0.025772512 1.3622259e-38
0.13545699 0.10717468 0.026193023 1.3163754e-38
0.13503489 0.11098636 0.026646197 1.3531452e-38
0.13488463 0.11497784 0.027706563 1.4174645e-38
0.13464828 0.11897171 0.029207528 1.5559731e-38
0.13467105 0.12298618 0.029390097 1.7123106e-38
0.13475817 0.12699819 0.029242277 1.7675575e-38
0.13530377 0.13055719 0.029039741 2.0070909e-38
0.13627401 0.13366404 0.028947532 2.3114799e-38
0.13531993 0.15171497 0.03167969 9.9380227e-39
0.1352026 0.15480644 0.034252346 9.4788522e-39
0.13537061 0.15919347 0.03546977 7.5459922e-39
0.13535687 0.16187713 0.035738826 6.9924877e-39
0.1293328 0.068068013 0.024652183 2.2005642e-38
0.13059258 0.07071422 0.025385141 2.2467294e-38
0.13081704 0.0748263 0.024587929 2.2465519e-38
0.13126142 0.07877624 0.023530424 2.200526e-38
0.13253543 0.082316227 0.023386776 2.1176195e-38
0.13238151 0.11233667 0.026397586 1.6571833e-38
0.13203262 0.11534042 0.026664555 1.749269e-38
0.13133766 0.11900957 0.027251661 1.9795046e-38
0.13171229 0.12327799 0.027836025 2.1454212e-38
0.13230968 0.1263462 0.027802587 2.1911211e-38
0.12512657 0.063979045 0.024818182 2.1638981e-38
0.12610787 0.067147434 0.024733305 2.2098901e-38
0.12682365 0.070832133 0.023775041 2.3205601e-38
0.12712286 0.074963138 0.022650778 2.2374035e-38
0.12811047 0.078113891 0.022508621 2.2006329e-38
0.12155135 0.063550092 0.024407804 2.1270217e-38
0.12239362 0.066898026 0.024200439 2.2098177e-38
0.12299739 0.070924461 0.022493422 2.2376908e-38
0.12316458 0.075000234 0.022023439 2.1085819e-38
0.11849846 0.062701687 0.023671925 1.9887624e-38
0.11867101 0.06680166 0.023204923 2.0444405e-38
0.11906072 0.070971958 0.021757066 2.1177274e-38
0.11941752 0.074213721 0.021626711 2.0902135e-38
0.11307311 0.060015425 0.023180604 1.9429544e-38
0.11454977 0.062752821 0.022934854 1.8964592e-38
0.11497557 0.066945679 0.021380603 1.9334103e-38
0.11569868 0.070616961 0.02047807 1.9979454e-38
0.11106074 0.060025729 0.022974968 1.8874183e-38
0.1106557 0.062824294 0.021980643 1.9336945e-38
0.11135215 0.06688121 0.020033777 1.979544e-38
0.10770684 0.060042903 0.022632241 1.9152915e-38
0.10671583 0.062874325 0.021244347 1.8783422e-38
0.10715458 0.066391267 0.019679487 1.7767488e-38
0.10301135 0.060066953 0.022152364 1.7948281e-38
0.10305095 0.063072845 0.02101624 1.7395094e-38
0.10318978 0.066426396 0.019107521 1.7860034e-38
0.098421514 0.063490346 0.021520972 1.9242609e-38
0.099018663 0.067055568 0.019416034 1.9057163e-38
0.09464176 0.063634798 0.021248341 1.9421604e-38
0.095116019 0.066886783 0.019250751 1.8684059e-38
0.090169266 0.063238591 0.020720184 2.0252461e-38
0.091599107 0.066181853 0.017555654 1.9978019e-38
0.086374193 0.062886618 0.020166636 2.0713435e-38
0.086734489 0.066140071 0.017809451 2.0898919e-38
0.082769111 0.066768169 0.01687628 1.7307938e-38
0.078808546 0.062935665 0.019282281 1.684698e-38
0.079102099 0.067197531 0.016935706 1.5740273e-38
0.07807833 0.13599508 0.026236176 1.2706421e-38
0.07550922 0.060207799 0.019342005 1.63867e-38
0.074787021 0.062880687 0.018223822 1.5004863e-38
0.075097382 0.067218035 0.016526461 1.4912669e-38
0.076572925 0.069927879 0.016389966 1.4913032e-38
0.073583439 0.13265091 0.022406578 1.1689754e-38
0.074910909 0.13500229 0.025179327 1.1599706e-38
0.07085225 0.060021207 0.018238604 1.3255304e-38
0.07060504 0.063069791 0.017442882 1.3257096e-38
0.071254089 0.066619597 0.015510261 1.4819742e-38
0.069036543 0.12666579 0.023356676 1.0219305e-38
0.0711689 0.13160135 0.023063004 1.2334031e-38
0.070846692 0.1344721 0.025676668 1.1874488e-38
0.067253873 0.059464321 0.018216968 1.178521e-38
0.067072108 0.0633552 0.016014218 1.1875972e-38
0.067255557 0.065972976 0.015034318 1.2151839e-38
0.066858962 0.1242329 0.021203935 1.2236064e-38
0.066742599 0.12600395 0.02406466 1.1777247e-38
0.068440199 0.13068786 0.02572149 1.2795716e-38
0.063487411 0.059614569 0.017879069 1.0036002e-38
0.063318044 0.0631992 0.015697241 1.1140553e-38
0.062918365 0.066328749 0.014624715 1.1507193e-38
0.062890962 0.12200866 0.022761106 1.436018e-38
0.058092937 0.055600755 0.017088592 1.3807334e-38
0.059414566 0.059485167 0.017616034 9.1083111e-39
0.05936715 0.06316945 0.015835643 9.7590587e-39
0.058916405 0.066349238 0.014215708 1.0952972e-38
0.058974579 0.12005077 0.019635737 1.4638202e-38
0.059093937 0.1220141 0.023887157 1.463712e-38
0.055385724 0.060310878 0.017285407 8.7355769e-39
0.055434883 0.062895782 0.016793311 8.3746809e-39
0.055143163 0.066672474 0.014197528 9.5710983e-39
0.053655714 0.11674249 0.018755972 1.5098104e-38
0.052706033 0.059653699 0.016943991 1.2417569e-38
0.052121758 0.063041449 0.016888678 7.5423867e-39
0.051307321 0.067491613 0.014559746 8.2821181e-39
0.050335556 0.07050699 0.013753593 8.837768e-39
0.049674273 0.11276026 0.017945468 1.3631586e-38
0.050835222 0.11574687 0.018871069 1.4364852e-38
0.051371872 0.11916084 0.021795988 1.4640025e-38
0.045974106 0.064384438 0.016729474 1.0395775e-38
0.047350705 0.067194887 0.015582681 6.8041098e-39
0.046851993 0.071196452 0.014096677 6.9895941e-39
0.046313077 0.074530214 0.013746142 6.4407657e-39
0.047026813 0.1087712 0.017271459 1.0965145e-38
0.046801835 0.111206 0.019370198 1.335465e-38
0.04815942 0.11537308 0.021420956 1.408934e-38
0.048382044 0.1180436 0.022386611 1.3994988e-38
0.043306485 0.067346379 0.01561749 1.1960553e-38
0.042674586 0.07129927 0.014730334 9.3823028e-39
0.04303661 0.074730583 0.01393491 5.9794064e-39
0.042810693 0.10832919 0.017467439 9.7594118e-39
0.044391751 0.1113551 0.021302402 1.2891179e-38
0.039420262 0.071572386 0.014558434 1.3992074e-38
0.03914246 0.074776374 0.013202846 1.1318756e-38
0.038700148 0.1078769 0.018009841 8.8360164e-39
0.036525935 0.075469814 0.012835503 1.3437471e-38
0.035041422 0.10482996 0.015643179 6.7172937e-39
0.034823626 0.1075916 0.01731354 6.8113055e-39
0.034906507 0.111233 0.019450009 6.7162386e-39
0.03464888 0.11477923 0.01963675 3.9546871e-39
0.032489762 0.082161516 0.013095617 1.1598591e-38
0.03063798 0.10430524 0.01554209 4.322371e-39
0.030720994 0.10749389 0.016365886 3.584464e-39
0.031912163 0.11130714 0.017742693 3.4962186e-39
0.03197296 0.11412299 0.019295692 3.5891191e-39
0.028018206 0.10616806 0.016066909 2.8519296e-39
0.090263754 0.11187281 0.014635265 1.2613506e-38
0.10702197 0.11336612 0.015429497 1.0216431e-38
0.10316309 0.10943621 0.015660942 1.2704269e-38
0.098454192 0.10963196 0.015078545 1.2796453e-38
0.091953963 0.11594427 0.015480757 1.5838193e-38
0.092011362 0.071427092 0.01509589 2.0993602e-38
0.12044592 0.10433561 0.021178365 1.4823695e-38
0.12173474 0.11109562 0.0213902 1.5101708e-38
0.12124857 0.11594695 0.023429036 1.5837826e-38
0.11554639 0.11308324 0.023766398 1.583605e-38
0.11368243 0.095278993 0.021623075 1.6389224e-38
0.17285907 0.091758996 0.035552382 2.2939808e-38
0.13785243 0.11108141 0.031162739 1.6568936e-38
0.14579675 0.12590754 0.033668876 1.6664355e-38
0.14198068 0.12508573 0.033891976 1.629416e-38
0.1700204 0.090600893 0.035017669 2.2102842e-38
0.17056757 0.09370558 0.034503043 2.1642599e-38
0.1699632 0.15910375 0.041034222 1.5930038e-38
0.16990136 0.16181171 0.041637659 1.6114414e-38
0.16979147 0.16453825 0.042574823 1.6208417e-38
0.16614354 0.087750971 0.034458637 2.1914851e-38
0.16617948 0.090462759 0.034398854 2.08121e-38
0.16559252 0.093192831 0.033940315 2.0163501e-38
0.16590989 0.16248846 0.040959179 1.6389937e-38
0.16574696 0.16509795 0.042215824 1.7035657e-38
0.16210178 0.087771676 0.034045637 1.8510088e-38
0.16210496 0.090472281 0.034205914 1.8046227e-38
0.16189106 0.093548179 0.033595979 1.7309738e-38
0.16220842 0.16284382 0.040614843 1.5744216e-38
0.16153304 0.16553572 0.041682839 1.6388854e-38
0.15789767 0.086614169 0.033497036 1.8688727e-38
0.15804622 0.090487398 0.033902824 1.6294168e-38
0.15818961 0.093903542 0.033251703 1.3899587e-38
0.15783428 0.16320261 0.040201783 1.6295945e-38
0.15773116 0.16592449 0.041026831 1.6942386e-38
0.15629822 0.16864978 0.041603446 1.7125714e-38
0.15370391 0.083435401 0.032745779 2.1363829e-38
0.15413646 0.086503878 0.032426059 2.0534063e-38
0.15417078 0.090560183 0.032501817 1.7494131e-38
0.15550235 0.093244515 0.032909214 1.5187814e-38
0.15514357 0.1632164 0.039926827 1.629811e-38
0.15374753 0.16592693 0.040281177 1.7957966e-38
0.15360372 0.16866358 0.041328132 1.8325681e-38
0.1486949 0.075039349 0.031384945 2.2750375e-38
0.14989907 0.078587562 0.031613708 2.2935115e-38
0.15032169 0.082103327 0.03154254 2.237834e-38
0.15150768 0.085191503 0.031687081 2.1731174e-38
0.14968705 0.16662665 0.040046871 1.73126e-38
0.14956197 0.16868427 0.040915132 1.77725e-38
0.14534405 0.071687825 0.030702829 2.2196498e-38
0.14606348 0.074403904 0.030713737 2.2749301e-38
0.1465822 0.078028336 0.03062737 2.3023376e-38
0.14749229 0.081175335 0.030869722 2.311661e-38
0.1445739 0.12559435 0.035048246 5.8850696e-39
0.14438072 0.16327152 0.038826883 1.4919117e-38
0.14543161 0.16615944 0.039857447 1.5931107e-38
0.14686747 0.16869807 0.040639758 1.68509e-38
0.14204076 0.071057506 0.029963195 2.2468382e-38
0.14248687 0.073463894 0.029578209 2.2749287e-38
0.14191078 0.12022568 0.034233451 4.5085923e-39
0.14185597 0.12291589 0.03472352 4.8737749e-39
0.14163941 0.1267861 0.035245776 5.4255152e-39
0.1411898 0.12964842 0.035109401 5.7964543e-39
0.14150272 0.16232513 0.038435996 1.3721296e-38
0.14194366 0.1655792 0.039819598 1.4919116e-38
0.13660763 0.067690156 0.029402494 2.2937661e-38
0.13804902 0.07042367 0.029248774 2.2845075e-38
0.13946155 0.073142998 0.029235125 2.3118446e-38
0.13877404 0.12326653 0.034722924 5.7881712e-39
0.13841887 0.12696995 0.03505975 7.3558346e-39
0.13917178 0.12965876 0.034903169 6.9884674e-39
0.13738899 0.16249996 0.038030982 1.0314755e-38
0.13764496 0.16566539 0.039386809 1.2619643e-38
0.13346866 0.066807911 0.028991222 2.2559875e-38
0.13288803 0.15527594 0.037345469 9.7590068e-39
0.13345021 0.15798701 0.038181901 9.0178307e-39
0.13354628 0.16199969 0.037990034 7.5449286e-39
0.13408931 0.1647211 0.038926363 7.9198446e-39
0.1298921 0.063682124 0.028308749 2.246443e-38
0.13017295 0.066261373 0.027966082 2.1908756e-38
0.12588693 0.062368415 0.027620614 2.1453161e-38
0.12680733 0.06552358 0.027840674 2.1819059e-38
0.12093346 0.059236437 0.026940405 2.1172979e-38
0.12237269 0.061970696 0.026858687 2.1177651e-38
0.12314895 0.06506414 0.027755499 2.182194e-38
0.11793651 0.059092194 0.025944471 2.0898531e-38
0.11457434 0.058435678 0.025532901 2.0622661e-38
0.11056542 0.058410533 0.025590062 1.8876349e-38
0.10652444 0.05843123 0.025177121 1.8874906e-38
0.098969787 0.059140429 0.024506509 1.8316353e-38
0.099497557 0.061573878 0.023964047 1.8040126e-38
0.094732672 0.05887109 0.024068177 1.9701065e-38
0.095126852 0.061259866 0.023483574 1.9886166e-38
0.09087801 0.058502786 0.023667157 2.0988574e-38
0.091425419 0.061615214 0.023139179 2.0804547e-38
0.086894631 0.058544636 0.023037732 1.9976226e-38
0.083033428 0.058736868 0.022618413 2.0073086e-38
0.078856826 0.059275627 0.022117496 1.9519551e-38
0.079133481 0.13669989 0.029951692 1.3717692e-38
0.074823558 0.058286622 0.021603525 1.647998e-38
0.073608086 0.13673393 0.029892802 1.1970285e-38
0.072927535 0.13808489 0.029959083 1.2246149e-38
0.070785433 0.057970434 0.021156907 1.325528e-38
0.069975406 0.1364128 0.029234767 1.1965609e-38
0.069894478 0.13843729 0.029683113 1.2520931e-38
0.066605806 0.057268888 0.021162152 1.1509697e-38
0.066387519 0.12801276 0.027766705 1.2519137e-38
0.066770867 0.13137713 0.028313696 1.2703157e-38
0.067559257 0.13406998 0.029002964 1.270316e-38
0.062572688 0.055605218 0.020580113 9.2015843e-39
0.062858999 0.057388395 0.019779027 9.3877608e-39
0.062129155 0.12413058 0.026836991 1.3991399e-38
0.06310755 0.1264571 0.027778268 1.3258479e-38
0.05920285 0.055959344 0.020269692 9.8476236e-39
0.058819473 0.058081873 0.019434035 8.5508451e-39
0.058518842 0.12367336 0.027026236 1.472931e-38
0.054738164 0.058377057 0.019189 9.9337179e-39
0.054353431 0.12201659 0.025757849 1.5282135e-38
0.049217448 0.063467003 0.019495904 7.9990362e-39
0.048029035 0.063519448 0.018874049 8.8284129e-39
0.04174234 0.11040565 0.023628712 1.2154339e-38
0.037870243 0.11031759 0.023053765 9.6654043e-39
0.035675898 0.11135073 0.022427499 7.2643957e-39
0.074451923 0.10814281 0.010960221 1.1043315e-38
0.076995075 0.11429717 0.0096879005 1.0678126e-38
0.094939217 0.10323603 0.013825655 1.5102075e-38
0.089907363 0.11353521 0.014915407 1.5195702e-38
0.14437047 0.10742596 0.027614892 1.8602289e-38
0.12960193 0.10242395 0.022135437 1.3810979e-38
0.11409573 0.10042921 0.022383451 1.5373986e-38
0.13509245 0.082934305 0.024272978 2.0805985e-38
0.16987801 0.086933009 0.03694874 2.2472325e-38
0.17124227 0.088962689 0.037125051 2.2563461e-38
0.16938254 0.16941132 0.045718431 1.6297031e-38
0.16547814 0.08593674 0.036480546 2.1916293e-38
0.16543797 0.16702788 0.044399261 1.7314412e-38
0.16561596 0.16911131 0.045637906 1.7221131e-38
0.16030484 0.083551243 0.03646636 2.0535879e-38
0.16175097 0.085612968 0.036149263 1.9800829e-38
0.16205864 0.16738299 0.044088006 1.6849846e-38
0.16108909 0.16973835 0.044803143 1.7033874e-38
0.15747947 0.082625926 0.035649896 2.0902495e-38
0.15910368 0.08497107 0.03547585 1.9704318e-38
0.15742369 0.17030096 0.044285059 1.7033879e-38
0.15223232 0.074797057 0.034754694 2.2572815e-38
0.15263554 0.078550696 0.034669399 2.2746418e-38
0.15395486 0.081470914 0.034796238 2.1824796e-38
0.1531601 0.1707077 0.044115424 1.8324606e-38
0.14886731 0.071431398 0.034069836 2.2665382e-38
0.15006453 0.07400313 0.033586085 2.2661776e-38
0.15103899 0.076904789 0.033834338 2.2937629e-38
0.14912012 0.17085782 0.043614566 1.8323517e-38
0.14524247 0.070137009 0.033061802 2.2479902e-38
0.14489762 0.17037247 0.043132067 1.6482832e-38
0.14120305 0.067115933 0.032342315 2.2659261e-38
0.14162327 0.068845436 0.032054722 2.2841117e-38
0.14021911 0.16704443 0.041810751 1.5012028e-38
0.14130479 0.16940463 0.042564392 1.5286475e-38
0.13707249 0.063034564 0.032011807 2.2751101e-38
0.13770702 0.06597206 0.031615376 2.2753969e-38
0.13892119 0.068859272 0.031778574 2.2937273e-38
0.13638884 0.16751446 0.041464746 1.2524937e-38
0.13693039 0.16890095 0.042333663 1.353981e-38
0.13359879 0.062240921 0.031196177 2.2936561e-38
0.13443619 0.065278873 0.030957043 2.3117361e-38
0.13172948 0.1540257 0.0396263 9.3916887e-39
0.13170871 0.15807959 0.040032864 9.57101e-39
0.13168445 0.16280915 0.040507197 7.2654747e-39
0.133287 0.16644934 0.041038752 8.1063855e-39
0.13416193 0.16893414 0.042389452 1.013397e-38
0.13066512 0.059346184 0.030981898 2.2926126e-38
0.12983185 0.061350323 0.030376673 2.265313e-38
0.13016558 0.15677616 0.040753245 9.4827857e-39
0.13020417 0.16217341 0.040964603 9.5710353e-39
0.13101894 0.16624391 0.041795433 6.3521504e-39
0.12615126 0.058596015 0.030038595 2.1637904e-38
0.1268034 0.060813755 0.029722869 2.1547153e-38
0.12285525 0.057924919 0.029405057 2.1174423e-38
0.11871792 0.056801379 0.028487921 2.1726484e-38
0.11601584 0.056815214 0.028211772 2.1169003e-38
0.10994308 0.055495054 0.027454972 1.9151853e-38
0.11061166 0.056842893 0.027659535 1.9428806e-38
0.10617088 0.055150531 0.027285397 1.9702859e-38
0.10723409 0.056860194 0.027314365 1.9244406e-38
0.1024199 0.054951437 0.02703166 1.9055346e-38
0.098340824 0.054826796 0.026701152 1.9885082e-38
0.098452285 0.056905165 0.026416898 1.8960632e-38
0.094284862 0.054847568 0.026286602 1.9975514e-38
0.095074698 0.056922466 0.026071787 1.9513054e-38
0.090228885 0.05486834 0.025872052 1.9977316e-38
0.086574614 0.055250898 0.0252828 1.9702511e-38
0.085952312 0.13839668 0.034359157 1.4360547e-38
0.082072213 0.054893076 0.025205374 1.7398721e-38
0.080888778 0.056995124 0.024622142 1.9058234e-38
0.081885546 0.13726503 0.033625364 1.3901363e-38
0.077762872 0.05505728 0.024711907 1.7494865e-38
0.078186661 0.057008959 0.024345994 1.8971062e-38
0.077680662 0.13809183 0.032805383 1.3810262e-38
0.074005008 0.054951429 0.024214208 1.6761239e-38
0.07413356 0.057029717 0.023931801 1.6850187e-38
0.073715538 0.13855809 0.032108307 1.2707145e-38
0.072349489 0.14149281 0.032263935 1.4272656e-38
0.069649786 0.055098832 0.023882747 1.3165603e-38
0.071431443 0.057043552 0.023655653 1.463743e-38
0.070191234 0.13948463 0.032344878 1.2615289e-38
0.069457278 0.14151973 0.032643199 1.3815257e-38
0.066191897 0.055136986 0.023329377 1.1324575e-38
0.064309061 0.12869699 0.030148089 1.252019e-38
0.064298674 0.13072395 0.0303514 1.2795338e-38
0.065632388 0.13409528 0.030828178 1.3071221e-38
0.066149145 0.13680092 0.031659186 1.2796784e-38
0.066266328 0.14219961 0.031710386 1.223363e-38
0.062518016 0.054334633 0.022972167 1.10426e-38
0.061276153 0.12736127 0.029701889 1.3533628e-38
0.062127843 0.13005997 0.030566514 1.30712e-38
0.063311443 0.13445316 0.031636238 1.353257e-38
0.059285939 0.054403231 0.022141993 1.1776509e-38
0.05757463 0.1246777 0.029051185 1.4637115e-38
0.058265984 0.12647404 0.029976785 1.4269408e-38
0.059958577 0.12871942 0.030713737 1.362369e-38
0.05405058 0.12334076 0.029059589 1.5924618e-38
0.055244133 0.12468408 0.029822707 1.5006613e-38
0.050522715 0.12200195 0.029067397 1.4640001e-38
0.045463741 0.11528088 0.026859939 1.4086469e-38
0.041938141 0.11258511 0.026731133 1.2707507e-38
0.043444127 0.11393996 0.026517272 1.3169546e-38
0.038562089 0.11192676 0.026318073 1.0863582e-38
0.12695736 0.14212365 0.015709519 2.3032346e-38
0.12511975 0.13853075 0.014653385 1.6852375e-38
0.12441295 0.13247305 0.01359123 2.3232939e-38
0.12470472 0.13823271 0.013532519 2.3232571e-38
0.12473226 0.14423715 0.014557481 2.025278e-38
0.079731092 0.091629542 0.011830091 1.6848378e-38
0.076962799 0.10310559 0.010688961 1.3528996e-38
0.079315528 0.10377131 0.0079937577 1.0952933e-38
0.092286378 0.11668976 0.01500994 1.5560877e-38
0.10341801 0.11539724 0.015847445 1.3529708e-38
0.09295927 0.092682041 0.013331711 1.4822256e-38
0.11452121 0.10152967 0.01854223 1.6204833e-38
0.13057199 0.10366833 0.023282111 1.685092e-38
0.14106563 0.10494323 0.026768506 1.3346045e-38
0.11240691 0.10197195 0.02195394 1.2797193e-38
0.1576117 0.096747741 0.034153104 2.2387349e-38
0.16903606 0.17158337 0.04825902 1.5285043e-38
0.168834 0.173705 0.049799144 1.5652742e-38
0.16480178 0.078154966 0.041435778 2.2581092e-38
0.16525993 0.081972033 0.039959192 2.2571011e-38
0.16608953 0.084753752 0.039202392 2.238194e-38
0.16469733 0.17106283 0.047760963 1.7679582e-38
0.16480556 0.1737041 0.049048543 1.7127488e-38
0.16476503 0.17642057 0.051338911 1.6757646e-38
0.16065547 0.074516557 0.040643036 2.2491063e-38
0.16108367 0.07786119 0.039901674 2.2665382e-38
0.16146776 0.081869319 0.038815796 2.1554343e-38
0.16157407 0.17162159 0.047496378 1.7678158e-38
0.16080749 0.17369324 0.048131764 1.7311892e-38
0.16040811 0.17589784 0.050838709 1.7403719e-38
0.15549995 0.070318788 0.039690316 2.2861999e-38
0.15679507 0.073944882 0.039431214 2.2578232e-38
0.15714547 0.077944197 0.038607538 2.2658188e-38
0.15789072 0.0806918 0.038455904 2.1915568e-38
0.1566529 0.1737465 0.048215508 1.7127872e-38
0.15659057 0.17646243 0.050503552 1.7770351e-38
0.15143019 0.066933051 0.038931012 2.2582903e-38
0.15269148 0.069862388 0.038850725 2.2585415e-38
0.15336162 0.073638692 0.038506567 2.2481716e-38
0.15398513 0.077731237 0.037655354 2.2749285e-38
0.15275535 0.17166677 0.046595275 1.8512219e-38
0.15246606 0.17381033 0.04846549 1.8325668e-38
0.15223016 0.17662102 0.050071716 1.7862544e-38
0.14956096 0.066346452 0.037669599 2.2396356e-38
0.14932916 0.06948977 0.036375105 2.267186e-38
0.14855997 0.1737664 0.047049582 1.7954731e-38
0.14882413 0.17663845 0.049723625 1.7401558e-38
0.14546527 0.065950505 0.037310064 2.258218e-38
0.14604594 0.069025338 0.035558045 2.2575325e-38
0.14451541 0.17377669 0.046466827 1.685126e-38
0.1461028 0.17597109 0.049376845 1.7219681e-38
0.14152585 0.062017724 0.03708148 2.2489264e-38
0.14199652 0.064976759 0.03574419 2.2576077e-38
0.14190154 0.17172235 0.045486093 1.6022951e-38
0.14085016 0.17321099 0.047548771 1.6299897e-38
0.13776641 0.058378682 0.035654902 2.2850474e-38
0.13845855 0.06137266 0.034728825 2.2572816e-38
0.13973774 0.064534478 0.034457386 2.2572109e-38
0.13783832 0.17038622 0.044934034 1.5657415e-38
0.13760695 0.17226735 0.04813081 1.65772e-38
0.13241932 0.054766707 0.03575182 2.3303535e-38
0.13415365 0.057678446 0.034202933 2.2655665e-38
0.13568844 0.06048438 0.033633113 2.2842939e-38
0.1333335 0.1700995 0.044947624 1.0962993e-38
0.13386206 0.17194587 0.047713816 1.3725979e-38
0.12969449 0.054780662 0.035473406 2.3116967e-38
0.13017978 0.057070062 0.033228278 2.2929702e-38
0.12947948 0.15487833 0.044027507 8.7448984e-39
0.12910511 0.15871257 0.043870449 9.7593628e-39
0.12805502 0.16101244 0.044668078 1.1047586e-38
0.12854753 0.1662052 0.044905424 9.1083013e-39
0.12940119 0.16983801 0.045527697 8.1956931e-39
0.12425883 0.052083232 0.034643173 2.1823005e-38
0.12581474 0.054221421 0.034008265 2.1820135e-38
0.1268366 0.057112262 0.032636642 2.2006672e-38
0.12639675 0.16653357 0.046401381 1.1416049e-38
0.12638278 0.16925892 0.046674669 1.0307879e-38
0.12130091 0.051810712 0.033806801 1.9886921e-38
0.12190883 0.054327853 0.032775939 2.0902874e-38
0.1174417 0.051235691 0.032991588 1.8960998e-38
0.11797464 0.054416776 0.031707227 2.1177989e-38
0.11351386 0.050846294 0.032741308 2.0251009e-38
0.11401212 0.054489121 0.030802429 2.0804179e-38
0.10953161 0.050914638 0.031890154 2.0808853e-38
0.11022666 0.05414325 0.030631304 2.0347875e-38
0.10384363 0.04809989 0.032144785 1.8135549e-38
0.10552792 0.050970897 0.031147897 1.9520989e-38
0.10655361 0.053848848 0.029971838 2.0073778e-38
0.10146116 0.047771432 0.031866968 1.8136979e-38
0.10166028 0.051087454 0.029864371 1.9148975e-38
0.10180508 0.053873166 0.029486477 1.9514882e-38
0.09771277 0.048131287 0.031518221 1.850757e-38
0.097613603 0.051214315 0.030050814 2.0256023e-38
0.094306752 0.048148736 0.03117013 1.7861861e-38
0.093603224 0.050912827 0.029760122 1.9334097e-38
0.091581926 0.048162691 0.030891657 1.7119254e-38
0.089490905 0.051269159 0.029095888 1.9515623e-38
0.089070201 0.13947205 0.039839327 1.4636787e-38
0.089059711 0.14151606 0.040044367 1.5004853e-38
0.086207658 0.05133716 0.029245377 1.8413205e-38
0.084846005 0.053960025 0.027753413 1.8692336e-38
0.084407672 0.13945006 0.036327302 1.436306e-38
0.085827336 0.14152116 0.039039433 1.5187795e-38
0.082292169 0.051722854 0.029286206 1.7211813e-38
0.081694216 0.13946395 0.036050081 1.4275528e-38
0.081831664 0.14153589 0.03829366 1.4824385e-38
0.078210592 0.051743746 0.028869152 1.6019397e-38
0.078470439 0.053888589 0.028101683 1.7033185e-38
0.07844016 0.13915285 0.036442161 1.4086834e-38
0.0774827 0.14089404 0.03879261 1.4548519e-38
0.073331222 0.047166049 0.028916717 1.5459342e-38
0.074031353 0.051282093 0.028140724 1.3345716e-38
0.073955625 0.13951889 0.036271095 1.362802e-38
0.073395476 0.14091498 0.038374901 1.4181184e-38
0.070881695 0.047888942 0.028064549 1.4445921e-38
0.070395663 0.051236227 0.026780367 1.2242562e-38
0.070600376 0.054032996 0.026297629 1.3901822e-38
0.066558018 0.048625894 0.025337338 1.4356255e-38
0.066480681 0.051316425 0.025825202 1.2149618e-38
0.063376099 0.051808402 0.025331378 1.3069067e-38
0.06070669 0.13142973 0.033084512 1.3255622e-38
0.060958073 0.13414475 0.03363663 1.3257434e-38
0.061700925 0.13822472 0.034994185 1.2246862e-38
0.056657404 0.12737964 0.032260239 1.43616e-38
0.057379454 0.13026392 0.034140646 1.37166e-38
0.058402434 0.13383116 0.035110533 1.2888291e-38
0.058415964 0.13962905 0.036706686 1.2156498e-38
0.053361446 0.12642366 0.033124328 1.463786e-38
0.054131433 0.12920405 0.034542203 1.4362693e-38
0.049689278 0.12288657 0.031765163 1.436342e-38
0.050067663 0.12514074 0.033715129 1.4543516e-38
0.044533581 0.11927377 0.032218456 1.3534368e-38
0.046516076 0.12179019 0.032820106 1.3441476e-38
0.041377634 0.11490142 0.029685378 1.3165963e-38
0.042249873 0.11775159 0.032082975 1.2889366e-38
0.043070793 0.12108498 0.033261061 1.2245799e-38
0.037739694 0.11443476 0.029820442 1.1321303e-38
0.039457485 0.11724269 0.032502592 1.1605817e-38
0.12698424 0.13688526 0.015184164 2.2675464e-38
0.12171291 0.136354 0.013747275 1.5564156e-38
0.12070115 0.12840471 0.012673497 2.2771966e-38
0.0762593 0.089678153 0.010771632 1.5099913e-38
0.080160528 0.10348919 0.0095198154 1.288829e-38
0.088270396 0.12027957 0.009365499 1.1787347e-38
0.10288674 0.10894786 0.014983356 1.6486108e-38
0.11564425 0.10740416 0.017979026 1.7498088e-38
0.12867187 0.099233158 0.01989311 1.6481781e-38
0.13279831 0.10259451 0.02053678 1.4915171e-38
0.13102239 0.12721348 0.025592804 2.3025111e-38
0.10295273 0.064005651 0.023329198 1.8597616e-38
0.12441295 0.13247305 0.01359123 2.3232939e-38
0.16375178 0.07063999 0.044611514 2.2584341e-38
0.16434428 0.073595002 0.044338882 2.2770524e-38
0.16553837 0.076327354 0.042337358 2.2770519e-38
0.16384128 0.17840487 0.05346477 1.7126778e-38
0.16387472 0.18025659 0.055675447 1.7587753e-38
0.16018061 0.06970226 0.043861508 2.2491425e-38
0.16104713 0.072559111 0.042001426 2.2490347e-38
0.16008645 0.17808299 0.053046703 1.7494459e-38
0.15976474 0.18027765 0.055255473 1.7400119e-38
0.15623792 0.066567823 0.043429196 2.2677615e-38
0.156937 0.06927111 0.041752994 2.2861641e-38
0.15805568 0.072272092 0.041160047 2.2675809e-38
0.15604171 0.1783077 0.052317142 1.7769639e-38
0.15633976 0.18029518 0.054905474 1.7586682e-38
0.15214902 0.062478125 0.042596877 2.2576065e-38
0.15319562 0.065441966 0.042105198 2.2582901e-38
0.15398374 0.068199351 0.040331185 2.2956356e-38
0.15265328 0.17876819 0.0518471 1.7584893e-38
0.15291479 0.18031272 0.054555416 1.75874e-38
0.14934079 0.061578929 0.041496217 2.2577505e-38
0.14979978 0.064067885 0.040158629 2.239456e-38
0.1484693 0.17882474 0.051928282 1.7400464e-38
0.14880131 0.18101889 0.054204106 1.7493767e-38
0.14395013 0.058409467 0.041344643 2.2659274e-38
0.14561869 0.061304316 0.040011704 2.2581101e-38
0.14718321 0.064140588 0.039223552 2.2676536e-38
0.14511938 0.17768075 0.051132083 1.7034216e-38
0.14560583 0.18080689 0.053854525 1.7218975e-38
0.14081925 0.057544515 0.040599048 2.2753982e-38
0.14265418 0.060525045 0.038393855 2.2488897e-38
0.13979496 0.17470533 0.049611628 1.6758715e-38
0.14075294 0.17689374 0.052119732 1.6851263e-38
0.13653372 0.053702801 0.039603233 2.2835029e-38
0.13748765 0.0563595 0.038453698 2.2939085e-38
0.13649546 0.17427973 0.050846338 1.6946684e-38
0.13649598 0.17628616 0.052463114 1.7037081e-38
0.13234037 0.051617853 0.039467514 2.0716694e-38
0.13371286 0.053755865 0.037601411 2.2563833e-38
0.1324237 0.17388725 0.05064851 1.4369538e-38
0.13238601 0.1763072 0.05204308 1.5750669e-38
0.12862469 0.051320821 0.038803399 2.1544291e-38
0.12950321 0.053314909 0.036316276 2.2286155e-38
0.12754677 0.15348302 0.048908293 6.9956911e-39
0.12740976 0.15638565 0.047503054 8.8388736e-39
0.1287851 0.17331421 0.049729824 1.0588831e-38
0.1241415 0.047549203 0.03821522 1.9885818e-38
0.12504497 0.05040668 0.037441552 2.090106e-38
0.12442133 0.15303151 0.048204958 7.2665341e-39
0.1244904 0.15711984 0.048175216 7.6428598e-39
0.12446937 0.16122471 0.048586845 1.0497308e-38
0.12430716 0.16515145 0.04882586 1.2247951e-38
0.12424859 0.16937569 0.048343658 1.2247913e-38
0.12462103 0.1727358 0.050077319 9.9387458e-39
0.12052956 0.047064289 0.037391305 1.8779131e-38
0.12144223 0.049721338 0.035934389 1.9241909e-38
0.12087458 0.15033208 0.048242033 5.7060705e-39
0.12056795 0.15287831 0.048467338 8.0152619e-39
0.12118021 0.15752412 0.048998535 5.4348436e-39
0.12081839 0.16129407 0.04934144 7.1847739e-39
0.12079731 0.16540483 0.049753726 1.1788062e-38
0.12112048 0.16917126 0.050166667 1.3720532e-38
0.11696947 0.047082514 0.037027419 1.83178e-38
0.1179276 0.049280599 0.0347206 1.8594376e-38
0.11344351 0.04704918 0.035887361 2.0717405e-38
0.10948971 0.047144517 0.034817338 2.0071302e-38
0.10787374 0.14765821 0.046637118 1.4807127e-38
0.10523464 0.046648413 0.034594953 1.8688706e-38
0.10138497 0.045353055 0.034898818 1.8321354e-38
0.09784025 0.045818195 0.033655465 1.7673828e-38
0.093698487 0.045820162 0.033398747 1.703064e-38
0.091694474 0.14566195 0.043763936 1.5098823e-38
0.089503661 0.04648456 0.033395708 1.693523e-38
0.088961795 0.14499179 0.043415666 1.4914426e-38
0.088693857 0.14775646 0.044677138 1.5189924e-38
0.085304737 0.046465181 0.033331275 1.6756941e-38
0.085184261 0.049448304 0.031374514 1.758345e-38
0.085383654 0.14359984 0.040887117 1.5464011e-38
0.084854007 0.14569698 0.043064892 1.537395e-38
0.084583908 0.1477775 0.044257164 1.5464367e-38
0.08111161 0.046449214 0.033235788 1.5372927e-38
0.08177349 0.049465775 0.031025946 1.7122467e-38
0.082655057 0.1436138 0.040608287 1.5282846e-38
0.080639541 0.14504474 0.042999268 1.5376109e-38
0.077275231 0.046581805 0.031844914 1.4172594e-38
0.077680588 0.049486734 0.0306077 1.6016162e-38
0.077204809 0.14227718 0.039913774 1.5008419e-38
0.07679303 0.14404407 0.042828083 1.5191736e-38
0.073747888 0.043814018 0.03165257 1.6943781e-38
0.07478328 0.046695523 0.030702412 1.509524e-38
0.074951962 0.049500711 0.03032881 1.3067711e-38
0.073242739 0.14233565 0.041533351 1.4826559e-38
0.056778729 0.13487689 0.037069738 1.242874e-38
0.057376117 0.13738696 0.03839457 1.2059237e-38
0.053160384 0.13102926 0.036310136 1.3717327e-38
0.053782925 0.13421682 0.037593663 1.1968144e-38
0.053947449 0.1374993 0.038255811 1.2808019e-38
0.048881397 0.1269564 0.036133766 1.3808806e-38
0.049226791 0.13014531 0.038286746 1.1045126e-38
0.04920654 0.13408527 0.039243162 8.1031723e-39
0.044559464 0.12334098 0.034651697 1.2701708e-38
0.045454562 0.12606122 0.036477327 1.0677721e-38
0.045117646 0.12999557 0.038410902 4.5064525e-39
0.041166708 0.12244369 0.034886479 9.2973294e-39
0.041176707 0.12608004 0.036601067 6.9013361e-39
0.042212561 0.12881151 0.037993133 2.5746687e-39
0.036769107 0.11809193 0.035198748 7.9158145e-39
0.038201764 0.12165105 0.035596311 6.1673556e-39
0.037772402 0.12643638 0.037297666 5.5209408e-39
