# .PCD v0.7 - Point Cloud Data file format
VERSION 0.7
FIELDS x y z rgb
SIZE 4 4 4 4
TYPE F F F F
COUNT 1 1 1 1
WIDTH 980
HEIGHT 1
VIEWPOINT 0 0 0 0 1 0 0
POINTS 980
DATA ascii
0.090970576 0.097295851 0.0027071834 1.4823342e-38
0.17739631 0.081388474 0.029788435 1.316668e-38
0.18772928 0.063365281 0.040257156 1.7309382e-38
0.17627496 0.057420403 0.034058392 1.5098478e-38
0.18177877 0.079436034 0.031745017 1.5193919e-38
0.17711559 0.076541454 0.027990401 1.3537632e-38
0.19513141 0.034705877 0.068075359 1.7130757e-38
0.19586037 0.037198037 0.0655123 2.0445088e-38
0.19995853 0.10968181 0.04026252 1.9987732e-38
0.19935465 0.11351988 0.040801167 2.1831635e-38
0.19085602 0.031885147 0.069136918 1.3902834e-38
0.19133428 0.034630403 0.067265332 1.8144891e-38
0.19250539 0.036702082 0.064516902 2.0538027e-38
0.19656843 0.10978848 0.038275838 1.9890882e-38
0.19623998 0.11216155 0.038762689 2.1182685e-38
0.1874069 0.031378806 0.067951441 1.5749982e-38
0.18805131 0.033921927 0.065124571 1.8789903e-38
0.19259125 0.11259967 0.037434995 2.0629144e-38
0.18371563 0.031304598 0.066275358 1.8237088e-38
0.18495913 0.032843262 0.063316524 1.8789906e-38
0.18900123 0.11309022 0.035933137 1.9525326e-38
0.18734157 0.11539316 0.036277235 1.8789924e-38
0.17979686 0.030887246 0.065292656 1.7499527e-38
0.18055189 0.032847822 0.062661111 1.8972857e-38
0.18582702 0.11215833 0.033590138 1.8142381e-38
0.18511176 0.11564043 0.034834087 1.8602292e-38
0.17483017 0.027936816 0.064979792 1.6116584e-38
0.1767858 0.030056268 0.064062834 1.7036746e-38
0.17804959 0.032559186 0.060987175 1.9064343e-38
0.18195322 0.11223009 0.032947361 1.6665811e-38
0.18145785 0.11542678 0.033626318 1.721971e-38
0.17192844 0.027004555 0.063746393 1.6486068e-38
0.17294419 0.028063625 0.060888827 1.7312614e-38
0.17728987 0.11200574 0.032013178 1.5560538e-38
0.17759052 0.11482304 0.033054113 1.6203022e-38
0.16812636 0.027544856 0.06276381 1.6572909e-38
0.16814628 0.029236317 0.060159981 1.8509016e-38
0.16769926 0.031354427 0.057792902 1.9064341e-38
0.17334478 0.11105999 0.031051338 1.454999e-38
0.1643995 0.029683679 0.059935987 1.8784864e-38
0.1651774 0.03255184 0.05695051 1.8784511e-38
0.16987237 0.10822758 0.029451609 1.4916983e-38
0.1691992 0.11157778 0.030447662 1.528504e-38
0.16057414 0.029951543 0.058625996 1.8781996e-38
0.16145062 0.032406777 0.055941284 1.8782352e-38
0.16621402 0.10771391 0.028355777 1.5007366e-38
0.16543505 0.11133054 0.029526353 1.5653792e-38
0.16418293 0.11403909 0.02862221 1.6849838e-38
0.15705031 0.030209661 0.057848454 1.9148266e-38
0.15746406 0.032466322 0.055513561 1.878163e-38
0.16230279 0.10748011 0.027815461 1.454785e-38
0.16172689 0.11133853 0.028403282 1.5562344e-38
0.1543259 0.03035149 0.056833863 1.9424494e-38
0.15377206 0.032286853 0.054404497 1.9057139e-38
0.15861636 0.10683921 0.026329041 1.4733667e-38
0.15807205 0.11112484 0.027195156 1.6115503e-38
0.14982912 0.032934442 0.053706884 1.887346e-38
0.15014145 0.034325048 0.050475776 1.9056413e-38
0.15510777 0.10664654 0.025687218 1.4827289e-38
0.15486434 0.1104618 0.026127219 1.5655961e-38
0.14639691 0.033117443 0.052708566 1.8595071e-38
0.1466952 0.035189986 0.050340116 1.8228086e-38
0.1512399 0.10698062 0.024478137 1.5194998e-38
0.1435726 0.033336282 0.051911175 1.8688337e-38
0.14306545 0.03553015 0.04977572 1.8872731e-38
0.14329055 0.037721813 0.046773374 1.8322084e-38
0.14660102 0.10326946 0.023121357 1.4645766e-38
0.14726472 0.10646337 0.023694217 1.5103526e-38
0.14730206 0.10899472 0.02345264 1.5288287e-38
0.13882345 0.036158383 0.048792303 1.7493411e-38
0.13868773 0.038026169 0.046442091 1.6849496e-38
0.14233673 0.098394811 0.02346319 1.160152e-38
0.14260888 0.10252377 0.023459494 1.2248317e-38
0.14355463 0.10651308 0.023874938 1.2615325e-38
0.13481438 0.038612887 0.045557559 1.5004494e-38
0.13436931 0.040198073 0.042689264 1.4543844e-38
0.1388531 0.095021904 0.023511708 1.141675e-38
0.13838923 0.098661691 0.023721457 9.8498012e-39
0.13919175 0.10233951 0.024238169 9.2998013e-39
0.13163081 0.039523035 0.044230938 1.3993194e-38
0.13108963 0.041207582 0.042463958 1.2699239e-38
0.13317272 0.080899477 0.026855767 1.0216036e-38
0.13338834 0.084509552 0.025564849 1.1784067e-38
0.13346022 0.08571291 0.025134563 1.187735e-38
0.1344263 0.091765165 0.023183584 1.1878813e-38
0.13480386 0.094563812 0.023257852 1.2522736e-38
0.1343683 0.098808199 0.023248613 9.5714164e-39
0.13309738 0.10198319 0.022223651 7.5448922e-39
0.12855458 0.042522818 0.042573035 1.131919e-38
0.12854564 0.044834584 0.040230989 1.0216043e-38
0.12766048 0.049276769 0.038386822 7.9100734e-39
0.12701905 0.053686112 0.037241638 8.4639885e-39
0.12809479 0.056619436 0.034258544 8.5608742e-39
0.13068727 0.08196786 0.028952479 9.8440362e-39
0.13025504 0.08454901 0.027259648 1.0952166e-38
0.13063219 0.087204933 0.024823129 1.187521e-38
0.13117811 0.090525985 0.022507191 1.1877376e-38
0.13115945 0.094350725 0.022053242 1.2613518e-38
0.1311875 0.098144323 0.021127105 1.086287e-38
0.13147733 0.10104594 0.020599723 8.4661142e-39
0.12522572 0.051535755 0.038549304 1.0488663e-38
0.12544233 0.055161953 0.037252605 8.8313487e-39
0.12551451 0.056370676 0.036820412 8.8327836e-39
0.12671024 0.087545514 0.024452627 1.1963808e-38
0.12768042 0.090171576 0.021407783 1.1782326e-38
0.12789604 0.09378168 0.020116866 1.3255644e-38
0.12856829 0.096938789 0.019158542 1.3165591e-38
0.12946889 0.09986943 0.018366456 9.8469425e-39
0.12277022 0.087922096 0.023342669 1.168723e-38
0.12384588 0.090132773 0.020570636 1.1690485e-38
0.12409499 0.093409538 0.018917203 1.36255e-38
0.12379268 0.095940083 0.017852485 1.7769604e-38
0.11919016 0.087643892 0.02199775 1.1597925e-38
0.12039968 0.089745879 0.019001186 1.1781969e-38
0.1206063 0.093205571 0.017764032 1.3901391e-38
0.12075904 0.0957627 0.016849697 1.8783781e-38
0.11569941 0.086953878 0.020934045 1.2241155e-38
0.11607781 0.089562714 0.017733991 1.3161672e-38
0.11756366 0.092877746 0.016815066 1.3808497e-38
0.11654785 0.096116066 0.015230596 2.0541951e-38
0.11490738 0.099018067 0.013553262 1.8504631e-38
0.1100288 0.083963573 0.019784808 1.4544556e-38
0.11139804 0.086708307 0.019637942 1.4637833e-38
0.1118297 0.08945334 0.016652405 1.6753693e-38
0.11269397 0.097389668 0.01338923 2.2933637e-38
0.11174032 0.099566668 0.01335448 2.0899576e-38
0.10698611 0.083785713 0.018779159 1.6199083e-38
0.10768884 0.085821241 0.017468035 1.8691238e-38
0.10834238 0.088258833 0.016437709 2.1268041e-38
0.11008948 0.099335909 0.011733711 2.3388862e-38
0.10330984 0.083175272 0.018518031 1.785859e-38
0.10442951 0.084989697 0.015491366 2.0993973e-38
0.099646121 0.082150638 0.016387284 2.1544259e-38
0.10191029 0.083868235 0.014705777 2.1270162e-38
0.095543981 0.079027414 0.016545355 1.8872741e-38
0.096559227 0.080828369 0.014720261 1.8689808e-38
0.09237656 0.079024494 0.016273797 1.4077101e-38
0.092513025 0.080931008 0.014192581 1.1679659e-38
0.090917289 0.082026303 0.011526167 1.1226983e-38
0.09045428 0.084397554 0.010465026 1.2149658e-38
0.19122377 0.073913947 0.036537409 1.1968859e-38
0.18725349 0.074445829 0.036070943 1.3073776e-38
0.1844039 0.06186071 0.038774788 1.4914083e-38
0.18453255 0.067376286 0.036356449 1.3073045e-38
0.20057255 0.078284442 0.036651194 1.2152186e-38
0.17264399 0.082729965 0.027429223 1.3444708e-38
0.17491828 0.055163622 0.040189326 1.7862197e-38
0.18957955 0.037249833 0.064655185 8.9307021e-39
0.18941313 0.042550668 0.062220156 9.3909642e-39
0.19547394 0.11511156 0.040377975 2.2017832e-38
0.19459988 0.11887661 0.042146981 2.2664294e-38
0.19445473 0.12169528 0.042029381 2.2576743e-38
0.18614033 0.030125141 0.06926614 1.4732603e-38
0.19103271 0.11851817 0.040649414 2.1644013e-38
0.19015706 0.12144399 0.040608764 2.2290476e-38
0.18308862 0.029946715 0.068257391 1.6854864e-38
0.18790716 0.11796731 0.038457632 2.0811734e-38
0.1870873 0.12126449 0.039594114 2.1364925e-38
0.18003692 0.029768273 0.067248642 1.7130373e-38
0.18424797 0.11867774 0.036569715 1.9887637e-38
0.18361165 0.12144074 0.037738562 2.0257496e-38
0.1750052 0.027586371 0.068692744 1.5838208e-38
0.18081008 0.11817491 0.034797013 1.9152206e-38
0.18004748 0.12108052 0.036242664 1.9519912e-38
0.17057243 0.024192572 0.069649816 1.3257839e-38
0.17140234 0.026067376 0.067105949 1.5841428e-38
0.17699018 0.11749932 0.034080863 1.7956509e-38
0.17630865 0.12093768 0.035165727 1.8596881e-38
0.16704482 0.024146795 0.068454385 1.4730437e-38
0.16717038 0.026624724 0.065402329 1.6389583e-38
0.17167065 0.11371979 0.032509923 1.547157e-38
0.17284615 0.11720425 0.034107149 1.7033863e-38
0.17256862 0.1207951 0.034088433 1.8415367e-38
0.16311958 0.025110215 0.067174375 1.6296325e-38
0.16377193 0.026849627 0.064728498 1.7310091e-38
0.16233706 0.028733373 0.06139797 1.823312e-38
0.1684283 0.1171084 0.032991946 1.7219698e-38
0.1692827 0.12022349 0.03370887 1.8140952e-38
0.1594739 0.027763814 0.06483686 1.7769273e-38
0.15989566 0.02859062 0.060590982 1.8322462e-38
0.1649569 0.11332726 0.030290663 1.6114424e-38
0.16465849 0.11660796 0.030772805 1.7497721e-38
0.16498503 0.1199722 0.032288313 1.8323901e-38
0.15474653 0.028259188 0.063028991 1.9425197e-38
0.15570921 0.029086381 0.059827685 1.9332647e-38
0.1609773 0.11606014 0.029228508 1.7678884e-38
0.15884551 0.11961323 0.030258834 1.8326763e-38
0.15093488 0.028143197 0.062103868 1.9887243e-38
0.15209085 0.029512733 0.058615208 1.9609946e-38
0.15709594 0.11608392 0.028476119 1.7772163e-38
0.14801288 0.029894218 0.058658838 1.9334074e-38
0.14912647 0.031579852 0.055661023 1.9058929e-38
0.15313289 0.11223382 0.026534557 1.6022259e-38
0.15323633 0.11542732 0.027801335 1.7587407e-38
0.14422646 0.030044675 0.058032751 1.905643e-38
0.1446853 0.0322624 0.055412531 1.8780206e-38
0.14971 0.11182523 0.026983321 1.5930772e-38
0.14922735 0.11560166 0.028104186 1.7131106e-38
0.14056262 0.030496061 0.056879342 1.8688718e-38
0.14095014 0.032773346 0.054436624 1.868943e-38
0.1407986 0.034711808 0.051537931 1.9147517e-38
0.14583379 0.11199114 0.02616322 1.5195707e-38
0.14512038 0.11517045 0.027100444 1.4645054e-38
0.13764611 0.03100653 0.056332946 1.8320314e-38
0.13692927 0.033097893 0.054287374 1.758382e-38
0.13765723 0.035162911 0.051385164 1.7309374e-38
0.1415109 0.10773432 0.024139404 9.7629935e-39
0.14209342 0.11169302 0.025519907 1.0776404e-38
0.14205062 0.11499095 0.026085794 9.3963732e-39
0.1333454 0.034009174 0.053397715 1.6384203e-38
0.13375691 0.035988659 0.050197363 1.5832466e-38
0.13247073 0.037843794 0.047414958 1.4639295e-38
0.13743055 0.10344842 0.024773538 7.5467027e-39
0.13857549 0.10744917 0.024463117 7.3580122e-39
0.13775319 0.11182761 0.024923503 5.249037e-39
0.13697362 0.11485076 0.023222387 6.5365234e-39
0.12951607 0.036236614 0.050781429 1.5555507e-38
0.1299926 0.038934767 0.047028661 1.3898494e-38
0.13433355 0.10395169 0.024869859 6.5350829e-39
0.13487789 0.10745108 0.024159193 7.2729801e-39
0.13531038 0.11121541 0.023336709 6.0766047e-39
0.13574755 0.11477906 0.022817016 7.3666372e-39
0.12670121 0.036788359 0.049439132 1.5187795e-38
0.12655932 0.039579093 0.04756844 1.3713747e-38
0.12640691 0.042443603 0.044941962 1.1782316e-38
0.12507826 0.046322495 0.043098569 1.1321307e-38
0.12579739 0.048310265 0.041098237 1.0217795e-38
0.12573385 0.062324286 0.038021326 6.9052948e-39
0.12797141 0.083926529 0.029786348 1.0120269e-38
0.12334928 0.043951809 0.045825958 1.334926e-38
0.12214464 0.047009826 0.044001937 1.3071218e-38
0.1226716 0.050323397 0.040973663 1.2335101e-38
0.12322927 0.054313451 0.038763881 1.0949645e-38
0.1231935 0.058467031 0.037882149 9.8451166e-39
0.12330872 0.062515497 0.038094342 8.1002436e-39
0.12433222 0.066194683 0.037468851 7.3637548e-39
0.12566757 0.06875287 0.036689699 6.9031424e-39
0.12419686 0.082397819 0.032130301 9.2004633e-39
0.12493932 0.084393203 0.02903831 1.0303928e-38
0.12444904 0.086832881 0.026036143 1.1407758e-38
0.11853182 0.047092155 0.043219328 1.4453815e-38
0.11855662 0.05070819 0.040826678 1.3349254e-38
0.11888397 0.054906905 0.039164603 1.2610255e-38
0.11876032 0.058820128 0.038514972 1.1689364e-38
0.11911973 0.062695414 0.037462056 1.0495151e-38
0.11953127 0.06574364 0.036790848 9.3895391e-39
0.12051314 0.082182407 0.030912697 1.0028769e-38
0.12106293 0.084329844 0.027760148 1.104041e-38
0.1220077 0.086690128 0.025229156 1.1595389e-38
0.11472023 0.04665415 0.042322338 1.5558722e-38
0.11511022 0.050613016 0.040799975 1.3902073e-38
0.1158433 0.055213839 0.039477348 1.288901e-38
0.11613423 0.060084581 0.037735641 1.3164873e-38
0.11577398 0.062247694 0.036789477 1.1877758e-38
0.11642516 0.064955324 0.035993993 1.1138745e-38
0.11640015 0.081133842 0.029296279 1.1315582e-38
0.11746478 0.08405143 0.026408851 1.1503922e-38
0.11834562 0.086475998 0.024018705 1.1598276e-38
0.11166325 0.07741797 0.029595494 1.2237891e-38
0.11275786 0.080247819 0.02815944 1.2053863e-38
0.11371988 0.083900511 0.025332928 1.2055673e-38
0.1134629 0.086190522 0.02240473 1.2607062e-38
0.10856619 0.076781839 0.028744102 1.2974374e-38
0.1092284 0.079908133 0.026667893 1.2975815e-38
0.11024261 0.083449543 0.024047017 1.3160931e-38
0.10539365 0.076930046 0.027569115 1.3990323e-38
0.1056518 0.079609513 0.02526933 1.4173632e-38
0.10673565 0.082538307 0.022415876 1.4543134e-38
0.10187638 0.077452451 0.026130736 1.48158e-38
0.10182005 0.079519391 0.024327397 1.5736659e-38
0.10298067 0.081760168 0.021511197 1.5833856e-38
0.098089397 0.079345226 0.023202717 1.9611755e-38
0.09941107 0.081080735 0.019759059 2.0348603e-38
0.093895018 0.076985776 0.023492575 2.0249943e-38
0.094896793 0.078717828 0.021501124 2.062016e-38
0.090211302 0.076770395 0.022274911 1.7123161e-38
0.091121048 0.077976614 0.02026248 1.6843717e-38
0.087973654 0.080279887 0.02015692 1.2791062e-38
0.087946892 0.082162797 0.017933249 1.1597173e-38
0.085287452 0.088201553 0.015083969 1.2332619e-38
0.083379596 0.090405941 0.01421982 1.3069817e-38
0.083248138 0.093351334 0.013540745 1.4633541e-38
0.18175474 0.073798925 0.032103777 1.1507525e-38
0.17127958 0.033002049 0.058708906 1.8140935e-38
0.15988642 0.039049447 0.047394693 1.8690145e-38
0.1963 0.12332076 0.044316649 2.2401024e-38
0.19371933 0.12415934 0.043651938 2.2394189e-38
0.19023325 0.1241186 0.042357504 2.2569578e-38
0.18875927 0.12638223 0.04162389 2.2572446e-38
0.18635195 0.12418517 0.041043818 2.1915937e-38
0.18629262 0.12623805 0.040808499 2.2567777e-38
0.18251961 0.12479863 0.04002279 2.0811753e-38
0.17893644 0.12443641 0.038520932 1.9983776e-38
0.17547366 0.12392858 0.036741316 1.9062925e-38
0.17522195 0.12607825 0.036964536 1.9709341e-38
0.17177911 0.12371254 0.035520136 1.9152939e-38
0.17129207 0.12555069 0.035496831 1.9707897e-38
0.16764778 0.12286323 0.03502816 1.9061804e-38
0.16906264 0.12584001 0.034882486 1.99834e-38
0.15855995 0.025511265 0.068886101 1.7216469e-38
0.15801162 0.026764393 0.067373753 1.7676e-38
0.16407079 0.12234905 0.034068406 1.8690516e-38
0.15477723 0.027342364 0.066577256 1.8963488e-38
0.16044039 0.12168071 0.032773077 1.8601556e-38
0.15030515 0.027849734 0.065370798 1.9978724e-38
0.156021 0.12126958 0.031638145 1.8420036e-38
0.14645809 0.028522879 0.062633157 1.9793964e-38
0.15185603 0.11889666 0.030317128 1.869375e-38
0.15215713 0.1205858 0.030909657 1.8785956e-38
0.14160499 0.029456124 0.060568154 1.9148964e-38
0.14764959 0.11843556 0.02968365 1.7776132e-38
0.14907384 0.1204055 0.029890418 1.8603731e-38
0.13885233 0.029599428 0.059543073 1.8780904e-38
0.14423072 0.1180687 0.028504193 1.4089378e-38
0.13532621 0.030670688 0.058456838 1.822883e-38
0.13932204 0.1145128 0.027556419 8.287827e-39
0.14044133 0.11751601 0.027564645 8.7474263e-39
0.13209754 0.031660289 0.057506382 1.7953666e-38
0.13150322 0.033200324 0.056263149 1.7308658e-38
0.13809052 0.1144408 0.027149379 7.0835876e-39
0.13713813 0.11605126 0.027329564 7.7300276e-39
0.12850314 0.034183487 0.054907918 1.6757631e-38
0.12491676 0.034896791 0.05374831 1.6573937e-38
0.12433371 0.036828071 0.052248299 1.5832082e-38
0.12378874 0.039367437 0.050531685 1.4180122e-38
0.12547749 0.075149536 0.038704395 5.7077941e-39
0.12678149 0.082946479 0.035649002 8.6490958e-39
0.12081927 0.038313568 0.051009357 1.7123897e-38
0.12106127 0.040689483 0.049944937 1.6939151e-38
0.12100872 0.043654904 0.048153043 1.5556925e-38
0.12184489 0.06846185 0.038829625 7.8257993e-39
0.12291554 0.071255386 0.038571656 7.3641009e-39
0.12402472 0.074662775 0.038094938 6.5371989e-39
0.12365177 0.081951588 0.034922004 8.3728592e-39
0.11730194 0.041154891 0.048693001 1.7586667e-38
0.11777678 0.043998584 0.047033191 1.6938784e-38
0.1174531 0.046299011 0.045672596 1.5006284e-38
0.11938184 0.068317831 0.038015425 8.837803e-39
0.11909175 0.071119815 0.037978113 8.4697324e-39
0.11898643 0.079645157 0.034712851 9.2955274e-39
0.11993018 0.081328034 0.033845484 9.2940826e-39
0.11385596 0.041075289 0.047507823 1.767707e-38
0.11408043 0.043782443 0.045811355 1.7032765e-38
0.1156058 0.046191007 0.045061946 1.5839622e-38
0.11358044 0.053374603 0.041627586 1.3350344e-38
0.11372635 0.055817127 0.040754139 1.2981937e-38
0.11442316 0.059265524 0.039694309 1.2705336e-38
0.11423695 0.064366013 0.037697256 1.1324587e-38
0.11515427 0.06732288 0.037088871 1.0494816e-38
0.11548969 0.070824057 0.036569476 9.8494368e-39
0.11499426 0.074536592 0.03523922 1.0584464e-38
0.11548811 0.078395963 0.033952057 1.0860329e-38
0.11663318 0.080731183 0.032627165 1.076563e-38
0.10993856 0.041333765 0.046028316 1.6937352e-38
0.11028406 0.043637305 0.044777572 1.6387039e-38
0.11065254 0.047196418 0.043184578 1.5372531e-38
0.11070839 0.051619366 0.042029858 1.4176495e-38
0.11096397 0.055897981 0.040499926 1.3073417e-38
0.11123273 0.059527084 0.039095521 1.233764e-38
0.1115512 0.063116729 0.037598431 1.1691915e-38
0.11162132 0.066900536 0.036565661 1.1045469e-38
0.1116918 0.070687145 0.035532117 1.1229499e-38
0.11196074 0.074315682 0.034127951 1.1595741e-38
0.11395371 0.080170482 0.031613052 1.1502836e-38
0.10658175 0.043923289 0.043863893 1.610758e-38
0.10665411 0.047196642 0.042524874 1.5093079e-38
0.10685956 0.051513404 0.041087866 1.4082517e-38
0.10711521 0.05579412 0.039557219 1.3255286e-38
0.10733438 0.059463292 0.038245142 1.2884687e-38
0.10755354 0.063132465 0.036933124 1.2425875e-38
0.10812503 0.066822231 0.035737574 1.2242574e-38
0.10814601 0.07047984 0.034359992 1.2150756e-38
0.10815269 0.074101627 0.032540619 1.2425875e-38
0.10880882 0.076218665 0.031294882 1.2606668e-38
0.10399109 0.044642359 0.042677939 1.6013596e-38
0.10384715 0.047376245 0.041592062 1.4998736e-38
0.10281765 0.051451176 0.039685845 1.4449156e-38
0.10279858 0.055541724 0.038130343 1.3805926e-38
0.10301772 0.059210896 0.036818326 1.3713753e-38
0.10339373 0.062076718 0.035865784 1.3714474e-38
0.10350701 0.070208609 0.032826662 1.2612796e-38
0.1038028 0.07370016 0.031404138 1.3163082e-38
0.10330349 0.076505244 0.029244721 1.4174365e-38
0.09864527 0.055451244 0.036699772 1.4818654e-38
0.098701119 0.058958501 0.03539145 1.4543532e-38
0.099075556 0.062288538 0.034262598 1.408362e-38
0.099940836 0.074570537 0.02991724 1.445023e-38
0.099931151 0.076681703 0.028310359 1.5095968e-38
0.096051842 0.055756643 0.035669446 1.55544e-38
0.096197963 0.058202773 0.034794807 1.4819373e-38
0.095800459 0.061835885 0.033278883 1.41733e-38
0.096253455 0.076964706 0.027334809 1.7400126e-38
0.092360437 0.076260179 0.026603937 1.8042612e-38
0.088900715 0.075860083 0.02497232 1.5924985e-38
0.085888445 0.079743743 0.022551954 1.3435375e-38
0.084613144 0.083729327 0.02104336 1.1138714e-38
0.084907949 0.086991221 0.018786311 1.205745e-38
0.083041728 0.084856242 0.020062506 1.1138318e-38
0.082387149 0.087370574 0.018718719 1.1597914e-38
0.081359327 0.089217752 0.016691744 1.1597939e-38
0.081232607 0.095719516 0.015311062 1.4357319e-38
0.079707056 0.090755194 0.016652763 1.178089e-38
0.079926223 0.094424367 0.015340686 1.4083603e-38
0.18832429 0.067916334 0.037407935 1.224472e-38
0.17833653 0.03307721 0.060892284 1.8695908e-38
0.12402472 0.074662775 0.038094938 6.5371989e-39
0.11539036 0.065202683 0.033752561 1.1964164e-38
0.19209373 0.12884459 0.045020223 2.3048186e-38
0.19169357 0.13160589 0.044058681 2.3417314e-38
0.18973196 0.12850344 0.04285264 2.2763694e-38
0.18942432 0.13108051 0.041768372 2.3230774e-38
0.18616949 0.12858486 0.041452706 2.2480626e-38
0.18665996 0.13122401 0.040739119 2.3133867e-38
0.18201824 0.12808055 0.040730178 2.1736946e-38
0.17826912 0.12791204 0.039596736 2.1090478e-38
0.17461231 0.12861443 0.038041115 2.0811719e-38
0.17523822 0.13110903 0.039569199 2.1175837e-38
0.17141283 0.12823808 0.037336648 1.971005e-38
0.1667296 0.12717795 0.03625524 2.016957e-38
0.16364956 0.12415344 0.034737885 1.9155066e-38
0.16283414 0.12708902 0.036153674 1.9617132e-38
0.15367621 0.024981588 0.069772542 1.868943e-38
0.1595667 0.12437284 0.034340858 1.8784874e-38
0.15889072 0.12647539 0.035558105 1.896998e-38
0.14964825 0.025286973 0.06962806 2.0437893e-38
0.15045923 0.02695708 0.066889107 2.0069839e-38
0.15572947 0.12430117 0.033389986 1.8231716e-38
0.15516907 0.12625784 0.034327984 1.8051629e-38
0.14588565 0.026029825 0.0687235 2.034463e-38
0.14617288 0.027316734 0.065241158 2.0344621e-38
0.15147471 0.12298423 0.032012701 1.8787758e-38
0.14195296 0.028117239 0.064997852 1.9792545e-38
0.1477606 0.12280375 0.031615615 1.878991e-38
0.13833138 0.028409332 0.064152956 1.9331558e-38
0.14385879 0.12198883 0.030829489 1.4273035e-38
0.13513467 0.02885136 0.064144909 1.9055713e-38
0.13400447 0.029656708 0.060063541 1.8505413e-38
0.13872755 0.11903456 0.02788645 8.9285876e-39
0.1400173 0.12170076 0.029208422 8.9307582e-39
0.13031417 0.030681819 0.059660614 1.8690859e-38
0.13675961 0.11840761 0.02818048 8.7459563e-39
0.13674882 0.12104851 0.02867794 1.0035634e-38
0.12657827 0.030981943 0.058819234 1.8507535e-38
0.12663174 0.033294186 0.056085885 1.7216085e-38
0.1226702 0.031857729 0.058385313 1.8227362e-38
0.12311086 0.033928514 0.055890858 1.7216075e-38
0.12270975 0.036319733 0.053557038 1.6382011e-38
0.12512398 0.076739728 0.039103568 6.0744313e-39
0.12527031 0.07918942 0.038227618 6.9009745e-39
0.12541664 0.081639141 0.037351608 7.7289416e-39
0.11864448 0.032177925 0.057069361 1.8227739e-38
0.11936986 0.034230918 0.055046737 1.7676349e-38
0.12027606 0.036787719 0.052521527 1.7308987e-38
0.12185416 0.075572073 0.038392425 7.180783e-39
0.12280005 0.079044998 0.037411034 7.360152e-39
0.12418151 0.0815669 0.036943316 7.7289359e-39
0.11492285 0.031960323 0.055839181 1.8592952e-38
0.11536264 0.034217536 0.05438894 1.822809e-38
0.11660728 0.037183493 0.051077724 1.7860037e-38
0.11675361 0.039633185 0.050201714 1.7954027e-38
0.11887518 0.075153798 0.037500203 8.0062403e-39
0.11925018 0.078488737 0.036369801 8.5565372e-39
0.11219573 0.034431636 0.053716481 1.776927e-38
0.11260477 0.037172005 0.050421059 1.7952236e-38
0.11275771 0.03970471 0.048765421 1.8228452e-38
0.11566389 0.074966043 0.036438704 9.8458383e-39
0.11658782 0.078071505 0.035588682 1.0122784e-38
0.10843664 0.038461775 0.050526977 1.7306498e-38
0.10892975 0.040124625 0.048382401 1.7212508e-38
0.10510331 0.040624782 0.04721868 1.693627e-38
0.10523936 0.042621687 0.045009315 1.6477438e-38
0.10608497 0.067082539 0.036045432 1.2610276e-38
0.10630444 0.070757091 0.034731507 1.242805e-38
0.10103288 0.040652081 0.046648562 1.721178e-38
0.10183063 0.043662339 0.043976009 1.6475649e-38
0.10168847 0.047052234 0.04207927 1.5643386e-38
0.10345012 0.064182192 0.036214411 1.3438962e-38
0.10361472 0.066938102 0.035228908 1.2979422e-38
0.10506934 0.07068485 0.034323215 1.270392e-38
0.097461104 0.044448107 0.044529974 1.6753323e-38
0.098013639 0.047627345 0.042316914 1.5923567e-38
0.098733187 0.05115144 0.039484859 1.5370759e-38
0.10015035 0.063887566 0.03516221 1.3808111e-38
0.099909335 0.066721439 0.034004092 1.3348563e-38
0.099511236 0.070359886 0.032485962 1.252098e-38
0.099476099 0.073205844 0.031395972 1.2979782e-38
0.094715357 0.045489907 0.043589413 1.7029557e-38
0.093674034 0.047841698 0.042206585 1.6383819e-38
0.094671905 0.0511581 0.038049996 1.5924288e-38
0.094292134 0.055102736 0.036422312 1.5830292e-38
0.094187409 0.059237868 0.034819782 1.4726471e-38
0.094785929 0.063370466 0.033465981 1.4082177e-38
0.095586389 0.066468686 0.03257513 1.3715532e-38
0.096075058 0.07011427 0.031592309 1.3256726e-38
0.095931351 0.073889986 0.030111969 1.3529352e-38
0.090338141 0.048094481 0.041059434 1.6477466e-38
0.090446442 0.051216841 0.037288129 1.592466e-38
0.090904564 0.055452198 0.035845935 1.5280738e-38
0.09098804 0.059028983 0.033770382 1.4269453e-38
0.091043979 0.062541395 0.032460153 1.3991424e-38
0.091469884 0.066162616 0.031560957 1.3900652e-38
0.091743052 0.070732802 0.031575441 1.3256359e-38
0.091798306 0.073829651 0.029202521 1.2607037e-38
0.08687225 0.048709095 0.039604247 1.6110824e-38
0.08683607 0.051505297 0.037907183 1.5926793e-38
0.087012678 0.055830508 0.036206663 1.5007382e-38
0.086960316 0.059256226 0.034676552 1.4265867e-38
0.087475002 0.062708154 0.032264292 1.3899224e-38
0.087628037 0.066963255 0.03197372 1.3623715e-38
0.087787062 0.070658356 0.031115472 1.3071971e-38
0.088135213 0.073744982 0.028318048 1.2332599e-38
0.083991319 0.052218422 0.0372594 1.5557295e-38
0.083773762 0.055474848 0.035949647 1.4821203e-38
0.083629668 0.059961468 0.034199953 1.4358395e-38
0.083881736 0.062774628 0.033036053 1.3990687e-38
0.084562927 0.066962942 0.031877995 1.3164545e-38
0.085020036 0.069441512 0.03110069 1.2888308e-38
0.083526641 0.075483829 0.028286159 1.3991061e-38
0.084400296 0.077392399 0.026182711 1.4450981e-38
0.083495468 0.080408603 0.023032546 1.3804495e-38
0.083641797 0.082858294 0.022156596 1.1684363e-38
0.080857545 0.061842591 0.032509983 1.3991057e-38
0.081045568 0.075338751 0.027465999 1.4359111e-38
0.080680609 0.077681154 0.026200116 1.5002692e-38
0.080574095 0.080892086 0.023226559 1.3714445e-38
0.080834866 0.083964914 0.021310508 1.1507501e-38
0.080192447 0.086928636 0.019398808 1.0677415e-38
0.079868317 0.098748595 0.017060816 1.2980867e-38
0.076506615 0.077700377 0.024971008 1.3899936e-38
0.076847374 0.080932975 0.023545444 1.2975462e-38
0.076767117 0.084308237 0.020934403 1.1230194e-38
0.077648222 0.087482035 0.018542111 1.0675972e-38
0.076863408 0.091423064 0.017648816 1.2061416e-38
0.077127039 0.095011592 0.016945958 1.3809176e-38
0.078204423 0.098447293 0.016588032 1.3257085e-38
0.073785961 0.077979118 0.023905933 1.2796461e-38
0.073969632 0.081054688 0.022806168 1.2058899e-38
0.073199421 0.084484249 0.020672977 1.1139462e-38
0.07333985 0.088012189 0.018542111 1.1231987e-38
0.073640287 0.091860801 0.018035352 1.2336545e-38
0.074182153 0.094960898 0.017615497 1.3995366e-38
0.070724219 0.085359961 0.020031333 1.0402619e-38
0.070433199 0.087386131 0.019161463 1.1137648e-38
0.15584376 0.057597816 0.030913949 1.4545655e-38
0.18755582 0.067391276 0.036954284 1.261172e-38
0.17908114 0.03406316 0.059843183 1.9063613e-38
0.16369069 0.093257219 0.02554065 1.3904974e-38
0.11748618 0.05976221 0.035789371 1.2335116e-38
0.096559227 0.080828369 0.014720261 1.8689808e-38
0.080680609 0.077681154 0.026200116 1.5002692e-38
0.17944619 0.13321602 0.044759274 2.266248e-38
0.17660636 0.13300931 0.042991519 2.2013156e-38
0.17242786 0.13290593 0.041650712 2.0902848e-38
0.16824028 0.13040084 0.039621174 2.0169229e-38
0.16511008 0.1315138 0.03944689 2.0171022e-38
0.16147685 0.13201088 0.038502693 2.0170321e-38
0.15821332 0.12858507 0.036772251 1.9247639e-38
0.15782353 0.13102627 0.037211716 1.9987007e-38
0.15448087 0.12836683 0.035538495 1.8510086e-38
0.15404785 0.13134491 0.035947084 2.0078477e-38
0.15051839 0.12775129 0.034937143 1.8973227e-38
0.15048295 0.13059735 0.035085559 1.9525323e-38
0.14660004 0.12706089 0.033816636 1.8608383e-38
0.14630646 0.13004532 0.034271955 1.8514764e-38
0.13678592 0.026083529 0.069635749 2.0161341e-38
0.13669217 0.027737796 0.067367733 1.9789319e-38
0.14290062 0.12681878 0.032916367 1.2707871e-38
0.14381093 0.12989938 0.033446968 1.4551107e-38
0.13271677 0.026237503 0.068598092 1.9885825e-38
0.13301 0.028501064 0.066343129 1.9515964e-38
0.13917068 0.12660655 0.032072127 9.5782295e-39
0.12894216 0.026685894 0.067284763 2.0070229e-38
0.12955254 0.028832346 0.065436125 1.9519543e-38
0.13502702 0.12284693 0.031330466 8.4737037e-39
0.13598222 0.12584808 0.031469285 1.0777857e-38
0.1251989 0.026466995 0.066047311 2.006768e-38
0.12562796 0.028744996 0.064585388 1.9611364e-38
0.13299859 0.12157807 0.030532539 4.9688446e-39
0.12182182 0.028849721 0.063813329 1.9701765e-38
0.12095752 0.031238616 0.061618745 1.878055e-38
0.11822748 0.029450327 0.062458932 1.9516666e-38
0.11790544 0.031436414 0.060145795 1.8690138e-38
0.11543849 0.029595509 0.061420381 1.9976907e-38
0.11411732 0.031043589 0.059280157 1.8963853e-38
0.11030671 0.031364679 0.057564437 1.8502877e-38
0.10950714 0.034447402 0.055239379 1.7216469e-38
0.10679695 0.031672567 0.057135761 1.804298e-38
0.10637584 0.034827679 0.05486685 1.7213591e-38
0.10665423 0.037538767 0.053062737 1.7030989e-38
0.10291818 0.032316029 0.055974483 1.7580939e-38
0.10228482 0.034844637 0.054293215 1.7121037e-38
0.10311344 0.038143456 0.05183512 1.7396881e-38
0.09819144 0.032286286 0.054318726 1.8134103e-38
0.09849292 0.034659564 0.053151071 1.8134819e-38
0.099174798 0.038062066 0.05097729 1.76724e-38
0.094877541 0.034629911 0.051980972 1.7768557e-38
0.095179796 0.03801477 0.050211668 1.785786e-38
0.095348895 0.041303903 0.047649801 1.7304706e-38
0.094874203 0.043735147 0.046561718 1.7029193e-38
0.092112064 0.038805902 0.049330533 1.7212509e-38
0.091819018 0.04139924 0.047369599 1.702884e-38
0.092294842 0.044660151 0.045301855 1.7121381e-38
0.087923288 0.041285321 0.046414077 1.7213957e-38
0.088567942 0.04471074 0.044343531 1.6569294e-38
0.088069618 0.047435582 0.04276067 1.6386344e-38
0.084410429 0.04164198 0.045540512 1.6386347e-38
0.084565997 0.044668615 0.043573678 1.5833875e-38
0.085016936 0.047725499 0.041574299 1.583496e-38
0.084229529 0.052333951 0.039551556 1.5742407e-38
0.081330776 0.045570344 0.042966843 1.5282867e-38
0.081049681 0.048156261 0.041012883 1.5557649e-38
0.08149156 0.052215368 0.038937986 1.5372552e-38
0.081596673 0.056688175 0.03697437 1.463501e-38
0.081341624 0.059337139 0.035881341 1.4358766e-38
0.081660986 0.064683631 0.033969462 1.3716292e-38
0.081915885 0.067567348 0.032967508 1.2980515e-38
0.082737148 0.071457565 0.031784177 1.2795388e-38
0.083067656 0.074396923 0.030787766 1.2978333e-38
0.07805109 0.048988104 0.040891349 1.5641949e-38
0.077595115 0.052503318 0.038375914 1.4909775e-38
0.078157037 0.056362927 0.036134601 1.4821524e-38
0.078432918 0.06002754 0.034719169 1.4266925e-38
0.078562498 0.063836485 0.033197522 1.3806318e-38
0.078929901 0.067392766 0.031980515 1.3347124e-38
0.079150975 0.0710942 0.030656993 1.3440026e-38
0.079173237 0.074432671 0.029400706 1.399104e-38
0.073659599 0.05329676 0.037389338 1.4910491e-38
0.074092299 0.056367606 0.035449862 1.4543159e-38
0.074368596 0.060035855 0.034033298 1.3807383e-38
0.074810505 0.063587785 0.032343745 1.3438259e-38
0.075142145 0.067213684 0.030837595 1.3254214e-38
0.075418502 0.070875943 0.029423177 1.3531151e-38
0.075639606 0.074577361 0.028099656 1.3990342e-38
0.077068001 0.07773459 0.027407944 1.445277e-38
0.075448126 0.1008133 0.019223869 1.2890095e-38
0.070164472 0.057466686 0.034899473 1.3807372e-38
0.070241332 0.060081407 0.03343606 1.3899196e-38
0.070686042 0.063637495 0.03174597 1.3069092e-38
0.071074605 0.067228526 0.030148089 1.2149657e-38
0.071574271 0.070736513 0.028370321 1.251915e-38
0.071907133 0.074359104 0.0268659 1.2886507e-38
0.071601063 0.077537894 0.025554299 1.2427686e-38
0.071105152 0.081689179 0.023807466 1.1599357e-38
0.072928905 0.097372293 0.018737495 1.362515e-38
0.073372364 0.10045519 0.018466592 1.2888646e-38
0.06759721 0.06132403 0.032533467 1.3436788e-38
0.066990972 0.064585462 0.030803084 1.25152e-38
0.067302436 0.067485586 0.029613853 1.1596468e-38
0.067390442 0.070833668 0.027858853 1.1875923e-38
0.067892849 0.074341059 0.026082516 1.233369e-38
0.068226576 0.077964276 0.024577975 1.1138025e-38
0.068447739 0.081667483 0.023253798 1.1409935e-38
0.068398595 0.084809601 0.021671474 1.0677016e-38
0.068144292 0.089200407 0.019919097 1.2057439e-38
0.069047809 0.092793882 0.019721508 1.2334376e-38
0.068874896 0.09612757 0.019524217 1.3624072e-38
0.064297348 0.068529457 0.028641284 1.1689012e-38
0.06396085 0.071222514 0.027502835 1.1322036e-38
0.063903332 0.074581712 0.025506973 1.1411007e-38
0.064519405 0.078209162 0.024491549 1.1967031e-38
0.064032257 0.081943959 0.023093104 1.1781578e-38
0.064648271 0.08546254 0.021870792 1.1784456e-38
0.065015376 0.089063793 0.020314991 1.2242199e-38
0.15441328 0.04699865 0.03658092 1.6571805e-38
0.19211009 0.062738225 0.040168107 1.2796456e-38
0.16060409 0.040664583 0.044868767 1.8505047e-38
0.11737984 0.05514431 0.037694454 1.721538e-38
0.081045568 0.075338751 0.027465999 1.4359111e-38
0.1814159 0.13557965 0.048499763 2.3128847e-38
0.17992687 0.1354661 0.047454715 2.312814e-38
0.17552972 0.13538766 0.045370579 2.2205086e-38
0.17159525 0.13539112 0.044544518 2.1004747e-38
0.17076474 0.13829005 0.044279993 2.2392751e-38
0.16791975 0.13440228 0.043247402 2.0260005e-38
0.16783805 0.13821536 0.043135405 2.2210522e-38
0.16777596 0.14059567 0.042352855 2.341769e-38
0.16432139 0.13465449 0.041507483 2.0446904e-38
0.16319767 0.13722748 0.042013466 2.0726381e-38
0.16052553 0.13666591 0.040608108 2.0818208e-38
0.15693396 0.13406685 0.038749218 2.1183032e-38
0.15625805 0.13620162 0.039954424 2.0724577e-38
0.15279931 0.13429213 0.038331628 2.1646132e-38
0.15209952 0.13637188 0.0384233 1.8054875e-38
0.14880484 0.13363266 0.036891043 2.0818206e-38
0.14876527 0.13638365 0.037242949 1.7405932e-38
0.14533925 0.13283873 0.035929263 1.9067573e-38
0.1451968 0.13594013 0.035589337 1.7500623e-38
0.14139849 0.13242608 0.034735799 1.2523488e-38
0.14136693 0.13579449 0.034481347 1.2801168e-38
0.13668951 0.12917328 0.033462226 1.1606842e-38
0.13777602 0.13207239 0.033623457 1.2251159e-38
0.13806713 0.13509643 0.033112645 9.11299e-39
0.12785834 0.025502175 0.06997788 2.0253161e-38
0.13271302 0.12523088 0.033552468 6.5394199e-39
0.13411266 0.12778598 0.033078671 1.1143039e-38
0.13395023 0.13262361 0.033441603 1.6755497e-38
0.12395719 0.025658071 0.068971753 2.0253149e-38
0.13146162 0.12515774 0.033138871 2.7594243e-39
0.13153577 0.12639871 0.032695115 5.8782607e-39
0.12021095 0.026076108 0.067954779 1.9885081e-38
0.11942327 0.027996629 0.065683007 2.025244e-38
0.11637455 0.026590228 0.066941857 2.0068786e-38
0.11669987 0.02833204 0.06459552 2.0067691e-38
0.11284298 0.02700597 0.065989256 2.0433958e-38
0.1127457 0.028926551 0.063820183 1.9792899e-38
0.10911602 0.029393941 0.062966228 1.9331578e-38
0.10520369 0.029969841 0.062172711 1.9698909e-38
0.10435539 0.031470507 0.061305344 1.8870577e-38
0.10177106 0.030079201 0.060920656 1.9884739e-38
0.10136068 0.031532064 0.059325039 1.8501086e-38
0.098299921 0.031471461 0.057818174 1.8224863e-38
0.09428519 0.032097742 0.055714726 1.7949728e-38
0.090269029 0.03234446 0.055443406 1.7491254e-38
0.090724826 0.034845293 0.053129196 1.6845167e-38
0.090499103 0.03784734 0.051751852 1.6936282e-38
0.086897016 0.032310039 0.054830134 1.6476378e-38
0.086824924 0.035149544 0.052853823 1.6199778e-38
0.087470233 0.03860575 0.050771773 1.675261e-38
0.083458245 0.035457522 0.052425563 1.5834237e-38
0.08333993 0.038625002 0.050183535 1.6293434e-38
0.082289249 0.041003555 0.048787177 1.6385993e-38
0.079813123 0.039337039 0.049670935 1.5651635e-38
0.079751432 0.041895777 0.047413528 1.555766e-38
0.079519004 0.044739798 0.045644939 1.5281073e-38
0.076655746 0.04296571 0.046808124 1.4637497e-38
0.076319337 0.045607403 0.044938564 1.4451653e-38
0.075683475 0.049005061 0.04252702 1.4630676e-38
0.072458953 0.046402782 0.044176698 1.3992475e-38
0.072555184 0.048992217 0.042470157 1.4174354e-38
0.072452068 0.051749945 0.040498078 1.4633519e-38
0.069154114 0.049681053 0.041769803 1.3990686e-38
0.069018006 0.052982241 0.039570987 1.4635701e-38
0.068497777 0.056429476 0.036956191 1.3807378e-38
0.070246577 0.10241076 0.020162284 1.2793575e-38
0.065493822 0.053744733 0.038790047 1.4632464e-38
0.065241545 0.057283729 0.03642261 1.3714791e-38
0.065469295 0.060704306 0.034269512 1.3345671e-38
0.065446049 0.063794523 0.033091187 1.297976e-38
0.064417064 0.067444235 0.031346262 1.196453e-38
0.066084772 0.095365942 0.021361947 1.3347474e-38
0.067782879 0.098904312 0.020996392 1.3164175e-38
0.067661494 0.10221201 0.020827234 1.2703533e-38
0.062619269 0.055074424 0.037647963 1.4170765e-38
0.062027723 0.057593286 0.036163867 1.3437499e-38
0.061952829 0.060804799 0.034398735 1.3161645e-38
0.062246859 0.064315915 0.032569647 1.2886844e-38
0.062232167 0.067838967 0.030876637 1.1963091e-38
0.062099576 0.070400327 0.029409647 1.1227681e-38
0.061367035 0.079013914 0.025889754 1.0669498e-38
0.061848819 0.087080181 0.023005426 9.9323096e-39
0.063793629 0.094273388 0.021718204 1.3074103e-38
0.06440106 0.098224074 0.020972788 1.2976893e-38
0.064900756 0.10226446 0.02039665 1.2330468e-38
0.058857203 0.061882287 0.033743382 1.3714437e-38
0.059116662 0.064481199 0.032850802 1.3255611e-38
0.059287608 0.068693638 0.031090915 1.2056003e-38
0.059894979 0.072277963 0.030173063 1.0025939e-38
0.059672892 0.074551105 0.028671026 9.3719612e-39
0.059123158 0.080294132 0.026865602 1.0578024e-38
0.059823513 0.083034575 0.024948895 1.0574798e-38
0.059789211 0.086951852 0.02401644 9.8411734e-39
0.060345352 0.090287209 0.023512721 9.7471911e-39
0.0613074 0.095924348 0.021717548 1.0944658e-38
0.061381727 0.097168863 0.02127254 1.0576573e-38
0.17658761 0.073115915 0.030498445 1.1692272e-38
0.19345865 0.068315148 0.039322495 1.2337288e-38
0.17618459 0.08310315 0.029800177 1.4363808e-38
0.19302902 0.039015129 0.061248541 2.155039e-38
0.15007132 0.089702308 0.02722019 1.7127865e-38
0.095436782 0.10195234 0.0021973252 1.7865789e-38
0.12105632 0.081251442 0.02955991 1.4730768e-38
0.14562765 0.030311525 0.059903681 1.9334076e-38
0.12069803 0.074564099 0.035746455 1.500628e-38
0.18064174 0.13996613 0.049755931 2.0338848e-38
0.1764853 0.13754514 0.049957335 2.3216368e-38
0.17852521 0.14015555 0.049688458 2.1550306e-38
0.17362022 0.13901111 0.047828853 2.2663918e-38
0.17159297 0.13975024 0.047397017 2.2577138e-38
0.17114942 0.14283818 0.046071291 2.3325137e-38
0.16557685 0.13768408 0.044931531 2.0909701e-38
0.16328508 0.139341 0.044058859 2.0914747e-38
0.15528607 0.13891777 0.041060209 1.9336625e-38
0.15185186 0.13877556 0.040240586 1.7497764e-38
0.15239602 0.14088181 0.039635003 1.6694956e-38
0.11456069 0.025638431 0.069646239 1.9791476e-38
0.11087513 0.026056066 0.068389297 2.0434326e-38
0.1073724 0.026652336 0.067249835 1.9883315e-38
0.10700819 0.02853927 0.06560266 1.9698568e-38
0.10415331 0.027028739 0.066293776 1.9793261e-38
0.10345978 0.028956145 0.0646438 2.025065e-38
0.099996775 0.029271498 0.063227892 1.9610321e-38
0.096496791 0.030042633 0.061776698 1.8962781e-38
0.095275104 0.031584546 0.060311496 1.8317781e-38
0.09284842 0.030519605 0.06098485 1.8136621e-38
0.092602283 0.031535774 0.059762657 1.7951166e-38
0.08382076 0.032942593 0.056320488 1.5467269e-38
0.081968367 0.033457071 0.055472314 1.5466545e-38
0.080645412 0.035475254 0.053960085 1.5465823e-38
0.077487946 0.036205128 0.053414643 1.5185992e-38
0.077545673 0.038823441 0.051542819 1.5187063e-38
0.074778438 0.039609224 0.050944805 1.3802357e-38
0.07393384 0.042529404 0.049203396 1.3622995e-38
0.07140699 0.043683335 0.04806298 1.3807766e-38
0.070577145 0.045462638 0.046627462 1.3530795e-38
0.068018019 0.047104865 0.045196891 1.3254549e-38
0.066602349 0.049361125 0.044030845 1.3531154e-38
0.063734889 0.050837725 0.042742014 1.3898501e-38
0.062909722 0.052612811 0.041309655 1.4541706e-38
0.059957296 0.054178536 0.039925754 1.4358389e-38
0.059194386 0.057459742 0.037788749 1.3438562e-38
0.061766386 0.10052016 0.022391081 1.1220153e-38
0.061878204 0.10239238 0.021721661 1.1772278e-38
0.057308823 0.0558438 0.038861513 1.4451287e-38
0.057290435 0.058553904 0.037547469 1.2978297e-38
0.056464553 0.06155178 0.035726905 1.3161987e-38
0.056214362 0.065768823 0.034041941 1.3254544e-38
0.056034654 0.069064558 0.033124626 1.3071222e-38
0.05726549 0.073151276 0.031917453 1.1404916e-38
0.056679279 0.077152461 0.030345857 1.0938885e-38
0.056835413 0.080217987 0.028902352 1.0299293e-38
0.057021379 0.084073752 0.026944995 1.011669e-38
0.05730176 0.088025033 0.026110649 9.6567709e-39
0.058181465 0.092099965 0.024990618 1.0026639e-38
0.059451908 0.095514029 0.023751855 1.0855349e-38
0.059672177 0.099435538 0.022813737 1.057801e-38
0.060364008 0.10251683 0.021703422 1.1316706e-38
0.055095404 0.081871003 0.02822566 1.1769758e-38
0.055244684 0.084370852 0.027331889 1.149601e-38
0.055394053 0.0868707 0.026437879 1.1035022e-38
0.17693062 0.065058589 0.031897843 1.2243655e-38
0.17008519 0.053866208 0.03437835 1.5742771e-38
0.17051616 0.080965638 0.026654005 1.3168488e-38
0.16547552 0.047375172 0.04375869 1.7492695e-38
0.093673378 0.08279109 0.010378897 1.2052806e-38
0.18054169 0.040490419 0.050981283 2.0441511e-38
0.13381335 0.083385736 0.031286776 1.2704273e-38
0.12789604 0.09378168 0.020116866 1.3255644e-38
0.13594896 0.10243145 0.023191035 1.3533673e-38
0.12394384 0.094674826 0.018384874 1.5651634e-38
0.11578456 0.081446558 0.036307454 1.3902443e-38
0.08333993 0.038625002 0.050183535 1.6293434e-38
0.17527676 0.14028227 0.050746739 2.3301735e-38
0.17464003 0.14363164 0.049879432 1.8886441e-38
0.17371763 0.14581212 0.048102975 2.0273339e-38
0.17218742 0.14338246 0.048858464 2.313891e-38
0.1054498 0.0256522 0.069524169 1.9609604e-38
0.10273603 0.025909901 0.068469524 1.9240812e-38
0.09951818 0.02726832 0.066820323 1.933337e-38
0.097458243 0.028932303 0.065463722 1.9516684e-38
0.0945943 0.025952816 0.068959534 1.8503977e-38
0.095270604 0.0271824 0.066705704 1.8781987e-38
0.09556222 0.028821439 0.064836979 1.8965294e-38
0.091452092 0.02819702 0.066157222 1.8228808e-38
0.092321992 0.02998741 0.063627899 1.8135896e-38
0.087203234 0.02928409 0.065091491 1.7582005e-38
0.088331431 0.030538738 0.062574863 1.7582735e-38
0.088202715 0.032138512 0.060985327 1.7676381e-38
0.084664375 0.029135644 0.064252257 1.7490874e-38
0.084139377 0.030559659 0.06202656 1.6845145e-38
0.085042685 0.031953752 0.059940815 1.6752237e-38
0.080418855 0.031891078 0.060810804 1.5556246e-38
0.080693483 0.032948583 0.058030248 1.5372928e-38
0.077273309 0.032466933 0.060384154 1.5186016e-38
0.077328503 0.03353852 0.057183027 1.5094168e-38
0.077683181 0.03527081 0.056089163 1.5186002e-38
0.073353261 0.033723891 0.056724072 1.482046e-38
0.073333979 0.036265641 0.054178596 1.4727531e-38
0.071959853 0.039620385 0.052423716 1.3530432e-38
0.070236564 0.035163254 0.054629505 1.4269773e-38
0.069306672 0.037193745 0.053532839 1.3530795e-38
0.069907904 0.040062517 0.051532567 1.3715905e-38
0.06973055 0.042716935 0.050464928 1.3990009e-38
0.066175133 0.038237453 0.053722084 1.3714103e-38
0.065822899 0.041399777 0.051515758 1.3624403e-38
0.066746831 0.043927103 0.0495978 1.316059e-38
0.066163093 0.046255723 0.047866821 1.288579e-38
0.062716812 0.042906106 0.051297486 1.2882891e-38
0.062396169 0.045125037 0.048936784 1.2240767e-38
0.063132107 0.047651321 0.046644628 1.3070185e-38
0.062595665 0.04979451 0.045268655 1.3068752e-38
0.058654279 0.049000531 0.046591997 1.2789252e-38
0.059167206 0.05113706 0.044226646 1.3527927e-38
0.058581918 0.052890822 0.042680681 1.4268373e-38
0.055595994 0.051872209 0.044640481 1.3898147e-38
0.055387676 0.054028302 0.041927755 1.4451314e-38
0.055089355 0.057683095 0.039634287 1.3531487e-38
0.057335436 0.095288098 0.02618742 1.0578409e-38
0.057672381 0.10092884 0.024170339 1.1129384e-38
0.057784677 0.1028091 0.023498058 1.2145038e-38
0.052600265 0.055128425 0.041975617 1.3991762e-38
0.052502722 0.058361173 0.040266752 1.3438941e-38
0.052340299 0.061680689 0.039177775 1.3530414e-38
0.053227574 0.074306995 0.034130752 1.2974719e-38
0.052420229 0.076901495 0.032541871 1.2792843e-38
0.053103536 0.080182165 0.030789971 1.2421203e-38
0.052869558 0.083784878 0.028967977 1.3152292e-38
0.053428888 0.087877244 0.027615726 1.1858306e-38
0.053950787 0.091342807 0.026487529 1.0942821e-38
0.054689586 0.095591068 0.025702536 1.0945734e-38
0.054132938 0.099523425 0.025931239 1.2142485e-38
0.054901034 0.10266396 0.025913775 1.2146791e-38
0.049564123 0.07783854 0.032680988 1.2883998e-38
0.049105167 0.080859542 0.031281412 1.28847e-38
0.04981786 0.084005713 0.028934062 1.2333688e-38
0.050158709 0.087688625 0.027409554 1.2332231e-38
0.050267726 0.091537446 0.026240885 1.1505707e-38
0.050028563 0.095646501 0.025601506 1.1229136e-38
0.045933187 0.084890604 0.029480755 1.0856383e-38
0.045539171 0.088047653 0.027395785 9.6632379e-39
0.045881927 0.091736466 0.025869727 9.0189363e-39
0.046058357 0.094956487 0.025263131 9.7547231e-39
0.20897129 0.059107587 0.044275582 1.0403322e-38
0.17698878 0.10190842 0.029287398 1.4824775e-38
0.19935465 0.11351988 0.040801167 2.1831635e-38
0.11805758 0.067570463 0.040578425 1.509919e-38
0.085483938 0.04583618 0.047750533 1.6108674e-38
0.090036273 0.035070762 0.055267215 1.7305791e-38
0.08912614 0.027201146 0.067684352 1.8137694e-38
0.086464614 0.027778193 0.066902518 1.703386e-38
0.082099289 0.02854082 0.066468179 1.5929298e-38
0.07826376 0.028992593 0.066713691 1.4914804e-38
0.078642786 0.030830503 0.063175797 1.5558016e-38
0.074605435 0.029712051 0.066116095 1.3163817e-38
0.074889839 0.031758755 0.062224329 1.4634626e-38
0.071319252 0.032050163 0.061980665 1.4079314e-38
0.070509315 0.03365019 0.058676541 1.4362349e-38
0.066794813 0.033305436 0.061437726 1.4731125e-38
0.067786098 0.034820616 0.058398843 1.5188849e-38
0.063930899 0.035545528 0.059177339 1.4359812e-38
0.063375354 0.038204998 0.055111349 1.343752e-38
0.063333631 0.040768206 0.053450465 1.3530411e-38
0.060906231 0.036272883 0.058049679 1.297762e-38
0.06009692 0.038839102 0.055666506 1.3068032e-38
0.060649425 0.042011589 0.052515566 1.2790698e-38
0.059745818 0.044327199 0.050837517 1.2512275e-38
0.056680501 0.039502367 0.055711806 1.2976182e-38
0.056857497 0.042186171 0.053042173 1.297403e-38
0.057127476 0.045800984 0.050059676 1.3251323e-38
0.05653736 0.048081249 0.048847497 1.34382e-38
0.053159475 0.043028772 0.052946985 1.3435717e-38
0.052743554 0.046068788 0.05124718 1.3805577e-38
0.053622812 0.049471527 0.04769522 1.3711581e-38
0.052846462 0.051997155 0.045875371 1.371375e-38
0.050121546 0.046389222 0.051166177 1.3530096e-38
0.049968421 0.049997151 0.049183011 1.3529347e-38
0.049538881 0.053043976 0.046939611 1.3713746e-38
0.049433768 0.055445507 0.044304311 1.3346045e-38
0.049507201 0.058489621 0.041863918 1.3070174e-38
0.049434006 0.062568247 0.040293872 1.3716261e-38
0.050121754 0.066501647 0.039422274 1.3804861e-38
0.050347716 0.070284843 0.038069546 1.3530044e-38
0.050485313 0.07309854 0.036677361 1.3255971e-38
0.051994085 0.10138404 0.026874483 1.3254923e-38
0.052885175 0.10465282 0.026701629 1.3808813e-38
0.051791579 0.1079638 0.027314126 1.4179033e-38
0.046740532 0.053771898 0.047178268 1.3623355e-38
0.045749992 0.056002885 0.045233488 1.2518088e-38
0.04642576 0.059225827 0.042374969 1.2519521e-38
0.046652228 0.063017979 0.041018963 1.3255657e-38
0.046703547 0.066922218 0.039934039 1.3988892e-38
0.047105074 0.070598662 0.038308263 1.3987778e-38
0.047161072 0.074039251 0.036024392 1.3621184e-38
0.047258615 0.077161849 0.03418833 1.2793238e-38
0.04667455 0.0799945 0.032722056 1.2977607e-38
0.048713148 0.10053134 0.026931405 1.1414979e-38
0.04874137 0.10557991 0.027563274 1.335034e-38
0.048756123 0.10884759 0.027034879 1.3442897e-38
0.043132275 0.057351142 0.044550478 1.1692968e-38
0.04290837 0.059683949 0.043025136 1.1596476e-38
0.043135345 0.063484728 0.041666031 1.2427333e-38
0.042760611 0.067501187 0.040294647 1.3439322e-38
0.043038785 0.070990726 0.038602114 1.3898144e-38
0.043155968 0.074400902 0.036226332 1.4174351e-38
0.043911695 0.077837855 0.034065545 1.2885765e-38
0.044044614 0.081499934 0.031928182 1.2610607e-38
0.043443084 0.084738672 0.030236423 1.1226228e-38
0.044985145 0.097203642 0.02598542 1.0031667e-38
0.044993103 0.10111952 0.02713269 1.067634e-38
0.045085847 0.10529402 0.02708596 1.1971022e-38
0.046199203 0.10869807 0.026189685 1.3442904e-38
