# .PCD v0.7 - Point Cloud Data file format
VERSION 0.7
FIELDS x y z rgb
SIZE 4 4 4 4
TYPE F F F F
COUNT 1 1 1 1
WIDTH 987
HEIGHT 1
VIEWPOINT 0 0 0 0 1 0 0
POINTS 987
DATA ascii
0.16540158 0.053916812 0.034701824 1.7862534e-38
0.16559619 0.05738622 0.032438338 1.7031352e-38
0.16569766 0.086460024 0.024674952 1.3900303e-38
0.16653678 0.089393511 0.024435639 1.3258167e-38
0.16701847 0.093010604 0.024519682 1.3167067e-38
0.16718549 0.096819878 0.024572611 1.3350739e-38
0.16701531 0.10136954 0.02435261 1.3718059e-38
0.16071308 0.050894231 0.034873486 1.786149e-38
0.16109818 0.053822443 0.033568144 1.7401205e-38
0.16200507 0.057532907 0.030936599 1.6754755e-38
0.16332132 0.086365223 0.023859143 1.288867e-38
0.16312706 0.089063138 0.023539126 1.2889749e-38
0.16290456 0.092948645 0.023916543 1.2890826e-38
0.16282976 0.096787006 0.02355659 1.2983756e-38
0.16282529 0.10035135 0.023530185 1.3259972e-38
0.15835011 0.051413804 0.033912063 1.7677801e-38
0.15752107 0.053679734 0.032340109 1.7124978e-38
0.15825889 0.057661861 0.030085385 1.6389208e-38
0.15844917 0.061552465 0.028203964 1.6200873e-38
0.15811557 0.06456551 0.027349651 1.5740989e-38
0.15975681 0.086223006 0.022635281 1.261317e-38
0.15971968 0.088762343 0.022364199 1.2705362e-38
0.15919778 0.092897847 0.022983015 1.2982663e-38
0.158943 0.096864015 0.023011863 1.3443287e-38
0.15906367 0.099938199 0.022303104 1.3535843e-38
0.1537641 0.054260924 0.031415582 1.7123182e-38
0.15424848 0.057762459 0.029823899 1.6388125e-38
0.15482369 0.061828375 0.027944684 1.5925016e-38
0.1552844 0.065323234 0.026406705 1.5188901e-38
0.15433121 0.068895891 0.024954915 1.4360575e-38
0.15442735 0.071344107 0.024390459 1.4452042e-38
0.15523997 0.081968814 0.022080302 1.3625503e-38
0.15575343 0.085056245 0.021662474 1.3532593e-38
0.1560629 0.088680148 0.021334946 1.3349276e-38
0.15571249 0.092693865 0.021560431 1.3442199e-38
0.15540725 0.096689939 0.021685123 1.3534389e-38
0.15627065 0.09962213 0.021394134 1.3351813e-38
0.15012789 0.054462075 0.030263901 1.7121727e-38
0.15043235 0.05774954 0.029114485 1.6110814e-38
0.15107077 0.061788529 0.02711302 1.5281083e-38
0.15139863 0.065364689 0.025870979 1.454389e-38
0.15186295 0.068854511 0.024335384 1.4084343e-38
0.15196127 0.072555751 0.023586452 1.426909e-38
0.15195468 0.07670708 0.022327483 1.4360924e-38
0.15238965 0.081071228 0.02141434 1.4177985e-38
0.15216881 0.084980071 0.021348238 1.4360568e-38
0.1522674 0.088688284 0.020597637 1.4086481e-38
0.15200135 0.092643499 0.020625174 1.3718447e-38
0.15192473 0.096430525 0.020639777 1.3534401e-38
0.14681381 0.058074459 0.028210759 1.6111915e-38
0.1472666 0.061774522 0.026377976 1.4269104e-38
0.14768893 0.065300792 0.024939597 1.3531901e-38
0.14778706 0.069007128 0.024189234 1.2613169e-38
0.14802444 0.072632656 0.023144901 1.2979799e-38
0.14810133 0.076939508 0.021488845 1.3442205e-38
0.14799815 0.081049591 0.020473778 1.3349651e-38
0.14812377 0.084733218 0.020079434 1.3808846e-38
0.14841926 0.088726461 0.019955158 1.4178694e-38
0.14814824 0.092685372 0.019980013 1.3994298e-38
0.14934614 0.095253378 0.020017028 1.3809918e-38
0.14274159 0.061799496 0.025681078 1.1229124e-38
0.14292151 0.065468103 0.024757206 1.0493394e-38
0.14310151 0.069135502 0.023833692 9.2066122e-39
0.1434584 0.072699219 0.022544444 9.6672246e-39
0.14346591 0.076751918 0.021297216 1.0496264e-38
0.14341152 0.081142843 0.019919753 1.1049439e-38
0.14374265 0.08499226 0.019240856 1.2245828e-38
0.14415988 0.088613331 0.019116461 1.3257818e-38
0.14473745 0.091693208 0.019260049 1.39936e-38
0.13890785 0.062097073 0.024436116 1.0488715e-38
0.13863876 0.065360323 0.023543417 9.8462082e-39
0.13878363 0.069049329 0.0226928 7.9097231e-39
0.13907126 0.072655797 0.021550059 6.8959607e-39
0.13938335 0.076873034 0.020266771 7.358371e-39
0.13969555 0.081086725 0.018984199 7.546386e-39
0.13976869 0.08475554 0.018657386 8.4654528e-39
0.14070141 0.087541997 0.018849671 9.2005067e-39
0.13639647 0.06895408 0.021873236 1.1688987e-38
0.13607353 0.072869986 0.020802021 1.0858854e-38
0.13585168 0.077103883 0.019471109 7.5477439e-39
0.13568574 0.081203163 0.01862812 6.6258352e-39
0.13561553 0.084474385 0.017803907 7.8211442e-39
0.13473356 0.087303907 0.016800821 9.2008472e-39
0.15977073 0.072900876 0.024173558 1.4269093e-38
0.1787089 0.077138901 0.03098309 1.3349285e-38
0.18607113 0.069497898 0.037174821 1.4547076e-38
0.18225639 0.06728974 0.035313249 1.4821893e-38
0.17922375 0.087847173 0.031854272 1.4179771e-38
0.17877716 0.085518897 0.031898201 1.4547106e-38
0.20223245 0.050379694 0.05401212 1.7308663e-38
0.20134372 0.05282554 0.052420259 1.8325673e-38
0.20311466 0.055507228 0.050893664 1.6664324e-38
0.19782819 0.052470312 0.050978661 2.0723823e-38
0.20011239 0.10669965 0.038045883 1.5469428e-38
0.19992185 0.11070521 0.038087845 1.6299898e-38
0.19322665 0.050020367 0.050920129 2.1457835e-38
0.19423027 0.052326769 0.049743354 2.173297e-38
0.19770263 0.1079357 0.036167443 1.6388874e-38
0.19646096 0.11119293 0.035865664 1.7311538e-38
0.18991238 0.049579352 0.049857795 2.1180176e-38
0.19063294 0.052183241 0.048508346 2.0996498e-38
0.19313997 0.11196855 0.034296274 1.8235662e-38
0.19215016 0.11420532 0.034851074 1.8972508e-38
0.18645239 0.045427069 0.049651086 2.1178367e-38
0.18677199 0.04840374 0.048431635 2.0997587e-38
0.1874989 0.051157266 0.046878576 2.0624853e-38
0.18960318 0.11177427 0.032913566 1.7865807e-38
0.1889275 0.1145708 0.033623874 1.8324266e-38
0.18212235 0.044999748 0.047984719 2.1088686e-38
0.18312269 0.047905177 0.046088755 2.1178014e-38
0.18498757 0.050473928 0.045723617 2.0717031e-38
0.18564744 0.11125168 0.031100452 1.5838221e-38
0.18520378 0.11460897 0.031816006 1.6852e-38
0.1781866 0.044382572 0.046504259 2.0626968e-38
0.17873305 0.04660368 0.044824064 2.0717379e-38
0.18178988 0.11109778 0.029776037 1.5285757e-38
0.18091288 0.11488514 0.03035444 1.574709e-38
0.17466958 0.044193983 0.045066714 2.0350748e-38
0.17501637 0.046529025 0.043892801 2.0257494e-38
0.17783159 0.11176085 0.028216422 1.5191764e-38
0.17741129 0.11402093 0.028966606 1.5379017e-38
0.17098641 0.044095293 0.044032097 1.9705364e-38
0.17150807 0.046967968 0.042365432 2.0070216e-38
0.17381331 0.11072236 0.027731538 1.4824771e-38
0.17473894 0.11351067 0.028873324 1.50081e-38
0.16734394 0.043974102 0.042896509 1.9336948e-38
0.16812971 0.047267362 0.040963352 1.9518489e-38
0.17048711 0.107363 0.026698232 1.3720577e-38
0.17024234 0.10988815 0.026946723 1.4456686e-38
0.16395003 0.044838071 0.041849852 1.9058577e-38
0.16410542 0.047424346 0.040305138 1.8964578e-38
0.16683912 0.10578075 0.025796831 1.3902467e-38
0.16633371 0.1088472 0.026112676 1.4364869e-38
0.16126043 0.045039564 0.040850997 1.8781622e-38
0.16028851 0.047396228 0.03956902 1.8687642e-38
0.16044551 0.049494773 0.037297666 1.8228836e-38
0.16133076 0.10248236 0.024658203 1.372023e-38
0.16265002 0.10513619 0.024959028 1.3904618e-38
0.16284657 0.10912111 0.025021732 1.4182263e-38
0.15629613 0.047985524 0.038222611 1.8596175e-38
0.15584603 0.050559074 0.03622967 1.7953313e-38
0.15833783 0.10236298 0.023630798 1.3903905e-38
0.15858495 0.1051736 0.023822367 1.3996466e-38
0.15869245 0.10885528 0.024127841 1.4271956e-38
0.15240034 0.048391521 0.036903322 1.8413939e-38
0.15216845 0.050699532 0.0355317 1.7768207e-38
0.1528092 0.052884474 0.033772886 1.7399416e-38
0.15417951 0.1014778 0.022741556 1.3719138e-38
0.15430361 0.10507831 0.022993505 1.3903912e-38
0.1541315 0.10774787 0.023005903 1.3904971e-38
0.1485256 0.051209718 0.034302175 1.7492333e-38
0.14907193 0.053320706 0.032781839 1.7307935e-38
0.14981234 0.098328471 0.021606624 1.3719871e-38
0.15074155 0.10109943 0.022224724 1.3995369e-38
0.15043202 0.10512996 0.022339523 1.4454919e-38
0.1450291 0.051494092 0.033542335 1.7401582e-38
0.1454885 0.053927138 0.031416893 1.6940956e-38
0.14517286 0.056274131 0.030248046 1.6479976e-38
0.14712164 0.097218484 0.021199942 1.4361291e-38
0.1470353 0.10098295 0.021609664 1.4454908e-38
0.14738154 0.10377312 0.021594107 1.4638915e-38
0.14113873 0.051647678 0.032131195 1.6297028e-38
0.14170656 0.053880155 0.030576587 1.537722e-38
0.14207265 0.057227969 0.028920293 1.4178314e-38
0.14333779 0.093942225 0.020610392 1.371809e-38
0.14326289 0.097201347 0.020899713 1.3811331e-38
0.14305741 0.10051271 0.020864367 1.3350709e-38
0.13873717 0.051551849 0.031306624 1.4544584e-38
0.13772845 0.053929746 0.030127406 1.3347466e-38
0.13837504 0.05800952 0.028149188 1.1776931e-38
0.13758495 0.060897201 0.026438892 1.1496016e-38
0.13929904 0.08984375 0.0205127 9.7558063e-39
0.1393972 0.093691081 0.021103323 1.132241e-38
0.14010176 0.096483469 0.020805597 1.1970654e-38
0.13476139 0.054110587 0.029277444 1.3622633e-38
0.1343455 0.058089405 0.027795255 1.3806649e-38
0.13446599 0.06210272 0.025478184 1.3532584e-38
0.1339221 0.065585762 0.024271607 1.380917e-38
0.13373384 0.069363683 0.023009598 1.3626539e-38
0.13356772 0.072743535 0.022124887 1.0592035e-38
0.13340157 0.076123402 0.021239996 5.991955e-39
0.13589621 0.086382359 0.019613147 8.5565484e-39
0.13187253 0.059924036 0.026836514 1.3075551e-38
0.13116679 0.061995223 0.025808811 1.2890099e-38
0.13135374 0.065826729 0.024122059 1.2794658e-38
0.13164547 0.06945169 0.022976339 1.1599682e-38
0.13164473 0.073238134 0.022413194 6.4396769e-39
0.1310437 0.077003419 0.02164346 2.8487179e-39
0.1034804 0.10016887 0.0069745779 1.8962787e-38
0.10391423 0.10358283 0.0062931776 1.8321029e-38
0.10372329 0.10635431 0.005548358 1.9057166e-38
0.10109246 0.099495858 0.0058876872 1.8503254e-38
0.10136214 0.10306895 0.0051549077 1.583033e-38
0.09777844 0.099120349 0.0044919252 1.785536e-38
0.098087072 0.10273176 0.0033553243 1.491085e-38
0.098003685 0.10710719 0.0030480623 1.4914834e-38
0.094953567 0.096740782 0.0048018098 1.5737764e-38
0.094129384 0.099256292 0.003623724 1.5645558e-38
0.094324708 0.10268493 0.0024012327 1.6018274e-38
0.094123244 0.10665581 0.0018430948 1.5833882e-38
0.093582153 0.10995185 0 1.6580085e-38
0.091472715 0.099689782 0.002851963 1.5278572e-38
0.090601563 0.10294878 0.001747787 1.5464395e-38
0.091175914 0.10739765 0.00086301565 1.5743842e-38
0.17150807 0.046967968 0.042365432 2.0070216e-38
0.16397238 0.08789362 0.02527976 1.4270171e-38
0.1837258 0.079026848 0.032272875 1.3625157e-38
0.15957451 0.069921687 0.028641403 1.3715546e-38
0.15379274 0.076160759 0.026142836 1.2610637e-38
0.18108892 0.09916757 0.026640475 1.381135e-38
0.19988349 0.047237575 0.057215631 1.7682119e-38
0.20003316 0.049430221 0.056052446 1.7772161e-38
0.20041253 0.051995084 0.055151284 1.8139112e-38
0.20228639 0.11553803 0.041777253 1.713255e-38
0.19607076 0.046573699 0.056575894 2.0165289e-38
0.19658878 0.049438447 0.054788947 2.0353283e-38
0.19913542 0.11525257 0.040190339 1.7037842e-38
0.1993147 0.11825976 0.040742874 1.9619678e-38
0.19094691 0.043372393 0.056093454 2.0813887e-38
0.19248299 0.045773193 0.055323482 2.099758e-38
0.19319794 0.048907146 0.053514302 2.1641512e-38
0.19544408 0.11549568 0.039099634 1.7864367e-38
0.19390324 0.11866513 0.038733125 1.8971443e-38
0.18821675 0.042952821 0.055232048 2.0720984e-38
0.18913524 0.0454707 0.053368866 2.1183032e-38
0.18968734 0.048346177 0.052256405 2.1457123e-38
0.19182992 0.11633168 0.03726548 1.8602643e-38
0.19173378 0.11870286 0.037957966 1.9062191e-38
0.18502524 0.041862562 0.053419352 1.989231e-38
0.18566772 0.043973684 0.05190587 2.0996475e-38
0.18874362 0.11696026 0.035423577 1.8692336e-38
0.18808758 0.11985554 0.035436451 1.9703973e-38
0.18743041 0.12275586 0.035447836 2.0258575e-38
0.18147478 0.041609794 0.052454293 1.9892672e-38
0.18205461 0.04382953 0.050665379 2.0996833e-38
0.18492904 0.11703664 0.033785939 1.7678182e-38
0.18470907 0.11979845 0.034000635 1.7956205e-38
0.17630461 0.039060533 0.051977515 1.8510448e-38
0.17715976 0.041490972 0.051231921 1.9707897e-38
0.1825203 0.11694054 0.032958984 1.6023322e-38
0.18075415 0.11915413 0.032519877 1.639066e-38
0.17272106 0.037700832 0.050364375 1.869445e-38
0.17344338 0.041054875 0.048545122 1.9706832e-38
0.17649844 0.11670029 0.030891538 1.5377946e-38
0.17613983 0.11892666 0.031490326 1.5562343e-38
0.16917643 0.037441373 0.049372792 1.8785926e-38
0.16978687 0.040932298 0.047404945 1.9061445e-38
0.17267582 0.11544779 0.030314445 1.4823704e-38
0.17225444 0.11857539 0.030929923 1.4824786e-38
0.16639799 0.037681386 0.048544705 1.9062885e-38
0.16600034 0.040875271 0.046565533 1.8967809e-38
0.16879225 0.1142717 0.029444396 1.4639659e-38
0.16877246 0.11753824 0.030135453 1.4365239e-38
0.1622453 0.041916639 0.046315312 1.8783426e-38
0.16248482 0.043587372 0.044032574 1.8967808e-38
0.16606638 0.11132868 0.028521121 1.5099211e-38
0.16521835 0.114059 0.028521836 1.4824063e-38
0.16488743 0.11688621 0.028923035 1.4824436e-38
0.15953958 0.042119324 0.045310438 1.8780551e-38
0.15891525 0.044071078 0.042844415 1.8596876e-38
0.1615572 0.11394858 0.02737689 1.4457768e-38
0.15533984 0.044146717 0.041880965 1.8780925e-38
0.15570453 0.046494812 0.040710211 1.8962804e-38
0.15703356 0.11096829 0.02541995 1.4179047e-38
0.15808332 0.11365458 0.026222229 1.4456709e-38
0.15119025 0.044146389 0.040679812 1.8872052e-38
0.15132093 0.047145814 0.039003372 1.8779852e-38
0.15368593 0.11034912 0.024544835 1.3904607e-38
0.15371722 0.11310841 0.025436163 1.418086e-38
0.14698172 0.043982148 0.039816558 1.8504324e-38
0.14727649 0.047421947 0.03762877 1.8321015e-38
0.14742008 0.049880832 0.036957443 1.7768211e-38
0.14966738 0.10950604 0.023418427 1.3904614e-38
0.14983132 0.11337012 0.024058402 1.4273052e-38
0.14299661 0.044689953 0.038841009 1.8228469e-38
0.14324394 0.047483385 0.037278235 1.7860408e-38
0.14358553 0.05022341 0.035519898 1.7585982e-38
0.14469749 0.10304298 0.023001492 1.4088282e-38
0.14591455 0.10946181 0.022466898 1.454817e-38
0.14583993 0.11276802 0.022769094 1.4549263e-38
0.1398083 0.047884226 0.036571741 1.7402636e-38
0.14007688 0.050282776 0.034629345 1.7128569e-38
0.14228874 0.10294688 0.022174537 1.3073055e-38
0.14187175 0.10578717 0.022663116 1.2980519e-38
0.14260387 0.10885149 0.022656322 1.3811356e-38
0.14299726 0.1122852 0.022318661 1.4458151e-38
0.13516074 0.04785651 0.035300374 1.4821177e-38
0.1363118 0.050606579 0.033266068 1.4453103e-38
0.13708153 0.092828274 0.022809267 1.0214647e-38
0.13809553 0.098237127 0.021845281 1.1414976e-38
0.13843751 0.1016902 0.021605611 1.1506789e-38
0.13788441 0.10493648 0.022309721 1.150859e-38
0.13325733 0.048526093 0.034464598 1.4265852e-38
0.13273805 0.050916374 0.032608688 1.3804484e-38
0.13224703 0.053921193 0.030612528 1.4173998e-38
0.13342872 0.090741292 0.023118079 9.9405451e-39
0.13443264 0.09415707 0.022274733 1.1046897e-38
0.13453072 0.097914234 0.021511972 1.1690475e-38
0.1342099 0.10146607 0.021238804 1.123346e-38
0.13021815 0.051902384 0.031477988 1.2243295e-38
0.12963903 0.054399043 0.030844569 1.0952566e-38
0.13022554 0.058220789 0.028847933 1.1600442e-38
0.12839192 0.062913001 0.027779043 9.9466982e-39
0.12883216 0.0664832 0.026336253 9.8555535e-39
0.12897831 0.070205599 0.025477946 7.8261454e-39
0.12912449 0.073927999 0.024619639 4.7772689e-39
0.13129485 0.090694785 0.023464262 9.8501557e-39
0.13144141 0.094428316 0.022603393 1.1506818e-38
0.13161245 0.098784089 0.021599054 1.2243289e-38
0.13171017 0.10127312 0.021025181 1.18799e-38
0.12684169 0.063677788 0.027951658 7.5406225e-39
0.12718514 0.066669852 0.026797354 6.9002795e-39
0.12718403 0.070478529 0.026228845 4.1333484e-39
0.12701121 0.073749334 0.026093841 2.3920655e-39
0.12369412 0.11213632 0.015539527 1.1965271e-38
0.12125373 0.11141768 0.014853537 1.3897408e-38
0.11495751 0.10903642 0.013212562 1.8964547e-38
0.11001548 0.10165012 0.01327306 1.6291258e-38
0.11013764 0.10476139 0.012555659 1.9242248e-38
0.11088824 0.108519 0.011902273 2.2744568e-38
0.11098596 0.11100803 0.01132828 1.8862545e-38
0.1078214 0.10103478 0.011715949 1.9795022e-38
0.10829777 0.10430938 0.010686398 2.0532653e-38
0.10818279 0.10820085 0.010299146 2.321024e-38
0.10385346 0.098297864 0.011916757 2.1640073e-38
0.104693 0.10034245 0.010020494 2.0804179e-38
0.1050764 0.10386275 0.0090838075 2.0162405e-38
0.10498592 0.10779324 0.0083026886 2.2099962e-38
0.1048885 0.11111212 0.0075175166 2.2656716e-38
0.098874986 0.094371557 0.01111865 2.1268041e-38
0.10036135 0.096647829 0.0097019672 2.1452785e-38
0.10184479 0.09885557 0.0088945627 2.0710919e-38
0.10283673 0.108806 0.0068125129 2.0344336e-38
0.10148892 0.11175621 0.0057829618 2.2010636e-38
0.095977873 0.094182253 0.0098699927 1.9608522e-38
0.096516728 0.095849127 0.0082924366 1.9425915e-38
0.097290516 0.11205633 0.0047523975 1.9064353e-38
0.092972726 0.093693644 0.0075678825 1.2052469e-38
0.092124462 0.096096292 0.0070892572 1.3156997e-38
0.09160763 0.098447144 0.0053798556 1.4082181e-38
0.093201756 0.10842159 0.0035046339 1.5836406e-38
0.093076319 0.11183335 0.0034728646 1.7772156e-38
0.089333326 0.097097278 0.0070834756 1.2974736e-38
0.088896483 0.099400878 0.0041895509 1.4266925e-38
0.088976055 0.10288462 0.0033659935 1.4914101e-38
0.08908096 0.10697013 0.0029486418 1.4548906e-38
0.089178562 0.11085287 0.0025780797 1.6206982e-38
0.086838871 0.099495754 0.003439784 1.3992474e-38
0.086407185 0.10381451 0.0022317171 1.3348169e-38
0.087131172 0.10694054 0.0017232299 1.3074151e-38
0.087228626 0.10942212 0.0011510253 1.3993588e-38
0.17078924 0.080026418 0.027531505 1.3531518e-38
0.15858865 0.072746873 0.027051628 1.2612444e-38
0.14815733 0.071266294 0.025162578 1.279537e-38
0.14583993 0.11276802 0.022769094 1.4549263e-38
0.1857442 0.11927179 0.038757324 1.9712951e-38
0.19350666 0.031412095 0.064274013 7.1822558e-39
0.19407558 0.035601333 0.063450933 7.546372e-39
0.19452515 0.039185986 0.061765969 1.2063224e-38
0.19516347 0.042649508 0.059572756 1.786794e-38
0.19548793 0.045011461 0.058384538 1.9524228e-38
0.19711657 0.11725225 0.041301429 1.8146343e-38
0.1980738 0.12032238 0.04151082 2.0538767e-38
0.19770871 0.12370382 0.042654216 2.2018548e-38
0.19069265 0.03914696 0.06102705 1.3723133e-38
0.19164687 0.042371139 0.058489859 1.8790623e-38
0.19514754 0.11984026 0.039973557 1.9986319e-38
0.19457699 0.12371585 0.040457129 2.1926009e-38
0.18726999 0.039347738 0.059665799 1.6577944e-38
0.18834402 0.041490957 0.056722701 1.8784894e-38
0.1912145 0.12075001 0.038362622 2.0537313e-38
0.19094199 0.12293772 0.038819849 2.0815703e-38
0.18358567 0.039023057 0.057511449 1.8327482e-38
0.18566293 0.040886223 0.05592382 1.9062548e-38
0.18748511 0.12425472 0.038365662 2.0720632e-38
0.18024372 0.038454697 0.056055725 1.8419679e-38
0.18348312 0.12410772 0.036625862 1.8603005e-38
0.1830819 0.12641025 0.03737241 1.8876373e-38
0.17558104 0.035800934 0.05687201 1.6483918e-38
0.17704621 0.037814751 0.054253995 1.7497725e-38
0.17973621 0.12343575 0.035285652 1.7034592e-38
0.17943637 0.1262648 0.036120832 1.7771812e-38
0.17222744 0.035026491 0.054108679 1.6577201e-38
0.17424119 0.037112132 0.052813649 1.7587387e-38
0.1758824 0.1229375 0.03379935 1.6113733e-38
0.17639843 0.12614359 0.035077751 1.703354e-38
0.16796297 0.034686178 0.053210914 1.6757297e-38
0.17064834 0.11992946 0.031301618 1.4729722e-38
0.17128664 0.12251586 0.032294035 1.5652026e-38
0.16479474 0.035132125 0.0525015 1.8136258e-38
0.16410848 0.037370235 0.049608052 1.8509366e-38
0.16791412 0.11950926 0.0304389 1.4731868e-38
0.16767097 0.12265508 0.031916142 1.5744575e-38
0.16080531 0.037701845 0.049497366 1.8599046e-38
0.16124508 0.040409788 0.047418773 1.8690876e-38
0.16445434 0.11888728 0.029680252 1.5192145e-38
0.16382012 0.12212735 0.030747652 1.5558763e-38
0.15681651 0.0377267 0.049050391 1.8874194e-38
0.15772974 0.040860623 0.046067357 1.8780919e-38
0.16039976 0.11871263 0.029431462 1.491663e-38
0.1598461 0.12173331 0.030311465 1.565058e-38
0.15331566 0.037751809 0.047853589 1.9150052e-38
0.15407908 0.040963754 0.045236886 1.8688012e-38
0.15598422 0.11561118 0.027179539 1.4731861e-38
0.15693906 0.11842948 0.027795076 1.5098855e-38
0.15620056 0.12158786 0.029059887 1.556376e-38
0.14928615 0.038189262 0.047004104 1.9150417e-38
0.14999655 0.04103598 0.044986904 1.868944e-38
0.15356466 0.11551467 0.026348889 1.4548565e-38
0.15312672 0.11842243 0.026934326 1.5100297e-38
0.15268955 0.12133774 0.027518749 1.5930748e-38
0.14627278 0.038693994 0.0458166 1.8780548e-38
0.14631203 0.0409123 0.04383719 1.8319929e-38
0.14933047 0.11534572 0.024895072 1.4640394e-38
0.1496712 0.11813951 0.025299847 1.5192508e-38
0.14890951 0.12129697 0.026556611 1.5930053e-38
0.14248842 0.040853828 0.042985201 1.7858958e-38
0.14250961 0.043146655 0.040134728 1.7954385e-38
0.14568892 0.11488932 0.02372086 1.491732e-38
0.14589891 0.11809802 0.024340808 1.5469796e-38
0.13945562 0.041684091 0.04231596 1.7953663e-38
0.13815832 0.044232562 0.039663017 1.7676736e-38
0.13798511 0.046865299 0.037628293 1.7400838e-38
0.14088425 0.11044589 0.023110569 1.2707874e-38
0.14100358 0.11447507 0.023618758 1.3260323e-38
0.14139688 0.11805215 0.024044156 1.2522791e-38
0.1339986 0.044969589 0.03940469 1.555874e-38
0.13577539 0.046984524 0.036818862 1.5558016e-38
0.1375244 0.10691047 0.022788465 1.1139806e-38
0.13683724 0.11046669 0.023732305 9.7568643e-39
0.13697839 0.11407112 0.024110198 9.111862e-39
0.13782546 0.11710483 0.023667812 7.7278668e-39
0.1318112 0.045397803 0.037983596 1.4539933e-38
0.13094318 0.047731847 0.036484718 1.3806674e-38
0.13045374 0.049883246 0.034231365 1.3623344e-38
0.13437271 0.10354924 0.022497237 1.1414974e-38
0.13357818 0.10621409 0.022290766 1.1692639e-38
0.13305458 0.11041981 0.022770882 7.8225735e-39
0.13262039 0.11370471 0.022008061 6.3524853e-39
0.12787998 0.049209893 0.036752105 1.2705343e-38
0.12883016 0.050667107 0.03455478 1.2519514e-38
0.1259408 0.055890396 0.033890307 9.8422496e-39
0.12686038 0.0592511 0.031488895 8.8328312e-39
0.12882107 0.092706829 0.025363922 1.0308963e-38
0.12898722 0.09506312 0.024302423 1.1322059e-38
0.12959012 0.098203033 0.022115409 1.196709e-38
0.12975091 0.10229823 0.021171153 1.1968888e-38
0.12975073 0.10619906 0.021426737 1.261281e-38
0.12970486 0.11007513 0.02094686 9.0204034e-39
0.13029832 0.11335687 0.02040261 7.2719025e-39
0.12383944 0.060551584 0.03208673 7.634253e-39
0.12363535 0.063650817 0.030790687 7.9997537e-39
0.12396446 0.067340195 0.028942704 7.3561934e-39
0.12396288 0.071166128 0.028369725 5.9779477e-39
0.12458327 0.075010359 0.027975559 4.7837373e-39
0.12669128 0.077110171 0.02624768 4.5953916e-39
0.12488726 0.095306456 0.024306893 1.1040787e-38
0.12562412 0.098686695 0.022289634 1.1779106e-38
0.12646028 0.10198915 0.020084858 1.1967446e-38
0.12650925 0.10579358 0.019413948 1.2981221e-38
0.12655744 0.10959882 0.01874274 1.1415339e-38
0.12685174 0.11196007 0.017785847 9.5725066e-39
0.12178805 0.098666817 0.021423876 1.1778745e-38
0.12283093 0.10184434 0.018838763 1.1690146e-38
0.12297773 0.10558343 0.017976642 1.436415e-38
0.12312457 0.10932252 0.01711452 1.4453081e-38
0.12364197 0.11224683 0.016582549 1.1965989e-38
0.11881134 0.096346766 0.022028208 1.2053885e-38
0.11799672 0.098614484 0.020460844 1.1872009e-38
0.11920163 0.10169955 0.017592728 1.1503951e-38
0.11914632 0.10556865 0.017111123 1.537831e-38
0.11933795 0.1090159 0.015852451 1.7490848e-38
0.11898822 0.11164632 0.015086055 1.4355517e-38
0.11435485 0.098469168 0.019210279 1.2240419e-38
0.11473805 0.10167265 0.016567409 1.2604182e-38
0.11511421 0.1052697 0.015276909 1.6205926e-38
0.11633024 0.10855369 0.014903486 1.9245792e-38
0.10919464 0.095576867 0.018548965 1.3620831e-38
0.11018378 0.09825328 0.01760906 1.4267645e-38
0.11093923 0.10127853 0.015089333 1.4817937e-38
0.11148489 0.10512491 0.014030874 1.7768205e-38
0.11223656 0.10888815 0.013376474 2.1449869e-38
0.10613218 0.094821677 0.017457843 1.5555502e-38
0.10632926 0.097850084 0.01543963 1.8503939e-38
0.10765982 0.099994659 0.013934255 1.8595043e-38
0.10254848 0.094649851 0.01629281 1.7763528e-38
0.10330325 0.096709818 0.013199031 2.0904639e-38
0.098973602 0.093708292 0.014036417 2.0711282e-38
0.094848365 0.091351449 0.013700068 2.0162793e-38
0.09540987 0.092952907 0.012418568 2.0253544e-38
0.0918369 0.09091109 0.013107181 1.5830326e-38
0.092020959 0.092943251 0.011224389 1.3986792e-38
0.17895985 0.093289882 0.028517365 1.4086855e-38
0.17982434 0.073212415 0.033744931 1.4730786e-38
0.17819354 0.075301871 0.032517016 1.5376147e-38
0.17738055 0.083558783 0.029796064 1.4178685e-38
0.17619264 0.073031276 0.032140672 1.4363078e-38
0.18134283 0.080836698 0.028610885 1.2427696e-38
0.13116679 0.061995223 0.025808811 1.2890099e-38
0.13295031 0.070794106 0.022189856 1.0585898e-38
0.19922505 0.11675617 0.040466607 1.832858e-38
0.16354126 0.10868603 0.029519439 1.5192491e-38
0.19109648 0.026225522 0.069044054 6.9056549e-39
0.19287261 0.028557576 0.06765002 6.7205532e-39
0.19379863 0.032243982 0.065262079 7.2740885e-39
0.19373529 0.035788268 0.064373314 7.7304017e-39
0.19727978 0.12606058 0.043559194 2.239346e-38
0.19611272 0.12925552 0.045320153 2.2676889e-38
0.18803751 0.025356829 0.06872046 6.0755215e-39
0.18898095 0.028529182 0.067008436 5.7056852e-39
0.1894747 0.032123171 0.065215945 7.0868372e-39
0.19241187 0.12586635 0.041887939 2.2657116e-38
0.19276923 0.12802759 0.044387937 2.2849782e-38
0.18487266 0.025210395 0.067871928 5.0610332e-39
0.18504384 0.028519392 0.066467106 6.2552814e-39
0.18542638 0.032177657 0.064982533 8.192833e-39
0.18565284 0.035911173 0.063907981 1.0311854e-38
0.18592341 0.037980229 0.061079323 1.4640429e-38
0.18997791 0.12576926 0.041052341 2.1552548e-38
0.18869603 0.12854783 0.043403149 2.2287595e-38
0.18096039 0.026006818 0.066606939 7.5510187e-39
0.1810991 0.028509542 0.065923154 8.4701065e-39
0.18156472 0.032132089 0.064234674 1.0867184e-38
0.18179245 0.035868317 0.063160002 1.4641112e-38
0.18348947 0.037883118 0.060243726 1.68531e-38
0.18543477 0.12850548 0.041266918 2.1547158e-38
0.17851204 0.025909126 0.065766335 8.8396121e-39
0.17774373 0.028576821 0.064842999 1.0312587e-38
0.17761573 0.032125749 0.063688397 1.3261739e-38
0.17832774 0.035617679 0.06139338 1.6300973e-38
0.18232422 0.12904595 0.039000034 2.0073828e-38
0.18083549 0.13177674 0.040709019 2.0627699e-38
0.17413895 0.028672844 0.063546658 1.2152886e-38
0.17398544 0.031959042 0.062326431 1.408934e-38
0.1745936 0.034871668 0.061103702 1.5745636e-38
0.1787864 0.12879166 0.037450254 1.9427727e-38
0.17766272 0.13179433 0.039040327 1.9981607e-38
0.17009136 0.029350847 0.061951876 1.243415e-38
0.17060488 0.031671539 0.060356736 1.4365588e-38
0.1715332 0.033783093 0.057749927 1.6483209e-38
0.17484075 0.128463 0.036448479 1.7681054e-38
0.17409775 0.13180688 0.037669778 1.8966758e-38
0.16714829 0.031424478 0.058592021 1.5008449e-38
0.16731825 0.033482499 0.055609703 1.6667253e-38
0.17172331 0.12504092 0.034784913 1.6203056e-38
0.17086914 0.12837371 0.03644985 1.7494497e-38
0.17076877 0.13181056 0.036928773 1.8874913e-38
0.16301876 0.031714067 0.058030486 1.602008e-38
0.16237471 0.034384668 0.055094659 1.7311886e-38
0.16624689 0.12482245 0.032904744 1.6575426e-38
0.16658771 0.1282385 0.035454988 1.7402674e-38
0.16675743 0.13121507 0.035875618 1.8600142e-38
0.15980968 0.032088697 0.057652354 1.7124628e-38
0.15903747 0.034959793 0.054501355 1.7954385e-38
0.16319215 0.12438762 0.031932473 1.6573984e-38
0.16239664 0.12831193 0.033957303 1.7953322e-38
0.16267687 0.13105226 0.034474611 1.869198e-38
0.15477914 0.03549704 0.054136217 1.8781277e-38
0.15900719 0.12435219 0.031914532 1.6664365e-38
0.15847993 0.12803006 0.032643199 1.832317e-38
0.15093803 0.035436004 0.052613556 1.9426282e-38
0.15123957 0.036596462 0.049171388 1.9334472e-38
0.15534964 0.12420626 0.030658841 1.6391748e-38
0.15481281 0.12788376 0.03138423 1.8416101e-38
0.14744309 0.035204977 0.051617384 1.9518822e-38
0.14880565 0.036499351 0.048335791 1.9334088e-38
0.1516915 0.1240603 0.029402852 1.6759076e-38
0.1510534 0.1271604 0.030414999 1.804874e-38
0.1442562 0.035455704 0.051337719 1.9242247e-38
0.14448535 0.037484244 0.047968984 1.8780181e-38
0.14786699 0.12376621 0.028538942 1.6574686e-38
0.14783674 0.12651466 0.029799819 1.7495936e-38
0.14071757 0.037838325 0.047329307 1.8413209e-38
0.14416707 0.12328196 0.027420163 1.5748526e-38
0.13651687 0.038576126 0.047116935 1.7951508e-38
0.13993424 0.1200172 0.024788797 1.0959412e-38
0.1404576 0.12252387 0.02635622 1.2246918e-38
0.13341287 0.039116532 0.046070158 1.6937019e-38
0.13320854 0.041470915 0.044636488 1.6384563e-38
0.13303119 0.04381153 0.043155372 1.5928251e-38
0.13569713 0.11525816 0.024456024 7.5434489e-39
0.13642442 0.11953318 0.025300264 8.0984387e-39
0.1369696 0.12267092 0.02672112 8.1906428e-39
0.12946516 0.042472512 0.04412812 1.5652005e-38
0.12960607 0.04451035 0.041775167 1.4913361e-38
0.12856013 0.04695797 0.038630962 1.3346775e-38
0.13257962 0.11611156 0.025323212 7.2722808e-39
0.13236994 0.11955249 0.025859177 7.5488663e-39
0.12661269 0.044990718 0.041507781 1.4726447e-38
0.12559646 0.048374623 0.039850295 1.2517731e-38
0.12529635 0.052367061 0.038695872 1.1039017e-38
0.12432122 0.054763734 0.037402868 1.0208527e-38
0.12668085 0.091580465 0.029236734 9.1075768e-39
0.12319031 0.048886448 0.04061681 1.3622618e-38
0.12268651 0.052987367 0.039073765 1.1685078e-38
0.12175453 0.056248456 0.036949992 1.0673798e-38
0.12189245 0.058887348 0.035319686 9.6593003e-39
0.12343085 0.092100024 0.029232025 9.106502e-39
0.1234107 0.093648583 0.027576685 1.0026634e-38
0.1196911 0.053154141 0.038338125 1.3989953e-38
0.11788791 0.056358188 0.036782265 1.2519856e-38
0.11806417 0.060362965 0.034731925 1.1230543e-38
0.11861157 0.064580083 0.032987535 1.0033796e-38
0.11885968 0.068300456 0.031923831 8.8331185e-39
0.11855912 0.072311938 0.031925499 7.6378417e-39
0.11876401 0.075272188 0.03178823 6.9031424e-39
0.11943266 0.092278957 0.027867258 1.0026292e-38
0.120222 0.093857855 0.025311291 1.085389e-38
0.11357021 0.05290994 0.036236703 1.6387059e-38
0.11370817 0.056423277 0.035426617 1.4453456e-38
0.11456335 0.06041497 0.034752846 1.2704976e-38
0.11465275 0.064915746 0.033684313 1.1599715e-38
0.11468935 0.069072276 0.03249985 1.0956521e-38
0.11480492 0.072014749 0.03182137 1.0864326e-38
0.11566103 0.07502979 0.03156805 1.0221102e-38
0.11533231 0.091872439 0.026790917 1.1224101e-38
0.11645585 0.094815701 0.023846388 1.1685806e-38
0.11109877 0.087799788 0.026835799 1.1779077e-38
0.11176574 0.091021881 0.025437236 1.1870186e-38
0.11276701 0.094934374 0.022869408 1.1963106e-38
0.10626376 0.084728658 0.025879323 1.2792496e-38
0.10789695 0.087124884 0.025144637 1.2515917e-38
0.10845867 0.090667337 0.0235098 1.2607757e-38
0.10950235 0.094228148 0.021556854 1.2883275e-38
0.10412329 0.08703658 0.024075747 1.3710877e-38
0.10484657 0.090491474 0.022156477 1.3621559e-38
0.10630515 0.092888057 0.01954633 1.3805946e-38
0.10124901 0.087792516 0.022997022 1.4447344e-38
0.1009711 0.090463817 0.021278501 1.4263336e-38
0.10178643 0.092939258 0.018808901 1.5645551e-38
0.095394731 0.088072687 0.02122432 1.9059674e-38
0.097092211 0.09043622 0.020399332 1.8411749e-38
0.09831506 0.092434675 0.01727134 1.9423014e-38
0.093109131 0.087887511 0.020099759 2.0433636e-38
0.09378016 0.090079606 0.017987013 2.0806345e-38
0.089506984 0.087381989 0.018770158 1.8866623e-38
0.090168387 0.089451462 0.016865313 1.7302194e-38
0.088038683 0.09286508 0.015278935 8.9232248e-39
0.087089628 0.090163946 0.017417967 1.250662e-38
0.08618018 0.093806401 0.015843749 1.0118446e-38
0.18132488 0.063740462 0.035665274 1.6111565e-38
0.14006889 0.1145528 0.021778405 1.4454202e-38
0.12293842 0.050936908 0.039845288 1.260775e-38
0.19171032 0.13099872 0.046915591 2.2577875e-38
0.19188772 0.13408458 0.04731214 2.2583619e-38
0.18834639 0.13118023 0.045683444 2.2841845e-38
0.18783873 0.1336554 0.045805991 2.2663213e-38
0.18011248 0.024480335 0.069038749 6.9049248e-39
0.1849824 0.13136175 0.044451296 2.1732983e-38
0.18419892 0.13395581 0.044356823 2.24709e-38
0.18298686 0.13668063 0.043534875 2.2847604e-38
0.17617203 0.024857603 0.067917943 8.5612484e-39
0.17540963 0.028051138 0.066323996 1.0685316e-38
0.18049562 0.13420561 0.04307884 2.1271287e-38
0.17319909 0.024927571 0.067032516 9.4835564e-39
0.17188087 0.027825519 0.065858841 1.1234182e-38
0.17725217 0.13438313 0.04152751 2.0534084e-38
0.16914937 0.028345317 0.064449906 1.1786994e-38
0.17320567 0.13448967 0.040254176 1.9889054e-38
0.16544724 0.029011607 0.063115835 1.2336931e-38
0.16918552 0.13446328 0.038931847 1.9613536e-38
0.17069107 0.13619009 0.039313376 2.0442216e-38
0.16188967 0.029281177 0.062337995 1.3623719e-38
0.16080046 0.030625597 0.060536504 1.5559797e-38
0.16592461 0.13324162 0.037625611 1.9426655e-38
0.15790358 0.03138417 0.059509695 1.6941328e-38
0.16176105 0.13290271 0.036691785 1.915115e-38
0.15453881 0.032367647 0.058443964 1.7860041e-38
0.15419668 0.034150913 0.057343066 1.8409626e-38
0.15778664 0.13239953 0.035320938 1.8877071e-38
0.15006295 0.032919869 0.057272732 1.9608519e-38
0.15011889 0.034353614 0.056125879 1.9518472e-38
0.15470532 0.1320658 0.034314513 1.8785594e-38
0.14637423 0.03277269 0.056006312 2.0071309e-38
0.14621612 0.033832513 0.054603159 1.9793987e-38
0.14958933 0.13028906 0.033305168 1.8875626e-38
0.14226124 0.034771383 0.05379349 1.9425929e-38
0.14573449 0.12838596 0.03186512 1.7866896e-38
0.13866976 0.036192209 0.052087486 1.8872381e-38
0.14241216 0.12788147 0.030634046 1.6023311e-38
0.13607204 0.036156014 0.051541805 1.8688344e-38
0.13531512 0.037186384 0.049934387 1.8320287e-38
0.13865188 0.12583578 0.029806316 1.1232416e-38
0.13877264 0.12776671 0.029884934 1.0402962e-38
0.13124686 0.038043141 0.048910499 1.7585236e-38
0.13456917 0.12475121 0.028920114 9.1129648e-39
0.12813511 0.038721204 0.047749698 1.7585218e-38
0.1277847 0.041221857 0.046506882 1.6756553e-38
0.13151175 0.12324391 0.028644443 7.8251071e-39
0.12515506 0.039514795 0.046866238 1.7306853e-38
0.12450847 0.042138249 0.045685709 1.657072e-38
0.12323818 0.045616806 0.043972313 1.472538e-38
0.1246357 0.088820517 0.034630835 7.4537896e-39
0.1207006 0.045791686 0.04362309 1.6200859e-38
0.12070239 0.049343795 0.042347431 1.5187777e-38
0.12022737 0.052236021 0.041291237 1.3897768e-38
0.12115031 0.081345707 0.035227299 5.3343593e-39
0.1227051 0.085091889 0.034425318 6.0701279e-39
0.12217656 0.088722393 0.033786535 7.3597989e-39
0.12271744 0.090989694 0.032335043 8.2781861e-39
0.11807603 0.046821043 0.042580843 1.7493025e-38
0.1176936 0.049588323 0.041769445 1.786289e-38
0.11699378 0.05279012 0.040117919 1.5648394e-38
0.11641568 0.055376276 0.0388152 1.4450214e-38
0.11755264 0.077821791 0.034092844 7.2697669e-39
0.11858267 0.080568731 0.034510612 6.810574e-39
0.11850202 0.088937163 0.032436669 8.4639885e-39
0.11887527 0.091455102 0.031299949 9.1983319e-39
0.11353293 0.049928218 0.04021728 1.7677069e-38
0.11400968 0.052671075 0.039093375 1.6571422e-38
0.11457402 0.055302799 0.038182795 1.4546717e-38
0.11298066 0.061553866 0.036092281 1.2704992e-38
0.11322904 0.067878425 0.034634054 1.1415713e-38
0.11347735 0.074202985 0.033175766 1.0588811e-38
0.11444908 0.077242166 0.033242464 9.2080275e-39
0.1144509 0.079560697 0.033298194 9.0228964e-39
0.11465162 0.088580266 0.031164408 1.0489766e-38
0.11555752 0.091090724 0.03005439 1.0487618e-38
0.10984421 0.049781039 0.038950801 1.703065e-38
0.11007506 0.052647769 0.037485242 1.629342e-38
0.10996854 0.056201577 0.036337197 1.5004835e-38
0.11007908 0.061027169 0.036194205 1.3441106e-38
0.11036748 0.065402925 0.034954309 1.2522397e-38
0.11037597 0.069027156 0.034026086 1.206178e-38
0.11059487 0.0731121 0.032968879 1.150322e-38
0.11071342 0.076852962 0.032519519 1.0401145e-38
0.11108202 0.079742491 0.032064259 1.049301e-38
0.11064446 0.084843487 0.030481517 1.1320604e-38
0.11185697 0.087637052 0.029755235 1.1410665e-38
0.11289522 0.090597808 0.028962791 1.1501038e-38
0.10628715 0.052547172 0.036414206 1.5738458e-38
0.10664311 0.056249321 0.035151303 1.4634264e-38
0.1064572 0.060729995 0.035078704 1.3807381e-38
0.10714111 0.065356493 0.034189284 1.2795769e-38
0.10686538 0.069501191 0.03307879 1.2150391e-38
0.10682476 0.072932541 0.032225728 1.2058189e-38
0.10770178 0.076508909 0.031661153 1.1782658e-38
0.10786092 0.080562562 0.030726492 1.1966676e-38
0.1072585 0.084195018 0.029081821 1.2149616e-38
0.102606 0.05303365 0.035600126 1.5555856e-38
0.10263687 0.056165218 0.034845531 1.4816488e-38
0.10381848 0.058900014 0.034594357 1.4172932e-38
0.10370106 0.071543127 0.031462431 1.2887238e-38
0.10286942 0.081628188 0.02870363 1.2703183e-38
0.10283008 0.083891869 0.027592301 1.3160931e-38
0.098068506 0.068788841 0.030146897 1.4173304e-38
0.098379165 0.072234213 0.029414356 1.3806685e-38
0.09901005 0.084952369 0.026528418 1.4172555e-38
0.098705292 0.087177932 0.025151312 1.4636037e-38
0.094994545 0.068666205 0.029091537 1.4448462e-38
0.095143765 0.072466493 0.028215289 1.3989268e-38
0.096255928 0.085158676 0.025505602 1.5185262e-38
0.09539336 0.087425232 0.024374962 1.6937361e-38
0.091655523 0.086732239 0.022952497 1.9057857e-38
0.08826369 0.084839806 0.022761583 1.4271978e-38
0.088111758 0.086381078 0.021460652 1.730901e-38
0.085314095 0.087884083 0.020976067 1.4352662e-38
0.083676904 0.090932786 0.019471347 1.2511257e-38
0.083128482 0.094753176 0.018525302 1.1318436e-38
0.083820581 0.097633019 0.017702997 1.1592872e-38
0.081333876 0.095946342 0.0176 1.1409224e-38
0.081096917 0.098301381 0.016336143 1.1507878e-38
0.081252098 0.10080186 0.015658677 1.288541e-38
0.077769458 0.098966092 0.015603364 1.1048712e-38
0.078458905 0.10089077 0.015376329 1.2336924e-38
0.18619832 0.074244544 0.035975218 1.5377229e-38
0.20485783 0.063528478 0.04120481 1.3624419e-38
0.11353293 0.049928218 0.04021728 1.7677069e-38
0.19036666 0.13563304 0.047484875 2.2581468e-38
0.1906383 0.13733271 0.047165334 2.3140025e-38
0.18751004 0.13594127 0.046400964 2.2575709e-38
0.18702492 0.13849175 0.046850026 2.277052e-38
0.1838159 0.13579386 0.045132637 2.2656377e-38
0.18390036 0.13866365 0.045005143 2.2670058e-38
0.18135315 0.13569562 0.044287086 2.1919544e-38
0.17970732 0.13866828 0.044551373 2.229371e-38
0.18049002 0.14178479 0.045758903 2.3131024e-38
0.17153469 0.021504268 0.069941878 8.0105437e-39
0.17086264 0.025080085 0.067621291 1.0035646e-38
0.17642765 0.13549909 0.042595983 2.0810332e-38
0.17566255 0.13867134 0.044135213 2.1736212e-38
0.16773495 0.025281906 0.068402469 1.040299e-38
0.17396489 0.13540085 0.041750431 2.0350028e-38
0.17215696 0.13829596 0.042892098 2.1089392e-38
0.16410553 0.026223332 0.067677021 1.14157e-38
0.16480538 0.02737169 0.064922452 1.2059626e-38
0.16812783 0.13789117 0.041257501 2.0074876e-38
0.16152823 0.0263457 0.066192865 1.2705355e-38
0.16042405 0.027928613 0.064545453 1.3532243e-38
0.16509211 0.13527685 0.039373636 1.9616058e-38
0.16438711 0.13721016 0.040828764 1.9800092e-38
0.15697211 0.029212274 0.063157976 1.5743131e-38
0.16050142 0.13589856 0.040140152 1.9524219e-38
0.15281093 0.029268444 0.06294471 1.7768195e-38
0.1538724 0.030735388 0.06024009 1.7861103e-38
0.15802789 0.13579988 0.039290845 1.933697e-38
0.14932451 0.029495209 0.061930358 1.9705024e-38
0.1499359 0.031340405 0.059427917 1.9701431e-38
0.15302986 0.13444971 0.03622371 1.860083e-38
0.14645469 0.029746562 0.061127663 2.0071655e-38
0.1458475 0.031696655 0.058441401 2.0163132e-38
0.14942855 0.13343474 0.036469996 1.8970344e-38
0.14162707 0.032489493 0.058099747 2.0070579e-38
0.14050162 0.034635156 0.054565847 1.9332318e-38
0.14607039 0.13308254 0.035080135 1.8696253e-38
0.1383476 0.032872438 0.057229161 1.9792929e-38
0.13734198 0.034841418 0.055213749 1.9148259e-38
0.14179963 0.13031766 0.031636059 1.4459947e-38
0.1418497 0.13261005 0.034358382 1.6118029e-38
0.13423702 0.033075675 0.056000113 1.9699657e-38
0.13358402 0.035363525 0.053966582 1.8872384e-38
0.13757548 0.13000219 0.030765891 9.5721563e-39
0.13827795 0.13235378 0.032797158 9.9434654e-39
0.13037798 0.036116675 0.05226171 1.8599383e-38
0.13303053 0.12616789 0.029554188 1.1513271e-38
0.13417423 0.12903613 0.030189812 1.1139471e-38
0.12696642 0.036602169 0.052570999 1.8599014e-38
0.12627667 0.037656397 0.04880476 1.8136591e-38
0.12998724 0.12542632 0.029593885 7.2737185e-39
0.13184896 0.12738737 0.028838873 1.0228998e-38
0.12269485 0.038622066 0.048703432 1.7951495e-38
0.12232983 0.041509941 0.046469271 1.6755829e-38
0.11843908 0.039569646 0.048834801 1.8044044e-38
0.11939859 0.042025283 0.046124518 1.7214285e-38
0.11876017 0.044534102 0.044469714 1.7123513e-38
0.12035415 0.085129917 0.03510952 6.5332444e-39
0.11474875 0.039931267 0.047443449 1.8317788e-38
0.11579764 0.04206951 0.04499352 1.7950423e-38
0.1161871 0.045539737 0.043315411 1.7583793e-38
0.11556071 0.049156308 0.042210221 1.7954738e-38
0.11695427 0.08203879 0.034664631 7.4544972e-39
0.11789143 0.085031658 0.034263968 7.3590814e-39
0.11799106 0.087568909 0.033679008 7.9133216e-39
0.11165679 0.039807916 0.046381831 1.8227723e-38
0.11139065 0.042223901 0.045092821 1.8042616e-38
0.11265314 0.045557082 0.042063415 1.7583808e-38
0.11245733 0.04839918 0.041299582 1.8043705e-38
0.11407274 0.081712723 0.03372699 9.0203936e-39
0.11419728 0.084884286 0.032995701 9.6621729e-39
0.11552829 0.087470651 0.032833397 9.4784851e-39
0.10770547 0.042957962 0.044216752 1.7948635e-38
0.10819125 0.045740008 0.04225713 1.7397263e-38
0.10876322 0.048251808 0.040031314 1.7215034e-38
0.11013734 0.081682384 0.032344878 1.0953261e-38
0.11129087 0.083923906 0.032204211 1.0952543e-38
0.10500458 0.043359071 0.043165088 1.6939149e-38
0.10436115 0.045996934 0.041982174 1.6937363e-38
0.10509062 0.048756465 0.038922191 1.6658975e-38
0.10473084 0.062973857 0.035008907 1.3438242e-38
0.10483044 0.065511078 0.034423888 1.2885078e-38
0.10554579 0.068072885 0.034050226 1.2425185e-38
0.10559905 0.07725811 0.031823933 1.2242572e-38
0.10573605 0.0807468 0.031019509 1.2425866e-38
0.10144433 0.047033608 0.041009784 1.7117448e-38
0.10103899 0.049214303 0.038640797 1.6658614e-38
0.10153684 0.05208005 0.036544025 1.592392e-38
0.10083747 0.057751983 0.034910619 1.4722866e-38
0.10208821 0.061141193 0.034523845 1.3896702e-38
0.1023677 0.065412819 0.033578396 1.3160215e-38
0.10251713 0.069218695 0.032700896 1.2977282e-38
0.10250488 0.073379993 0.031679392 1.3070907e-38
0.10281602 0.076830417 0.030945778 1.2702842e-38
0.10294056 0.08000195 0.030214548 1.2611015e-38
0.097105265 0.049791485 0.03862232 1.6934485e-38
0.097275019 0.052973732 0.036876619 1.6567863e-38
0.098006487 0.056528285 0.034935653 1.5645541e-38
0.098499238 0.060825273 0.033333838 1.490869e-38
0.098673582 0.065265447 0.032310128 1.4080387e-38
0.10005438 0.069120437 0.031855285 1.3621931e-38
0.099600554 0.073218882 0.030693293 1.3438981e-38
0.099121869 0.07668303 0.02967751 1.2887231e-38
0.09911117 0.080324173 0.028783739 1.2610997e-38
0.098566592 0.083416238 0.027835608 1.3530431e-38
0.093465984 0.053500295 0.036612213 1.7025974e-38
0.093614697 0.056690633 0.034917355 1.6107243e-38
0.094322413 0.060907722 0.032149911 1.5738448e-38
0.094363749 0.065093488 0.030830383 1.5001618e-38
0.092666149 0.068825662 0.02931875 1.4633566e-38
0.09375155 0.07298553 0.028685153 1.3990337e-38
0.095080137 0.076448172 0.028525531 1.3530791e-38
0.095133245 0.080305099 0.027819216 1.2795395e-38
0.094929963 0.084035441 0.026642084 1.4172926e-38
0.089995146 0.054209948 0.035213292 1.6751907e-38
0.089855015 0.056565821 0.033741415 1.6384566e-38
0.089978546 0.06066367 0.032323837 1.5740271e-38
0.090182245 0.065172881 0.030422986 1.5003054e-38
0.090363503 0.068892121 0.02848947 1.4449887e-38
0.090378642 0.072440892 0.027899384 1.3990345e-38
0.090371192 0.077151373 0.029194236 1.3531513e-38
0.090581834 0.080939919 0.028206408 1.2611344e-38
0.090725899 0.084220976 0.025958776 1.4355871e-38
0.085666418 0.054037243 0.033727109 1.6201227e-38
0.085821092 0.056561604 0.033043742 1.5926089e-38
0.086186975 0.060934722 0.031680763 1.5374713e-38
0.086498559 0.065328136 0.030414402 1.4913027e-38
0.08660835 0.068798274 0.028896749 1.4173669e-38
0.086561948 0.073080406 0.028300166 1.3713767e-38
0.087266862 0.076956868 0.028508365 1.3346777e-38
0.087449104 0.080569863 0.027870953 1.2703177e-38
0.086970329 0.083784893 0.025283575 1.2423387e-38
0.082724541 0.057736427 0.031784117 1.5465484e-38
0.082857966 0.061134249 0.031000674 1.5006648e-38
0.082406312 0.06535688 0.029809117 1.4544225e-38
0.082556427 0.069179416 0.028927803 1.3989273e-38
0.08292383 0.072247297 0.028307557 1.36223e-38
0.08351329 0.084682986 0.025258243 1.2885438e-38
0.083191216 0.087539881 0.021761715 1.4447366e-38
0.079503834 0.064816982 0.02891624 1.4544588e-38
0.079496473 0.085595757 0.023834527 1.4634283e-38
0.079450488 0.087836489 0.022804201 1.5187447e-38
0.079485834 0.091650546 0.020582199 1.2886858e-38
0.079832792 0.094633728 0.018790066 1.1502486e-38
0.075786144 0.085447729 0.022560775 1.4636082e-38
0.07588619 0.08799611 0.021973193 1.4357327e-38
0.075748056 0.09158434 0.020891845 1.2702466e-38
0.076125264 0.095213652 0.018116593 1.1230531e-38
0.076109827 0.098057628 0.016327739 1.0862867e-38
0.076807231 0.10249218 0.015852749 1.3070896e-38
0.073017061 0.088305682 0.020884395 1.270391e-38
0.072944343 0.091695279 0.0200302 1.1966349e-38
0.072782815 0.095329553 0.018431842 1.122986e-38
0.072547257 0.098846704 0.016431749 1.150321e-38
0.072742879 0.10228881 0.017369688 1.2332997e-38
0.069434166 0.096643984 0.017581224 1.1320995e-38
0.069740325 0.099200591 0.017064393 1.1689728e-38
0.18392509 0.082261205 0.030323267 1.2612795e-38
0.18469192 0.078260913 0.033967555 1.4270888e-38
0.16938326 0.08694461 0.025918245 1.4268371e-38
0.1426374 0.10839389 0.023687065 1.3168135e-38
0.17741159 0.14353454 0.048053324 2.32232e-38
0.17482173 0.14301333 0.047157586 2.2755752e-38
0.17544225 0.14555201 0.047409058 2.1646904e-38
0.17093965 0.14223041 0.045814931 2.1918088e-38
0.16701484 0.14180353 0.045349777 2.0167457e-38
0.16330412 0.13948449 0.043155372 1.9891933e-38
0.16409546 0.14126053 0.044451654 2.0075959e-38
0.15481052 0.026273496 0.068735957 1.4454918e-38
0.15547007 0.027936965 0.066929758 1.5189959e-38
0.15923566 0.13897383 0.042750537 1.9708978e-38
0.15101516 0.026153021 0.067606747 1.5928963e-38
0.1513541 0.0279603 0.066559196 1.7304713e-38
0.15532964 0.13756381 0.041389585 1.9245842e-38
0.14757511 0.026351139 0.066434383 1.5744925e-38
0.14755961 0.028244272 0.064714789 1.8325692e-38
0.15202779 0.13780443 0.039729536 1.8510082e-38
0.14468911 0.026602328 0.065626025 1.5928976e-38
0.14409512 0.029097319 0.063355386 1.9336607e-38
0.14321679 0.031275764 0.061787248 1.9978741e-38
0.14826664 0.13768573 0.038527429 1.8971064e-38
0.14792371 0.14061533 0.038899481 1.9798694e-38
0.14004442 0.029520378 0.062728643 1.9979461e-38
0.14073604 0.031176783 0.060935497 2.016242e-38
0.1435599 0.13463663 0.036643386 1.8882082e-38
0.1445407 0.13753664 0.037248313 1.8696622e-38
0.14481378 0.14049125 0.037831664 1.9617521e-38
0.13643062 0.029791728 0.061930597 2.0161336e-38
0.13653716 0.031635493 0.059993863 1.9976244e-38
0.14107916 0.13453767 0.035791695 1.5381187e-38
0.14082396 0.13679814 0.036672711 1.4643633e-38
0.13364422 0.030000463 0.060895681 1.9699992e-38
0.1330421 0.032284431 0.058725476 1.9975515e-38
0.13721883 0.13449803 0.034801185 9.8480131e-39
0.13719893 0.13634865 0.036155701 9.9376724e-39
0.12914348 0.032661602 0.05818975 1.9793269e-38
0.12931851 0.034917563 0.056261837 1.8873107e-38
0.13387007 0.13385569 0.034864068 1.0952567e-38
0.12538579 0.033189856 0.057200193 1.9700349e-38
0.12561342 0.035426259 0.055179298 1.9241523e-38
0.12197739 0.033373773 0.055951834 1.9607788e-38
0.12174731 0.035789281 0.054554582 1.9058201e-38
0.12075186 0.038239047 0.053241611 1.841534e-38
0.11818314 0.036690682 0.053529263 1.8872742e-38
0.11760432 0.0384707 0.051710904 1.8505019e-38
0.11404246 0.03689599 0.052289248 1.9056772e-38
0.11402026 0.038574383 0.050601423 1.8596144e-38
0.10992986 0.038528368 0.048941791 1.8319567e-38
0.10605749 0.039089322 0.047845423 1.7488386e-38
0.10615948 0.041599274 0.046179533 1.7121038e-38
0.1023767 0.038874626 0.047081947 1.7213931e-38
0.10233331 0.042375624 0.04531908 1.6662926e-38
0.10167113 0.045566857 0.043624997 1.7215022e-38
0.098438621 0.039517209 0.045703769 1.7765677e-38
0.098592997 0.042465329 0.044384718 1.7858229e-38
0.098995 0.045965463 0.042718828 1.7488369e-38
0.094440728 0.043791503 0.043682754 1.8227007e-38
0.094859004 0.046221972 0.042510688 1.7764963e-38
0.094784498 0.048907101 0.040377021 1.7302559e-38
