# .PCD v0.7 - Point Cloud Data file format
VERSION 0.7
FIELDS x y z rgb
SIZE 4 4 4 4
TYPE F F F F
COUNT 1 1 1 1
WIDTH 977
HEIGHT 1
VIEWPOINT 0 0 0 0 1 0 0
POINTS 977
DATA ascii
0.00013255328 0.10219907 0.045100868 9.1125724e-39
0.00038689375 0.10540437 0.044853806 8.7441487e-39
0.00037698448 0.10807628 0.044672072 8.3753703e-39
0.12138072 0.082154788 0.0052244067 1.915186e-38
0.12002397 0.10126113 0.0031849146 1.491481e-38
0.11510524 0.092238076 0.0040928125 1.7769277e-38
0.14453924 0.075895637 0.0018802285 1.6570017e-38
0.11723374 0.085328363 0.0073387027 1.18756e-38
0.10523441 0.080129333 0.010800958 8.1949265e-39
0.11346639 0.10961272 0.011443138 1.5652722e-38
0.13761899 0.11867401 0.0087841749 1.5746726e-38
0.066619575 0.078748994 0.025099933 1.4453089e-38
0.066515431 0.08643429 0.023871303 1.2888646e-38
0.070225939 0.072736204 0.026013494 1.4544221e-38
0.070403613 0.087973416 0.025078535 1.3255289e-38
0.090478122 0.065474674 0.027518034 1.4547099e-38
0.086868495 0.075289965 0.023424268 1.6385618e-38
0.091629833 0.091978036 0.021058679 1.5557295e-38
0.10543402 0.13574097 0.031299055 6.8124181e-39
0.15653855 0.029355438 0.03433758 1.1327116e-38
0.15474235 0.14575121 0.026234269 2.2944844e-38
0.15281802 0.02603328 0.037996292 9.8533899e-39
0.15255216 0.029371481 0.034940183 1.2157581e-38
0.15200454 0.14601073 0.028733909 2.2662825e-38
0.14920238 0.026240297 0.038617373 1.0499824e-38
0.14861859 0.029393239 0.036208808 1.2335146e-38
0.14786521 0.14545527 0.029022515 2.1920243e-38
0.14706251 0.14849277 0.030918956 2.2843998e-38
0.14469799 0.030086145 0.03771013 1.4179749e-38
0.14420089 0.14539206 0.028979182 2.1736911e-38
0.1446474 0.14903989 0.031145453 2.2109675e-38
0.140863 0.030482847 0.037941933 1.5745652e-38
0.14016913 0.14534944 0.02908659 2.1825151e-38
0.14033324 0.1491316 0.031274498 2.2013509e-38
0.13669486 0.030792512 0.03892839 1.8140202e-38
0.13583188 0.032774396 0.036030412 1.8876694e-38
0.13601443 0.14558032 0.029804766 2.1184823e-38
0.13633758 0.14853258 0.03208828 2.155326e-38
0.13303968 0.031147128 0.039723694 2.0167084e-38
0.13225479 0.033328071 0.036786675 2.1085805e-38
0.1321574 0.14537919 0.029960036 2.1092626e-38
0.13254546 0.14897889 0.031867146 2.2014637e-38
0.12872738 0.031507932 0.040926456 2.081175e-38
0.12855227 0.033483803 0.03778553 2.1821579e-38
0.12828405 0.14545643 0.029775798 2.0997926e-38
0.12825105 0.14939666 0.032192588 2.1832013e-38
0.12470552 0.031522859 0.041364908 2.1180157e-38
0.12458299 0.033795111 0.038918316 2.2006326e-38
0.12409471 0.14252037 0.029804409 2.0354732e-38
0.12417179 0.14550522 0.03138423 2.0814625e-38
0.12425978 0.14908025 0.033168972 2.1923128e-38
0.12001335 0.031540267 0.041876435 2.1364564e-38
0.12040849 0.034025975 0.039394617 2.1636818e-38
0.12009558 0.14253522 0.030240417 1.5657801e-38
0.12017351 0.14555848 0.03204155 1.6119517e-38
0.12051628 0.14912945 0.033776283 1.9345996e-38
0.11666181 0.031552713 0.042241871 2.1361674e-38
0.11654913 0.034201965 0.039384186 2.1452424e-38
0.11742948 0.1425451 0.030531049 1.104695e-38
0.11630468 0.14563188 0.031829178 1.151009e-38
0.11603336 0.14967388 0.033598721 1.4093718e-38
0.11483423 0.15313816 0.033114672 4.6909139e-39
0.112629 0.031563923 0.042345643 2.1363468e-38
0.11254951 0.03422058 0.040044069 2.1911593e-38
0.11248873 0.03687454 0.038300812 2.1083578e-38
0.11216625 0.14566153 0.033341587 1.3993937e-38
0.11354456 0.14928988 0.034527183 1.4643291e-38
0.1086181 0.031582564 0.043118715 2.182087e-38
0.10855641 0.034243964 0.041038811 2.2002725e-38
0.10816141 0.037229765 0.039001286 2.1360938e-38
0.10951167 0.14442495 0.034292459 1.4176862e-38
0.10593686 0.031592514 0.043411076 2.2094213e-38
0.10455506 0.034265082 0.041922867 2.1725779e-38
0.10450136 0.037450626 0.039739013 2.1360957e-38
0.10340542 0.12579066 0.035428047 7.364831e-39
0.10415258 0.13751942 0.034054279 5.6131686e-39
0.10481993 0.14164424 0.034323215 8.1921324e-39
0.1002322 0.03746647 0.040204406 2.135843e-38
0.1002202 0.12296288 0.036776185 6.3442317e-39
0.10021026 0.12564999 0.036593437 6.812369e-39
0.10019533 0.12968063 0.036319256 7.2722528e-39
0.10018983 0.13241899 0.036468625 7.2747695e-39
0.096345291 0.034696128 0.043814778 2.1911221e-38
0.096301101 0.037895598 0.040287852 2.1634287e-38
0.096204042 0.12297779 0.037214041 1.0103362e-38
0.096194088 0.12566489 0.037031293 8.4693568e-39
0.096354097 0.12963945 0.037498057 8.9317769e-39
0.09751942 0.1325314 0.037424922 8.6584186e-39
0.09251599 0.034997433 0.044140518 2.2003795e-38
0.09249372 0.037495192 0.041048169 2.1634648e-38
0.093526594 0.12298772 0.037505925 1.249076e-38
0.092344627 0.1258471 0.037439466 1.0496241e-38
0.092505805 0.12885007 0.038224638 1.1600788e-38
0.088764101 0.035147592 0.044641137 2.126588e-38
0.088489346 0.037654515 0.042046189 2.108077e-38
0.088328853 0.1258091 0.037502706 1.3073045e-38
0.087479733 0.12853238 0.03879565 1.3994981e-38
0.084472016 0.035708491 0.045475185 2.0897469e-38
0.08430963 0.038186498 0.043180764 2.1173687e-38
0.084316924 0.12580428 0.037815392 1.4723942e-38
0.083680771 0.12939405 0.038815677 1.5655598e-38
0.080453806 0.038389742 0.0446105 2.0715584e-38
0.079147764 0.041011784 0.041661084 2.0157734e-38
0.081046566 0.126277 0.036292076 1.6201178e-38
0.080128402 0.12960705 0.037508905 1.694167e-38
0.079421066 0.13259858 0.039398074 1.9153642e-38
0.076428294 0.038417041 0.04560858 2.0069489e-38
0.076481655 0.041021682 0.041951776 1.9883303e-38
0.076107696 0.13034183 0.038234115 1.6574326e-38
0.076069519 0.13261104 0.039763451 1.8234925e-38
0.07241451 0.03842691 0.045822501 1.9148987e-38
0.072209142 0.041577585 0.042582214 1.9515982e-38
0.068385899 0.03883376 0.04658705 1.8321012e-38
0.068272173 0.042022042 0.043356478 1.841213e-38
0.064355858 0.039142959 0.047270358 1.7213235e-38
0.064455733 0.042421147 0.043842196 1.7398691e-38
0.063223653 0.13017732 0.04093039 1.6384167e-38
0.060325917 0.03983441 0.047831476 1.6564994e-38
0.060370065 0.042488787 0.04630059 1.6477099e-38
0.06018487 0.045642901 0.043819666 1.6845527e-38
0.058834977 0.12670857 0.038017571 2.2466926e-38
0.060084958 0.12964769 0.039472401 2.0994277e-38
0.059982102 0.13267073 0.041517377 1.9336554e-38
0.056319859 0.042524815 0.047524929 1.657e-38
0.05619593 0.046119288 0.045548201 1.6200519e-38
0.056168884 0.12671846 0.038308203 1.9891219e-38
0.056111775 0.12954623 0.039129198 2.1089392e-38
0.055960249 0.13268566 0.041955829 2.1088326e-38
0.052537382 0.043361448 0.048441172 1.5924301e-38
0.052327238 0.046546504 0.046901941 1.5556962e-38
0.052457124 0.049137853 0.044021785 1.4629962e-38
0.052125145 0.13030297 0.039109766 1.8694835e-38
0.05195602 0.13264926 0.042059779 1.8418251e-38
0.049586024 0.043910574 0.048726082 1.5281447e-38
0.048777215 0.046996489 0.046922982 1.4727168e-38
0.048189409 0.049688824 0.044450343 1.4452386e-38
0.04846146 0.13050205 0.03939575 1.4272703e-38
0.048206467 0.13319111 0.042365193 1.5378647e-38
0.045078021 0.047391385 0.047972381 1.4358742e-38
0.044409472 0.050149538 0.045552135 1.4451684e-38
0.043776415 0.13055742 0.040156007 1.2520928e-38
0.045264445 0.13332118 0.042576909 1.3259603e-38
0.04087887 0.051322907 0.048666358 1.2700321e-38
0.040353701 0.054586705 0.046203852 1.3159504e-38
0.039515823 0.057674617 0.04518795 1.4171494e-38
0.040888872 0.13024864 0.042089045 1.2429117e-38
0.038831186 0.052023105 0.049346387 1.297615e-38
0.036987711 0.054963011 0.048741758 1.4172199e-38
0.036290705 0.058649614 0.046929955 1.4724658e-38
0.035499964 0.061704922 0.045351028 1.4353738e-38
0.03434917 0.055627566 0.049589634 1.4816847e-38
0.032813285 0.058747351 0.049039721 1.5461136e-38
0.032467131 0.062832221 0.046655536 1.4817923e-38
0.032050215 0.12237091 0.043005764 1.5098485e-38
0.031858996 0.12470251 0.045135736 1.6111184e-38
0.030312337 0.059678856 0.049753547 1.4726821e-38
0.029491689 0.062766291 0.048623681 1.463353e-38
0.02833578 0.066662274 0.046178818 1.4817942e-38
0.027054962 0.069299638 0.045418143 1.3901354e-38
0.028241917 0.12216489 0.043057859 1.4828732e-38
0.028672934 0.12546465 0.045028389 1.6482845e-38
0.025650263 0.06364277 0.049991727 1.4729342e-38
0.025156841 0.066567972 0.047972977 1.417472e-38
0.024339609 0.070011184 0.046170354 1.2794665e-38
0.023043446 0.072659113 0.04562664 1.2334061e-38
0.024281323 0.12164465 0.043292284 1.3444369e-38
0.025039136 0.12556574 0.044957757 1.583855e-38
0.021587357 0.067008868 0.049449205 1.2702475e-38
0.020555742 0.070192061 0.04707551 1.1782667e-38
0.020352893 0.073353186 0.046097219 1.178267e-38
0.020194009 0.077184886 0.045628369 1.2335486e-38
0.019539908 0.1188274 0.042850792 1.1601497e-38
0.02055496 0.12162352 0.043444693 1.3443994e-38
0.021041021 0.12472165 0.043795884 1.5098485e-38
0.017682873 0.067894824 0.050319433 1.1138362e-38
0.017148539 0.070067197 0.049472988 1.1137999e-38
0.016637646 0.073622562 0.047413111 1.1321313e-38
0.016291082 0.077417165 0.046711147 1.1598263e-38
0.015935659 0.081213333 0.046106219 1.2427319e-38
0.015532322 0.085128851 0.045594335 1.3348915e-38
0.015921474 0.11833265 0.043481708 1.2152863e-38
0.014220282 0.070479952 0.050437033 1.0216763e-38
0.01334057 0.073604584 0.050079226 1.0217506e-38
0.012720481 0.077593833 0.049273849 1.0768879e-38
0.012586877 0.081689566 0.04744786 1.2059622e-38
0.012234509 0.085486002 0.046826422 1.2981213e-38
0.012095913 0.089301452 0.046188533 1.3993916e-38
0.011635765 0.093437888 0.045451641 1.3990331e-38
0.010944448 0.10012962 0.045069396 1.1411e-38
0.012225479 0.11417212 0.043968558 7.4584405e-39
0.012243554 0.11751621 0.044998109 1.197244e-38
0.012488842 0.12066974 0.04702419 1.5563765e-38
0.010170415 0.07856378 0.050326347 1.0584852e-38
0.0091600716 0.081493266 0.049690247 1.1138033e-38
0.0083268955 0.085720569 0.047853589 1.2245802e-38
0.0082028806 0.089530081 0.047102273 1.3625142e-38
0.0082517266 0.093493663 0.046265662 1.3530432e-38
0.0076217651 0.09746629 0.045614719 1.2244707e-38
0.0082734302 0.10147737 0.045269012 1.0768858e-38
0.008425802 0.10532308 0.044989288 8.6508684e-39
0.0082486495 0.10816664 0.04481405 7.9133104e-39
0.0080383718 0.11351875 0.044470906 8.005883e-39
0.0083774626 0.1177855 0.04504931 1.1417836e-38
0.0088330507 0.12098502 0.047150075 1.4091108e-38
0.005271934 0.081701294 0.050422966 9.7565097e-39
0.00473129 0.085631415 0.049008727 1.1322409e-38
0.004198052 0.089544944 0.047538936 1.2427665e-38
0.0042098165 0.093541756 0.047040105 1.1506803e-38
0.0042620897 0.097501524 0.046203375 1.104689e-38
0.0044661462 0.10110927 0.045710325 1.0769933e-38
0.0055974349 0.10416298 0.045377672 9.755079e-39
0.0029065609 0.11086213 0.045213401 8.4707651e-39
0.0038481131 0.11372542 0.044914603 8.836696e-39
0.0042313188 0.11754642 0.045871615 9.9423471e-39
0.0044572502 0.12170144 0.046227157 1.1233087e-38
0.00048676878 0.093825154 0.048227906 8.4629263e-39
0.00021930039 0.097551316 0.046977878 9.2962617e-39
0.0006121248 0.10050243 0.046172917 9.3884461e-39
0.00022151321 0.11022375 0.045718551 7.4541287e-39
0.00011776388 0.11366139 0.046222806 7.5466957e-39
0.00084446371 0.11809336 0.047536671 9.2973365e-39
0.11104957 0.086405329 0.006837368 2.183525e-38
0.12314282 0.083454832 0.0050455928 1.9890849e-38
0.15390226 0.11444812 0.0042690039 1.5193576e-38
0.14875014 0.059681915 0.0080748796 2.0626273e-38
0.11755377 0.11656038 0.010911405 1.4546741e-38
0.0699322 0.094859317 0.023614824 1.0309333e-38
0.069043986 0.094371118 0.023234069 1.040007e-38
0.10103557 0.08270707 0.026072323 1.2339078e-38
0.086197883 0.084835768 0.026647508 1.5835679e-38
0.1530703 0.02267004 0.040887535 8.4715373e-39
0.1523543 0.14934063 0.033307552 2.3315031e-38
0.14998916 0.022905607 0.04188031 9.2076534e-39
0.14772373 0.025389226 0.04178983 1.0222887e-38
0.14991927 0.14748609 0.032692254 2.2664957e-38
0.14862159 0.15008348 0.033328414 2.3217081e-38
0.14502804 0.026749415 0.041991413 1.3254924e-38
0.14425005 0.15135279 0.033803403 2.3033377e-38
0.14526996 0.15375814 0.033779442 1.5560895e-38
0.14100096 0.027440857 0.042552173 1.5377565e-38
0.14027596 0.028789092 0.041867018 1.5655605e-38
0.14049344 0.1515688 0.033442914 2.2565928e-38
0.14056042 0.15310004 0.03433919 2.0343184e-38
0.13696395 0.027455842 0.042992294 1.6299538e-38
0.13691494 0.028801566 0.042233467 1.7131071e-38
0.13648418 0.15096885 0.034258187 2.2755403e-38
0.13719466 0.15311253 0.034706056 2.3229714e-38
0.1326476 0.029361561 0.043266356 1.8603344e-38
0.13210683 0.1513077 0.034629285 2.3228258e-38
0.13216287 0.15352508 0.034421086 2.341769e-38
0.12884352 0.030180752 0.043021083 1.970682e-38
0.12844872 0.15179387 0.035752058 2.1473676e-38
0.12844373 0.15314502 0.035660207 2.1668504e-38
0.1248602 0.030204896 0.044463098 2.0079892e-38
0.12437414 0.1513364 0.035472393 2.0354365e-38
0.12413156 0.15424192 0.03605634 1.0230213e-38
0.1221626 0.031566039 0.044664741 2.1366338e-38
0.12036093 0.15452614 0.036448896 7.8298406e-39
0.1154361 0.030239869 0.045490444 2.0721331e-38
0.11763854 0.15165362 0.035934627 1.5015277e-38
0.11767333 0.15318498 0.036834359 8.5411748e-39
0.11272223 0.030243708 0.045114577 2.0812797e-38
0.1109315 0.14763078 0.03694272 1.6033377e-38
0.11189434 0.15059549 0.037066817 1.3629474e-38
0.11362943 0.15455115 0.037182808 5.1565569e-39
0.10914201 0.03071049 0.045809925 2.1363117e-38
0.10809845 0.14659077 0.038079679 1.4738678e-38
0.10961054 0.14916152 0.037990689 1.888314e-38
0.10396701 0.03162232 0.045640886 2.2094567e-38
0.10289504 0.1395652 0.038372815 6.5264453e-39
0.10290158 0.14310628 0.039138138 1.0306494e-38
0.10423536 0.14647919 0.038761616 1.6856329e-38
0.10023135 0.13493153 0.039485037 8.0083703e-39
0.1002315 0.13703609 0.039845228 8.4733113e-39
0.10154776 0.14513803 0.039147079 1.6759457e-38
0.095236599 0.031665973 0.04760021 2.0807416e-38
0.097245038 0.033003077 0.046785116 2.1636805e-38
0.094858587 0.13149962 0.039802849 1.0586294e-38
0.096198626 0.13404639 0.039986253 9.5760799e-39
0.097538888 0.13704607 0.040138721 1.0313225e-38
0.092544012 0.031675965 0.047893822 2.0714154e-38
0.092534572 0.033013988 0.046794951 2.117405e-38
0.091902904 0.1309709 0.040162027 1.242911e-38
0.092166208 0.13368818 0.040955722 1.3259548e-38
0.089851409 0.03168596 0.048187315 2.0621246e-38
0.088163219 0.033370808 0.047500372 2.1080777e-38
0.08833196 0.13060349 0.040865481 1.3535104e-38
0.088465132 0.13336413 0.041382253 1.4088279e-38
0.084462181 0.033725135 0.048132598 2.0713436e-38
0.08500129 0.13108644 0.040908277 1.6023317e-38
0.083821505 0.13355327 0.041675031 1.7589571e-38
0.080693647 0.035219721 0.048139632 2.0440088e-38
0.08039467 0.13395336 0.041467607 1.9062183e-38
0.077453449 0.034974702 0.049317122 2.0073076e-38
0.077351913 0.1350943 0.042478263 1.9613551e-38
0.073680811 0.035799392 0.049673021 1.9426641e-38
0.073052771 0.13386348 0.042830586 1.7771449e-38
0.069651797 0.035808682 0.049776435 1.8598667e-38
0.069664672 0.037146576 0.04901135 1.8781263e-38
0.06794031 0.13175139 0.043735445 1.7203862e-38
0.069616944 0.13343407 0.043437123 1.5834262e-38
0.065603018 0.035829373 0.050553739 1.7681019e-38
0.065631457 0.037161544 0.049451053 1.758775e-38
0.065953873 0.13160688 0.042954147 1.6654313e-38
0.065056771 0.13403437 0.043606222 1.730831e-38
0.062910423 0.03583936 0.050847232 1.6936298e-38
0.061311338 0.037724815 0.050287962 1.6661143e-38
0.061214678 0.13441673 0.043884695 1.7677055e-38
0.057270832 0.039089806 0.050636053 1.4637867e-38
0.057506096 0.13479125 0.044415534 2.0350022e-38
0.054168772 0.039913885 0.051019549 1.4727535e-38
0.052818421 0.041269083 0.051074386 1.4542802e-38
0.052870531 0.13498777 0.044757426 1.9156169e-38
0.049126737 0.042963665 0.051109791 1.5097772e-38
0.048124205 0.045321938 0.050805926 1.5003058e-38
0.049428634 0.1354968 0.045249939 1.6206252e-38
0.046051651 0.044008747 0.05213052 1.574132e-38
0.045066621 0.045685716 0.051619232 1.4634966e-38
0.045060031 0.13538679 0.04565084 1.4454918e-38
0.04169824 0.047048409 0.051894128 1.3528643e-38
0.04071499 0.049397148 0.051336765 1.3619398e-38
0.039668042 0.13185632 0.04681778 1.2703911e-38
0.042421766 0.13304347 0.045427322 1.2612785e-38
0.038631994 0.048089691 0.052662134 1.3342823e-38
0.03715359 0.050604664 0.052021444 1.380484e-38
0.035994578 0.053462371 0.051574469 1.4080009e-38
0.035654165 0.12511553 0.047717571 1.085069e-38
0.034578081 0.052158147 0.052826762 1.4081437e-38
0.032985479 0.054578301 0.052431881 1.4909041e-38
0.033012163 0.1254808 0.047309101 1.417975e-38
0.030077074 0.055777889 0.053071022 1.4083239e-38
0.028933086 0.058645234 0.05259645 1.3898522e-38
0.027895663 0.062262468 0.051857412 1.4542443e-38
0.029674917 0.12634459 0.047278583 1.6666504e-38
0.025797121 0.060297556 0.053229451 1.3990387e-38
0.024848923 0.06194973 0.05246377 1.4268398e-38
0.021360144 0.063815609 0.053272009 1.3440379e-38
0.019816719 0.065665543 0.052507401 1.2425875e-38
0.016754888 0.066276118 0.05380851 1.0955406e-38
0.013341442 0.068097182 0.053804755 9.2973238e-39
0.012145326 0.070212953 0.053370714 9.1097152e-39
0.011725314 0.072441757 0.052927911 9.388802e-39
0.01210393 0.12250067 0.050469995 1.5840337e-38
0.0098275468 0.070715547 0.054261804 8.0977101e-39
0.0091279596 0.07401289 0.053734481 8.5597826e-39
0.0085508525 0.07741306 0.053102791 9.3877594e-39
0.0096718296 0.12291387 0.050371289 1.4271231e-38
0.0055475831 0.075235218 0.054420173 6.9017242e-39
0.0048906207 0.077922642 0.054084003 8.1892163e-39
0.0017197132 0.07885246 0.054591119 7.164989e-39
0 0.08105699 0.053955972 5.7906949e-39
0.15202498 0.094986774 0.0003862381 1.3350368e-38
0.10926895 0.07166981 0.0068078041 1.2796436e-38
0.12257348 0.07312277 0.0065428615 1.3899569e-38
0.08604908 0.076959126 0.026637554 1.2613511e-38
0.071265355 0.077976242 0.02818799 1.1691183e-38
0.1535857 0.15079564 0.035594106 2.3131747e-38
0.15237015 0.15298817 0.035677791 1.9707821e-38
0.14899614 0.022002878 0.044907391 9.0211195e-39
0.14897303 0.15360275 0.035402 1.6852332e-38
0.14563391 0.02303247 0.045456409 1.058594e-38
0.14523137 0.024728224 0.044628203 1.1600086e-38
0.14340204 0.15413153 0.035974622 1.5744579e-38
0.14339451 0.15616396 0.035836399 1.3728552e-38
0.14121492 0.025421476 0.045523822 1.3626219e-38
0.14072335 0.15488032 0.036552191 1.822526e-38
0.14071833 0.1562359 0.036459923 1.7960906e-38
0.13585086 0.023407949 0.046751857 1.3449356e-38
0.13716182 0.025436519 0.045965672 1.4829088e-38
0.13632894 0.15454257 0.03697145 2.341769e-38
0.13666554 0.15625095 0.036901772 2.3234019e-38
0.13327435 0.026298258 0.046331584 1.5472649e-38
0.13394892 0.15484408 0.036958873 2.341769e-38
0.1334922 0.15665236 0.036885083 2.341769e-38
0.12932569 0.02695773 0.046818793 1.5376873e-38
0.12901527 0.028853225 0.046118021 1.7496638e-38
0.12501995 0.027518669 0.047654212 1.5100273e-38
0.12499765 0.028873095 0.047227859 1.7592411e-38
0.12452547 0.15429369 0.038530409 1.0340343e-38
0.12454255 0.15641999 0.038887203 1.4217632e-38
0.12096401 0.027533723 0.048096478 1.5933987e-38
0.12093437 0.02956441 0.047456622 1.9526028e-38
0.11690933 0.027209559 0.048561633 1.5565951e-38
0.11714059 0.029440757 0.047577024 1.9431345e-38
0.11285213 0.027563831 0.048980772 1.5008453e-38
0.11281423 0.028913355 0.047884345 1.7863999e-38
0.11190087 0.15402263 0.039424419 3.5827166e-39
0.11234254 0.15627921 0.039221764 7.9346494e-39
0.11014816 0.027573859 0.049275517 1.4729348e-38
0.10843831 0.029272048 0.048842013 1.9426645e-38
0.10805457 0.15040481 0.040495515 1.7411611e-38
0.10869607 0.15344083 0.040102422 5.9765506e-39
0.10964236 0.15628925 0.039516151 8.1190602e-39
0.10472523 0.029626116 0.049391568 2.1732955e-38
0.10294712 0.14140977 0.041265786 7.2579245e-39
0.10094071 0.029775234 0.049727738 2.2003065e-38
0.10026779 0.13881743 0.042408228 8.7470115e-39
0.10161919 0.14022303 0.042500317 8.6418777e-39
0.097581565 0.030137125 0.050185382 2.0622667e-38
0.095541716 0.1360175 0.042443991 1.0132488e-38
0.096211627 0.13808776 0.042481124 1.2246502e-38
0.098915234 0.14023307 0.042795122 1.2062442e-38
0.09391436 0.030347791 0.050859809 2.0346077e-38
0.092841543 0.13602751 0.042738378 1.3445775e-38
0.092836529 0.13738248 0.04264617 1.4916281e-38
0.088502645 0.031713463 0.050349414 2.0620886e-38
0.089130066 0.13570258 0.043166101 1.4089358e-38
0.08946076 0.13750134 0.043679237 1.5563765e-38
0.085532084 0.031186249 0.051113427 1.9975878e-38
0.085688099 0.13551211 0.043555319 1.6666895e-38
0.085405491 0.13756955 0.04445374 1.7309741e-38
0.082088783 0.031400867 0.051323712 1.9880814e-38
0.081072152 0.033095978 0.051066875 2.0256055e-38
0.081365816 0.1360701 0.04398948 1.9522443e-38
0.081010297 0.13792506 0.044909596 2.0166371e-38
0.077695847 0.031757317 0.051863372 1.924084e-38
0.077696934 0.033108503 0.051434755 1.9703952e-38
0.075965472 0.13609016 0.044578195 2.0073797e-38
0.07729955 0.13819832 0.044792295 2.0257489e-38
0.074305624 0.031777397 0.052904725 1.757843e-38
0.073633134 0.033807628 0.052335143 1.869016e-38
0.073265299 0.13610017 0.044872582 1.8878863e-38
0.073253691 0.13815953 0.044901013 1.9798299e-38
0.07255163 0.14033091 0.045669377 2.0075602e-38
0.070925668 0.031789944 0.053273141 1.666188e-38
0.06985271 0.033955835 0.052637339 1.7769993e-38
0.068947017 0.13557425 0.045380473 1.6759804e-38
0.069183618 0.13828161 0.04600966 1.9150433e-38
0.070523657 0.14033845 0.04589045 2.0259635e-38
0.06580016 0.033970881 0.053079128 1.6849476e-38
0.065839812 0.13612774 0.045682132 1.8784504e-38
0.065479517 0.13790295 0.046104193 1.924691e-38
0.06120282 0.035072654 0.053506136 1.5464773e-38
0.061789561 0.13614276 0.046123743 1.7952224e-38
0.061069857 0.13765985 0.047106802 1.8506107e-38
0.057390802 0.035910696 0.05447036 1.2520261e-38
0.057415001 0.03725487 0.053703487 1.3440431e-38
0.05638922 0.13616282 0.046712518 2.0441872e-38
0.057013914 0.13767491 0.047549009 2.0167785e-38
0.053350899 0.03840252 0.054237127 1.4266583e-38
0.054364085 0.13617033 0.046933234 2.016707e-38
0.052281983 0.13769248 0.048064828 1.841102e-38
0.050615828 0.040006347 0.054930449 1.4723957e-38
0.049276922 0.041359976 0.054648101 1.4818672e-38
0.048958726 0.13754533 0.04742986 1.6476742e-38
0.044889551 0.043066781 0.05484271 1.4637492e-38
0.043563399 0.13621041 0.048110783 1.4636434e-38
0.045583509 0.13755786 0.047797859 1.6115871e-38
0.042524207 0.043414295 0.055077374 1.2517014e-38
0.04047025 0.046141736 0.055367351 1.2975484e-38
0.041509729 0.1349414 0.048926175 1.3624437e-38
0.037369981 0.047097445 0.05548948 1.2885808e-38
0.036371823 0.12725292 0.049845576 1.1868023e-38
0.037687927 0.13000853 0.049849391 1.270532e-38
0.033347864 0.051158268 0.055046141 1.3807721e-38
0.031718742 0.053603206 0.05505693 1.4451653e-38
0.033219721 0.12726462 0.050189197 1.4546006e-38
0.029607363 0.054331116 0.056246102 1.3532579e-38
0.027653411 0.057683103 0.055222034 1.3439335e-38
0.030685473 0.12827477 0.0510692 1.6759785e-38
0.026895873 0.056376435 0.056402445 1.3069101e-38
0.025201179 0.058785629 0.05561626 1.3162768e-38
0.022150561 0.060012285 0.056672335 1.2886526e-38
0.021562994 0.061770521 0.055607915 1.3529726e-38
0.018139943 0.063161179 0.056318998 1.1414254e-38
0.013862237 0.063580424 0.057045817 8.74166e-39
0.013220705 0.066317938 0.056208432 9.0196678e-39
0.010457352 0.063654959 0.057364702 7.9111832e-39
0.0098990276 0.067064196 0.056520343 7.2672628e-39
0.0087070465 0.069947854 0.056453347 6.9009717e-39
0.0060043633 0.070635356 0.056701601 6.1616243e-39
0.0057248175 0.073210776 0.056555986 6.1666507e-39
0.0025149882 0.068678461 0.058225036 1.2514771e-38
0.0021749437 0.070810847 0.057511389 9.2915645e-39
0.0019145161 0.074053049 0.057138801 7.8196616e-39
0.0010297596 0.077202685 0.056795955 7.9039623e-39
0.11271654 0.10956805 0.0050144196 1.8327497e-38
0.12588392 0.10560227 0.0032307506 1.7128248e-38
0.069846332 0.090851881 0.022126734 1.0030967e-38
0.070512116 0.095029488 0.022587419 9.8497745e-39
0.096153662 0.062706761 0.026695132 1.7034589e-38
0.072322875 0.07043916 0.027285814 1.5560517e-38
0.075029075 0.077811085 0.027460456 1.3163097e-38
0.14999506 0.018714994 0.049560368 8.3778759e-39
0.14891195 0.020635922 0.048034906 8.8352947e-39
0.14571652 0.02063789 0.050904691 1.0034561e-38
0.14479855 0.022013796 0.047885954 1.0309365e-38
0.14151561 0.022703223 0.049710035 1.1787358e-38
0.13740355 0.022946283 0.049638569 1.289369e-38
0.13336398 0.022733483 0.0505988 1.2340887e-38
0.13190868 0.024782913 0.049105108 1.4550694e-38
0.12931594 0.022748424 0.051544189 1.1419659e-38
0.12887038 0.025134793 0.049665213 1.4915163e-38
0.12501442 0.022900866 0.053012073 1.0128595e-38
0.12515229 0.025489183 0.050299227 1.3720214e-38
0.12120034 0.023461564 0.053390503 1.1237067e-38
0.12108215 0.025504289 0.050743043 1.3721999e-38
0.1175715 0.02301958 0.053817332 1.1142698e-38
0.11701638 0.025383493 0.051296473 1.3073428e-38
0.11439563 0.022803646 0.054179132 1.1235975e-38
0.11293122 0.025533957 0.051295519 1.279145e-38
0.1110884 0.15548146 0.042438149 1.8701309e-40
0.11030877 0.023501987 0.054577947 1.1048721e-38
0.10941563 0.025956336 0.052087843 1.3342444e-38
0.10617529 0.02624202 0.053161681 1.693807e-38
0.10210042 0.026257148 0.053605974 2.0530837e-38
0.10083701 0.14221866 0.044667482 1.1413151e-38
0.10096809 0.14471841 0.044784665 1.501813e-38
0.098195121 0.026442349 0.054062068 2.0533331e-38
0.097423203 0.14228335 0.045968771 1.6488608e-38
0.098940149 0.14481041 0.045504034 1.9985198e-38
0.094224706 0.027109731 0.055282235 2.0717021e-38
0.093933582 0.029008254 0.05330199 2.0623006e-38
0.093523905 0.13921899 0.045470178 1.6027278e-38
0.093801096 0.14148435 0.047503233 1.8149209e-38
0.089871868 0.027676852 0.056525588 1.9427729e-38
0.0898626 0.029704927 0.053867161 1.9794361e-38
0.089456603 0.13923407 0.045913637 1.6943475e-38
0.089178234 0.14150152 0.04800719 1.8510808e-38
0.085522033 0.027142027 0.056231022 1.7495218e-38
0.086134396 0.029376747 0.054045022 1.9242268e-38
0.085389301 0.13924918 0.046357036 1.7863253e-38
0.08537057 0.14161962 0.048213542 1.7955799e-38
0.082049206 0.027361533 0.056897879 1.592971e-38
0.08145237 0.029599331 0.054692686 1.8690183e-38
0.081999891 0.13926175 0.046726525 2.0718084e-38
0.08156696 0.14146444 0.048438132 1.9707518e-38
0.078980289 0.027717279 0.057713032 1.602046e-38
0.077643044 0.029754316 0.055703223 1.8046257e-38
0.07696332 0.1413171 0.047942996 2.0440798e-38
0.073200718 0.03080455 0.05737716 1.6477483e-38
0.073478878 0.14196357 0.04923743 1.9800448e-38
0.068073533 0.031856775 0.058621705 1.6112612e-38
0.068157397 0.033183355 0.055496871 1.6936997e-38
0.068805784 0.14168559 0.049212515 2.0354327e-38
0.066031352 0.031864353 0.058844328 1.592789e-38
0.064090103 0.03319845 0.05594033 1.6477829e-38
0.064374924 0.13932717 0.048648119 1.924583e-38
0.064989239 0.14164022 0.050103247 1.9891921e-38
0.063308463 0.031874459 0.059141219 1.5466554e-38
0.061351847 0.033217382 0.056910396 1.4271978e-38
0.061386853 0.1390999 0.050334632 1.8318854e-38
0.061542191 0.14118814 0.051855206 1.8873098e-38
0.058543395 0.031892143 0.059660673 1.3621927e-38
0.057561867 0.034044333 0.056999326 1.30709e-38
0.057509195 0.13967541 0.051391125 1.9981579e-38
0.056808617 0.14109688 0.051706612 1.9060344e-38
0.053972099 0.034802288 0.057800531 1.3437515e-38
0.051873092 0.037325706 0.056993008 1.4640409e-38
0.053723041 0.13902074 0.050505221 1.9521314e-38
0.053373508 0.14121845 0.052745759 1.8600096e-38
0.050359529 0.036021534 0.060272455 1.5004479e-38
0.049655259 0.03843753 0.057965934 1.4638926e-38
0.050121725 0.13943386 0.050534427 1.7219689e-38
0.049695108 0.14205012 0.050930262 1.72215e-38
0.046501379 0.038914315 0.059361815 1.3622636e-38
0.045726079 0.041442707 0.057887137 1.4819394e-38
0.046051279 0.13944897 0.050978303 1.7127861e-38
0.047246985 0.14124121 0.053413749 1.7136487e-38
0.043537118 0.040145874 0.060735822 1.2699947e-38
0.041821811 0.042840201 0.059058547 1.2605624e-38
0.041898705 0.13854441 0.052838326 1.602259e-38
0.038216963 0.044207931 0.059022665 1.1962417e-38
0.036929403 0.045544997 0.058063626 1.2243658e-38
0.036611937 0.13126639 0.052233458 1.3533651e-38
0.03771475 0.13430837 0.052913129 1.3533659e-38
0.038106114 0.13743892 0.054168582 1.4454916e-38
0.034375109 0.047232263 0.059638977 1.1966378e-38
0.032846987 0.049642064 0.058229387 1.36237e-38
0.034588356 0.12855262 0.052640259 1.3987808e-38
0.033825427 0.13074544 0.053581834 1.4362328e-38
0.033660345 0.13377677 0.055409074 1.4454182e-38
0.029977858 0.051308885 0.060277462 1.27039e-38
0.028764557 0.05373913 0.058395207 1.2980135e-38
0.028487392 0.12857527 0.053305328 1.7309367e-38
0.029924687 0.13080287 0.055214167 1.6390664e-38
0.030939981 0.1331037 0.055752397 1.5743129e-38
0.027154185 0.052503731 0.061680615 1.2425917e-38
0.025930256 0.054940317 0.059967101 1.2332613e-38
0.024329379 0.12873685 0.054756999 1.5841037e-38
0.025562294 0.13029227 0.055860341 1.6116185e-38
0.023054682 0.056617964 0.061847091 1.1044765e-38
0.016532421 0.061948359 0.059170246 9.7547553e-39
0.016193524 0.12604198 0.055830419 1.5011661e-38
0.014547385 0.059157796 0.062026858 7.2676033e-39
0.014498778 0.061955906 0.059391975 8.2803273e-39
0.012125582 0.12469454 0.056367159 1.5655938e-38
0.013271526 0.12497123 0.05823952 1.5197122e-38
0.0094102472 0.12470461 0.056663156 1.381279e-38
0.011224285 0.12634519 0.058369279 1.4460272e-38
0.0053372905 0.12471973 0.05710721 1.1968862e-38
0.0057810396 0.1256822 0.059009492 1.1876323e-38
0.0037363172 0.12637296 0.059185684 1.1600787e-38
0.14512737 0.099686079 0.0022048354 1.2522749e-38
0.12999243 0.097854756 0.0027037263 1.6204122e-38
0.12295884 0.11167871 0.010267317 1.3073794e-38
0.07059066 0.080281124 0.023748934 1.2980479e-38
0.069844946 0.085662976 0.022818029 1.104689e-38
0.093389422 0.083613381 0.022357762 1.3258517e-38
0.072768584 0.063150346 0.029122233 1.6755117e-38
0.092666574 0.077619039 0.019810796 1.6571084e-38
0.15023257 0.015292635 0.053675711 7.7321884e-39
0.14853169 0.017887007 0.051793516 8.6526691e-39
0.14668956 0.01650147 0.054610312 9.4828221e-39
0.14585409 0.018575897 0.052711189 9.8519662e-39
0.1420076 0.019661214 0.053825438 1.1143067e-38
0.13778484 0.019966519 0.05534637 1.1600106e-38
0.13829142 0.022029731 0.052629054 1.2244749e-38
0.13395968 0.020117721 0.055854917 1.077392e-38
0.12960294 0.020338392 0.056719124 9.9452436e-39
0.12617911 0.020694586 0.057068884 9.2022864e-39
0.12670302 0.02207274 0.053892493 9.6625863e-39
0.12272516 0.020710038 0.056773186 8.6523188e-39
0.12202175 0.022086008 0.05641973 9.2973589e-39
0.11834534 0.020177633 0.057153761 7.7368505e-39
0.11924703 0.022098361 0.055713832 1.0128899e-38
0.11369929 0.0019637197 0.059714198 2.1154828e-39
0.1145186 0.020740494 0.057667792 7.2787702e-39
0.11050259 0.00015448406 0.059851229 3.3150784e-39
0.11049199 0.0029015485 0.059664428 4.1488244e-39
0.11180439 0.020747937 0.058636069 6.4483509e-39
0.11037015 0.022131303 0.056681633 1.03162e-38
0.10638108 0.0001914259 0.059626877 2.2119777e-39
0.10637876 0.0029265936 0.059776068 4.8003076e-39
0.10638427 0.0056546982 0.060261011 1.6697424e-38
0.10627476 0.022830628 0.057081342 1.2799302e-38
0.10225715 0.00025000796 0.058729172 2.4871759e-39
0.10227527 0.0029416066 0.06022346 8.2086985e-39
0.10364623 0.0056648701 0.060559511 1.7435384e-38
0.10182618 0.023190228 0.057038665 1.7496624e-38
0.098181754 0.00021102652 0.060857654 1.1953791e-39
0.098408148 0.0024835374 0.061181545 1.1607688e-38
0.098362178 0.022996351 0.058539569 1.7962645e-38
0.096699387 0.024920579 0.056976318 1.9705744e-38
0.096944675 0.14549372 0.049708545 2.1548609e-38
0.09545245 0.00019951537 0.061828852 4.3167336e-39
0.093799442 0.023169912 0.059861839 1.5840382e-38
0.093971014 0.025386782 0.057242572 1.9522079e-38
0.093194202 0.14371192 0.049736083 1.9803688e-38
0.093539573 0.14573166 0.051408708 2.0907531e-38
0.089889407 0.023576628 0.060165167 1.4457817e-38
0.089877613 0.026314134 0.057626486 1.8233145e-38
0.089784913 0.14372456 0.050107777 1.9432052e-38
0.089436129 0.14607584 0.051749527 2.0260728e-38
0.086064368 0.023041928 0.060283661 1.0682122e-38
0.086132228 0.025301853 0.058104992 1.546837e-38
0.085351795 0.14399955 0.050069213 1.8600457e-38
0.085605055 0.14632195 0.052302659 1.9338049e-38
0.082775578 0.023877677 0.060989201 1.0586699e-38
0.0810159 0.026347028 0.058592618 1.4179794e-38
0.080922216 0.14367391 0.050575554 2.0438225e-38
0.082255669 0.14674768 0.052236199 1.8786274e-38
0.082576603 0.15000683 0.052986383 1.8324245e-38
0.078936785 0.02499117 0.0616014 1.1967794e-38
0.078049406 0.026816553 0.059556901 1.4458148e-38
0.077506319 0.14377014 0.051446497 2.0808511e-38
0.078511201 0.14561847 0.052050531 2.1179062e-38
0.075106949 0.027200211 0.061398268 1.3900308e-38
0.073507391 0.029111372 0.05922395 1.4728312e-38
0.073052809 0.14426798 0.052739322 1.9238666e-38
0.075288728 0.14637005 0.054031551 1.9798286e-38
0.070443168 0.028317751 0.062234759 1.2151498e-38
0.069865048 0.030949207 0.059496224 1.5836777e-38
0.069673374 0.14405772 0.051778555 1.9611719e-38
0.069586165 0.14593321 0.054684639 1.8691968e-38
0.066598676 0.02847239 0.063047469 1.224046e-38
0.06662257 0.030523865 0.061896265 1.5283964e-38
0.066178776 0.14451623 0.054817915 2.0627698e-38
0.066163614 0.14594594 0.055057764 2.0902128e-38
0.062947109 0.028714933 0.063429952 1.2888324e-38
0.06218791 0.030880047 0.062104464 1.4729352e-38
0.061812926 0.14393908 0.055065632 1.9803689e-38
0.062056545 0.14596117 0.055505514 2.1090825e-38
0.058406144 0.030557474 0.063127935 1.3712682e-38
0.058356568 0.14267848 0.054874122 1.8049799e-38
0.055633787 0.031947933 0.064007938 1.3804858e-38
0.053042077 0.033292048 0.061174273 1.3068375e-38
0.05393637 0.14329785 0.054810643 1.7589565e-38
0.050229773 0.034463678 0.062913954 1.2979423e-38
0.051167477 0.14308852 0.055883765 1.8050892e-38
0.046405993 0.035527691 0.063158154 1.2057827e-38
0.044846825 0.03742718 0.06178695 1.2240769e-38
0.04558016 0.14313743 0.055608749 1.6759818e-38
0.045667998 0.14590934 0.05662787 1.5574611e-38
0.043361075 0.036098357 0.064056873 1.1970999e-38
0.042038966 0.038829558 0.063150167 1.205854e-38
0.041423269 0.041544609 0.061879337 1.187273e-38
0.040376749 0.14006174 0.055253386 1.7123178e-38
0.041818734 0.14282925 0.056166828 1.5567766e-38
0.042270996 0.14586562 0.056665957 1.6220344e-38
0.039174993 0.040252667 0.065238297 1.1690135e-38
0.038605809 0.042269878 0.063397944 1.1591852e-38
0.037350684 0.13959023 0.056019664 1.5563783e-38
0.038461979 0.14335664 0.057397902 1.4557588e-38
0.038783174 0.14604756 0.058042884 1.4929638e-38
0.035739712 0.043700267 0.065377831 1.122199e-38
0.033225477 0.046363872 0.062445402 1.0763882e-38
0.033575237 0.13598226 0.056275785 1.4638933e-38
0.034156319 0.13890296 0.057188869 1.4917715e-38
0.035420939 0.14320233 0.057932794 1.5483137e-38
0.036045138 0.14605771 0.058341384 1.5671127e-38
0.030584108 0.048024811 0.064301014 1.0672037e-38
0.0291228 0.049799696 0.062658727 1.1686527e-38
0.028137073 0.13189773 0.05714947 1.6022957e-38
0.029594004 0.13486105 0.058300018 1.5283242e-38
0.031078991 0.13869563 0.059051752 1.5009547e-38
0.027507786 0.048539609 0.065946281 1.0583742e-38
0.026132688 0.05095648 0.064317942 1.1227363e-38
0.026092082 0.13190532 0.057372391 1.6115483e-38
0.026429951 0.1351018 0.059007406 1.4454556e-38
0.026149005 0.13819429 0.059960842 1.353224e-38
0.02375412 0.051634971 0.065892637 1.0213898e-38
0.022405528 0.054890741 0.064220846 1.0676692e-38
0.021335587 0.12781826 0.058171809 1.509561e-38
0.022014618 0.13135538 0.06020838 1.4361979e-38
0.022577442 0.13526893 0.060425222 1.2796464e-38
0.022408277 0.13880023 0.060040057 9.8559108e-39
0.018694773 0.05607596 0.065217376 9.2015689e-39
0.019972235 0.12782331 0.058320463 1.4727545e-38
0.018737845 0.13074967 0.060847998 1.4085039e-38
0.019660123 0.13444 0.060926735 1.0313325e-38
0.014505431 0.056816362 0.066464841 8.097008e-39
0.014104411 0.12719554 0.060853183 1.47333e-38
0.014201842 0.12965149 0.061850846 1.4363085e-38
0.0099248141 0.12773496 0.060936987 1.2153612e-38
0.0097512454 0.13001148 0.062312484 9.9405395e-39
0.0064290017 0.12755635 0.061432004 1.0121392e-38
0.0060086921 0.13102314 0.062428296 6.9949933e-39
0.0066569746 0.13380131 0.0623914 7.090765e-39
0.0033738911 0.12817347 0.062126935 9.292345e-39
0.13587165 0.079002053 0.004519403 1.9152929e-38
0.070560351 0.074747913 0.024978042 1.4821876e-38
0.095401824 0.08738067 0.020754099 1.4915162e-38
0.024532542 0.090476781 0.038195193 1.3437806e-38
0.077417254 0.07906986 0.026147008 1.5742764e-38
0.14895776 0.013713431 0.057073891 7.5478069e-39
0.14604597 0.014702573 0.057756484 9.3924202e-39
0.14241827 0.015933605 0.058443248 1.0406216e-38
0.14139199 0.017874736 0.057615876 1.0773928e-38
0.13803208 0.016499804 0.059085429 9.115141e-39
0.13795999 0.017887477 0.057990134 1.0220404e-38
0.13390797 0.016515112 0.059535086 8.3804501e-39
0.13349707 0.018248472 0.058453083 9.761937e-39
0.13047123 0.016527867 0.059909701 7.3677401e-39
0.13063663 0.018373901 0.058757126 9.1176522e-39
0.12703574 0.016195709 0.06030792 4.7898638e-39
0.12699226 0.018614462 0.059475005 8.1942693e-39
0.12297168 0 0.061860144 4.3285619e-39
0.12227412 0.0027618799 0.061747372 7.3706225e-39
0.12191638 0.0065572243 0.061526835 1.0039939e-38
0.12201604 0.010580804 0.061240613 2.0211026e-39
0.12291037 0.016555928 0.060734034 2.4842752e-39
0.12287962 0.018628431 0.060091496 6.8166949e-39
0.11882114 3.7055463e-05 0.061638951 4.2327341e-39
0.11881994 0.002787644 0.061674893 6.1731457e-39
0.11881322 0.0069183279 0.061617076 1.1793792e-38
0.11878932 0.010372099 0.061103344 4.1419314e-39
0.11875764 0.016234152 0.060453713 1.0116646e-39
0.11908258 0.018301971 0.060024619 4.8809524e-39
0.11468858 6.3207e-05 0.061752677 3.2221737e-39
0.11513426 0.0032762773 0.061484158 6.0874563e-39
0.11466305 0.0069520045 0.061284065 1.4927036e-38
0.11468515 0.010378079 0.062055528 7.4574035e-39
0.11466342 0.016241627 0.061656713 1.6537606e-39
0.11490802 0.018796569 0.060850263 3.4930069e-39
0.11054207 0.0076561607 0.061686277 1.5580652e-38
0.11054744 0.010697272 0.06205374 7.734366e-39
0.1112254 0.016599296 0.062007964 1.4704469e-39
0.11028846 0.019593321 0.061569452 3.4051721e-39
0.10642365 0.0076714531 0.06213522 1.6415835e-38
0.1064252 0.0104183 0.062451303 8.2972452e-39
0.10666585 0.02020487 0.06185621 6.0748222e-39
0.10214173 0.0071623195 0.063015997 1.6967564e-38
0.10230954 0.010427197 0.063236475 4.8882139e-39
0.10192814 0.020428808 0.062509894 1.0036021e-38
0.10293805 0.022150673 0.061525464 1.5747784e-38
0.09774366 0.0038000792 0.063348711 1.7605025e-38
0.098192036 0.0070084576 0.063304126 1.6954958e-38
0.098191261 0.0097494647 0.063900948 7.632472e-39
0.098491862 0.02044156 0.06288445 1.0679615e-38
0.096770585 0.022171518 0.063206375 1.777861e-38
0.096988186 0.14763263 0.054094613 2.2477393e-38
0.09341003 0.0001421757 0.06407249 8.377583e-39
0.094258465 0.0027222894 0.063803136 1.6311055e-38
0.094762266 0.0070111956 0.064126909 1.4824729e-38
0.094754517 0.0097622294 0.064275622 5.2349834e-39
0.094716191 0.02010968 0.06357187 8.7463809e-39
0.093550466 0.14755997 0.053971171 2.1739094e-38
0.093551092 0.14911047 0.054873288 2.2566694e-38
0.090666175 0.00011990592 0.065382123 9.4918059e-39
0.091343313 0.0028766748 0.065119445 1.2718692e-38
0.092153825 0.0067366678 0.064766884 9.6671615e-39
0.091279432 0.020122433 0.063946545 8.466913e-39
0.090115875 0.14826158 0.05429846 2.1365624e-38
0.087842688 0.020135188 0.06432122 8.367858e-39
0.087025791 0.14861748 0.054611742 2.0352568e-38
0.086399235 0.15092802 0.05472374 2.044512e-38
0.085977048 0.15378791 0.054372609 1.7966971e-38
0.082336217 0.022225089 0.064779997 8.1831472e-39
0.082565419 0.14828961 0.055121601 1.9246904e-38
0.082898423 0.15104386 0.054896712 1.8602635e-38
0.083233982 0.15310922 0.054718852 1.7965201e-38
0.078898534 0.023617538 0.064724267 1.0397591e-38
0.078791484 0.14795917 0.055556595 2.0717721e-38
0.078981414 0.15071455 0.055750549 1.8601579e-38
0.07477776 0.024321731 0.064958394 1.0768165e-38
0.073407352 0.026393505 0.064462245 1.2056042e-38
0.074051015 0.14794207 0.056277454 2.0814929e-38
0.07293056 0.149187 0.057121396 2.2288243e-38
0.070455663 0.024042509 0.065665841 1.0213927e-38
0.070661753 0.026403697 0.064761639 1.1041886e-38
0.070544437 0.14738636 0.057001054 1.9433846e-38
0.066721186 0.024056612 0.066217005 1.0856036e-38
0.066543311 0.02641898 0.065210581 1.1134053e-38
0.065734208 0.14809307 0.057478487 1.8692336e-38
0.062403388 0.024712997 0.06653583 1.1319877e-38
0.062179644 0.027355194 0.065959513 1.1781591e-38
0.0619733 0.14836603 0.05736661 1.6113771e-38
0.061240483 0.15061006 0.058301449 1.502468e-38
0.058956053 0.025071142 0.067140222 1.0126387e-38
0.058557112 0.028379288 0.066352487 1.2151469e-38
0.057867639 0.14493692 0.058049917 1.7959059e-38
0.058529355 0.14774659 0.058121502 1.6761979e-38
0.054816619 0.029225435 0.067308307 1.2434514e-38
0.054612443 0.031058848 0.066533029 1.4174711e-38
0.055122014 0.14494711 0.058349192 1.6666556e-38
0.056444362 0.1464889 0.059107482 1.7038922e-38
0.052744355 0.031992406 0.06734544 1.3520744e-38
0.05168999 0.14495984 0.05872339 1.6473201e-38
0.052320257 0.14650422 0.059557199 1.5197561e-38
0.043173268 0.035231408 0.0671615 1.1598992e-38
0.034832343 0.043096017 0.068543136 1.0857507e-38
0.033110492 0.14376181 0.061507881 1.594628e-38
0.032077834 0.044485882 0.068749011 1.0493015e-38
0.030750208 0.046309531 0.068097234 1.0029868e-38
0.029513273 0.14044967 0.061455369 1.5294055e-38
0.03035846 0.14377898 0.061855435 1.5945933e-38
0.026288748 0.04758697 0.068413317 1.0396841e-38
0.026289165 0.14027238 0.062071919 1.3725264e-38
0.022807136 0.048305791 0.069248736 1.0763127e-38
0.021698922 0.051109206 0.068421781 9.6589079e-39
0.020842627 0.1340524 0.062840581 1.2703195e-38
0.022142649 0.14101698 0.06272614 9.7619215e-39
0.020717427 0.14248259 0.063285708 7.6371817e-39
0.019250318 0.052338205 0.069277525 9.9376766e-39
0.019079357 0.054149956 0.068499923 9.663968e-39
0.016731858 0.13200104 0.063430071 1.3533299e-38
0.018409252 0.13582253 0.063237429 9.2999092e-39
0.018713817 0.13965103 0.063194275 9.026174e-39
0.019342721 0.14248769 0.063435674 7.4527835e-39
0.015288994 0.054748829 0.069679856 9.1064796e-39
0.014672637 0.1320087 0.063654602 1.2059621e-38
0.016621418 0.13490978 0.064251482 9.1122431e-39
0.011222638 0.13204649 0.064197063 9.1136641e-39
0.01137314 0.13533127 0.064039946 7.3673491e-39
0.00849244 0.1327205 0.064281225 7.5467055e-39
0.0074539185 0.1351354 0.064229488 6.8166949e-39
0.14503784 0.059525404 0.0083231926 2.0257475e-38
0.10766361 0.10514074 0.0045718551 1.9893378e-38
0.13678369 0.12318008 0.0096313953 1.6483208e-38
0.073792621 0.093113847 0.021036625 8.8388638e-39
0.099684715 0.097121134 0.016756773 1.3808825e-38
0.098542519 0.080448791 0.016982436 1.5006643e-38
0.027550306 0.10243294 0.036039174 1.1136947e-38
0.14626351 0.011921624 0.062532306 8.198895e-39
0.14253509 0.01226739 0.063924372 8.9350279e-39
0.14198363 0.014041439 0.06109041 1.0129621e-38
0.13900763 0.012295835 0.063299596 8.1942371e-39
0.13819614 0.014400238 0.061563849 8.8396191e-39
0.13475871 0.014410755 0.062106729 7.918746e-39
0.1313466 0.012339631 0.063125491 4.6043571e-39
0.13130085 0.014425827 0.062315643 6.3546489e-39
0.12584364 0.00060086884 0.064025819 5.8083359e-39
0.12595592 0.0039940663 0.066302121 9.5814904e-39
0.12720546 0.012354998 0.063576937 1.9307258e-39
0.12714641 0.014307396 0.062441647 3.5891584e-39
0.1244299 0.0033882875 0.063485503 9.3056293e-39
0.1238837 0.0078116376 0.064538956 7.5499495e-39
0.1234477 0.012010133 0.064767361 8.2760127e-40
0.12302613 0.014456542 0.063217759 1.7467003e-39
0.11890195 0.012393493 0.06397754 1.194223e-39
0.11888319 0.014335366 0.063544333 5.521172e-40
0.11475942 0.012411432 0.064261019 2.571754e-39
0.11475393 0.014347997 0.064196348 4.5954322e-40
0.11334818 0.017955553 0.063699782 2.1140115e-39
0.1106117 0.012431936 0.064376771 3.122767e-39
0.1105912 0.017965786 0.064000368 1.9299832e-39
0.10647622 0.012447288 0.064827621 2.939096e-39
0.1064712 0.015211418 0.064863145 6.4321281e-40
0.10610984 0.018328277 0.064465225 3.217122e-39
0.10234076 0.012462636 0.065278411 1.1023861e-39
0.10273154 0.015420219 0.065465629 7.350441e-40
0.10259785 0.01854728 0.06503576 4.4131541e-39
0.10046016 0.14804694 0.056207597 1.9164012e-38
0.098900601 0.011779845 0.065953135 4.5956284e-40
0.099431708 0.015040668 0.067688584 7.3540284e-40
0.098646618 0.018468674 0.06560725 4.5986216e-39
0.099094987 0.14822289 0.05735296 2.1649732e-38
0.099101186 0.15120852 0.058380306 2.3128072e-38
0.099101052 0.15412119 0.058965385 1.7039569e-38
0.095459968 0.011778537 0.06725353 5.5209338e-40
0.095459759 0.015224678 0.068418086 1.6537634e-39
0.095778339 0.018361282 0.066348255 4.5979167e-39
0.095121436 0.15131441 0.058331907 2.3214908e-38
0.094948545 0.1541366 0.059418082 1.7405479e-38
0.089968875 0.0034731906 0.068757832 9.8488357e-39
0.090504944 0.007786775 0.067698419 2.3895376e-39
0.092011958 0.011097386 0.067760885 1.6551927e-39
0.092343122 0.015591316 0.06792134 4.0429282e-39
0.091292351 0.018037409 0.066104412 6.4385306e-39
0.091492936 0.15189105 0.058941007 2.2564868e-38
0.090100087 0.15519646 0.059875369 1.6213438e-38
0.088559866 0.01111309 0.067884982 2.755795e-39
0.086807176 0.019090172 0.066774487 8.3692719e-39
0.088032842 0.15277314 0.060267031 2.2103915e-38
0.088022545 0.15555146 0.060078084 1.61252e-38
0.083350509 0.02048447 0.06756103 8.2778161e-39
0.077018142 0.15020913 0.058621287 1.998305e-38
0.074702844 0.022245886 0.069309771 9.7497134e-39
0.075637095 0.15090597 0.058724642 1.9985558e-38
0.071264029 0.022260018 0.069012344 8.9268009e-39
0.065774933 0.022282444 0.068602443 1.0767087e-38
0.063702062 0.023673577 0.068733752 1.1226263e-38
0.058864545 0.027150141 0.069024563 1.1508249e-38
0.054686908 0.14769764 0.061435103 1.5661035e-38
0.054949123 0.14965689 0.061406851 1.566465e-38
0.050560895 0.14767876 0.061685681 1.5110767e-38
0.031083003 0.14645986 0.063897491 1.63122e-38
0.027425844 0.14140081 0.064643264 1.5664271e-38
0.027091146 0.14343721 0.065145433 1.5303082e-38
0.026721224 0.14555375 0.064436138 1.5670775e-38
0.023282677 0.14349136 0.064953029 9.8516341e-39
0.014615893 0.13615671 0.066690028 7.2737185e-39
0.14863747 0.11105131 0.0036203265 1.3996078e-38
0.12716827 0.10413352 0.0037454367 1.7957994e-38
0.12127778 0.11483449 0.0093521476 1.3903533e-38
0.073812008 0.08162728 0.021820366 1.2612364e-38
0.072150886 0.080878034 0.021362364 1.5836045e-38
0.14685729 0.0087373238 0.065710068 6.2609693e-39
0.14269342 0.0087527782 0.066164076 6.6304833e-39
0.14261295 0.010860704 0.065020442 7.7375581e-39
0.13925704 0.0087559521 0.067043483 5.6170755e-39
0.13914779 0.010873562 0.065398157 7.4570336e-39
0.13616306 0.0091065653 0.067861736 4.2362808e-39
0.13576502 0.011559259 0.067065239 6.2631539e-39
0.13116637 0.0085503161 0.068109751 2.2072945e-39
0.13152444 0.010901857 0.066229343 3.2235862e-39
0.12809534 0.0011772793 0.067269325 8.1139287e-39
0.12813887 0.0039324444 0.06808424 9.8577199e-39
0.12741159 0.0081201382 0.067541182 4.4199854e-39
0.12736624 0.010917289 0.066682637 6.4429742e-40
0.10258466 0.15289572 0.059676826 2.3401768e-38
0.10257434 0.15567783 0.059487581 1.0761336e-38
0.099098891 0.15847284 0.05967617 2.8525532e-40
0.095231473 0.15640655 0.06104672 9.5527273e-39
0.095648229 0.15955141 0.061995924 2.7723597e-39
0.091486812 0.15580916 0.06119436 1.4353353e-38
0.1356101 0.09042877 0.0028523803 1.242805e-38
0.075745746 0.085893437 0.023189783 1.3163433e-38
0.098713279 0.060099047 0.024101138 1.3623672e-38
0.061040711 0.075067453 0.030554891 1.4819728e-38
0.14365351 0.0065803956 0.069736719 5.1550127e-39
0.1401321 0.0066049471 0.069615781 3.8664277e-39
0.093577445 0.15923002 0.06426084 2.7576026e-39
0.091021568 0.15947261 0.064523458 2.0225431e-39
0.08800289 0.15925071 0.064868569 5.3268609e-39
0.0090096816 0.11338798 0.04336524 7.6385382e-39
0.073680811 0.035799392 0.049673021 1.9426641e-38
0.10331507 0.14574948 0.04244113 5.1597505e-39
0.098713279 0.060099047 0.024101138 1.3623672e-38
0.068589516 0.076455705 0.030306995 1.4085405e-38
0.028873462 0.078191169 0.038561404 1.3623348e-38
0.1092143 0.084183216 0.0056775212 8.927133e-39
0.10876485 0.087566167 0.0051031709 8.5622797e-39
0.1031222 0.093313858 0.022019029 6.8087789e-39
0.054647513 0.092322029 0.025703669 1.7398337e-38
0.15367535 0.077304162 0.0030820966 1.7586335e-38
