# .PCD v0.7 - Point Cloud Data file format
VERSION 0.7
FIELDS x y z rgb
SIZE 4 4 4 4
TYPE F F F F
COUNT 1 1 1 1
WIDTH 978
HEIGHT 1
VIEWPOINT 0 0 0 0 1 0 0
POINTS 978
DATA ascii
0.028424688 0.11719158 0.032516539 1.2795747e-38
0.029057175 0.12073958 0.035357893 1.2242923e-38
0.030938782 0.12329955 0.036074519 1.2519862e-38
0.02708327 0.081994265 0.032608509 8.5415181e-39
0.025868326 0.085957065 0.032128274 1.0565079e-38
0.025529489 0.0888239 0.032698393 1.0110604e-38
0.024259612 0.092247948 0.032354295 9.6478278e-39
0.023876294 0.096633449 0.031375825 8.5446864e-39
0.023523815 0.10035625 0.030763924 8.5414761e-39
0.023523815 0.10676509 0.031377077 8.6357778e-39
0.023425125 0.10922854 0.032975078 7.8100193e-39
0.024341777 0.11327834 0.033198893 8.5508031e-39
0.025012165 0.11671729 0.034311175 9.8393755e-39
0.026440687 0.12066712 0.036389351 9.9265601e-39
0.021111116 0.092700474 0.034047723 1.4720688e-38
0.020786427 0.09690056 0.03314054 1.3242681e-38
0.020837046 0.10146177 0.032895565 1.1863365e-38
0.020820163 0.10529881 0.033489764 1.1312363e-38
0.02073437 0.10907036 0.034986317 1.1407796e-38
0.020885423 0.11276498 0.03544724 1.1494236e-38
0.016964242 0.096926548 0.034759581 1.1042572e-38
0.016885348 0.10129924 0.034727693 9.9369788e-39
0.016885348 0.10516161 0.035097241 1.0029902e-38
0.01724387 0.10853618 0.036218643 1.1779105e-38
0.017444484 0.11153422 0.036648929 1.3345688e-38
0.014231555 0.097957663 0.0357548 9.6646406e-39
0.013603486 0.10118765 0.035974205 9.0182482e-39
0.15379992 0.1079641 0.0019178987 1.5927895e-38
0.13382204 0.10134478 0.0032953024 1.611264e-38
0.11676984 0.10943799 0.0086362958 1.0029889e-38
0.15368453 0.10435079 0.0076614022 1.5284624e-38
0.1287137 0.10896663 0.0092571378 1.4547827e-38
0.085878283 0.0978911 0.018329263 1.7585235e-38
0.10406464 0.05820065 0.017765522 1.7124637e-38
0.16370744 0.063855588 0.016698599 2.3417317e-38
0.02708327 0.081994265 0.032608509 8.5415181e-39
0.16370744 0.1402629 0.024008512 2.3417686e-38
0.16084233 0.063332029 0.01680696 2.3141099e-38
0.16190021 0.065654412 0.016423404 2.341769e-38
0.16228649 0.13898431 0.023052752 2.3325854e-38
0.16106164 0.14089459 0.023896039 2.2956716e-38
0.1566875 0.061757803 0.016977251 2.2396355e-38
0.1571832 0.14205196 0.024423063 2.2396708e-38
0.15467155 0.14404011 0.025508225 2.2483853e-38
0.15119161 0.059439003 0.017515302 2.2480981e-38
0.15326384 0.14275599 0.024550259 2.2936561e-38
0.15173888 0.1443353 0.025652766 2.2568507e-38
0.14840992 0.057806671 0.017439604 2.2482417e-38
0.14787209 0.14579073 0.025722384 2.228436e-38
0.14692649 0.14783272 0.026846766 2.2196842e-38
0.14345033 0.055463329 0.018110216 2.2844366e-38
0.14488566 0.057308465 0.017430961 2.2663203e-38
0.14456341 0.14653149 0.026007533 2.0996493e-38
0.14434481 0.14823356 0.027210355 2.1918798e-38
0.1400761 0.055272147 0.018095136 2.3023718e-38
0.14040761 0.14970896 0.027172565 2.1277397e-38
0.13530892 0.051861063 0.01912874 2.2840401e-38
0.13655362 0.054328173 0.018701732 2.3023721e-38
0.13653822 0.15030964 0.027717471 2.0536965e-38
0.13208182 0.051822528 0.019531548 2.2839297e-38
0.13266981 0.053876847 0.018979132 2.265528e-38
0.13269012 0.14989057 0.028403282 1.9159053e-38
0.13272724 0.1528433 0.029114962 2.0905727e-38
0.12880138 0.051890299 0.019276381 2.2648422e-38
0.12877375 0.053236604 0.019071162 2.2649515e-38
0.12855893 0.14655587 0.028026164 1.7683182e-38
0.12882774 0.1495652 0.028955102 1.8326771e-38
0.12498219 0.051737733 0.020417869 2.2008114e-38
0.1249069 0.053190418 0.0195539 2.2190709e-38
0.12494992 0.15016788 0.029404938 1.8879204e-38
0.12175509 0.051699191 0.020820737 2.2097778e-38
0.12105134 0.053764515 0.020263314 2.1914115e-38
0.12122728 0.14996491 0.029655635 1.9246205e-38
0.11720517 0.053665727 0.021075904 2.1822289e-38
0.11719419 0.14943203 0.030070543 1.9429879e-38
0.11333548 0.053619511 0.021559 2.1455314e-38
0.11330634 0.14745133 0.03003335 1.8142393e-38
0.11364362 0.1490677 0.030398548 1.8972487e-38
0.10909376 0.053672537 0.022026122 2.1088316e-38
0.10943948 0.14740515 0.030516088 1.8883502e-38
0.10908598 0.15053728 0.031149566 1.9067563e-38
0.10455123 0.053174227 0.022319317 1.9338041e-38
0.10510324 0.15044132 0.032365263 1.5749256e-38
0.10042964 0.053491801 0.023003876 1.6665801e-38
0.10041682 0.14859053 0.031766117 1.4082531e-38
0.096834727 0.054799616 0.024054289 1.5374708e-38
0.095921405 0.056647241 0.024042428 1.4637873e-38
0.09688016 0.14627978 0.032243669 1.3905319e-38
0.096583687 0.14723146 0.033131421 1.4640727e-38
0.093972072 0.057993531 0.023910642 1.0670601e-38
0.092038639 0.08641959 0.026873708 3.8628544e-39
0.092038639 0.088359304 0.027059317 4.9655964e-39
0.091729484 0.12162549 0.030787051 5.5220198e-39
0.091729477 0.12486026 0.031096458 6.5361745e-39
0.091394164 0.13813762 0.03190279 3.5952666e-39
0.091909751 0.14047143 0.03206116 5.2461448e-39
0.092711158 0.14416346 0.033325791 7.8262043e-39
0.089683004 0.061773941 0.025150061 1.3897673e-38
0.088055171 0.065597974 0.025990963 1.1503143e-38
0.08753413 0.069509663 0.026160896 1.0122764e-38
0.087527305 0.07278771 0.026137888 9.2937309e-39
0.087527305 0.078606851 0.026694596 6.8066209e-39
0.088051073 0.081411287 0.027301848 5.7956962e-39
0.088671215 0.08516451 0.027937174 5.4261962e-39
0.088824034 0.088285126 0.027794659 5.7946088e-39
0.088612624 0.11781423 0.030815125 7.5470684e-39
0.088838629 0.11994314 0.031496465 6.9020648e-39
0.09012948 0.12578623 0.031892896 6.9975198e-39
0.089603424 0.12929486 0.031889796 8.2900761e-39
0.088816255 0.13293427 0.031729758 7.5495782e-39
0.089466326 0.13681263 0.032271981 6.6283561e-39
0.09012948 0.14067918 0.033317685 6.8991725e-39
0.085929602 0.069758624 0.026808679 1.1042905e-38
0.0853296 0.073501185 0.027206182 9.4774145e-39
0.084961064 0.077195808 0.02760613 8.2799503e-39
0.085150518 0.081417918 0.028275371 7.8175218e-39
0.084964469 0.084942944 0.028523624 7.3561976e-39
0.085593887 0.087635763 0.027801991 6.8948607e-39
0.084963322 0.11753356 0.031585455 9.7561594e-39
0.081093587 0.074524261 0.028126955 1.2610233e-38
0.08093223 0.076950535 0.02837944 1.1229469e-38
0.080904998 0.081416748 0.028376281 9.8401056e-39
0.081514351 0.084550865 0.02818954 9.471693e-39
0.081345126 0.11807846 0.031654656 1.1692241e-38
0.08023303 0.12027204 0.032612085 1.1324909e-38
0.077866487 0.078370839 0.028901517 1.2699578e-38
0.077378824 0.080865763 0.028568923 1.3714113e-38
0.07334853 0.078316882 0.029465556 1.7125676e-38
0.073670864 0.079968743 0.029329836 1.666326e-38
0.073349059 0.12173909 0.032944739 1.2705345e-38
0.073348537 0.12364326 0.033801913 1.24302e-38
0.069476016 0.078270629 0.02994895 1.8134806e-38
0.069476016 0.079565667 0.030072868 1.7675264e-38
0.069481991 0.12171163 0.033091843 1.3165607e-38
0.069476016 0.123597 0.034285367 1.2797542e-38
0.066248909 0.078232087 0.030351818 1.8411383e-38
0.065607995 0.079559058 0.030222058 1.7491223e-38
0.065607682 0.1216276 0.034246802 1.3165977e-38
0.066248909 0.12355846 0.034688234 1.2981228e-38
0.061730966 0.078178123 0.030915856 1.7117431e-38
0.061413065 0.079822347 0.030860066 1.6470642e-38
0.06148009 0.12171169 0.034707308 1.3806631e-38
0.061085552 0.1234968 0.035332799 1.3070527e-38
0.057858445 0.078131877 0.03139931 1.5461884e-38
0.057440288 0.080127858 0.031136751 1.5092018e-38
0.057864733 0.12125512 0.035234869 1.8964921e-38
0.05914928 0.12347367 0.035574555 1.4175778e-38
0.053985916 0.078085624 0.031882703 1.5739861e-38
0.052953236 0.079627343 0.032160342 1.5922468e-38
0.053340502 0.12146173 0.036113858 1.7032781e-38
0.048851892 0.080707476 0.031970441 1.9148254e-38
0.049503237 0.11759359 0.035214782 1.2983044e-38
0.049002022 0.12095378 0.036105633 1.5837834e-38
0.048822552 0.12335034 0.036863685 1.5466473e-38
0.045249708 0.081205457 0.032269418 2.0163128e-38
0.045314148 0.12174627 0.036139786 1.6850918e-38
0.044950023 0.12330408 0.037347138 1.6850224e-38
0.041077502 0.077931456 0.033494174 1.8321729e-38
0.040432081 0.07921879 0.033698678 1.8045504e-38
0.041769534 0.12202723 0.036613226 1.5559829e-38
0.041085742 0.1239145 0.037723601 1.6022253e-38
0.037214167 0.077257901 0.033747673 1.537364e-38
0.037386298 0.12469079 0.038053036 1.3720223e-38
0.033351466 0.077879399 0.03412503 1.3438597e-38
0.033530384 0.12465782 0.038282573 1.1877718e-38
0.030750759 0.077808119 0.034783363 1.2699239e-38
0.028880015 0.079199553 0.034139693 1.196562e-38
0.029496819 0.12444503 0.038824558 1.2428011e-38
0.026946589 0.080469608 0.034504831 7.9044121e-39
0.024941988 0.084213942 0.036127985 1.0383198e-38
0.024368688 0.087551102 0.035507083 1.0023806e-38
0.024750248 0.12006043 0.039244115 9.8415279e-39
0.02687826 0.12308825 0.039603174 9.8397931e-39
0.023005731 0.085485861 0.036493599 1.2783558e-38
0.021894753 0.088250682 0.036644936 1.3986014e-38
0.020501837 0.090737782 0.03629905 1.4726101e-38
0.022360303 0.11720661 0.039609671 1.0488716e-38
0.019133203 0.089324728 0.037348747 1.5095265e-38
0.017732225 0.091798075 0.037129164 1.3806657e-38
0.016634971 0.11008875 0.038637519 1.2704259e-38
0.01788266 0.11330227 0.039293945 1.4358038e-38
0.019133203 0.11522551 0.039826691 1.4815413e-38
0.014166437 0.092239477 0.038108706 1.2148582e-38
0.013479225 0.095799319 0.03795737 1.0309316e-38
0.012768134 0.10551657 0.038687229 9.1111557e-39
0.014006689 0.10872129 0.039416373 9.7543742e-39
0.015260674 0.11194167 0.040000379 1.2152537e-38
0.011166394 0.0965183 0.038635612 1.0033439e-38
0.01078824 0.10092366 0.039003551 8.649802e-39
0.011479169 0.1048546 0.038786292 8.9271288e-39
0.01138816 0.10736278 0.040050149 9.2962659e-39
0.056133188 0.10635015 0.0019183755 1.6749016e-38
0.098293036 0.10971159 0.0024652481 1.4637151e-38
0.1315794 0.092176974 0.0025319457 1.6848763e-38
0.13216592 0.097714961 0.003015995 1.6110476e-38
0.12566191 0.11309598 0.0087379217 1.2981946e-38
0.1197506 0.086539738 0.0084100366 1.436306e-38
0.13266981 0.053876847 0.018979132 2.265528e-38
0.16077301 0.058904931 0.020644367 2.2676175e-38
0.1617063 0.061271489 0.018728375 2.2955631e-38
0.16134071 0.14277852 0.026234746 2.2954922e-38
0.16141704 0.14495492 0.028506398 2.3049266e-38
0.1551466 0.055364065 0.021014452 2.2398862e-38
0.15693349 0.058191001 0.019709826 2.2397786e-38
0.15866849 0.061058149 0.018078148 2.2490711e-38
0.15711394 0.14529146 0.028458714 2.2491776e-38
0.15206014 0.054536477 0.020817935 2.239346e-38
0.1526747 0.057909429 0.01886946 2.2392389e-38
0.15255615 0.14604649 0.027789056 2.2574265e-38
0.1525498 0.14781934 0.030186832 2.2578213e-38
0.14850885 0.054189146 0.020388365 2.2390947e-38
0.14961937 0.14654781 0.027397037 2.2932625e-38
0.14848417 0.14910233 0.029230833 2.2662864e-38
0.14735618 0.15166518 0.031209052 2.2573887e-38
0.14440936 0.051042408 0.021700561 2.2751095e-38
0.14500186 0.053793587 0.020286083 2.2661055e-38
0.14470699 0.14986117 0.028332889 2.2565964e-38
0.14469093 0.15164299 0.030867696 2.275216e-38
0.14071816 0.050873861 0.020883977 2.293296e-38
0.14057025 0.053384617 0.019624054 2.3024438e-38
0.14044888 0.15212648 0.030503452 2.2291546e-38
0.13706139 0.050748564 0.021028876 2.2657086e-38
0.13678437 0.15221818 0.030569017 2.1370319e-38
0.13290051 0.049995139 0.02127856 2.2931508e-38
0.13292527 0.15300469 0.031419575 2.0906445e-38
0.12899092 0.050219983 0.02145505 2.2649508e-38
0.12907062 0.15276805 0.032268226 1.9893367e-38
0.12519553 0.049333945 0.023029625 2.2008494e-38
0.12563993 0.15293905 0.033054292 1.9891576e-38
0.12109355 0.049629256 0.023164868 2.2190699e-38
0.12097748 0.15234421 0.033331633 2.0442937e-38
0.11737175 0.050007388 0.02334851 2.2372233e-38
0.11743905 0.15197122 0.034163594 2.0261442e-38
0.11367263 0.050062448 0.024213493 2.154501e-38
0.11277653 0.14999859 0.0323686 1.9246903e-38
0.1135495 0.15192413 0.034649074 2.0076669e-38
0.10982737 0.050168663 0.025069654 2.1178705e-38
0.10931408 0.15285432 0.034849823 2.045012e-38
0.10835342 0.15511599 0.035440326 2.1283479e-38
0.10591237 0.05021359 0.024988711 2.044403e-38
0.10553494 0.15286382 0.034712076 1.7500229e-38
0.1057604 0.15508503 0.035764039 1.9343464e-38
0.10145434 0.050601304 0.025153458 1.8047291e-38
0.099633768 0.14940932 0.033967972 1.4181543e-38
0.10212904 0.15166014 0.035893857 1.4090802e-38
0.098005079 0.050393015 0.027400076 1.7306493e-38
0.096639879 0.052862316 0.025783479 1.5467258e-38
0.096984133 0.14849167 0.035479546 1.418118e-38
0.098666146 0.15108366 0.037287414 1.4549955e-38
0.09454456 0.053389244 0.028122663 1.5090195e-38
0.092802294 0.056687117 0.028235793 1.4721396e-38
0.092429101 0.14552952 0.035010695 8.3793682e-39
0.09410724 0.14778273 0.037039697 1.215397e-38
0.090153746 0.058942929 0.026507318 1.685003e-38
0.08810585 0.061106533 0.027984798 1.6664656e-38
0.088861011 0.11728958 0.032252252 7.5499313e-39
0.088861018 0.12155094 0.032659948 6.6258338e-39
0.088491656 0.12488151 0.033025146 6.902771e-39
0.087891452 0.12862618 0.033458948 7.6407186e-39
0.087568268 0.13283737 0.033902526 7.9176096e-39
0.087911949 0.13702215 0.035272121 8.096987e-39
0.088369265 0.14033361 0.035733759 9.3923725e-39
0.089673206 0.14423686 0.036347866 8.9274847e-39
0.091524929 0.14709049 0.037805021 9.8526262e-39
0.08528889 0.061853103 0.030233502 1.8136595e-38
0.085001759 0.06519483 0.028991938 1.5373575e-38
0.0842131 0.068933755 0.028616488 1.2699538e-38
0.083690077 0.072483554 0.028617084 1.0126006e-38
0.083690077 0.078319758 0.029175401 8.832394e-39
0.084336437 0.079624414 0.029218793 8.3721263e-39
0.084982812 0.1185402 0.032860458 9.1100711e-39
0.084982812 0.12113407 0.033108592 8.0984401e-39
0.085021794 0.12490378 0.035826683 7.5488621e-39
0.085218415 0.12840627 0.036812007 7.8247567e-39
0.086325139 0.13271257 0.036747038 8.1934944e-39
0.086331338 0.13660748 0.037456393 9.1136599e-39
0.086331338 0.13921273 0.03770566 9.9448344e-39
0.081294283 0.065134928 0.030746996 1.7585197e-38
0.081114009 0.069090158 0.029516935 1.5097723e-38
0.081104614 0.072452672 0.028939843 1.3716219e-38
0.082397342 0.078304321 0.02933681 9.8422342e-39
0.081750982 0.079593539 0.029541552 9.7482505e-39
0.081535518 0.12152521 0.033580303 9.9416353e-39
0.081124865 0.12488696 0.035753489 9.7576168e-39
0.080272123 0.12785095 0.037382007 1.0866822e-38
0.077057041 0.065224588 0.031795561 1.7122476e-38
0.077237152 0.068896338 0.031111658 1.5833135e-38
0.077229172 0.072968543 0.030152321 1.4633526e-38
0.077041745 0.076572865 0.029845893 1.4079625e-38
0.077231616 0.12488701 0.035344183 1.1509669e-38
0.077242523 0.12803188 0.037781 1.1233094e-38
0.073532797 0.065182492 0.032235503 1.7027053e-38
0.073347308 0.068804823 0.031930447 1.6474591e-38
0.07334727 0.072780132 0.031748235 1.6937701e-38
0.073348224 0.076250844 0.030280352 1.7399399e-38
0.073347501 0.12551756 0.035331249 1.2154709e-38
0.073532172 0.12829445 0.037694991 1.1969569e-38
0.069452107 0.065412894 0.032771647 1.914502e-38
0.069455221 0.068743244 0.032527387 1.9057491e-38
0.069462061 0.072789878 0.031788707 1.9242956e-38
0.069470033 0.076204523 0.030764461 1.8687625e-38
0.069466688 0.12545437 0.036151648 1.270536e-38
0.069453418 0.12794696 0.038585365 1.2797903e-38
0.065742396 0.065089449 0.033208072 1.979292e-38
0.065564685 0.068711661 0.032902002 1.9331934e-38
0.065584086 0.072829038 0.031606019 1.8872744e-38
0.065407172 0.076433912 0.031298339 1.8503586e-38
0.065407164 0.12516163 0.035960138 1.3073071e-38
0.06556274 0.12791666 0.038735211 1.3442564e-38
0.06166172 0.064668536 0.033681929 1.9978391e-38
0.061679021 0.068710521 0.033053875 1.9149703e-38
0.0616991 0.072754569 0.032313347 1.8134119e-38
0.061713643 0.076111883 0.031732798 1.7671678e-38
0.061898321 0.12511972 0.036398172 1.3349282e-38
0.061683699 0.12855548 0.038553655 1.3809194e-38
0.057771623 0.064652674 0.033945501 1.9701068e-38
0.057804815 0.068752259 0.032871068 1.8226322e-38
0.057835452 0.072823226 0.031906724 1.7027026e-38
0.05783546 0.07606557 0.032216907 1.5738465e-38
0.057673864 0.12486083 0.036905527 1.3531866e-38
0.057804808 0.12853011 0.038590014 1.3901744e-38
0.057766505 0.13105583 0.040523887 1.4453493e-38
0.053871296 0.061970249 0.034405172 1.97997e-38
0.053884052 0.06463705 0.034208775 1.896638e-38
0.053906307 0.068647027 0.033802032 1.7305408e-38
0.053957254 0.072776914 0.032390893 1.6477092e-38
0.053957246 0.07601925 0.032701075 1.601539e-38
0.053951316 0.12464263 0.037578583 1.3072329e-38
0.053912468 0.12847367 0.039299905 1.3718783e-38
0.055169702 0.13102481 0.040848076 1.4268382e-38
0.050142467 0.064711004 0.035010576 1.8044431e-38
0.050006397 0.068556026 0.034622192 1.7398327e-38
0.050010405 0.072473347 0.034883916 1.6477815e-38
0.050071016 0.07659366 0.033470571 1.6292351e-38
0.048786342 0.079199836 0.033656776 1.8690173e-38
0.050207272 0.12472025 0.038845181 1.3532589e-38
0.050003 0.12839457 0.040459931 1.3810262e-38
0.046120867 0.072426893 0.035369456 1.7490541e-38
0.045708969 0.076619238 0.034349859 1.9242946e-38
0.045554511 0.079161234 0.03406024 1.9702862e-38
0.045752622 0.12496622 0.038867414 1.6757635e-38
0.046114221 0.12769996 0.040827096 1.6851996e-38
0.042185694 0.069646426 0.036611676 1.8688354e-38
0.042000569 0.072583549 0.035296023 1.8505046e-38
0.041307494 0.076200783 0.034537017 1.8138054e-38
0.04232268 0.079122633 0.034463704 1.9057497e-38
0.041029938 0.12579687 0.039091885 1.6391364e-38
0.041977756 0.12818462 0.041124523 1.6943475e-38
0.038290486 0.069599904 0.037097991 1.804549e-38
0.037956543 0.072442085 0.035499573 1.6479262e-38
0.037151739 0.07517007 0.034736991 1.518675e-38
0.037933931 0.12828283 0.041294634 1.5376854e-38
0.034395278 0.069553383 0.037584245 1.6846221e-38
0.034304477 0.072154753 0.036578953 1.5374342e-38
0.03327357 0.075772218 0.035283148 1.3991053e-38
0.034040384 0.12823135 0.041892767 1.3718055e-38
0.035693675 0.1307922 0.043279409 1.4361623e-38
0.030527517 0.072169006 0.037871718 1.4358382e-38
0.029321589 0.076232366 0.036982179 1.2885058e-38
0.028102644 0.12564248 0.04070574 1.2058934e-38
0.030563235 0.12752295 0.042600513 1.288792e-38
0.026621968 0.076329485 0.038958669 1.1594322e-38
0.025218524 0.080078661 0.03789115 1.0853176e-38
0.024224453 0.082797289 0.037095249 1.1037542e-38
0.025517173 0.12172079 0.040656269 1.1118999e-38
0.026076689 0.12425683 0.042093933 1.0768561e-38
0.027903281 0.1267913 0.043878078 1.2793248e-38
0.022301547 0.080736667 0.039840221 1.3253432e-38
0.021595076 0.083998762 0.038120031 1.4173974e-38
0.020346247 0.086641774 0.037951648 1.5187033e-38
0.020674698 0.11725736 0.04218924 1.2702127e-38
0.02272816 0.1199057 0.043618143 1.2331895e-38
0.017824687 0.083620198 0.040410101 1.5097019e-38
0.017599188 0.087743789 0.038403153 1.4728619e-38
0.016468041 0.1138311 0.041041434 1.445239e-38
0.017610379 0.11632185 0.043016136 1.4727903e-38
0.013663851 0.084340893 0.041104555 1.3809184e-38
0.013804615 0.087765574 0.039783299 1.3899569e-38
0.013236232 0.090447664 0.039211512 1.3621183e-38
0.01258985 0.10989398 0.041153371 9.5724898e-39
0.013411894 0.11260413 0.042466104 1.123348e-38
0.013945468 0.11522663 0.044530094 1.3718444e-38
0.01072222 0.08785893 0.042064726 1.4081446e-38
0.0099908337 0.09151829 0.041621089 1.2703878e-38
0.0091979802 0.096074983 0.04098177 1.0123123e-38
0.0087116584 0.10076911 0.040768981 8.3732222e-39
0.0092948303 0.10461363 0.041738272 8.4665164e-39
0.0096548572 0.1085741 0.043421686 9.2966344e-39
0.011084728 0.11230849 0.043936312 1.0861822e-38
0.011024065 0.11486609 0.044863641 1.3350752e-38
0.0067282841 0.096391357 0.043299854 9.4759628e-39
0.006016925 0.10066164 0.04388237 7.6342348e-39
0.0062428638 0.10423654 0.044015169 7.3605234e-39
0.0066960528 0.10743286 0.044697762 8.2857195e-39
0.095531181 0.10265802 0.0025432706 1.6018644e-38
0.099231511 0.10168603 0.0028907657 1.7954756e-38
0.10072529 0.10890897 0.0033887625 1.8324972e-38
0.10004503 0.11182434 0.0035752654 1.6570747e-38
0.13220358 0.10379924 0.0035933852 1.5374713e-38
0.13219261 0.11171205 0.0045674443 1.4178329e-38
0.12994176 0.10291914 0.0042862892 1.6111561e-38
0.11026028 0.095313475 0.005117178 1.4730057e-38
0.11942136 0.097247556 0.0075185895 1.4730413e-38
0.11493092 0.10001083 0.0077572465 1.2336921e-38
0.12915635 0.067908987 0.013168514 1.9161563e-38
0.16078234 0.14850229 0.032758474 2.3233297e-38
0.15798849 0.1465376 0.03140384 2.2682279e-38
0.15743279 0.14900252 0.032998204 2.2770884e-38
0.1529337 0.050894931 0.024240434 2.2486373e-38
0.15368685 0.052806899 0.023316026 2.2394538e-38
0.15285674 0.14973114 0.033030868 2.2488534e-38
0.15297203 0.15167928 0.034215093 2.2582523e-38
0.14894482 0.050517522 0.024031878 2.2664655e-38
0.15017539 0.15036353 0.032754123 2.2575347e-38
0.14922225 0.15243199 0.033882201 2.2485653e-38
0.14513941 0.049002051 0.025378704 2.2935841e-38
0.14507031 0.15290284 0.03465271 2.2846158e-38
0.1406031 0.046710081 0.026068389 2.2657074e-38
0.14119139 0.048136808 0.025455892 2.2844346e-38
0.14120615 0.15350552 0.035703361 2.2752875e-38
0.13696602 0.046422154 0.025992811 2.2382285e-38
0.1371536 0.048307568 0.024630904 2.2565242e-38
0.13721639 0.15412091 0.035421252 2.265529e-38
0.13668522 0.15541056 0.036961377 2.2750337e-38
0.1333908 0.046679318 0.0266366 2.2565608e-38
0.13454923 0.048276469 0.024956048 2.2748922e-38
0.13308981 0.15589872 0.036651075 2.1830909e-38
0.12947574 0.045977458 0.027062654 2.2376536e-38
0.1293405 0.048214257 0.025606275 2.2467283e-38
0.12946194 0.15598378 0.037419975 2.1180886e-38
0.12536572 0.045663424 0.027454078 2.2190361e-38
0.12413177 0.15397175 0.036380351 2.0258552e-38
0.12555881 0.1552806 0.03801316 2.0539441e-38
0.12182339 0.045621119 0.027896285 2.228147e-38
0.11774878 0.042506501 0.028545439 2.2190353e-38
0.11838011 0.045189843 0.028385162 2.2097081e-38
0.11768483 0.15388408 0.038196623 2.0724205e-38
0.11774878 0.1551844 0.039325416 2.0907509e-38
0.11383091 0.046390325 0.02941066 2.0989663e-38
0.11246854 0.047848508 0.028709292 2.0898906e-38
0.11373439 0.15384401 0.038015544 2.0357212e-38
0.11383091 0.1551376 0.039814532 2.0356144e-38
0.11056599 0.046351343 0.029818177 2.0807056e-38
0.10915669 0.047973201 0.028126001 2.1086879e-38
0.11048613 0.15380344 0.038589537 2.1367052e-38
0.10527268 0.047844686 0.02910924 1.979617e-38
0.10338321 0.047575764 0.030840218 1.8964235e-38
0.10168932 0.15337177 0.03965652 1.5375434e-38
0.10161315 0.15543427 0.040707111 1.6943849e-38
0.098123759 0.048985489 0.030625224 1.8321371e-38
0.096785977 0.14972588 0.039419174 1.4731826e-38
0.097917385 0.15272094 0.039997101 1.4639651e-38
0.098147489 0.15560801 0.041497767 1.6667604e-38
0.095515616 0.05026266 0.031076014 1.7123885e-38
0.093342796 0.052852064 0.031597435 1.6755041e-38
0.094191581 0.14925399 0.040038407 1.3071604e-38
0.094601244 0.15248008 0.041548967 1.4455984e-38
0.094496682 0.15543254 0.042075932 1.7682848e-38
0.091616474 0.053408533 0.032374382 1.9334012e-38
0.090042621 0.056446999 0.032559633 1.8873753e-38
0.088995263 0.14569156 0.041027129 8.9346734e-39
0.090939231 0.14768732 0.040466964 1.1048637e-38
0.086405724 0.057199545 0.033899784 2.0347886e-38
0.08571744 0.059450999 0.032176971 1.8972477e-38
0.085066341 0.12998968 0.039007425 7.9162335e-39
0.085066333 0.13260251 0.039257407 8.5604987e-39
0.085066333 0.13652177 0.03963238 9.29987e-39
0.085945591 0.14086756 0.04061234 1.0405853e-38
0.087262698 0.14348175 0.041371524 1.0313662e-38
0.081181876 0.053861648 0.034238517 2.1731175e-38
0.082324579 0.056659482 0.034362197 2.1454953e-38
0.082304053 0.060498156 0.033086896 1.9887951e-38
0.082244955 0.12908503 0.039276361 9.7579713e-39
0.082468539 0.13254872 0.040142119 1.0218544e-38
0.082469963 0.13646722 0.040629268 1.0865389e-38
0.082743473 0.13958052 0.041837573 1.1696956e-38
0.078569956 0.053502902 0.034533262 2.0991444e-38
0.078566119 0.056534059 0.034261286 2.0803823e-38
0.077905715 0.060639583 0.03344357 1.8689062e-38
0.078555427 0.06328471 0.033446014 1.7951869e-38
0.077904344 0.12990415 0.039901495 1.1510763e-38
0.078085378 0.13238192 0.040576041 1.1879911e-38
0.078562684 0.13640878 0.041453362 1.2891897e-38
0.078569956 0.13899398 0.042712271 1.3540122e-38
0.074913256 0.053262696 0.034970939 1.9610683e-38
0.074650474 0.056555018 0.034306586 1.8869529e-38
0.073509492 0.060774907 0.03384161 1.7670278e-38
0.072695628 0.063214734 0.034177542 1.7302925e-38
0.072695628 0.12984194 0.040551782 1.2153946e-38
0.073998369 0.13245054 0.041143537 1.2063218e-38
0.074650474 0.13636206 0.041941762 1.2891528e-38
0.073999234 0.13895515 0.042778075 1.3721648e-38
0.070735812 0.056440957 0.035238802 1.9425196e-38
0.069872409 0.060502976 0.034723759 1.9146461e-38
0.069440171 0.06317585 0.034583926 1.9328333e-38
0.069440171 0.12980306 0.040958166 1.3166675e-38
0.070305571 0.13239953 0.041772604 1.3719846e-38
0.070738256 0.13631533 0.042430162 1.4090064e-38
0.070734181 0.1389004 0.043690383 1.4176868e-38
0.067077488 0.05709973 0.036325157 2.0710544e-38
0.065787263 0.060300812 0.035376608 2.0435756e-38
0.064882532 0.063121423 0.035152912 2.0159908e-38
0.065533616 0.12975641 0.041445851 1.3902456e-38
0.065999374 0.13246442 0.042382717 1.4639665e-38
0.066349186 0.13613486 0.043241978 1.5839992e-38
0.062254563 0.057640746 0.036478281 2.0804889e-38
0.061621323 0.060420573 0.035642922 2.0529038e-38
0.061623678 0.13231362 0.042408228 1.5099927e-38
0.062039316 0.13620031 0.043852508 1.6207691e-38
0.058057547 0.056831278 0.037001967 2.0623016e-38
0.057712883 0.060373887 0.036130846 2.0531176e-38
0.057720535 0.13292912 0.042733729 1.5006303e-38
0.058187529 0.13600284 0.043981373 1.6297729e-38
0.054035068 0.057033405 0.037354529 1.9702524e-38
0.053806357 0.060176432 0.036519706 1.9611735e-38
0.05364383 0.13238075 0.043447971 1.4916959e-38
0.05377993 0.13545308 0.04465282 1.5839262e-38
0.049838819 0.057417929 0.038527429 1.9243686e-38
0.049876519 0.060199574 0.037663817 1.8691241e-38
0.048605263 0.062927015 0.037184894 1.7675281e-38
0.049892195 0.13216484 0.044096887 1.4822251e-38
0.050181977 0.13507047 0.045406938 1.5748507e-38
0.045929611 0.060023516 0.039044082 1.7027762e-38
0.045982718 0.064139634 0.038081408 1.7489458e-38
0.04469873 0.066799603 0.038047552 1.7576625e-38
0.046000913 0.12952313 0.043884277 1.6850555e-38
0.045960702 0.13209531 0.045147896 1.6112987e-38
0.0465739 0.13468122 0.046330452 1.6114419e-38
0.042329535 0.060931318 0.039809525 1.7121753e-38
0.04202798 0.063952819 0.039574087 1.8044066e-38
0.04207883 0.067376249 0.038770318 1.8225571e-38
0.042048715 0.13204901 0.045636296 1.7312953e-38
0.03794115 0.064042285 0.040280342 1.8318135e-38
0.038162149 0.067306831 0.03942579 1.8045497e-38
0.038142405 0.1320067 0.046011925 1.5653439e-38
0.034185931 0.064483032 0.040837705 1.7306145e-38
0.034233451 0.067215271 0.040249527 1.7029903e-38
0.034082621 0.13213199 0.046268225 1.3992865e-38
0.034167267 0.13453305 0.047879338 1.4366293e-38
0.03112004 0.064618871 0.041574538 1.6938077e-38
0.03032577 0.067829363 0.040744305 1.5924263e-38
0.030033052 0.12899461 0.046098471 1.2704276e-38
0.030318595 0.13191284 0.046988547 1.362444e-38
0.03024938 0.13448624 0.048368454 1.4365932e-38
0.026789263 0.068105049 0.042116106 1.3714797e-38
0.026437186 0.071749955 0.041271806 1.2794641e-38
0.025576673 0.07480371 0.041559875 1.1042588e-38
0.025166012 0.12535504 0.046110272 1.2242939e-38
0.026594102 0.127923 0.047526062 1.2794299e-38
0.027128361 0.13157511 0.048280597 1.3348549e-38
0.023719579 0.072173379 0.04322952 1.2058525e-38
0.022897333 0.075956546 0.043020129 1.1598257e-38
0.022179648 0.078525946 0.042765796 1.2886475e-38
0.018562123 0.080069132 0.043790996 1.4916234e-38
0.018583857 0.11999978 0.047327161 1.4635687e-38
0.014989249 0.080372848 0.044101417 1.4726824e-38
0.014097475 0.082111113 0.043367565 1.4542792e-38
0.014401212 0.1170459 0.046924651 1.4731842e-38
0.014804646 0.11977021 0.048146904 1.5282483e-38
0.010750987 0.083265647 0.0449121 1.4633559e-38
0.0095398501 0.086629137 0.044373989 1.4082182e-38
0.0095398352 0.11210424 0.046811163 1.1045837e-38
0.010564178 0.11634605 0.048100471 1.436487e-38
0.01196593 0.1192005 0.049209356 1.4821887e-38
0.0080480576 0.084433183 0.046376705 1.582922e-38
0.0068486854 0.087155819 0.045663416 1.4911923e-38
0.0065493286 0.09115161 0.04532814 1.3440348e-38
0.0056332871 0.094420977 0.04561156 1.0398272e-38
0.0060673431 0.10901447 0.046953022 8.9314574e-39
0.0068809241 0.11203434 0.047701955 1.1050138e-38
0.0080480576 0.11456797 0.049259722 1.3449011e-38
0.0028242245 0.088301413 0.047404945 1.6201582e-38
0.0029149801 0.09101139 0.04675281 1.4637119e-38
0.0029857978 0.095656402 0.046485305 1.0215684e-38
0.002656877 0.10007766 0.046527803 7.4494792e-39
0.0028661638 0.10434934 0.046910107 6.2577449e-39
0.0029830262 0.10807371 0.047701716 7.7307366e-39
0.0030540973 0.11154386 0.049165726 1.0406206e-38
0.00028304756 0.090957366 0.047304213 1.4729319e-38
0.00031841546 0.095570765 0.047403634 1.0216406e-38
0.00042457134 0.10023764 0.046824217 7.3583584e-39
0.00042457134 0.10415688 0.04719919 6.4407111e-39
0.00035379827 0.10802583 0.048253298 7.2701158e-39
0.00021229684 0.11054377 0.049861908 1.0034173e-38
0.14596137 0.095696606 0.001085043 1.7032437e-38
0.12473144 0.1027123 0.0060055852 1.5838198e-38
0.11278915 0.096448898 0.0067724586 1.2796105e-38
0.11866749 0.10557183 0.0074704289 1.3532596e-38
0.12333556 0.09088546 0.0090209842 1.4730049e-38
0.12932569 0.10694651 0.0091139078 1.4547451e-38
0.12655984 0.097778559 0.0092685819 1.6942382e-38
0.12109355 0.049629256 0.023164868 2.2190699e-38
0.1528129 0.04619135 0.028530359 2.2752883e-38
0.15333614 0.048364334 0.027491093 2.2662125e-38
0.15337415 0.15360862 0.03789252 2.2671122e-38
0.14917386 0.045859978 0.028704047 2.2294432e-38
0.14961654 0.048259348 0.02751106 2.2569927e-38
0.14934754 0.15422672 0.037615299 2.2669318e-38
0.14914653 0.15585817 0.038977861 2.2850464e-38
0.14532739 0.045279607 0.02866292 2.2569567e-38
0.14548489 0.15417348 0.038771749 2.2940511e-38
0.14530548 0.15600733 0.039779782 2.3033057e-38
0.14172366 0.04455664 0.028613985 2.2383371e-38
0.14215589 0.15413904 0.038681626 2.3119865e-38
0.14156632 0.15609939 0.039618373 2.3027651e-38
0.13770741 0.042057559 0.03003788 2.1279557e-38
0.13782206 0.044174217 0.028606057 2.2199691e-38
0.1378426 0.15708756 0.040447354 2.2473397e-38
0.13683173 0.15976992 0.041409731 2.062338e-38
0.13508037 0.042026192 0.030365825 2.1188444e-38
0.13363689 0.044238642 0.029240668 2.2009577e-38
0.13396481 0.15765756 0.040050089 2.17344e-38
0.13403121 0.15962896 0.040989757 2.062518e-38
0.12982628 0.041963436 0.031021714 2.173514e-38
0.12971833 0.043506518 0.029833019 2.2377265e-38
0.12969071 0.15793586 0.04044652 2.1088688e-38
0.12974408 0.15990734 0.041303456 2.0444034e-38
0.12583679 0.041372068 0.030792832 2.1913409e-38
0.12639001 0.043580055 0.029584408 2.209852e-38
0.12579757 0.15722956 0.041375577 2.0722044e-38
0.12520966 0.16018096 0.042660177 2.0446885e-38
0.1218551 0.041149504 0.030646384 2.2466582e-38
0.12115104 0.043517485 0.03023839 2.2281111e-38
0.12187554 0.15652455 0.041971028 2.0722036e-38
0.12175752 0.16009191 0.04333967 2.0998993e-38
0.11918643 0.041523017 0.030295074 2.2465145e-38
0.11658762 0.044720337 0.031265855 2.1820863e-38
0.11796229 0.15713316 0.042859733 2.099935e-38
0.11817343 0.16004971 0.04349786 2.1275936e-38
0.11318835 0.041325465 0.033056736 2.1636457e-38
0.11398664 0.043975636 0.031859815 2.1450271e-38
0.11489961 0.15687695 0.043221056 2.0539457e-38
0.11007056 0.044311158 0.032722831 2.1174395e-38
0.11099915 0.15550801 0.044256389 2.1184474e-38
0.10616663 0.04568962 0.034021437 2.0163871e-38
0.10158558 0.046897322 0.035051525 1.8688722e-38
0.1021598 0.1556377 0.043357491 1.6946368e-38
0.098279312 0.047405317 0.034841716 1.8874547e-38
0.094068579 0.048813656 0.035169423 1.859975e-38
0.092991605 0.051065169 0.034508049 1.7673796e-38
0.093019657 0.14959919 0.04494369 1.2796089e-38
0.093005635 0.15157914 0.04462868 1.39042e-38
0.091734178 0.049415261 0.036533475 2.015775e-38
0.09002164 0.051997975 0.03598386 2.0901392e-38
0.089062385 0.054960251 0.035375655 2.0718425e-38
0.089084767 0.1469204 0.045183122 1.1600761e-38
0.091734178 0.15154418 0.046304226 1.4090776e-38
0.08646585 0.052108914 0.036667466 2.2469444e-38
0.086442903 0.054928958 0.035702705 2.1727941e-38
0.086138718 0.1442484 0.045551777 1.1878827e-38
0.081882767 0.049297601 0.037763357 2.2007385e-38
0.082689188 0.051953614 0.0367769 2.2101376e-38
0.083823428 0.054897681 0.036029696 2.2009915e-38
0.082189016 0.14126675 0.044751763 1.3447216e-38
0.082530595 0.14354472 0.046023309 1.4733675e-38
0.078594871 0.0490091 0.037643731 2.0993243e-38
0.078587361 0.051355317 0.036755443 2.0993239e-38
0.078588091 0.1408883 0.045422256 1.4184778e-38
0.078408234 0.14377171 0.04680562 1.5289334e-38
0.074658394 0.049211316 0.038665175 2.0438287e-38
0.074327722 0.051131122 0.037118733 2.0254613e-38
0.074843071 0.14056796 0.045646429 1.418227e-38
0.074657746 0.1441063 0.047181547 1.5560545e-38
0.073344886 0.14671227 0.048158646 1.6576841e-38
0.072031364 0.049179941 0.03899318 2.0806351e-38
0.07055676 0.051769786 0.038540781 2.0528685e-38
0.070724472 0.14030512 0.046230495 1.4640703e-38
0.070719212 0.14405394 0.047897637 1.5375435e-38
0.0667798 0.052173533 0.039651871 2.1266246e-38
0.06646353 0.054942399 0.038727224 2.1264083e-38
0.066792659 0.14009176 0.046775818 1.6757262e-38
0.067041554 0.14321589 0.04841572 1.6387774e-38
0.062838659 0.051722914 0.04028213 2.1543546e-38
0.062859856 0.055227861 0.039208531 2.1265169e-38
0.062860511 0.14004502 0.047266662 1.6481759e-38
0.062836707 0.14263341 0.049092233 1.6021861e-38
0.059065625 0.051864073 0.0406304 2.108473e-38
0.058931313 0.054549426 0.039469779 2.0807071e-38
0.057628609 0.13736685 0.047219574 1.6573238e-38
0.058919385 0.139985 0.048207462 1.6942378e-38
0.059552915 0.14259419 0.049502194 1.7034932e-38
0.054965146 0.052981064 0.041169405 2.0257122e-38
0.054991283 0.054451413 0.04029429 2.0070942e-38
0.055009127 0.13733557 0.047546566 1.6298088e-38
0.055136278 0.13976035 0.049154699 1.6942379e-38
0.051015027 0.052882299 0.041994989 1.9518468e-38
0.051057965 0.055061758 0.040848196 1.942628e-38
0.050743893 0.13694777 0.048299968 1.5655957e-38
0.051025547 0.13920835 0.049915135 1.611515e-38
0.047101952 0.055577904 0.042022645 1.8503946e-38
0.047144018 0.13657905 0.048633873 1.6022224e-38
0.047267288 0.13943985 0.050603509 1.59286e-38
0.044009581 0.056312755 0.043205738 1.6932336e-38
0.042333066 0.058733091 0.041961074 1.5552289e-38
0.043201797 0.13586548 0.049343467 1.7404794e-38
0.043396607 0.13897495 0.05119133 1.6479219e-38
0.039078847 0.05930832 0.043101072 1.7031355e-38
0.039292231 0.062249832 0.04234314 1.9055714e-38
0.039242797 0.1357992 0.05039835 1.6113708e-38
0.039850101 0.13840547 0.051583588 1.657684e-38
0.035307884 0.06008596 0.043650508 1.8416426e-38
0.034708142 0.062195078 0.042915404 1.8317782e-38
0.035745114 0.13597612 0.050855935 1.4917321e-38
0.031598859 0.060087405 0.044725418 1.8689778e-38
0.030331895 0.062995233 0.04371208 1.7763886e-38
0.031393245 0.13571598 0.051041782 1.4916948e-38
0.028685167 0.060522377 0.045539081 1.8596517e-38
0.027438112 0.063281901 0.044947684 1.7396183e-38
0.02553995 0.066684581 0.044499934 1.4358379e-38
0.024885073 0.12843478 0.050490081 1.3255963e-38
0.02553995 0.13172761 0.050722599 1.3532566e-38
0.027148828 0.13511302 0.052261293 1.4179741e-38
0.024744615 0.064428687 0.04640919 1.6288395e-38
0.023248211 0.067112722 0.046348333 1.4175405e-38
0.022556029 0.070854858 0.045781076 1.2793534e-38
0.021610737 0.074521653 0.045744717 1.2335112e-38
0.021938175 0.12478608 0.050512254 1.3992131e-38
0.022871763 0.12772325 0.051350653 1.3808423e-38
0.023685426 0.13164397 0.052466869 1.3809499e-38
0.024744615 0.1349306 0.053154171 1.3995698e-38
0.020804048 0.067676112 0.047216356 1.3717297e-38
0.019673698 0.071153626 0.047438383 1.3530405e-38
0.019170791 0.074803717 0.047380865 1.3624428e-38
0.018951423 0.077715531 0.04689151 1.4085039e-38
0.018665314 0.12354466 0.051384389 1.4730399e-38
0.020391524 0.12676841 0.052584231 1.4636427e-38
0.016206726 0.072233476 0.048231483 1.4176495e-38
0.015568301 0.074888244 0.048340917 1.4543846e-38
0.014880955 0.078180641 0.047550082 1.4728964e-38
0.013097405 0.12106699 0.051270247 1.6293042e-38
0.015609585 0.12365847 0.052503407 1.5098461e-38
0.012922928 0.074829839 0.048893571 1.4543854e-38
0.011435375 0.078823239 0.048956871 1.4542425e-38
0.0091682076 0.082914054 0.048115134 1.5277508e-38
0.010423712 0.11968736 0.052082598 1.4639291e-38
0.011638492 0.12227312 0.053256869 1.5191031e-38
0.0076688454 0.079379357 0.049990833 1.5649116e-38
0.0067922622 0.082623221 0.049272597 1.6202652e-38
0.0066864267 0.11568193 0.052406371 1.3720919e-38
0.0085445195 0.1195825 0.053726673 1.4272298e-38
0.0040566474 0.079665668 0.050473213 1.6113691e-38
0.0029319897 0.082702875 0.050118029 1.7308278e-38
0.0026021153 0.086102739 0.049416184 1.6754733e-38
0.0018613115 0.11298125 0.052924633 1.1787323e-38
0.0037282705 0.11469307 0.053865671 1.2616728e-38
0.0011012256 0.081277616 0.050999761 1.6760872e-38
0 0.088060558 0.049762487 1.4723596e-38
0 0.11171256 0.052025318 1.0494082e-38
0.10037705 0.11115354 0.0065531731 1.9066143e-38
0.14226657 0.066973299 0.012560308 2.2021788e-38
0.10162322 0.14928609 0.029655814 1.3623007e-38
0.066021487 0.12081246 0.033607125 1.3621179e-38
0.054839402 0.12221372 0.040834188 1.0955789e-38
0.038290486 0.069599904 0.037097991 1.804549e-38
0.0029149801 0.09101139 0.04675281 1.4637119e-38
0.15249541 0.041718706 0.031179726 2.0729627e-38
0.15395379 0.044076696 0.030787766 2.1927803e-38
0.14919743 0.041679323 0.031591415 2.072534e-38
0.15001118 0.043711081 0.030670881 2.2019647e-38
0.14974773 0.15683559 0.041526735 2.3031223e-38
0.14586554 0.041696802 0.031675339 2.0907161e-38
0.14645447 0.043139972 0.031064332 2.1372103e-38
0.14615153 0.15778258 0.042323411 2.2108196e-38
0.14186057 0.041073769 0.031614125 2.1091571e-38
0.14184391 0.15806279 0.042639852 2.2103519e-38
0.14194189 0.16004419 0.043829501 2.0165607e-38
0.13766509 0.039792955 0.032256424 1.9895198e-38
0.13930351 0.16001269 0.044158876 2.0438625e-38
0.13380794 0.040114701 0.032747746 2.0263987e-38
0.13028443 0.039704792 0.033177793 2.062736e-38
0.1267712 0.038764514 0.034137845 2.0808499e-38
0.12647541 0.16008186 0.044769168 2.0352549e-38
0.1168152 0.041464396 0.034637988 2.200632e-38
0.11485429 0.040075973 0.035005212 2.2097081e-38
0.11330239 0.15728137 0.046160758 2.02618e-38
0.11401659 0.15999551 0.046764374 2.0633087e-38
0.1105023 0.040826008 0.035574675 2.1635744e-38
0.1089114 0.042691588 0.035751104 2.1453511e-38
0.11001748 0.1571483 0.047574282 2.1553233e-38
0.11065824 0.16014324 0.047780156 2.10919e-38
0.10764293 0.041183025 0.036778986 2.1453154e-38
0.10655866 0.043388844 0.036519229 2.0532289e-38
0.10234553 0.044511527 0.037258565 1.9425587e-38
0.098720118 0.044799097 0.037742794 2.0166714e-38
0.097055689 0.046514742 0.037610471 1.9333003e-38
0.094440416 0.046374016 0.038601398 1.9795409e-38
0.090220287 0.048185922 0.03923887 2.1546053e-38
0.091786489 0.14953542 0.048130274 1.2339068e-38
0.086520702 0.04834424 0.039281428 2.2099952e-38
0.08586698 0.14548896 0.048995078 1.4000729e-38
0.086535886 0.14747114 0.049606681 1.675869e-38
0.082894713 0.047997594 0.039536297 2.2007395e-38
0.082573369 0.14544594 0.049574673 1.584648e-38
0.082578316 0.14676213 0.050037503 1.7038908e-38
0.078613482 0.047616065 0.040039182 2.1084721e-38
0.079272129 0.14542121 0.049313247 1.6303853e-38
0.078618631 0.1473833 0.050258219 1.7590648e-38
0.074661575 0.047568865 0.040532529 2.0530121e-38
0.074662253 0.14800206 0.050574839 1.7035684e-38
0.070446208 0.048047155 0.041109324 2.1634299e-38
0.070707992 0.14729522 0.050908864 1.657433e-38
0.066752888 0.048054032 0.042081475 2.2004516e-38
0.066757776 0.050117642 0.041772068 2.1725779e-38
0.06642554 0.14493188 0.051137924 1.6940235e-38
0.063063547 0.048158363 0.042455077 2.1543549e-38
0.062798172 0.14455265 0.051811874 1.6667581e-38
0.058839276 0.048594519 0.0432989 2.1176928e-38
0.057536669 0.050007507 0.042923212 2.1544267e-38
0.058837458 0.14383681 0.052545965 1.6573956e-38
0.054893143 0.050583884 0.043648839 2.0625538e-38
0.053584769 0.14114965 0.052140713 1.7676384e-38
0.055218004 0.14280872 0.052599847 1.8320624e-38
0.05223693 0.048462182 0.044455469 1.9891917e-38
0.050933935 0.050510176 0.044309318 1.9795406e-38
0.05095017 0.1411182 0.052469611 1.6850223e-38
0.05091773 0.14241356 0.053610086 1.758814e-38
0.046979204 0.051785469 0.044929564 1.8043336e-38
0.045680955 0.053830668 0.044782579 1.8136605e-38
0.046339616 0.14106312 0.053045154 1.5929307e-38
0.04761976 0.14237417 0.054021716 1.6299192e-38
0.043662183 0.052330211 0.045905769 1.7402259e-38
0.042599648 0.054649442 0.045417845 1.7306479e-38
0.042717025 0.14068946 0.053465784 1.6019704e-38
0.044321783 0.14233479 0.054433465 1.5837477e-38
0.03931836 0.0557492 0.046577573 1.5645535e-38
0.039084941 0.13964936 0.054026306 1.6298797e-38
0.035142556 0.05766955 0.046477497 1.5921419e-38
0.033825248 0.13694891 0.054228127 1.5100269e-38
0.03537257 0.13879909 0.054817677 1.6020432e-38
0.031190649 0.058062881 0.047012985 1.6569312e-38
0.031170376 0.13690607 0.054895937 1.5283225e-38
0.032449059 0.13822255 0.055535734 1.5743117e-38
0.027865112 0.059492379 0.048074841 1.7768924e-38
0.025853105 0.062043622 0.049078643 1.8227018e-38
0.027172297 0.13683605 0.056067944 1.491695e-38
0.023250774 0.062964022 0.048988342 1.6935919e-38
0.021969542 0.065441743 0.048880577 1.4730385e-38
0.021969542 0.13218176 0.055265605 1.3902435e-38
0.02325125 0.13515347 0.055894613 1.4088268e-38
0.02013661 0.063519403 0.04994005 1.564875e-38
0.018947169 0.066519029 0.049509108 1.3992097e-38
0.018017635 0.069359295 0.049753249 1.3808066e-38
0.018869288 0.12794448 0.055588245 1.4820833e-38
0.019605927 0.13046987 0.056158841 1.4177955e-38
0.015752919 0.06701833 0.050658345 1.3163414e-38
0.015194841 0.070269562 0.050195992 1.3807722e-38
0.014065742 0.12481865 0.055556893 1.500555e-38
0.016309381 0.12712321 0.056254029 1.4820103e-38
0.011810839 0.070962116 0.051363587 1.3532222e-38
0.01074215 0.074517585 0.051500738 1.3991053e-38
0.010113835 0.077194408 0.051498532 1.4450958e-38
0.011716366 0.1237737 0.056259096 1.5006626e-38
0.0076482818 0.075193353 0.052630126 1.3532236e-38
0.0074154139 0.077083021 0.052502751 1.4636054e-38
0.0067727119 0.11941666 0.056465089 1.3905302e-38
0.0087965429 0.12211256 0.055961847 1.408721e-38
0.003147766 0.07771264 0.052931905 1.5008435e-38
0.0043063313 0.11847538 0.057192028 1.344577e-38
0.00089272857 0.079066649 0.052839339 1.454964e-38
0.0008405894 0.11471695 0.056762755 1.1788751e-38
0.10619153 0.074667215 0.0098092556 1.2885779e-38
0.084915988 0.11620811 0.028595984 1.0768155e-38
0.033351466 0.077879399 0.03412503 1.3438597e-38
0.11737175 0.050007388 0.02334851 2.2372233e-38
0.070735812 0.056440957 0.035238802 1.9425196e-38
0.055169232 0.12108187 0.039334357 1.0678127e-38
0.094191581 0.14925399 0.040038407 1.3071604e-38
0.057628609 0.13736685 0.047219574 1.6573238e-38
0.15526581 0.040634409 0.034169257 1.8513707e-38
0.15669052 0.04275243 0.032775044 1.9991337e-38
0.15552527 0.15554506 0.045062661 2.2292268e-38
0.15173224 0.038184546 0.035999954 1.8239239e-38
0.15106961 0.039983511 0.035040617 1.9802275e-38
0.15211572 0.15617621 0.044708848 2.3124153e-38
0.15013126 0.15814438 0.045147121 2.0262833e-38
0.14774632 0.038136944 0.036497533 1.8696637e-38
0.14676824 0.039979383 0.033759773 2.007705e-38
0.14689967 0.16009723 0.046500385 1.8137659e-38
0.14309609 0.038081408 0.037078083 1.9343448e-38
0.14478379 0.039955676 0.03400749 2.0721344e-38
0.1441223 0.16006599 0.045581818 1.9706058e-38
0.14034271 0.037557647 0.03636241 1.8607314e-38
0.1394919 0.038565204 0.03454113 1.9340216e-38
0.14002773 0.16023651 0.047126412 2.0071995e-38
0.13578856 0.036661163 0.037862778 1.7771846e-38
0.13180263 0.036613554 0.038360357 1.897071e-38
0.12781672 0.036565959 0.038857996 1.970682e-38
0.12890813 0.038438797 0.035862386 2.025964e-38
0.12515943 0.037867181 0.03931725 2.1913787e-38
0.11851624 0.03778784 0.04014653 2.2650621e-38
0.11832437 0.039639667 0.0373106 2.2281837e-38
0.1157386 0.037441313 0.038438499 2.2925774e-38
0.1170014 0.039623871 0.037475765 2.2190363e-38
0.10746996 0.039624706 0.039942086 2.1545707e-38
0.10358366 0.039948419 0.041019559 2.1637165e-38
0.10377169 0.042120412 0.039381325 2.0166727e-38
0.099870272 0.040436499 0.041534066 2.1821929e-38
0.099802777 0.042515427 0.039919078 2.1270543e-38
0.095897526 0.041020021 0.042292953 2.2189271e-38
0.095575258 0.043847099 0.040781558 2.0900687e-38
0.09219794 0.041007176 0.04336518 2.2190353e-38
0.091886431 0.043829978 0.041885793 2.1544262e-38
0.091203466 0.045952126 0.041331232 2.1360951e-38
0.090614781 0.14809039 0.054214239 1.2897205e-38
0.090554111 0.15079267 0.051949322 1.5193182e-38
0.090614781 0.15342224 0.054724336 1.7582027e-38
0.088621825 0.041429691 0.044261098 2.2190727e-38
0.087930173 0.043643013 0.04321003 2.163971e-38
0.087896042 0.045912623 0.041744113 2.1823723e-38
0.088351317 0.1476635 0.052096188 1.4646104e-38
0.087923564 0.1507491 0.053120255 1.8603315e-38
0.087957501 0.15339051 0.055056095 1.9897652e-38
0.083956763 0.043539539 0.044038236 2.1730088e-38
0.083927132 0.045865223 0.042239606 2.1821575e-38
0.084262051 0.14773287 0.052196145 1.7776088e-38
0.083761156 0.15031588 0.053844333 2.0168541e-38
0.079785943 0.043798551 0.044443846 2.1358794e-38
0.0806197 0.04582572 0.042652488 2.1452791e-38
0.081281193 0.14803365 0.052347422 1.81467e-38
0.079970419 0.15065517 0.054113209 1.9248366e-38
0.079985656 0.15329531 0.056051254 1.9797222e-38
0.075998046 0.044276483 0.04544884 2.0530464e-38
0.077312276 0.045786217 0.043065369 2.0715224e-38
0.076157987 0.15078327 0.05401516 1.8602285e-38
0.075733371 0.15378195 0.056228578 1.9155446e-38
0.072205499 0.044421166 0.045747638 2.1080768e-38
0.071852162 0.15073025 0.054679096 1.7494148e-38
0.072678134 0.15320802 0.056963503 1.813916e-38
0.067381196 0.045503363 0.045301855 2.2187838e-38
0.06937445 0.045691416 0.044056296 2.2186365e-38
0.066067025 0.14718831 0.054183245 1.7862178e-38
0.068308212 0.14972205 0.055155694 1.7034571e-38
0.06405551 0.044632927 0.046649992 2.1821217e-38
0.063809857 0.14728312 0.05508405 1.8140916e-38
0.064049728 0.14911698 0.056984246 1.8139132e-38
0.060056046 0.044754162 0.048177838 2.0066989e-38
0.060086176 0.046691284 0.046672046 2.0897104e-38
0.058129206 0.14510259 0.054983675 1.537796e-38
0.060093522 0.14709839 0.055939674 1.7495929e-38
0.060739577 0.1490829 0.05706048 1.8050523e-38
0.055835381 0.047095671 0.047718704 2.0809211e-38
0.055483259 0.14440736 0.055250525 1.6756192e-38
0.056099974 0.14637014 0.057182968 1.7032082e-38
0.052157506 0.04724656 0.046981514 1.9703582e-38
0.052175835 0.14370422 0.055599928 1.8139513e-38
0.051831461 0.14550327 0.058447719 1.8045504e-38
0.048449777 0.047468111 0.047469795 1.7953317e-38
0.047545433 0.049412519 0.047162354 1.7125357e-38
0.048194222 0.14364868 0.056433618 1.7127871e-38
0.047888279 0.14581016 0.059041321 1.7498425e-38
0.043823026 0.048052184 0.049525976 1.6752956e-38
0.044238016 0.050036654 0.047638714 1.6939133e-38
0.044195361 0.14305407 0.057555497 1.592896e-38
0.044776693 0.1455435 0.059745312 1.6114069e-38
0.041455083 0.048864134 0.050914407 1.7310433e-38
0.040196821 0.051081307 0.049766421 1.6389187e-38
0.039607614 0.053299531 0.048534214 1.5650557e-38
0.038946129 0.14089166 0.056997538 1.5832809e-38
0.041546404 0.14222416 0.05780983 1.5743123e-38
0.036498353 0.052547008 0.051385045 1.481867e-38
0.036013924 0.055054411 0.049559772 1.555406e-38
0.036961667 0.14086796 0.057245255 1.6018656e-38
0.036177248 0.14168254 0.059784353 1.5835342e-38
0.033483244 0.052767806 0.052292168 1.4539943e-38
0.032466672 0.055007651 0.05182457 1.6290194e-38
0.031513564 0.13893285 0.058151424 1.6020789e-38
0.032193221 0.14141279 0.060260475 1.6020064e-38
0.02853217 0.056447901 0.052761793 1.5738479e-38
0.027039379 0.058458522 0.050611138 1.7127155e-38
0.028046124 0.13887922 0.058988154 1.500915e-38
0.027637221 0.1414732 0.061515152 1.4178306e-38
0.024322271 0.058944739 0.052012444 1.703027e-38
0.023070484 0.061065666 0.051360548 1.694168e-38
0.024671517 0.138043 0.059282541 1.4272312e-38
0.025648065 0.1413697 0.059730947 1.3807393e-38
0.019978516 0.059818685 0.053149402 1.6385274e-38
0.020424545 0.061476491 0.051733196 1.6388129e-38
0.019101575 0.13136375 0.058586001 1.4086138e-38
