# .PCD v0.7 - Point Cloud Data file format
VERSION 0.7
FIELDS x y z rgb
SIZE 4 4 4 4
TYPE F F F F
COUNT 1 1 1 1
WIDTH 987
HEIGHT 1
VIEWPOINT 0 0 0 0 1 0 0
POINTS 987
DATA ascii
0.14337716 0.1518285 0.0098313093 1.8968555e-38
0.1436954 0.15557328 0.010687649 1.9154005e-38
0.14398786 0.15935597 0.012148321 1.9246925e-38
0.14442867 0.16287184 0.013484359 1.9246195e-38
0.14397822 0.1662719 0.014533281 1.8507923e-38
0.13906156 0.12373616 0.00734061 2.0904656e-38
0.13913128 0.12767252 0.0071880817 2.0075274e-38
0.13915896 0.1317274 0.0076008439 1.9893406e-38
0.13970885 0.13988385 0.0075810552 2.1367417e-38
0.13981588 0.14390697 0.0083178282 2.0627709e-38
0.1400609 0.14820182 0.0090653896 1.8876716e-38
0.13954374 0.15210761 0.0099655986 1.7955124e-38
0.13956285 0.15594736 0.011047125 1.860049e-38
0.13982892 0.15995218 0.012440145 1.9614992e-38
0.13999861 0.16330147 0.01338309 2.0717381e-38
0.14038035 0.16663605 0.015202999 1.9981604e-38
0.14055797 0.16931953 0.016134262 1.8968179e-38
0.13477921 0.11991119 0.008415699 1.9523882e-38
0.13519183 0.12349688 0.0080348849 1.8969959e-38
0.13502575 0.12750874 0.0068766475 1.8414637e-38
0.13620576 0.13107878 0.0069420934 1.731047e-38
0.13622944 0.1565409 0.011799693 1.8139872e-38
0.1363579 0.15988886 0.012577951 1.8968545e-38
0.13567504 0.16350016 0.013749063 1.905931e-38
0.13621594 0.16673549 0.014679611 1.9705028e-38
0.13632137 0.17017898 0.016954124 1.9983421e-38
0.13540968 0.17321764 0.018412292 1.8786651e-38
0.13136655 0.11995364 0.0094401836 1.7312625e-38
0.13092686 0.1235075 0.0077749491 1.8417159e-38
0.13084702 0.12624386 0.0076143742 1.8599748e-38
0.13188173 0.16513407 0.014736354 1.8141315e-38
0.13201141 0.1671394 0.015434444 1.8508647e-38
0.13235541 0.17047708 0.017148316 1.8785608e-38
0.13253333 0.17367828 0.019356966 1.8508273e-38
0.1274247 0.11984724 0.010593891 1.2793617e-38
0.12702222 0.12339269 0.0090338588 1.3905357e-38
0.1262674 0.12612025 0.0089547634 1.4733304e-38
0.12800987 0.16703968 0.01625365 1.7401572e-38
0.12832214 0.17037718 0.017858922 1.7494473e-38
0.12848656 0.17400686 0.019715846 1.7034946e-38
0.12292336 0.10335406 0.0081772804 2.3022635e-38
0.12245335 0.10728461 0.0088258386 2.2470872e-38
0.1225464 0.11078294 0.0094664693 1.9612812e-38
0.123272 0.11506435 0.010492623 1.4638576e-38
0.12412192 0.11908525 0.011431932 1.3347495e-38
0.12364405 0.1234238 0.010887861 1.0581959e-38
0.12267806 0.12635839 0.010069251 1.0313286e-38
0.12442051 0.16727781 0.017368078 1.7035311e-38
0.12424663 0.17028147 0.018347383 1.7403007e-38
0.12482202 0.17413013 0.020413995 1.6666171e-38
0.12026379 0.097450033 0.0084474683 2.2752176e-38
0.11989045 0.09978015 0.008700788 2.2753968e-38
0.11910772 0.10365309 0.0082973242 2.2656725e-38
0.11916724 0.10744105 0.0085614324 2.2009892e-38
0.11913423 0.11122832 0.0091887712 1.9242951e-38
0.11954966 0.11508487 0.010293603 1.473113e-38
0.11993542 0.11908017 0.011440217 1.3996452e-38
0.11991456 0.1229645 0.012461841 1.2977257e-38
0.11926986 0.12720826 0.012071729 1.0591703e-38
0.11883545 0.13080752 0.012417376 8.4722673e-39
0.12031886 0.17055967 0.019519866 1.6299535e-38
0.12119426 0.17419812 0.021654725 1.6299179e-38
0.11555749 0.093285918 0.0090536475 2.2748944e-38
0.11628611 0.095996976 0.0093544722 2.2842208e-38
0.11596891 0.10000485 0.0088888407 2.2656363e-38
0.11543459 0.1040727 0.0083932281 2.1730092e-38
0.11597227 0.10775132 0.0085114837 2.145027e-38
0.11606145 0.11110393 0.0091254115 1.9522418e-38
0.11554867 0.11509433 0.010217369 1.5097377e-38
0.11575873 0.11907505 0.011445761 1.3629077e-38
0.11593413 0.12307457 0.012511134 1.2799321e-38
0.11604133 0.12710331 0.01324892 9.5732479e-39
0.11604531 0.13116634 0.013493657 6.9024389e-39
0.11604182 0.13518293 0.014368176 3.9597388e-39
0.11599243 0.1395306 0.015372694 4.6944199e-39
0.1164349 0.14322709 0.016035497 6.812739e-39
0.11654204 0.14725427 0.016772985 8.7456102e-39
0.11642201 0.15102868 0.017070174 9.6657602e-39
0.11593042 0.15532297 0.017612696 9.3866482e-39
0.11600178 0.15800504 0.018103838 9.016023e-39
0.11625154 0.16739234 0.019822955 1.3536563e-38
0.11704634 0.17008753 0.020454764 1.4089376e-38
0.11775661 0.17429787 0.02266413 1.4642546e-38
0.11845379 0.17746991 0.024274707 1.6115517e-38
0.11074372 0.085081823 0.0089198947 2.2669322e-38
0.11068328 0.08786051 0.0087616444 2.2754694e-38
0.1116125 0.092411973 0.0090008378 2.2935491e-38
0.11212304 0.096022844 0.0094208121 2.3115204e-38
0.11200689 0.10018152 0.0090713501 2.2191438e-38
0.111922 0.10295172 0.0088008046 2.0534441e-38
0.11292841 0.11957778 0.011889696 1.3629102e-38
0.1126584 0.12298617 0.013469815 1.3349628e-38
0.1127656 0.12701489 0.014207661 9.9409346e-39
0.11287278 0.13104364 0.014945447 6.9949779e-39
0.11302438 0.13505851 0.015902996 5.5227022e-39
0.11391686 0.13854665 0.01818949 4.8795048e-39
0.11457482 0.14271361 0.018789649 5.3397655e-39
0.11501974 0.14709912 0.01949501 7.6396368e-39
0.11443119 0.15088828 0.019545674 9.2984169e-39
0.11341973 0.15471572 0.01949811 1.0125303e-38
0.1132234 0.15888727 0.019099832 9.481013e-39
0.1122191 0.16326328 0.020235002 9.2105316e-39
0.11335865 0.16677824 0.020567238 1.1511144e-38
0.11377364 0.1699992 0.021412551 1.307738e-38
0.11415157 0.17401147 0.023480952 1.3813511e-38
0.11450838 0.17722884 0.025403678 1.5379759e-38
0.10669439 0.080935448 0.0093337297 2.3026597e-38
0.1077268 0.083962888 0.008543849 2.2933696e-38
0.10777777 0.087977923 0.0081171393 2.2838623e-38
0.10777646 0.092076406 0.0083113313 2.3024793e-38
0.10821503 0.095941842 0.0087171793 2.2835016e-38
0.10877377 0.099293202 0.0090395212 2.2282546e-38
0.10920388 0.12364957 0.013564706 1.2798957e-38
0.10880686 0.12715656 0.014353037 1.1691886e-38
0.10878946 0.13099247 0.015326798 9.0228935e-39
0.10926713 0.13489589 0.017933905 6.9038472e-39
0.10951316 0.13753064 0.019306958 5.7071117e-39
0.10953875 0.15916224 0.02048564 1.3258809e-38
0.10960218 0.16319263 0.021000981 1.1137983e-38
0.10969138 0.16654524 0.021614909 1.1139485e-38
0.10984644 0.16989321 0.022561967 1.2246904e-38
0.11008528 0.1739108 0.023965597 1.3352885e-38
0.11057012 0.17725712 0.026582062 1.4092249e-38
0.10377699 0.079751551 0.0094459653 2.2747142e-38
0.1036768 0.083889171 0.0082038641 2.1821575e-38
0.10385546 0.08761026 0.008272171 2.2647409e-38
0.10605758 0.12825492 0.015381694 1.1045808e-38
0.10503641 0.13105665 0.016486347 1.0584443e-38
0.10533056 0.13478965 0.019086003 9.3834e-39
0.10525179 0.13775204 0.020618439 9.4698447e-39
0.10447234 0.14546874 0.0223248 1.3618247e-38
0.10459776 0.15018205 0.023188055 1.4627733e-38
0.10582832 0.15429342 0.022546291 1.7310454e-38
0.10580117 0.15888828 0.021708488 1.9519847e-38
0.10605064 0.16309677 0.022040367 1.5187026e-38
0.105766 0.16643928 0.022763789 1.3440016e-38
0.1060472 0.16977595 0.02437824 1.1692643e-38
0.10632485 0.17379676 0.026006699 1.1601539e-38
0.10726732 0.17649513 0.027420104 1.2982665e-38
0.099743605 0.079677641 0.0091599226 2.2467663e-38
0.10001506 0.083677799 0.0086646676 2.2558077e-38
0.10060187 0.087011933 0.0091269016 2.2927589e-38
0.10158502 0.13215443 0.017458797 1.5099494e-38
0.10145105 0.13460964 0.018422365 1.5652308e-38
0.10131657 0.1387767 0.019982517 1.7218923e-38
0.10191555 0.14297505 0.021246135 1.7491911e-38
0.10157265 0.14682439 0.02167958 1.7856037e-38
0.10163818 0.15086396 0.022196114 1.9975798e-38
0.10239041 0.15467243 0.021945417 2.1726127e-38
0.10291713 0.15765187 0.021933377 2.2004141e-38
0.10217664 0.16667742 0.023878336 1.5372474e-38
0.10211632 0.16966985 0.025528729 1.1139448e-38
0.10289848 0.17267655 0.027991772 1.0123534e-38
0.095882028 0.075394824 0.010552406 2.2280393e-38
0.095790595 0.079352103 0.0090964437 2.181907e-38
0.098492235 0.13877136 0.019644082 1.924154e-38
0.098670632 0.14547656 0.020871937 2.0799145e-38
0.091688566 0.072119847 0.012118697 2.1453889e-38
0.091773234 0.075436659 0.010723472 2.1269118e-38
0.092307031 0.078300886 0.0099331141 2.0256766e-38
0.087938182 0.071113661 0.012336254 2.0994716e-38
0.087904692 0.075053275 0.011078417 2.0348961e-38
0.084034838 0.068212599 0.013651729 2.0810679e-38
0.083785176 0.071211904 0.012177527 2.0164217e-38
0.079815879 0.067560457 0.014783621 2.1263013e-38
0.079767533 0.071191296 0.012780905 1.9610328e-38
0.074729741 0.063924357 0.015603721 2.0810284e-38
0.075881079 0.066895775 0.015298128 2.1634292e-38
0.075889707 0.071034469 0.014259398 1.9516684e-38
0.072527878 0.063416362 0.016162455 1.9885839e-38
0.071949318 0.066793986 0.015330017 2.0992184e-38
0.071927927 0.070962176 0.015189826 2.0252059e-38
0.069456048 0.063109174 0.017018676 2.0072031e-38
0.067953907 0.066759571 0.016041934 2.1083998e-38
0.067973725 0.070193857 0.016161799 2.1637902e-38
0.065514199 0.06300278 0.018172324 1.9059676e-38
0.064052656 0.066617563 0.017412424 2.0256774e-38
0.064297035 0.069839403 0.016658723 2.0898532e-38
0.061572365 0.062896386 0.019326031 1.7583821e-38
0.06041681 0.066817045 0.017843127 1.9241912e-38
0.060689837 0.069407016 0.017650485 2.1175115e-38
0.057506382 0.062953725 0.019487202 1.7215406e-38
0.057241656 0.066383898 0.018630207 1.942595e-38
0.053570032 0.062847473 0.0206393 1.7402302e-38
0.053710088 0.06566833 0.01943928 1.9336595e-38
0.04955855 0.06285122 0.021127701 1.648462e-38
0.050769337 0.065119013 0.019785821 1.7678514e-38
0.045649178 0.062241435 0.022529006 1.2796097e-38
0.040194586 0.060813352 0.022112727 1.1691571e-38
0.038903967 0.061448559 0.022618473 1.1228038e-38
0.03832075 0.13781726 0.037382662 1.2150701e-38
0.039009765 0.14108847 0.039570451 1.1505702e-38
0.040910423 0.1442382 0.040313363 1.0951119e-38
0.032361642 0.061271973 0.024533272 1.2425505e-38
0.035738021 0.13430683 0.038895547 1.2053876e-38
0.036710925 0.13666856 0.040400743 1.2426949e-38
0.025872856 0.063106947 0.026816368 1.2241134e-38
0.025926366 0.065118507 0.027184725 9.1976116e-39
0.027661256 0.12924123 0.039272547 1.5005195e-38
0.024968538 0.1274063 0.039370298 1.4730752e-38
0.018353216 0.12178268 0.04132688 1.3808106e-38
0.021045238 0.12453923 0.041051865 1.3904217e-38
0.016071673 0.1172178 0.041487992 1.3259577e-38
0.01657996 0.11991727 0.041852355 1.3166683e-38
0.038564488 0.13405454 0.03102237 1.1964174e-38
0.10790887 0.12644419 0.014469266 2.0628059e-38
0.111009 0.13812341 0.016175985 1.8324208e-38
0.10985711 0.13406676 0.014737129 1.9426635e-38
0.10993248 0.15013775 0.018369198 1.6202659e-38
0.10740368 0.13030446 0.015179157 1.8044792e-38
0.10774603 0.15171447 0.019167244 1.9613903e-38
0.086625919 0.071459845 0.012355506 2.0718118e-38
0.083785176 0.071211904 0.012177527 2.0164217e-38
0.15128106 0.1316652 0.0094592571 2.2657815e-38
0.1523982 0.13438469 0.0098734498 2.2657808e-38
0.15240905 0.13846794 0.010246158 2.2286866e-38
0.15218072 0.14283726 0.010265052 2.1917e-38
0.15251863 0.14681071 0.010658324 2.1456367e-38
0.15230849 0.15071499 0.010848105 2.0903228e-38
0.15268902 0.15459527 0.01107198 2.0902495e-38
0.15273345 0.15903717 0.011604249 2.0074523e-38
0.15257448 0.16286908 0.012855291 1.942917e-38
0.15319322 0.16687773 0.015558362 1.9061101e-38
0.15306056 0.1707249 0.016922235 1.8969264e-38
0.15219399 0.1736012 0.017729759 1.8600844e-38
0.14717476 0.12375755 0.0094366074 2.2479895e-38
0.1479492 0.12771782 0.0092996359 2.2659254e-38
0.14799288 0.1316722 0.0090845227 2.2656736e-38
0.14778486 0.13541746 0.0085654855 2.2471626e-38
0.14941578 0.13779995 0.0095956922 2.2195755e-38
0.1498464 0.1634832 0.013313591 1.905857e-38
0.14897841 0.16697708 0.015035272 1.8414658e-38
0.14914688 0.17084157 0.016695678 1.7955813e-38
0.14930165 0.1740644 0.018679678 1.6942374e-38
0.14962353 0.17623818 0.0189991 1.6854839e-38
0.14363247 0.11978418 0.0099976659 2.2757576e-38
0.14398515 0.12340696 0.009406209 2.26607e-38
0.14451288 0.12732612 0.0084184408 2.2844359e-38
0.14505592 0.13168614 0.0086653233 2.2656374e-38
0.14516357 0.13573174 0.0094062686 2.2380502e-38
0.14557411 0.16763517 0.01537925 1.7587418e-38
0.14499888 0.17074643 0.017087877 1.7127149e-38
0.14556518 0.17410174 0.019622862 1.6756934e-38
0.14433852 0.17609553 0.0205459 1.6847322e-38
0.13978496 0.11591063 0.010191381 2.2475231e-38
0.13981415 0.11928229 0.0093889832 2.1828776e-38
0.14085746 0.12213986 0.0080919266 2.1827705e-38
0.14101161 0.17131728 0.018148839 1.7951527e-38
0.14152214 0.1739984 0.020453632 1.7128221e-38
0.14134941 0.17717469 0.021642387 1.6573961e-38
0.13514605 0.11179691 0.010999143 1.9247658e-38
0.13574795 0.11522416 0.010546565 2.0077062e-38
0.13616255 0.11864422 0.0088223815 2.0171761e-38
0.13757977 0.17191128 0.018577099 1.9246535e-38
0.13726234 0.17458013 0.020393968 1.7770342e-38
0.13790089 0.17766465 0.022459984 1.6759778e-38
0.13697147 0.18040729 0.023563802 1.6575751e-38
0.13262767 0.10812046 0.011046827 1.9793992e-38
0.13269973 0.11082876 0.011542857 1.7768923e-38
0.13186401 0.11522894 0.010510921 1.675799e-38
0.1315394 0.11784566 0.010046721 1.6758721e-38
0.13351747 0.17550063 0.021003187 1.8047638e-38
0.13367167 0.17772245 0.02212435 1.7587742e-38
0.13469812 0.18097739 0.024349809 1.7126775e-38
0.12787718 0.1032561 0.011532307 2.28368e-38
0.12891617 0.10686038 0.011911511 2.0717024e-38
0.12863812 0.11097313 0.011430025 1.7491253e-38
0.12786943 0.1148768 0.010996997 1.4362017e-38
0.12759209 0.11773911 0.011201978 1.2977295e-38
0.12979276 0.17574379 0.021628618 1.7219333e-38
0.13007179 0.17776279 0.022992015 1.7126776e-38
0.13107103 0.18076348 0.025389254 1.7218952e-38
0.12403558 0.091199324 0.010372937 2.2675083e-38
0.12438424 0.094950654 0.010322928 2.2479533e-38
0.12498152 0.098775201 0.010080159 2.2661409e-38
0.12598124 0.10230613 0.010854781 2.2930089e-38
0.12565912 0.10674185 0.011267841 2.2192846e-38
0.12521061 0.11054745 0.011067688 1.9428038e-38
0.12488878 0.11497103 0.011478245 1.4824051e-38
0.12656127 0.1778008 0.024257064 1.648071e-38
0.1273063 0.18104851 0.026564896 1.6851263e-38
0.12021396 0.088164285 0.010931313 2.2768363e-38
0.12091178 0.090911083 0.011071503 2.2571391e-38
0.12054403 0.094555058 0.0095790029 2.2660696e-38
0.12291309 0.17802534 0.024466991 1.6482854e-38
0.12301007 0.18071009 0.027249455 1.6849818e-38
0.11616012 0.084671915 0.01147145 2.2673287e-38
0.11682475 0.087440886 0.011448979 2.2482426e-38
0.11673915 0.091345191 0.010300994 2.2562364e-38
0.11871633 0.17948753 0.025642753 1.6574331e-38
0.11932717 0.18151179 0.028676271 1.6942734e-38
0.11812957 0.18350717 0.029767752 1.7495199e-38
0.11198935 0.080572113 0.011399984 2.2393093e-38
0.11262223 0.083364397 0.011214614 2.2389863e-38
0.11328852 0.087502122 0.011276364 2.2572462e-38
0.11329013 0.090850987 0.010324419 2.2750009e-38
0.11283937 0.13980034 0.019810677 4.0529784e-39
0.11324248 0.14292625 0.020818233 4.601497e-39
0.11341089 0.14583702 0.022491038 6.1659613e-39
0.11308405 0.14932665 0.02208823 7.9155062e-39
0.11476004 0.17904384 0.026736259 1.6115877e-38
0.11529775 0.18140475 0.029502392 1.6576491e-38
0.11548704 0.18343586 0.030541122 1.740552e-38
0.10801642 0.076333024 0.01230371 2.2847629e-38
0.10876438 0.078999594 0.011794925 2.2844381e-38
0.10955419 0.082215562 0.0097873211 2.2853737e-38
0.10973933 0.13859369 0.020503402 5.1532219e-39
0.11026338 0.14156097 0.023301005 4.5057169e-39
0.11040491 0.14544049 0.0242064 5.7910677e-39
0.11033754 0.14953676 0.024066091 6.9867396e-39
0.10923888 0.1527296 0.023353159 9.6610589e-39
0.11082168 0.17927444 0.027953267 1.5102428e-38
0.11133702 0.18129784 0.030661583 1.6022943e-38
0.11152329 0.18332887 0.031701207 1.6667952e-38
0.10328394 0.072145745 0.012913167 2.2011366e-38
0.10428186 0.075236931 0.011880696 2.2468414e-38
0.10549924 0.078063428 0.010201752 2.3023381e-38
0.10581595 0.13938616 0.021823347 8.5500394e-39
0.1061071 0.14224702 0.023461878 8.831294e-39
0.1067168 0.14584243 0.02437979 8.0022606e-39
0.10662052 0.14927834 0.024382889 8.5522156e-39
0.10683849 0.17781936 0.028861582 1.3723801e-38
0.10725468 0.1806792 0.03206861 1.4918396e-38
0.10888077 0.18325755 0.032474637 1.5931827e-38
0.10032655 0.071555816 0.013469219 2.2012787e-38
0.10047992 0.07436268 0.011413813 2.1544981e-38
0.10261586 0.17446578 0.029902816 1.0124606e-38
0.1033085 0.17702502 0.032236397 1.0405503e-38
0.10350567 0.17972952 0.033401489 1.1974257e-38
0.09590894 0.067887142 0.014296114 2.0892403e-38
0.096346542 0.070866555 0.01296711 2.1727952e-38
0.097448677 0.17082809 0.030322433 1.0951094e-38
0.099089161 0.17286985 0.031815231 1.0213884e-38
0.099616989 0.17624161 0.033893228 8.1917162e-39
0.10018453 0.17896327 0.03424418 8.3796821e-39
0.092554316 0.067498669 0.014955819 2.1170456e-38
0.092541978 0.070039615 0.013376474 2.1082594e-38
0.096665233 0.17074922 0.033723056 9.8490683e-39
0.096701249 0.17210338 0.033971012 1.0674151e-38
0.088762656 0.0671525 0.014768779 2.1824104e-38
0.085016854 0.065835953 0.015380263 2.0814265e-38
0.080453046 0.063577533 0.017015219 1.8601206e-38
0.081099689 0.065414071 0.015900612 2.0348629e-38
0.077497259 0.062719263 0.017519414 2.0439698e-38
0.077545077 0.065180823 0.016066015 2.1266237e-38
0.074148729 0.06114313 0.019064248 1.9517044e-38
0.06926766 0.059048995 0.020542085 1.8228476e-38
0.069823816 0.060588017 0.019609749 1.8044101e-38
0.065964527 0.058959827 0.021508813 1.8412496e-38
0.065684296 0.060704075 0.019450486 1.8596895e-38
0.062000744 0.058852844 0.022668898 1.7954044e-38
0.061907254 0.060374342 0.021926701 1.8320656e-38
0.058036983 0.058745861 0.023828983 1.6567901e-38
0.057948969 0.060267493 0.023085237 1.6756946e-38
0.055394471 0.058674537 0.024602354 1.499985e-38
0.054029599 0.060104758 0.024575114 1.4453497e-38
0.05074957 0.059987739 0.025706351 1.3535854e-38
0.048163585 0.059832536 0.026977181 1.1689757e-38
0.048487544 0.14644477 0.043428361 1.2886505e-38
0.042856157 0.1450984 0.041666031 1.1873807e-38
0.04580871 0.14638948 0.043862045 1.2617443e-38
0.03883709 0.14229479 0.042327404 1.0860342e-38
0.040523969 0.14487664 0.045500576 1.1873072e-38
0.042265318 0.14676192 0.044634998 1.3071619e-38
0.036097907 0.13817815 0.04235667 1.3530431e-38
0.037027285 0.14058125 0.043387771 1.233441e-38
0.037386045 0.14316943 0.044783056 1.132134e-38
0.032771289 0.13330211 0.043476701 1.316303e-38
0.033580318 0.13550851 0.044718087 1.2793917e-38
0.035094813 0.13931738 0.046055377 1.3070924e-38
0.035166889 0.14202569 0.046551406 1.2518441e-38
0.027987991 0.12987387 0.043185532 1.5464359e-38
0.028808761 0.1311361 0.0447734 1.4637105e-38
0.03098695 0.13379379 0.046223521 1.3621497e-38
0.025187504 0.12826174 0.046363473 1.4548508e-38
0.025593847 0.12958869 0.047026396 1.4732532e-38
0.020557519 0.12502316 0.046593308 1.3257783e-38
0.022879276 0.12680905 0.047303796 1.3996777e-38
0.016552754 0.12013227 0.044730127 1.3442184e-38
0.018311117 0.12316015 0.046906412 1.325493e-38
0.014235083 0.11620136 0.047851682 1.2709958e-38
0.014753595 0.11914726 0.048260033 1.270426e-38
0.019096978 0.09158197 0.017302632 9.7586789e-39
0.020036317 0.10019597 0.018668592 1.0218212e-38
0.019584946 0.10832117 0.020355344 7.9140194e-39
0.015235566 0.10820378 0.02162832 8.376071e-39
0.037025757 0.090587363 0.018483758 1.1600094e-38
0.08199279 0.11922595 0.010994315 1.4266569e-38
0.1025742 0.12559512 0.0076018572 1.666367e-38
0.10012448 0.12095515 0.0072877407 1.5926814e-38
0.073349468 0.10739437 0.014385223 1.5191405e-38
0.071022004 0.11096583 0.015032947 1.4821886e-38
0.10604601 0.17000401 0.024382949 1.2244732e-38
0.11280836 0.13037005 0.013835311 1.7585608e-38
0.11790231 0.15695493 0.016622186 2.0163127e-38
0.10431138 0.098716363 0.0095243454 1.703351e-38
0.10344167 0.12482435 0.014798164 1.7310089e-38
0.075889707 0.071034469 0.014259398 1.9516684e-38
0.10481831 0.14144087 0.025849998 1.7681754e-38
0.13726234 0.17458013 0.020393968 1.7770342e-38
0.1273063 0.18104851 0.026564896 1.6851263e-38
0.13684893 0.17127971 0.022369981 1.795655e-38
0.14780498 0.1159403 0.010849297 2.2295907e-38
0.14857113 0.11931526 0.011088908 2.2486742e-38
0.14950362 0.12301631 0.010988057 2.2391651e-38
0.15011308 0.12601799 0.011380017 2.2752533e-38
0.15141368 0.17490231 0.020332217 1.7956167e-38
0.15019709 0.17775169 0.021371424 1.6851277e-38
0.14998269 0.18119189 0.022667229 1.6759827e-38
0.14926592 0.18434039 0.023835838 1.6577232e-38
0.14403163 0.11218301 0.01160872 2.2481705e-38
0.14463256 0.11497056 0.011373043 2.2483153e-38
0.14527717 0.11842437 0.011369526 2.2762973e-38
0.1463564 0.17764929 0.022363126 1.5927881e-38
0.14640397 0.18154961 0.023565769 1.5746017e-38
0.14594907 0.18425086 0.024806559 1.5841093e-38
0.14039767 0.11115791 0.012040615 2.2843289e-38
0.14085379 0.11389499 0.011821568 2.2663571e-38
0.14355454 0.17808248 0.023280501 1.5834247e-38
0.14231993 0.18144149 0.024289906 1.52843e-38
0.14228572 0.18469645 0.025558531 1.5746738e-38
0.13648131 0.10246766 0.012001336 2.2935842e-38
0.13681473 0.1069468 0.012227416 2.2007427e-38
0.137301 0.11045357 0.012434363 2.1088344e-38
0.13786373 0.11347505 0.012631893 2.1550751e-38
0.13914737 0.18162724 0.025270283 1.5836391e-38
0.13933346 0.1847517 0.026872575 1.5192488e-38
0.13375549 0.09967649 0.012279928 2.2572096e-38
0.13367592 0.10246777 0.012129724 2.2746399e-38
0.13392013 0.10618046 0.012564301 2.1084381e-38
0.13510552 0.10932983 0.012661397 1.9610673e-38
0.13573152 0.18262056 0.026477396 1.6666879e-38
0.13577774 0.18516618 0.027612984 1.6666518e-38
0.12864456 0.094443068 0.012802243 2.2392742e-38
0.12961623 0.098272614 0.012655199 2.2661426e-38
0.13003066 0.10219774 0.012961864 2.2746041e-38
0.13104045 0.1058278 0.013203025 2.1359875e-38
0.13241924 0.18253116 0.027446866 1.7219998e-38
0.13195451 0.18523279 0.028690696 1.7220747e-38
0.13146348 0.18793628 0.029824913 1.7588849e-38
0.12392817 0.087317377 0.011784792 2.3325854e-38
0.12571374 0.0897291 0.012350261 2.3047827e-38
0.12674059 0.093499444 0.012128294 2.239383e-38
0.12792763 0.18512422 0.029633522 1.6853056e-38
0.12814663 0.18784675 0.030795634 1.7312631e-38
0.12068321 0.08373227 0.012861848 2.3048549e-38
0.12163566 0.086203516 0.012519956 2.3048907e-38
0.1226394 0.088639513 0.01242125 2.3322253e-38
0.12446977 0.1823166 0.029773474 1.657396e-38
0.12395109 0.18501687 0.030797482 1.6389941e-38
0.12416641 0.18773931 0.031960607 1.6758009e-38
0.11600141 0.08017417 0.013841569 2.2680129e-38
0.11740376 0.082662418 0.012990117 2.2862362e-38
0.11993337 0.18468207 0.031753242 1.7773208e-38
0.11257602 0.07600534 0.014065266 2.2390975e-38
0.11320621 0.078586727 0.013840437 2.2392754e-38
0.1145093 0.08163546 0.013504505 2.2300911e-38
0.11601636 0.18548116 0.033249438 1.7775016e-38
0.11620599 0.18752447 0.034290373 1.8511506e-38
0.10782392 0.071800679 0.014677346 2.2946635e-38
0.10929163 0.074256584 0.014103353 2.2667552e-38
0.11197343 0.18537161 0.034078896 1.7036383e-38
0.11222577 0.18741703 0.035455287 1.7404462e-38
0.10480116 0.070694774 0.01494205 2.2381592e-38
0.10634306 0.073273502 0.01433897 2.3121697e-38
0.10781954 0.18475063 0.035197377 1.5746368e-38
0.10822113 0.18785182 0.036518931 1.6387785e-38
0.10032785 0.067602709 0.015577495 2.0993273e-38
0.10132146 0.069366522 0.015353382 2.1731548e-38
0.10393368 0.18176228 0.035783887 1.3632018e-38
0.10421401 0.18431443 0.036453068 1.5009533e-38
0.10492872 0.18722007 0.037590921 1.5470856e-38
0.097594798 0.066211447 0.015860498 1.9603832e-38
0.10060333 0.18099394 0.036628962 9.4886165e-39
0.10125758 0.18440418 0.037792802 1.3170296e-38
0.093012735 0.063248135 0.017454565 2.2100653e-38
0.09455134 0.065290362 0.016750097 2.126874e-38
0.09709236 0.17343609 0.036230683 9.9387486e-39
0.096979111 0.17637108 0.037001908 8.4647017e-39
0.097351372 0.18022519 0.037921906 6.718021e-39
0.098359779 0.18342009 0.038467824 8.5673805e-39
0.090079442 0.062625445 0.018209279 2.126984e-38
0.09022738 0.064696968 0.017500222 2.1547143e-38
0.086080179 0.061976984 0.018613398 1.9884748e-38
0.082407266 0.061359964 0.019343257 1.9609226e-38
0.077931948 0.058468185 0.020767629 1.8875615e-38
0.078194819 0.060301423 0.020244181 2.0163107e-38
0.073879689 0.058445171 0.021439791 1.8594737e-38
0.071534105 0.058764733 0.021934211 1.7304377e-38
0.066257216 0.056838371 0.02366823 1.8136632e-38
0.062944055 0.054283768 0.024697244 1.6662942e-38
0.063288495 0.056335792 0.024138212 1.7580606e-38
0.059224583 0.053933308 0.025207758 1.4447405e-38
0.059598275 0.056348667 0.025381148 1.6198032e-38
0.056833647 0.053618714 0.025329351 1.5186391e-38
0.055612773 0.05672282 0.026462734 1.4722542e-38
0.051852308 0.05695843 0.027981281 1.2605993e-38
0.054371648 0.14838184 0.044591844 1.4546734e-38
0.047895804 0.057082906 0.029107809 1.3344229e-38
0.046396926 0.059443161 0.029550493 1.1504991e-38
0.050770909 0.14705814 0.045517325 1.3812404e-38
0.045070201 0.05657649 0.030105174 1.4633162e-38
0.046202637 0.1475887 0.04750967 1.3995705e-38
0.041902907 0.14777395 0.048189163 1.427123e-38
0.038105175 0.14468785 0.04865998 1.2611707e-38
0.038393401 0.14700401 0.049420714 1.4178306e-38
0.032557316 0.1364142 0.048377991 1.2978681e-38
0.033336341 0.13911887 0.049193084 1.2979059e-38
0.034090079 0.14253385 0.049621046 1.2518791e-38
0.029883821 0.13220151 0.049430132 1.4084301e-38
0.031257696 0.13566861 0.049152851 1.3162699e-38
0.026268348 0.13124581 0.049617231 1.4180429e-38
0.022170864 0.12754001 0.049775958 1.32596e-38
0.023714736 0.13014738 0.050662875 1.2800019e-38
0.017658159 0.12379976 0.050405324 1.3253104e-38
0.019115217 0.12648697 0.051393986 1.0953624e-38
0.013502765 0.11690298 0.050325215 1.1694396e-38
0.014479086 0.1196143 0.050906181 1.0585582e-38
0.016363185 0.12232501 0.051569998 1.1142343e-38
0.011724196 0.11640266 0.050759435 9.9408561e-39
0.010776818 0.11934093 0.052000701 4.3227423e-39
0.0082580671 0.11667106 0.052903771 3.9568381e-39
0.046546616 0.10840309 0.012421072 1.4546015e-38
0.04925321 0.10764274 0.010921001 1.1875217e-38
0.051954105 0.11539195 0.011646807 1.178339e-38
0.060867712 0.11933886 0.0095242262 1.4085046e-38
0.045706078 0.11061371 0.012824893 1.0861432e-38
0.048178658 0.11586937 0.012677431 1.0770304e-38
0.044092424 0.12596221 0.015732586 1.1230209e-38
0.046130024 0.1135878 0.013927042 1.3070883e-38
0.040435493 0.10333225 0.012838781 1.0123857e-38
0.040788695 0.12316118 0.016364217 1.0126013e-38
0.02332136 0.09723416 0.020228028 1.1964864e-38
0.047075823 0.079701588 0.016069829 1.7585242e-38
0.038078859 0.093564987 0.019563377 1.335035e-38
0.041817009 0.092205837 0.018348813 1.2519512e-38
0.082211643 0.10510056 0.0079238415 1.5651296e-38
0.076302722 0.11530831 0.015067697 1.2520968e-38
0.10464315 0.1244532 0.0091751218 1.4732226e-38
0.11825278 0.13859063 0.0087804198 1.5193912e-38
0.10385546 0.08761026 0.008272171 2.2647409e-38
0.11776523 0.1337772 0.012500584 1.4822603e-38
0.11601119 0.14647271 0.016369283 1.518814e-38
0.11550683 0.14577547 0.016299486 1.9427343e-38
0.11718632 0.11804661 0.0095177293 1.8231332e-38
0.10457562 0.10292681 0.010908246 2.1183038e-38
0.09356381 0.085405737 0.010899305 2.0533353e-38
0.089510478 0.087011315 0.012629509 1.795259e-38
0.064052656 0.066617563 0.017412424 2.0256774e-38
0.10060333 0.18099394 0.036628962 9.4886165e-39
0.14085746 0.12213986 0.0080919266 2.1827705e-38
0.11422214 0.14979947 0.018641949 1.731333e-38
0.080117501 0.12274866 0.015021741 1.4826203e-38
0.1491397 0.10770845 0.014536321 2.2583262e-38
0.14928703 0.11053634 0.014123619 2.2304877e-38
0.14993691 0.11402787 0.012930334 2.2395275e-38
0.15064742 0.11760853 0.012796521 2.2298767e-38
0.1517054 0.18235762 0.024851978 1.7588863e-38
0.15171841 0.18485466 0.026032329 1.8508309e-38
0.15179065 0.18849885 0.028474927 1.9061473e-38
0.14583719 0.10677868 0.014635146 2.2491416e-38
0.14542848 0.1102208 0.013394117 2.2390226e-38
0.14746325 0.18530886 0.026679218 1.6758734e-38
0.14745791 0.18837762 0.028327882 1.7956903e-38
0.14829507 0.19231167 0.030345559 1.8784861e-38
0.14155561 0.098610759 0.015056968 2.2492495e-38
0.14246279 0.10260288 0.015549481 2.2489986e-38
0.14259326 0.10614187 0.014728308 2.2577497e-38
0.14178219 0.10919403 0.013829231 2.265925e-38
0.14447893 0.18556893 0.027617753 1.6393904e-38
0.14404702 0.18828511 0.028972566 1.7128238e-38
0.14510372 0.1925925 0.031425416 1.8327482e-38
0.13810663 0.094413213 0.015282154 2.2581106e-38
0.13847815 0.098042876 0.014097214 2.248998e-38
0.13905762 0.10225044 0.01384455 2.2574995e-38
0.1392217 0.10610514 0.01421386 2.2752171e-38
0.140718 0.18819524 0.029946864 1.6204849e-38
0.14122137 0.19231553 0.03235203 1.7034602e-38
0.13353384 0.089908123 0.015253007 2.2770886e-38
0.13442099 0.093810506 0.014732599 2.2586124e-38
0.13419494 0.097387299 0.014010072 2.2581078e-38
0.13686886 0.18847981 0.030895054 1.5835698e-38
0.13716604 0.1922041 0.033302844 1.6206265e-38
0.12994273 0.085846737 0.015369833 2.2956356e-38
0.13013963 0.089701302 0.01439774 2.2864157e-38
0.13091058 0.093614601 0.01430285 2.2489613e-38
0.13305101 0.18900999 0.032209098 1.7771763e-38
0.13311353 0.19209275 0.034252822 1.6479575e-38
0.12525204 0.081516504 0.0158512 2.304783e-38
0.12619087 0.085335925 0.014710307 2.3233657e-38
0.12862304 0.18922855 0.033039272 1.7588115e-38
0.12934798 0.19160283 0.035550117 1.7679207e-38
0.12136313 0.078616872 0.016402364 2.2770524e-38
0.12251022 0.081279218 0.015296519 2.2957073e-38
0.12316889 0.084165946 0.014591157 2.3138591e-38
0.12463187 0.18912083 0.034207404 1.7128576e-38
0.12511572 0.19119444 0.03658098 1.7403367e-38
0.11734198 0.074926615 0.017743647 2.2585414e-38
0.11812124 0.078224704 0.0162853 2.286344e-38
0.12085369 0.18782856 0.035483658 1.767959e-38
0.12110892 0.19176874 0.037766159 1.7402637e-38
0.11399609 0.071291819 0.017338514 2.2759733e-38
0.11403966 0.073795542 0.016692698 2.2489983e-38
0.11500515 0.077132918 0.015678823 2.2581822e-38
0.11664951 0.18890536 0.036543667 1.9152545e-38
0.11733425 0.19084617 0.038619995 1.8323857e-38
0.11043617 0.06997861 0.017131329 2.2659269e-38
0.11265832 0.18879762 0.037711799 1.7589195e-38
0.11422056 0.19103855 0.040008247 1.7865048e-38
0.10562672 0.067180529 0.017631352 2.1919525e-38
0.10695678 0.068961382 0.017310202 2.3024083e-38
0.10866717 0.18868992 0.038879871 1.647962e-38
0.11044119 0.19079836 0.040875852 1.6941661e-38
0.10308386 0.065605849 0.018997073 2.0717766e-38
0.10534118 0.18860014 0.039853394 1.5746364e-38
0.1063754 0.19068566 0.041711688 1.5930034e-38
0.098684132 0.062253125 0.019394159 1.8962438e-38
0.099733546 0.064802513 0.018578649 1.9517071e-38
0.10190387 0.18753678 0.04128015 1.5011333e-38
0.10260233 0.18990964 0.044101536 1.5930418e-38
0.093761802 0.05832839 0.021595359 2.053336e-38
0.095007747 0.061243191 0.019792259 2.0994673e-38
0.096433952 0.17199191 0.040393829 9.3888118e-39
0.096506596 0.1747227 0.040893853 9.7554237e-39
0.097016156 0.18383366 0.041422129 7.826584e-39
0.098483324 0.18688917 0.043557823 1.1788439e-38
0.090777785 0.057369299 0.02169466 2.0626623e-38
0.091048814 0.060391061 0.020145476 2.1085442e-38
0.095326662 0.17604616 0.042205393 1.0037369e-38
0.094663143 0.17903069 0.043326676 1.0123822e-38
0.09468706 0.18285716 0.044505358 7.1782845e-39
0.09538053 0.1860663 0.0455181 7.6425375e-39
0.0867754 0.057060771 0.02166599 1.9885109e-38
0.087961957 0.060052529 0.020469844 2.0251738e-38
0.08278583 0.056242406 0.022874713 1.960385e-38
0.079625845 0.053842396 0.024948418 1.9700338e-38
0.078911744 0.056159779 0.023057997 1.8224858e-38
0.076286167 0.053752244 0.025925875 1.9882604e-38
0.074888483 0.056086466 0.024030209 1.8963163e-38
0.071826242 0.053298593 0.025894582 1.9153298e-38
0.071241349 0.056194872 0.024712741 1.813304e-38
0.068413444 0.053135157 0.027304053 1.7310494e-38
0.06879624 0.055901781 0.025384963 1.7951526e-38
0.064373203 0.052673951 0.027676642 1.5744942e-38
0.060634062 0.052322015 0.028192699 1.5464762e-38
0.057168998 0.15187395 0.047183752 1.5281776e-38
0.05805175 0.15480959 0.049815416 1.564839e-38
0.05310528 0.14903918 0.047852457 1.491408e-38
0.05452922 0.15110689 0.048177123 1.5098474e-38
0.055211015 0.15426697 0.050497234 1.5373606e-38
0.050758943 0.14829457 0.048409045 1.47304e-38
0.050413594 0.15067345 0.050027132 1.5557649e-38
0.052258216 0.15411894 0.052257538 1.546654e-38
0.047100373 0.14819583 0.049479842 1.482151e-38
0.047179997 0.15045178 0.05137229 1.5922823e-38
0.048888132 0.15288785 0.053026021 1.5739524e-38
0.042462125 0.1487519 0.050967395 1.5007356e-38
0.044303641 0.15007401 0.052793145 1.5283215e-38
0.04421255 0.15276165 0.054394484 1.4728951e-38
0.041168012 0.15007952 0.051606536 1.46411e-38
0.035127684 0.1444134 0.053383768 1.2704964e-38
0.035164014 0.14577878 0.053633749 1.3167745e-38
0.030154113 0.13477291 0.05231607 1.3253828e-38
0.030942321 0.138873 0.053041339 1.251841e-38
0.03196837 0.14297315 0.053872764 1.270604e-38
0.027617551 0.13460195 0.054688811 1.2702801e-38
0.02812444 0.13761979 0.056293011 1.0865021e-38
0.028769106 0.14094356 0.056736112 1.0588783e-38
0.02271796 0.13118726 0.053492069 1.0677367e-38
0.024317764 0.13448396 0.056120515 9.3902916e-39
0.024459872 0.13786291 0.057430863 9.4893199e-39
0.017970897 0.12765279 0.05423063 5.3282889e-39
0.019389007 0.13039999 0.054568946 5.7064167e-39
0.020451371 0.13429417 0.056592941 6.9989547e-39
0.021007035 0.13716868 0.056912363 8.4776539e-39
0.015538808 0.12243665 0.054488778 9.3888118e-39
0.016112935 0.12603469 0.057303488 3.8657074e-39
0.016486153 0.12986895 0.056952596 3.0345637e-39
0.013586119 0.12161885 0.055974901 5.1478549e-39
0.013726488 0.125681 0.057239473 1.6544809e-39
0.0097550824 0.11644037 0.055596173 4.4163659e-39
0.026953362 0.10370307 0.018221438 1.114015e-38
0.037092403 0.11469328 0.018421113 1.0401157e-38
0.050629988 0.11392272 0.012876153 1.3071982e-38
0.066045158 0.12788202 0.0091944337 1.6755858e-38
0.057897329 0.14231426 0.013317823 1.2244704e-38
0.042704821 0.10186084 0.012551248 1.2424801e-38
0.01848878 0.097473845 0.020555854 8.2817426e-39
0.052403465 0.077696025 0.014394701 1.8132659e-38
0.051982388 0.10252163 0.014575481 1.3531493e-38
0.082212523 0.12638891 0.011931896 1.7678147e-38
0.05029662 0.078011192 0.013168693 1.5189962e-38
0.10670821 0.12351657 0.0080881119 1.4362014e-38
0.13506159 0.14437959 0.0069954395 1.7408453e-38
0.11552057 0.10663733 0.0077710152 2.1732619e-38
0.10387576 0.11709049 0.010716259 1.4359844e-38
0.10492872 0.18722007 0.037590921 1.5470856e-38
0.14910114 0.10326448 0.016881049 2.2582907e-38
0.13716604 0.1922041 0.033302844 1.6206265e-38
0.14713877 0.10282881 0.016675174 2.2584704e-38
0.14730749 0.10481174 0.015589416 2.2681201e-38
0.14284557 0.094853036 0.01713717 2.2491062e-38
0.14266609 0.097836331 0.015639126 2.2491058e-38
0.14399236 0.10123892 0.016424477 2.2492138e-38
0.14572009 0.19587548 0.033460259 1.9247286e-38
0.13871178 0.090620145 0.017559648 2.2582547e-38
0.13943222 0.093233511 0.016253233 2.2491067e-38
0.14168873 0.19508168 0.034509242 1.7495223e-38
0.13343802 0.085942052 0.01611501 2.2675816e-38
0.13576409 0.089297429 0.017124057 2.2583976e-38
0.13768476 0.19531611 0.035746515 1.6480708e-38
0.12977348 0.082136288 0.018600881 2.2586496e-38
0.13161674 0.084383845 0.01742053 2.2861645e-38
0.13394466 0.19542062 0.036880493 1.5838551e-38
0.12556653 0.075153902 0.018519819 2.2671839e-38
0.12593177 0.077551052 0.018161774 2.2392766e-38
0.12767799 0.08054468 0.018072248 2.2586845e-38
0.1289441 0.19336763 0.037977517 1.7862545e-38
0.12251747 0.074582182 0.018894374 2.2581464e-38
0.12559983 0.19327737 0.038956344 1.7589925e-38
0.126066 0.19468513 0.041207969 1.7590268e-38
0.11863935 0.070580132 0.019178629 2.2759374e-38
0.11898421 0.073347382 0.018720746 2.248746e-38
0.12250324 0.19457641 0.041187525 1.7219329e-38
0.11576374 0.069604561 0.018964827 2.2563136e-38
0.11824247 0.19307879 0.041109681 1.7770328e-38
0.1193592 0.19450411 0.043170869 1.7494467e-38
0.11139739 0.065666839 0.020573616 2.2376536e-38
0.11331142 0.067954287 0.020794153 2.265816e-38
0.1148982 0.19298851 0.042088389 1.7678148e-38
0.11667646 0.19443171 0.043955982 1.8044407e-38
0.10790154 0.065199673 0.020969927 2.2008505e-38
0.1108851 0.19288018 0.043262959 1.6757268e-38
0.11127447 0.19291213 0.045274496 1.685018e-38
0.10334663 0.06177517 0.021732867 1.9887666e-38
0.10478088 0.063933179 0.020445168 2.0800994e-38
0.10754085 0.19278994 0.044241667 1.6114058e-38
0.10590903 0.19276731 0.0468449 1.5747787e-38
0.098300457 0.057932749 0.023350239 1.9056422e-38
0.099843964 0.059861518 0.02219826 1.8319957e-38
0.10282239 0.19129258 0.045360923 1.6297381e-38
0.10456768 0.19273111 0.047237456 1.6022931e-38
0.095182285 0.056888491 0.02323091 1.9885127e-38
0.097398639 0.18840611 0.046424806 1.2713248e-38
0.099000469 0.19037724 0.047597229 1.5105309e-38
0.091853827 0.055364117 0.02265805 2.0259634e-38
0.095194995 0.17119342 0.045383632 8.9282022e-39
0.094769806 0.17428467 0.04504025 1.0220701e-38
0.09314844 0.17938623 0.0459674 1.1875958e-38
0.09323962 0.18281376 0.046594977 9.3874329e-39
0.094352335 0.18695389 0.047054589 8.5641365e-39
0.09575741 0.18905887 0.049159825 1.0592405e-38
0.08869306 0.053671017 0.02469027 1.9884023e-38
0.093379602 0.17525703 0.047231078 1.0591279e-38
0.092129678 0.1786577 0.048253119 1.2522367e-38
0.091344371 0.18276101 0.047856688 1.24291e-38
0.091324262 0.18618715 0.047809958 8.9256659e-39
0.093727082 0.18831721 0.049622834 8.8335319e-39
0.08445999 0.053794518 0.024560273 2.0807039e-38
0.081784584 0.053722322 0.025343239 2.0071279e-38
0.076692432 0.051854432 0.028624475 1.9423457e-38
0.06703338 0.051954135 0.029398859 1.5656018e-38
0.065254301 0.050171942 0.031709671 1.2797566e-38
0.060383566 0.15804747 0.052921832 1.4913707e-38
0.061473645 0.15997128 0.053813279 1.4822593e-38
0.056300022 0.15813486 0.052881777 1.528212e-38
0.057449564 0.15986267 0.054991007 1.5190646e-38
0.051746622 0.15566334 0.053765714 1.5465456e-38
0.052512579 0.15824428 0.054295838 1.4637124e-38
0.052867077 0.1613811 0.055231631 1.1672498e-38
0.048246622 0.15456808 0.055205047 1.5188856e-38
0.047842026 0.15759495 0.055828154 1.3349299e-38
0.049885988 0.16109324 0.055357337 1.4077498e-38
0.045617528 0.15138784 0.054774344 1.537289e-38
0.027935583 0.13995039 0.057855427 1.0405485e-38
0.026561394 0.13854329 0.057995796 9.7655369e-39
0.025929034 0.13989624 0.058442652 1.0316193e-38
0.01209604 0.12239756 0.05921936 1.9292937e-39
0.053146936 0.13020617 0.015088856 1.4642894e-38
0.058018655 0.1160963 0.010422289 1.7962303e-38
0.060624771 0.12078718 0.009837091 1.4824418e-38
0.071644492 0.13046843 0.0075542331 1.4179434e-38
0.073014781 0.13751878 0.0075454712 2.0207887e-39
0.052463502 0.11786512 0.0093221068 1.3346404e-38
0.051563784 0.1194393 0.011328757 1.2239664e-38
0.036921814 0.1190884 0.017406106 9.4803012e-39
0.036308467 0.12122029 0.018205643 1.0768145e-38
0.035047054 0.12330882 0.019623458 9.9380241e-39
0.078399695 0.082802355 0.0085706711 1.8323531e-38
0.060336798 0.078793749 0.012474537 1.6108683e-38
0.056241013 0.08708629 0.013552785 1.5832087e-38
0.053208284 0.092938244 0.012069643 1.5188143e-38
0.083336815 0.12340456 0.013261497 1.4178685e-38
0.10140982 0.11732554 0.0091988444 1.7953318e-38
0.1222418 0.12429959 0.0062701106 1.7124977e-38
0.11848566 0.14872725 0.015226007 1.4363061e-38
0.11941263 0.14578182 0.015528619 1.6206986e-38
0.11760092 0.10546411 0.0077349544 2.1548603e-38
0.079991192 0.079477146 0.014042735 2.081138e-38
0.074312702 0.078313053 0.015115082 1.8690882e-38
0.099082783 0.14091167 0.021475077 9.6650498e-39
0.12694249 0.1233822 0.0096427202 1.8053811e-38
0.060634062 0.052322015 0.028192699 1.5464762e-38
0.14233693 0.1041017 0.019635141 2.1385059e-38
0.12636328 0.093592025 0.016656816 2.1655179e-38
0.14416443 0.089174338 0.021140099 2.2487811e-38
0.14430991 0.092782326 0.019184709 2.2584691e-38
0.14506641 0.097075492 0.019021869 2.2490699e-38
0.13920672 0.081545502 0.022043049 2.2300211e-38
0.14008644 0.084634006 0.021613419 2.2488912e-38
0.14029494 0.088462263 0.020161152 2.2396356e-38
0.14123009 0.091806293 0.019157767 2.2398869e-38
0.1354605 0.076240383 0.021720886 2.2669328e-38
0.13613871 0.080283724 0.021183431 2.2299479e-38
0.13627377 0.084449679 0.020289183 2.2490339e-38
0.13708504 0.087561868 0.019581318 2.2398146e-38
0.13207686 0.073144495 0.021854281 2.3120957e-38
0.13163368 0.076245427 0.020103633 2.2667181e-38
0.13174102 0.080321968 0.020054936 2.2303082e-38
0.13293996 0.083317459 0.020004988 2.2675454e-38
0.12785628 0.069484413 0.022058427 2.044297e-38
0.12746599 0.07271035 0.020492852 2.2483147e-38
0.12821977 0.07599695 0.020224333 2.2395269e-38
0.12520781 0.065986522 0.022886097 1.9149673e-38
0.12472853 0.068850912 0.021675527 2.118088e-38
0.12414035 0.072519034 0.020562649 2.2765139e-38
0.12082511 0.064963803 0.023440361 1.9978398e-38
0.12104222 0.068655968 0.021454453 2.2016782e-38
0.12188645 0.071999028 0.021134615 2.2856609e-38
0.1160731 0.061125189 0.024677873 1.9791113e-38
0.11656928 0.064767048 0.022633016 2.0350752e-38
0.11639637 0.06771832 0.021951795 2.2561665e-38
0.11259882 0.060540214 0.023965538 1.942594e-38
0.11316021 0.063957602 0.022197247 2.1453879e-38
0.11506304 0.1944133 0.046554506 1.7033502e-38
0.10876609 0.057236493 0.026111245 2.0902494e-38
0.10835448 0.0604247 0.024132192 2.0994333e-38
0.10821627 0.063364983 0.023556411 2.200886e-38
0.1118297 0.19433445 0.048209667 1.6664714e-38
0.10430178 0.057144448 0.025124967 2.062089e-38
0.10446316 0.059432827 0.024188161 2.0071332e-38
0.10060418 0.052803636 0.028048754 2.2464761e-38
0.10090595 0.056016609 0.025920868 1.9977298e-38
0.097508937 0.052418426 0.028631866 1.9978738e-38
0.09750928 0.054890603 0.026717424 1.9330158e-38
0.099522039 0.19123879 0.050576627 1.5473725e-38
0.10083759 0.19349089 0.051675916 1.6023999e-38
0.09237963 0.048426658 0.029662073 1.8415731e-38
0.093451217 0.051599786 0.028755784 1.9334086e-38
0.096245199 0.16911018 0.047324777 8.0076682e-39
0.095980674 0.19068697 0.051879585 1.2339794e-38
0.097431004 0.19312951 0.053257883 1.5013806e-38
0.090351135 0.048371881 0.030255735 1.9245492e-38
0.089402318 0.050785109 0.028877974 1.9425555e-38
0.091668271 0.16758615 0.04945761 6.9045969e-39
0.092246823 0.17037977 0.048758209 6.906378e-39
0.091967329 0.17430799 0.049592018 9.2119665e-39
0.091103539 0.17792523 0.050540328 1.2155021e-38
0.092929065 0.1896911 0.053305328 1.0772824e-38
0.093440756 0.19202974 0.056428313 1.2250485e-38
0.086294174 0.048262388 0.031443119 2.0073438e-38
0.085382991 0.050646305 0.030225158 2.0350374e-38
0.087165616 0.16326927 0.052095354 5.9729268e-39
0.088181093 0.16627216 0.050775528 6.7223482e-39
0.088373803 0.17025599 0.050948858 4.6058214e-39
0.088448182 0.17439941 0.051482558 7.0000225e-39
0.088676482 0.17837182 0.05187887 1.1971001e-38
0.088392712 0.18168759 0.052521169 1.4361231e-38
0.089002751 0.18527517 0.054028809 1.2885749e-38
0.090713203 0.18895885 0.057007611 8.9289253e-39
0.090768509 0.19103786 0.057388306 1.0124596e-38
0.080809332 0.048206329 0.032535613 1.9243333e-38
0.081234686 0.050654769 0.030755222 1.9517764e-38
0.084477998 0.16290908 0.050705552 1.0199864e-38
0.084258445 0.16600168 0.051597416 8.0977241e-39
0.085265376 0.16944778 0.053576529 6.718028e-39
0.086072892 0.17292164 0.054264903 5.610956e-39
0.085586771 0.17733774 0.054829121 8.929682e-39
0.085714035 0.18093571 0.055690706 1.3534015e-38
0.086527161 0.18399839 0.057306588 1.472931e-38
0.077459455 0.047408417 0.032143295 1.7404823e-38
0.076995425 0.050639287 0.030635834 1.9058243e-38
0.080783367 0.1631542 0.051852703 1.1216527e-38
0.081167676 0.16561837 0.053481936 9.8486885e-39
0.082064554 0.16864297 0.055702031 8.927119e-39
0.083675019 0.17838141 0.057082891 9.7644705e-39
0.083711892 0.1797674 0.057336748 1.2979426e-38
0.074012645 0.043775916 0.034243762 1.7304304e-38
0.074253678 0.046710089 0.033823311 1.5647369e-38
0.073920026 0.050379485 0.031997085 1.9428804e-38
0.077840813 0.16507952 0.05574882 1.3072314e-38
0.078646883 0.16716573 0.056437671 1.2244673e-38
0.071674325 0.048419625 0.032645106 1.5742438e-38
0.067670524 0.049690932 0.034080505 1.3350032e-38
0.067994848 0.15794697 0.055727422 1.4730056e-38
0.068965301 0.16138028 0.057685494 1.4544584e-38
0.065122977 0.15791541 0.055162311 1.4454888e-38
0.065433905 0.16132197 0.057488501 1.4728967e-38
0.061308511 0.16146062 0.058036506 1.4822239e-38
0.057338804 0.16110137 0.059857368 1.4822578e-38
0.0496222 0.1595867 0.059391022 1.0396211e-38
0.030920349 0.1077206 0.01804328 9.6650526e-39
0.066509895 0.13446385 0.011232913 1.7688233e-38
0.024039708 0.10718257 0.020225406 9.7583174e-39
0.07851664 0.092032783 0.0083545446 1.8967117e-38
0.072952271 0.10849518 0.0121122 1.565022e-38
0.046161182 0.085847355 0.012743056 1.4730066e-38
0.090650313 0.082115278 0.012410581 1.9803712e-38
0.12028623 0.13661969 0.013867378 1.4547098e-38
0.12518315 0.12771799 0.0085221529 1.9886917e-38
0.10658281 0.15554589 0.023486793 1.4915889e-38
0.019389007 0.13039999 0.054568946 5.7064167e-39
0.052403465 0.077696025 0.014394701 1.8132659e-38
0.10706383 0.15903194 0.024196923 1.666688e-38
0.10781954 0.18475063 0.035197377 1.5746368e-38
0.14769438 0.068141088 0.020136476 1.0119939e-39
0.1477499 0.070228517 0.020518661 1.5626454e-39
0.14815718 0.085536234 0.023322046 2.0808144e-38
0.14526397 0.048189759 0.017048538 1.3907821e-38
0.14523187 0.052082598 0.017801821 1.989983e-38
0.14602184 0.056275748 0.018367708 1.6308199e-38
0.14611441 0.059754781 0.019004762 9.2182051e-39
0.14441296 0.080799803 0.023532271 2.1924162e-38
0.14515054 0.08428926 0.023581445 2.2480228e-38
0.14615655 0.087469175 0.02322644 2.2855853e-38
0.14108336 0.075627297 0.02341783 2.2292611e-38
0.14126931 0.07968542 0.023725271 2.2851202e-38
0.14243585 0.083433978 0.023563623 2.2671117e-38
0.1366128 0.072361477 0.024243176 2.1922416e-38
0.13787353 0.075288013 0.023631275 2.2666102e-38
0.13277704 0.068433762 0.024635196 1.9704346e-38
0.12841387 0.065696254 0.024350941 1.8045522e-38
0.13066739 0.067720935 0.024862111 1.9059322e-38
0.13125525 0.070633531 0.024448037 2.0911143e-38
0.12495117 0.059878856 0.025331497 1.9979806e-38
0.12546411 0.063606679 0.025254548 1.8319208e-38
0.12229729 0.057025999 0.025576949 2.1544259e-38
0.12157777 0.059881061 0.025747299 2.0625166e-38
0.12223803 0.062752083 0.025627792 1.9608519e-38
0.11785784 0.059393458 0.026290715 2.0807758e-38
0.11211376 0.056751132 0.02855742 2.0617657e-38
0.11331327 0.05834496 0.027443886 1.9150076e-38
0.11004002 0.055304557 0.028898597 2.1364915e-38
0.10521364 0.052393049 0.029779792 2.0711665e-38
0.10682006 0.054453105 0.029270649 2.0993605e-38
0.10102916 0.04810828 0.030207455 2.0254989e-38
0.10217485 0.050980181 0.030061245 2.1178362e-38
0.1037105 0.053919554 0.029458404 2.1079331e-38
0.098313555 0.048034981 0.031002223 1.9333737e-38
0.098497003 0.050131679 0.030499578 2.0719892e-38
0.093871579 0.046876535 0.031679511 1.9151122e-38
0.095463693 0.049530745 0.031075954 2.0988555e-38
0.089788273 0.046306059 0.032503784 1.9338053e-38
0.092492253 0.1924908 0.059274077 9.949149e-39
0.086390361 0.045982867 0.033454061 1.9245489e-38
0.089687854 0.18894324 0.059431553 9.8472957e-39
0.090219967 0.19196653 0.059850693 8.1035156e-39
0.083534211 0.046912417 0.034553051 1.9703585e-38
0.085194707 0.17285146 0.057695329 6.8059133e-39
0.085268661 0.17563093 0.058204293 7.1693386e-39
0.08545354 0.18257964 0.059476852 1.4638925e-38
0.085967168 0.18490806 0.059768736 1.4639274e-38
0.087027848 0.18817931 0.060549259 1.1046189e-38
0.079174705 0.042651266 0.035673738 1.739331e-38
0.079852134 0.045543641 0.035494268 1.767998e-38
0.08173082 0.16998048 0.058178425 8.9256687e-39
0.08258488 0.17277089 0.059164405 7.5420532e-39
0.08245825 0.17676729 0.059523582 7.2672614e-39
0.082539745 0.18128583 0.060097456 1.335179e-38
0.082951255 0.18459561 0.061667979 1.0863634e-38
0.082874097 0.18807006 0.062354803 5.7064138e-39
0.083466575 0.19121492 0.062779188 5.154703e-39
0.076477602 0.043273747 0.036596 1.6754751e-38
0.076514624 0.044665366 0.03685087 1.665611e-38
0.078162849 0.16888669 0.059335232 1.2334369e-38
0.079581469 0.17268443 0.060395956 9.8476109e-39
0.078608215 0.17683399 0.061007142 1.141709e-38
0.079125568 0.18055511 0.061328351 1.4643221e-38
0.080235645 0.1845223 0.062462866 3.8675711e-39
0.080291182 0.18660972 0.062845051 3.7760692e-39
0.073941901 0.16461205 0.05947262 1.4270853e-38
0.074283123 0.16838409 0.060445189 1.3994259e-38
0.075847507 0.17258365 0.061488807 1.3625457e-38
0.075474806 0.17675532 0.06133604 1.4838789e-38
0.071339138 0.16136754 0.059627891 1.4361249e-38
0.070561275 0.1643472 0.060782433 1.4731129e-38
0.070947096 0.16688894 0.061860323 1.4823306e-38
