# .PCD v0.7 - Point Cloud Data file format
VERSION 0.7
FIELDS x y z rgb
SIZE 4 4 4 4
TYPE F F F F
COUNT 1 1 1 1
WIDTH 983
HEIGHT 1
VIEWPOINT 0 0 0 0 1 0 0
POINTS 983
DATA ascii
0.17629682 0.073942572 0.013464034 1.7029877e-38
0.17629682 0.077052921 0.013085186 1.5281423e-38
0.17629682 0.080785342 0.012630582 1.4083969e-38
0.17636086 0.085075371 0.011693239 1.3348206e-38
0.1761637 0.089090757 0.011310697 1.3256377e-38
0.17225942 0.070455901 0.013344765 1.7860065e-38
0.17256999 0.07326024 0.013045013 1.7125012e-38
0.17256999 0.076992653 0.012590408 1.6019709e-38
0.17256999 0.080725074 0.012135804 1.5006274e-38
0.1727159 0.084939696 0.010710478 1.4269442e-38
0.172676 0.089328595 0.010424674 1.3532957e-38
0.17194885 0.09315642 0.010537982 1.2887955e-38
0.17256999 0.095654748 0.010317385 1.2612086e-38
0.16635863 0.066939108 0.012978077 1.7494847e-38
0.16797359 0.069702327 0.012859106 1.7583813e-38
0.16822204 0.073189929 0.012467802 1.6568234e-38
0.16830564 0.07685215 0.011524856 1.5556242e-38
0.16833308 0.080557272 0.010907888 1.491231e-38
0.16832522 0.084913984 0.010418355 1.4361636e-38
0.16838765 0.089204729 0.0095232129 1.3533668e-38
0.16822204 0.093096152 0.010043204 1.2980871e-38
0.16822204 0.096579738 0.009618938 1.2889732e-38
0.16369662 0.066007398 0.012732923 1.7493408e-38
0.16387409 0.069387205 0.012345135 1.6569312e-38
0.16395126 0.073059723 0.011456549 1.6016117e-38
0.16402738 0.07672739 0.010568321 1.5094526e-38
0.1640463 0.080438785 0.010005891 1.436056e-38
0.1640463 0.084786661 0.0094764233 1.3809908e-38
0.16404632 0.089134522 0.0089467764 1.316669e-38
0.16395126 0.092952915 0.0090335608 1.307378e-38
0.16387409 0.096758261 0.0090113878 1.2890816e-38
0.16263181 0.099226452 0.0085433722 1.3259616e-38
0.16014728 0.064972453 0.012380719 1.7309018e-38
0.16016725 0.069312446 0.011741877 1.6386355e-38
0.16032515 0.072925121 0.010419726 1.5555512e-38
0.16032515 0.076651864 0.0099657774 1.4635703e-38
0.16034493 0.080362648 0.0094035864 1.3992146e-38
0.16032514 0.08472649 0.0089823604 1.3440415e-38
0.16032515 0.089074351 0.0084527731 1.3165987e-38
0.16024652 0.092874631 0.0084310174 1.3351444e-38
0.16030255 0.096544988 0.0085561275 1.3351788e-38
0.15654469 0.065287441 0.011856973 1.6755487e-38
0.15644065 0.069252193 0.011247158 1.6017573e-38
0.1565834 0.072879642 0.010034025 1.5097409e-38
0.15660401 0.076591693 0.0094717741 1.41769e-38
0.1565834 0.080334812 0.0091260076 1.3624096e-38
0.15655795 0.084704891 0.0087314844 1.3074864e-38
0.15654239 0.089066662 0.0082828403 1.3351444e-38
0.15650183 0.092832878 0.0080444813 1.3720937e-38
0.15766272 0.095413692 0.0083382726 1.3628723e-38
0.15284893 0.065632023 0.011317074 1.6570368e-38
0.15269364 0.069206417 0.010860801 1.574098e-38
0.15284081 0.072834149 0.0096483231 1.4820463e-38
0.15288286 0.076531522 0.0089777112 1.3992869e-38
0.15279855 0.080323517 0.0089562535 1.3349304e-38
0.15269363 0.084758155 0.0089666247 1.3258177e-38
0.15269364 0.089112639 0.008436203 1.3076278e-38
0.15294209 0.092102595 0.0081055164 1.3351426e-38
0.14871837 0.066405028 0.01066637 1.6200528e-38
0.14836225 0.069125265 0.010202408 1.5556952e-38
0.14852527 0.072745904 0.0089364648 1.4819749e-38
0.14844313 0.076531596 0.0088877678 1.3993218e-38
0.14840215 0.080221169 0.0089409947 1.3165265e-38
0.14834568 0.084687844 0.0083893538 1.3073787e-38
0.14834568 0.089042328 0.0078589916 1.3165624e-38
0.14834569 0.091530606 0.007555902 1.2891552e-38
0.14415303 0.069223829 0.0097079873 1.5190333e-38
0.14406478 0.072753802 0.0089273453 1.4727912e-38
0.14399773 0.076530635 0.0087971091 1.4083983e-38
0.14399773 0.080263048 0.0083425045 1.3532251e-38
0.14399773 0.084617533 0.0078120828 1.3163833e-38
0.14399773 0.088816501 0.0073006749 1.2705378e-38
0.14399773 0.091460295 0.0069786906 1.2523144e-38
0.14068501 0.073159359 0.0087613463 1.4728615e-38
0.14027092 0.076470368 0.008302331 1.4269445e-38
0.14027092 0.080202788 0.0078477263 1.389995e-38
0.14027092 0.084557272 0.0073173046 1.3439694e-38
0.1415132 0.08830978 0.007027626 1.2520626e-38
0.13778637 0.077674337 0.0078209043 1.4454549e-38
0.1369582 0.080563933 0.0073573589 1.4269083e-38
0.13654411 0.084497012 0.0068225265 1.4085771e-38
0.13405956 0.08383476 0.0065684915 1.4179418e-38
0.11294094 0.081004992 0.0040677786 5.9779617e-39
0.17779388 0.065022476 0.017293155 1.4086851e-38
0.18041664 0.070685983 0.016313016 1.2889373e-38
0.19094273 0.086310752 0.015963554 7.823284e-39
0.18183368 0.090962358 0.013816893 1.187882e-38
0.17839611 0.094710313 0.014316738 1.2432002e-38
0.16581272 0.095186085 0.01115799 1.2616382e-38
0.18726313 0.061750494 0.021416068 1.4175088e-38
0.18769127 0.065791711 0.019041061 1.3994614e-38
0.18738922 0.069219969 0.017735898 1.279609e-38
0.18595853 0.081238478 0.015909851 1.012423e-38
0.18770301 0.08600878 0.015563846 8.9292742e-39
0.18845063 0.088766299 0.015328705 8.6530671e-39
0.18658155 0.09372776 0.014472663 1.0408373e-38
0.18775961 0.097578011 0.014670491 1.123561e-38
0.18747807 0.10169208 0.01624912 1.1969942e-38
0.18679556 0.10426205 0.016267478 1.2707171e-38
0.18253975 0.062072501 0.020832717 1.6287672e-38
0.18314645 0.065873981 0.019689262 1.6114052e-38
0.18320702 0.069680452 0.017527759 1.574241e-38
0.1822204 0.072442584 0.016477525 1.5003055e-38
0.18284342 0.078692265 0.015800238 1.1967061e-38
0.18346643 0.081198178 0.015578985 1.1322758e-38
0.18331069 0.085095413 0.015083313 1.1046901e-38
0.18284342 0.091171466 0.014280319 1.104799e-38
0.18346643 0.093677379 0.014059007 1.1233822e-38
0.18332443 0.097593151 0.014579356 1.2062503e-38
0.18315087 0.10155735 0.015315413 1.2981946e-38
0.18304043 0.10420132 0.015768945 1.3533697e-38
0.17928529 0.061518438 0.020461738 1.8044073e-38
0.17935911 0.065843873 0.019436777 1.869375e-38
0.17946619 0.070135675 0.018194377 1.7400137e-38
0.1797283 0.073650219 0.015994728 1.5832442e-38
0.18014365 0.078232631 0.015492499 1.3255653e-38
0.18035132 0.079899885 0.01531744 1.2703555e-38
0.17997751 0.090625957 0.0139606 1.2152914e-38
0.17959683 0.093763784 0.014430583 1.2152914e-38
0.17956422 0.097550519 0.014190853 1.2613885e-38
0.17944956 0.10143752 0.014492571 1.3626233e-38
0.17933452 0.10533416 0.014792919 1.4639673e-38
0.17928529 0.10790138 0.01481235 1.5470509e-38
0.17553017 0.058950529 0.020268559 2.0256027e-38
0.17563237 0.061379947 0.019308925 1.8965322e-38
0.17574751 0.065671131 0.018039584 1.9428084e-38
0.17590538 0.069917239 0.016498983 1.8229549e-38
0.17599016 0.072341844 0.015650392 1.7674557e-38
0.17661318 0.091070719 0.013453186 1.2980868e-38
0.17592263 0.093629792 0.013500214 1.2796823e-38
0.17583683 0.097470812 0.013585448 1.2614232e-38
0.17583683 0.10122024 0.013128757 1.3627668e-38
0.17564961 0.10519243 0.013862014 1.4826939e-38
0.1753931 0.10891182 0.014037848 1.6208072e-38
0.17152467 0.058384322 0.019797862 2.0347515e-38
0.17191656 0.061294019 0.018592894 1.933374e-38
0.17215958 0.065488122 0.016561985 1.8873475e-38
0.17250122 0.069040827 0.015582383 1.8322102e-38
0.17349806 0.093516193 0.012735605 1.2889026e-38
0.17221273 0.097438648 0.012338758 1.270535e-38
0.17219964 0.10104229 0.011982739 1.3350365e-38
0.17198701 0.10503098 0.012823522 1.4364882e-38
0.1718459 0.10895085 0.013230503 1.5467992e-38
0.16742162 0.057546765 0.019177735 1.997945e-38
0.16757366 0.061200872 0.01782161 1.8965312e-38
0.16794945 0.065272518 0.015834689 1.8319944e-38
0.1691369 0.068487257 0.015196502 1.7951529e-38
0.16789085 0.098417208 0.011383176 1.298229e-38
0.16787712 0.10092787 0.011160195 1.3165974e-38
0.16765615 0.10491485 0.012000144 1.3902827e-38
0.16751875 0.10907043 0.012615561 1.4456723e-38
0.16176133 0.05434031 0.01897496 1.9886548e-38
0.16308978 0.057445131 0.018324137 1.9424138e-38
0.16333875 0.061036676 0.016452074 1.8781281e-38
0.16377889 0.063908108 0.015032351 1.822989e-38
0.16368543 0.10100103 0.010501862 1.3259253e-38
0.16335768 0.10476831 0.011015296 1.3626582e-38
0.16316631 0.10872561 0.011636853 1.4087576e-38
0.15800619 0.049892016 0.019010842 2.0164556e-38
0.15910143 0.053827204 0.018679082 1.9611396e-38
0.15935692 0.057372272 0.017717123 1.8966028e-38
0.15965317 0.060937904 0.015628815 1.8413573e-38
0.15854549 0.098266087 0.010142505 1.3536547e-38
0.15973182 0.1008411 0.010327458 1.344401e-38
0.15947509 0.10484893 0.011272848 1.3720224e-38
0.15943575 0.10926982 0.010955095 1.4273402e-38
0.15872099 0.11248536 0.010975122 1.4734013e-38
0.15550277 0.050478332 0.018602192 1.9795419e-38
0.15560493 0.053553976 0.017676711 1.9427727e-38
0.15574747 0.057226382 0.016458094 1.8411429e-38
0.15595162 0.060851574 0.014914811 1.7584167e-38
0.15543036 0.063273937 0.013984799 1.694095e-38
0.15580538 0.097216837 0.010409296 1.3629105e-38
0.15576726 0.10099521 0.011016786 1.3812781e-38
0.15562448 0.10488867 0.011313915 1.4271241e-38
0.15570077 0.1089485 0.011100709 1.4180848e-38
0.15675448 0.11255143 0.011210322 1.4825843e-38
0.15190409 0.053710818 0.01772356 1.9060757e-38
0.15191561 0.057214007 0.016395032 1.8136282e-38
0.15218911 0.060803853 0.014526546 1.7400844e-38
0.15200374 0.063530512 0.013491869 1.6939144e-38
0.15200374 0.094104566 0.0097679496 1.3167391e-38
0.15206297 0.097144686 0.010760844 1.3261034e-38
0.15193681 0.10101249 0.010950387 1.3535831e-38
0.15174763 0.1049489 0.011461735 1.3902798e-38
0.15206057 0.10777454 0.011159718 1.3903532e-38
0.14840972 0.053915486 0.017227888 1.8690875e-38
0.14810054 0.057190254 0.016222715 1.7954026e-38
0.14840367 0.060769327 0.014246523 1.7124613e-38
0.14795408 0.064400963 0.012840211 1.6480688e-38
0.14733106 0.081861779 0.010629594 1.2889404e-38
0.14795408 0.093727097 0.0092683434 1.2708227e-38
0.14823046 0.097159408 0.010694444 1.2800763e-38
0.14818734 0.10095186 0.010452628 1.2892637e-38
0.14799249 0.10488818 0.010963202 1.3351792e-38
0.1492442 0.10741561 0.010824025 1.3719855e-38
0.14423735 0.054683737 0.016572118 1.8227749e-38
0.14367867 0.057143763 0.015858531 1.7491979e-38
0.14381295 0.060826659 0.014750481 1.6757268e-38
0.14366019 0.064887293 0.012827933 1.5835679e-38
0.14234686 0.068054058 0.011639774 1.5559099e-38
0.14359291 0.090536773 0.0090693235 1.2613543e-38
0.14356372 0.093412869 0.0088602901 1.2523846e-38
0.14384639 0.09709803 0.010167778 1.2432708e-38
0.14379594 0.1008959 0.0099525452 1.2800057e-38
0.14362821 0.10480241 0.010301054 1.3261041e-38
0.14298564 0.1073144 0.0099931359 1.3629103e-38
0.13943878 0.05745516 0.015442908 1.7309017e-38
0.13939193 0.060781211 0.014386177 1.6572888e-38
0.13961151 0.065034874 0.012824833 1.5928582e-38
0.1398083 0.069289722 0.011373162 1.5559815e-38
0.13902406 0.072160058 0.010692 1.5003439e-38
0.13949874 0.089400932 0.0086560845 1.2521696e-38
0.13973896 0.093063898 0.0088068843 1.2706078e-38
0.13939214 0.097093396 0.0099633932 1.2798263e-38
0.13927634 0.10094696 0.010043025 1.2891888e-38
0.1392305 0.1047465 0.0097999573 1.3260311e-38
0.13985637 0.1072638 0.009577632 1.3536187e-38
0.13672709 0.05832307 0.01511699 1.7124627e-38
0.13554662 0.060771145 0.01432097 1.6571459e-38
0.13584943 0.064984508 0.012408793 1.583568e-38
0.1359264 0.069314785 0.011524677 1.5099919e-38
0.13597348 0.073034093 0.010852218 1.4453847e-38
0.13585328 0.076599658 0.01023227 1.4454915e-38
0.13528591 0.079587139 0.0092837214 1.4821894e-38
0.13606891 0.089203544 0.0084438324 1.3441838e-38
0.13576037 0.093185529 0.009385407 1.3350004e-38
0.13552329 0.097126745 0.010002673 1.3168475e-38
0.13547537 0.10092499 0.0097594857 1.2984809e-38
0.13610123 0.10438249 0.0094226599 1.3353227e-38
0.13222092 0.06125883 0.014152288 1.6203042e-38
0.13199401 0.064984418 0.012397587 1.5467628e-38
0.13215907 0.069268674 0.011135638 1.4453832e-38
0.13203716 0.073092736 0.011218131 1.3718425e-38
0.1319638 0.076891102 0.011084437 1.3720593e-38
0.13208529 0.08056464 0.010088623 1.417869e-38
0.13206488 0.084932938 0.0091227293 1.3902826e-38
0.13210946 0.089300998 0.0089148879 1.3720937e-38
0.13196382 0.093160912 0.0091027021 1.3810999e-38
0.13191548 0.096953057 0.0088602304 1.3442918e-38
0.13176921 0.10082577 0.0090463758 1.3260688e-38
0.13234609 0.10338158 0.0090386271 1.3721299e-38
0.12846579 0.061198108 0.013653755 1.6572533e-38
0.12811498 0.064994588 0.012466609 1.5283604e-38
0.12839004 0.069222122 0.010746419 1.3626591e-38
0.12834023 0.073002689 0.01050508 1.2523123e-38
0.12819016 0.076846153 0.010694385 1.2522772e-38
0.12819016 0.08060126 0.010237038 1.3165974e-38
0.12817124 0.084995069 0.0097841024 1.3166693e-38
0.12819016 0.089363173 0.009169817 1.3167064e-38
0.12819016 0.09311828 0.0087124705 1.3719148e-38
0.12819016 0.09687338 0.0082551241 1.417796e-38
0.12814392 0.10044827 0.0088297129 1.4088648e-38
0.12389705 0.061562985 0.012993753 1.3627653e-38
0.12432534 0.064953953 0.01213032 1.2153257e-38
0.12454285 0.069218114 0.010680258 1.040265e-38
0.1245691 0.072956942 0.010115504 9.940248e-39
0.1244407 0.07678552 0.010196626 9.7597874e-39
0.12436357 0.080589071 0.010061681 1.0405852e-38
0.12424827 0.085047856 0.010011315 1.1327091e-38
0.12438944 0.089337222 0.0088867545 1.1786656e-38
0.1244407 0.093057655 0.0082146525 1.2524205e-38
0.12436336 0.096869595 0.0080787539 1.3350392e-38
0.12420997 0.099489234 0.0084165335 1.3628034e-38
0.12020449 0.060688443 0.012602746 1.306981e-38
0.11987306 0.064921483 0.011851966 1.1412458e-38
0.1199864 0.06924694 0.010853469 1.030683e-38
0.12004629 0.072970629 0.010153949 8.7409593e-39
0.12006631 0.076714791 0.0096158981 6.9928213e-39
0.11990872 0.080566473 0.0098030567 7.0850393e-39
0.11984399 0.084992811 0.0095304251 7.63962e-39
0.11984867 0.089376345 0.0089760423 8.2828426e-39
0.1204206 0.09280704 0.0082681775 9.2030221e-39
0.12120587 0.09668275 0.008353591 1.0401569e-38
0.1166997 0.070535153 0.010931194 1.464034e-38
0.11560445 0.073181324 0.01046133 9.7626488e-39
0.1156102 0.076689899 0.0093572736 6.9049052e-39
0.11569193 0.080399156 0.0085777044 5.9804714e-39
0.1157124 0.084767766 0.007963717 6.1652074e-39
0.11558393 0.089231603 0.0079391003 7.6388955e-39
0.11503074 0.092237107 0.0080630779 8.6508922e-39
0.11294456 0.076742396 0.0096692443 4.9681089e-39
0.11254297 0.080186211 0.0087891221 5.5209352e-39
0.11344004 0.084588617 0.0067476034 5.8864709e-39
0.11344004 0.088962957 0.0062147975 7.3626772e-39
0.079684779 0.10843983 0.0013273954 1.5830679e-38
0.079461277 0.11224175 0.000834167 1.5005963e-38
0.079148337 0.11505728 0.000449121 1.7310848e-38
0.077896625 0.10438149 0.0015807748 1.8409962e-38
0.076670274 0.10810647 0.00087720156 1.574098e-38
0.076644912 0.11188283 0.00049853325 1.4181585e-38
0.072409496 0.10816613 0.00031286478 1.5835676e-38
0.072889775 0.11182211 0 1.6018285e-38
0.15746374 0.071956038 0.013991833 1.602008e-38
0.14804828 0.081777133 0.011282682 1.4547471e-38
0.13776617 0.086741306 0.0099077225 1.0954722e-38
0.15212086 0.082240038 0.01013726 1.4637511e-38
0.18700418 0.058228336 0.025036275 1.6388473e-38
0.18720986 0.10651634 0.019210756 1.2983746e-38
0.18593539 0.10907684 0.019630611 1.4551052e-38
0.18222056 0.055228464 0.025688767 2.07217e-38
0.18258309 0.058172733 0.024588466 1.9061053e-38
0.18338418 0.061192431 0.023086369 1.6010345e-38
0.18275642 0.10644776 0.017489791 1.4366314e-38
0.18253574 0.10988391 0.018622577 1.6483565e-38
0.18184279 0.11247884 0.018664837 1.7314407e-38
0.178065 0.05188226 0.025536478 2.2011357e-38
0.17874427 0.054379515 0.024985015 2.2011372e-38
0.17892477 0.058026478 0.02332288 2.1364545e-38
0.17894106 0.11022217 0.016854823 1.6757657e-38
0.1784727 0.11289004 0.017957389 1.7496309e-38
0.17466497 0.051322818 0.025146484 2.1640422e-38
0.17505355 0.054260261 0.023937583 2.1547146e-38
0.1752235 0.057288349 0.022462428 2.145387e-38
0.17647898 0.11074708 0.016120315 1.7308323e-38
0.17501947 0.11350023 0.016943514 1.8876348e-38
0.17365757 0.11612996 0.017117321 1.9888687e-38
0.17133597 0.050644182 0.024526536 2.1270214e-38
0.17140403 0.054118134 0.022672713 2.099434e-38
0.1717709 0.056918174 0.022042334 2.0808128e-38
0.17138658 0.11326709 0.015578985 1.7311916e-38
0.17095117 0.11651085 0.016299665 1.7957267e-38
0.16720384 0.050603122 0.02422893 2.1178733e-38
0.16763569 0.054057203 0.022172391 2.0808149e-38
0.1676286 0.11334974 0.014992058 1.5655982e-38
0.16755959 0.11708497 0.015925288 1.6853082e-38
0.16304027 0.050327234 0.0231933 2.0994326e-38
0.16362192 0.053863063 0.021621406 2.0348238e-38
0.16303837 0.11333854 0.015518308 1.510029e-38
0.16322367 0.11650174 0.015666306 1.5839289e-38
0.15866563 0.047720164 0.022752106 2.0992878e-38
0.1589704 0.050159857 0.021649003 2.0348596e-38
0.16015765 0.052643918 0.02099824 2.0070223e-38
0.15489034 0.047659114 0.022250891 2.0165269e-38
0.15495217 0.04888691 0.021770835 1.9979091e-38
0.1546986 0.11317394 0.01332581 1.4732201e-38
0.15476862 0.11613981 0.01457119 1.5469047e-38
0.15099083 0.047345705 0.022441268 1.9152213e-38
0.15124246 0.050051831 0.020790339 1.9337323e-38
0.15011375 0.052481502 0.019664764 1.9242259e-38
0.15107992 0.1098718 0.013008177 1.3443277e-38
0.15113735 0.11309188 0.013662696 1.4641795e-38
0.15225008 0.11578379 0.014275253 1.5560866e-38
0.14784268 0.047610082 0.021984875 1.9059662e-38
0.1474943 0.049979977 0.020181119 1.8873121e-38
0.14676577 0.052846499 0.019169331 1.8783068e-38
0.14734842 0.10927154 0.012883365 1.3811698e-38
0.14723447 0.11315883 0.013806224 1.4549641e-38
0.14406487 0.047549002 0.021483362 1.9054998e-38
0.14380258 0.053025626 0.018917561 1.8779839e-38
0.14376111 0.10918977 0.012282968 1.3813492e-38
0.1433129 0.11270124 0.013156176 1.4089381e-38
0.14011125 0.050410591 0.02043277 1.8412476e-38
0.13990885 0.05365634 0.01893729 1.8136635e-38
0.1381866 0.056060761 0.017621875 1.7585245e-38
0.13962276 0.10933522 0.011762142 1.3996089e-38
0.13997227 0.11211707 0.013067603 1.4088659e-38
0.1365093 0.051210292 0.020019412 1.8412494e-38
0.13545994 0.053810671 0.019376397 1.7860762e-38
0.13473019 0.057188518 0.017781079 1.7308668e-38
0.1345457 0.10529097 0.011135101 1.3536184e-38
0.13525286 0.10916333 0.01195991 1.3904978e-38
0.13210186 0.054922491 0.01897347 1.7309749e-38
0.13106203 0.057314195 0.017525613 1.703279e-38
0.13065368 0.060339764 0.016085744 1.6480339e-38
0.13103884 0.105395 0.010940433 1.3996444e-38
0.13122535 0.10826845 0.011748075 1.4088632e-38
0.12832408 0.054861404 0.018471897 1.7585957e-38
0.12721445 0.057289705 0.017349064 1.7218247e-38
0.12688722 0.060278855 0.015585721 1.6939875e-38
0.12688722 0.10240091 0.01045531 1.473329e-38
0.12736492 0.10504692 0.010874927 1.4089002e-38
0.12706482 0.1078096 0.011853218 1.4086494e-38
0.12346628 0.057216384 0.016740084 1.6295574e-38
0.1239996 0.060106426 0.015217662 1.5654155e-38
0.12367097 0.10178009 0.010436416 1.3719484e-38
0.12371248 0.10500076 0.011453211 1.31656e-38
0.11961779 0.057272561 0.015861809 1.3438613e-38
0.11872655 0.094724692 0.010290742 8.8349542e-39
0.11892128 0.097643934 0.010469615 1.0309e-38
0.12033492 0.10124733 0.010898769 1.1231668e-38
0.12013885 0.10391413 0.011394501 1.0772115e-38
0.11612777 0.057874545 0.015851855 1.3535084e-38
0.11587617 0.060660489 0.014817953 1.3534007e-38
0.11546588 0.065186076 0.013957322 1.3902436e-38
0.1154135 0.069298059 0.013144553 1.3078033e-38
0.11589709 0.093877263 0.010593534 1.0120633e-38
0.11648116 0.096202478 0.01133281 1.1136927e-38
0.11275837 0.061143689 0.015406251 9.4709938e-39
0.11270621 0.065266266 0.014592111 1.0123176e-38
0.11206314 0.069673695 0.014025092 9.3880958e-39
0.11198369 0.073118888 0.012449384 6.6240219e-39
0.11069143 0.076740049 0.011398673 6.5329151e-39
0.10943511 0.073473305 0.013660073 7.822219e-39
0.082990587 0.10507905 0.0062475801 2.0437194e-38
0.083417714 0.10825092 0.0053088665 1.9144321e-38
0.083185345 0.11201418 0.0047515035 1.9243021e-38
0.082270995 0.11627369 0.0047872066 2.182232e-38
0.077953517 0.10197082 0.0059475303 2.0992515e-38
0.079444706 0.10437342 0.0050652027 1.9975114e-38
0.08067432 0.10767319 0.0038408637 1.7027416e-38
0.080643415 0.11275994 0.0029630661 1.6755883e-38
0.079703912 0.11706241 0.0032017231 2.0722787e-38
0.079212785 0.12027795 0.0038873553 2.1085781e-38
0.075434998 0.1019301 0.0056131482 1.7671328e-38
0.075551629 0.10398412 0.0037814379 1.7488366e-38
0.076039955 0.11415244 0.002173245 1.4732958e-38
0.075770885 0.11684457 0.0027124286 1.7123943e-38
0.075749815 0.11990667 0.0034660101 1.9979806e-38
0.072916478 0.10188937 0.0052787662 1.3985309e-38
0.072276846 0.10428101 0.0033767223 1.4541002e-38
0.072273493 0.11409154 0.0016732216 1.5557308e-38
0.072045252 0.11670024 0.0025951862 1.7771795e-38
0.072916478 0.11954556 0.0031282902 2.0256761e-38
0.068822891 0.10512417 0.0039944053 1.3898854e-38
0.068297789 0.10774036 0.0019111037 1.4455603e-38
0.068392903 0.11231417 0.0013667941 1.4270157e-38
0.067789167 0.11658672 0.0019265413 1.6758395e-38
0.1652603 0.07923989 0.013364553 1.3532237e-38
0.16148816 0.088194691 0.01184088 1.3810266e-38
0.16217449 0.091811217 0.011909783 1.4454199e-38
0.16832522 0.084913984 0.010418355 1.4361636e-38
0.13748768 0.093051948 0.0097284913 1.2797552e-38
0.14530094 0.071860835 0.011988282 1.4731505e-38
0.1794863 0.056127571 0.027060151 1.8142013e-38
0.17766751 0.052888431 0.026425123 1.9062901e-38
0.18190441 0.048550479 0.030524969 1.9982328e-38
0.18204641 0.050987773 0.029230893 2.0446548e-38
0.18250418 0.053741366 0.02794081 2.1369582e-38
0.18230799 0.11458508 0.020939291 1.7128598e-38
0.17810395 0.048489027 0.030020416 2.1277047e-38
0.17851645 0.050511919 0.028232515 2.164438e-38
0.17867862 0.11507838 0.020208657 1.8236004e-38
0.1780753 0.11793403 0.020668864 1.9338046e-38
0.17683715 0.12078553 0.021044075 1.9890152e-38
0.17438018 0.047745757 0.029101074 2.1735849e-38
0.17492594 0.049824007 0.027396917 2.1735127e-38
0.17463437 0.11814521 0.019925535 1.9616057e-38
0.17071475 0.04760626 0.027777255 2.1271286e-38
0.16955802 0.049420975 0.026722789 2.1179097e-38
0.17109755 0.11875203 0.01873982 1.8324971e-38
0.17002961 0.12047028 0.019148946 1.8598329e-38
0.16686729 0.046941843 0.027678609 2.0995771e-38
0.16829498 0.049400553 0.026555121 2.1363134e-38
0.16576891 0.11893127 0.017745972 1.6760887e-38
0.16664687 0.12088204 0.01843971 1.7219373e-38
0.16416898 0.044457536 0.028633952 2.007671e-38
0.16310993 0.046860065 0.026956439 2.0720252e-38
0.16324282 0.11889043 0.017410636 1.6207349e-38
0.1630725 0.12162588 0.018070877 1.6299548e-38
0.157886 0.043604746 0.027600944 1.9982695e-38
0.15893471 0.046349682 0.026230216 2.0442586e-38
0.15850642 0.1147028 0.017282546 1.4917332e-38
0.15861742 0.11770266 0.017116964 1.5379039e-38
0.15870473 0.12157077 0.018135905 1.5655248e-38
0.15403447 0.040487498 0.027752042 1.9062167e-38
0.15409565 0.042995352 0.02711606 1.9152931e-38
0.15430978 0.046058871 0.025586069 1.9705374e-38
0.15436521 0.11828157 0.016492009 1.4915886e-38
0.15439834 0.1208067 0.01740849 1.5100272e-38
0.15071905 0.043363657 0.026616275 1.8875632e-38
0.15049891 0.045880109 0.025195956 1.9244762e-38
0.150407 0.11762687 0.016089201 1.5377566e-38
0.15029646 0.12028798 0.017190039 1.5286087e-38
0.14706698 0.044180989 0.026363432 1.8966056e-38
0.14650342 0.04622376 0.024731994 1.8873842e-38
0.14675835 0.1174267 0.015706718 1.5195337e-38
0.14643358 0.12029389 0.017007649 1.537863e-38
0.14259592 0.046214886 0.024787486 1.8871676e-38
0.1436657 0.11477905 0.01527369 1.4456716e-38
0.14287862 0.1174539 0.015632451 1.4917324e-38
0.14263313 0.12023244 0.016503096 1.51932e-38
0.13910729 0.047094844 0.023581028 1.8688704e-38
0.13840304 0.049338832 0.022535205 1.8503591e-38
0.13899246 0.11419751 0.014714956 1.3903539e-38
0.13915321 0.1173263 0.014807224 1.4826915e-38
0.13890079 0.12010369 0.015677154 1.5290054e-38
0.13517316 0.04709553 0.02372843 1.8597247e-38
0.13524498 0.049783841 0.022200763 1.8689448e-38
0.1354322 0.11340294 0.014445007 1.3536542e-38
0.13517347 0.11744075 0.015160501 1.4456693e-38
0.13629906 0.12013001 0.015662134 1.5471205e-38
0.13059838 0.047720842 0.02371347 1.8505028e-38
0.13092592 0.050111175 0.02194196 1.8321004e-38
0.13054413 0.053568766 0.020961225 1.7585608e-38
0.13008803 0.11044844 0.013971806 1.4180127e-38
0.13104865 0.11333779 0.014488518 1.3996456e-38
0.13123178 0.11687628 0.015375733 1.408936e-38
0.12679794 0.04765939 0.023208916 1.8321343e-38
0.12636417 0.050099254 0.021949887 1.7769625e-38
0.1264568 0.053625651 0.020403624 1.7310459e-38
0.12661466 0.11007605 0.013549268 1.3995026e-38
0.12666182 0.11356599 0.01482445 1.4270899e-38
0.12827589 0.11661703 0.015009046 1.4181565e-38
0.1236309 0.047608182 0.022788405 1.841501e-38
0.12266666 0.050224669 0.021704674 1.7772511e-38
0.12277406 0.053747542 0.020118415 1.749593e-38
0.12156251 0.10619953 0.013340652 1.1875588e-38
0.12274843 0.10944483 0.013444006 1.2337304e-38
0.12385975 0.11212272 0.013945103 1.3348611e-38
0.11886388 0.050809152 0.02155304 1.5464405e-38
0.11895762 0.053697497 0.019723237 1.5003799e-38
0.12029949 0.056214072 0.019258678 1.481939e-38
0.11777338 0.10171098 0.013376892 1.0954718e-38
0.11875415 0.10596263 0.013426781 1.0588783e-38
0.11880004 0.10950726 0.013581932 1.150857e-38
0.11561933 0.054032855 0.020519972 1.4359478e-38
0.11468807 0.056550682 0.019478083 1.3351046e-38
0.11500525 0.098256201 0.014441073 1.123092e-38
0.11552328 0.10228575 0.015036404 1.1782304e-38
0.11484346 0.10576592 0.01418215 1.1693351e-38
0.11498159 0.10942922 0.013839245 1.2339789e-38
0.11178054 0.058115326 0.019149721 1.0307192e-38
0.11044852 0.060827374 0.017623603 8.2731722e-39
0.11019516 0.065537713 0.01676172 7.1786755e-39
0.11222956 0.097538218 0.015170872 1.0955763e-38
0.111426 0.10595264 0.013868332 1.178448e-38
0.11180729 0.10873841 0.013749778 1.1971039e-38
0.10817528 0.061601326 0.018747628 1.0026645e-38
0.10804793 0.065627098 0.01747787 9.1997486e-39
0.10817391 0.069998026 0.016454339 9.020402e-39
0.10747901 0.10602526 0.013497114 1.1875953e-38
0.10674003 0.10865647 0.01307708 1.279827e-38
0.10272846 0.10563125 0.012905061 1.1780873e-38
0.10336185 0.10944766 0.012525558 1.4362724e-38
0.10209504 0.11259898 0.011971056 1.9712175e-38
0.10006812 0.10609573 0.012490034 1.1779414e-38
0.099561393 0.10938621 0.012021005 1.4732592e-38
0.10082823 0.11257849 0.011802852 2.0080943e-38
0.095000863 0.10652127 0.011755466 1.2886856e-38
0.095150232 0.10929906 0.011352599 1.5283979e-38
0.09524098 0.11304065 0.010570347 2.1365588e-38
0.095017672 0.1164641 0.0096433163 1.7119207e-38
0.093775645 0.11903206 0.0080339313 1.5377589e-38
0.090740338 0.10604073 0.011070609 1.7211786e-38
0.090972051 0.10905685 0.0098875761 1.8966423e-38
0.090879619 0.1129215 0.009743154 2.2841493e-38
0.090816796 0.11676698 0.0094921589 1.960958e-38
0.085626438 0.10281727 0.010943592 2.1922376e-38
0.087019503 0.10529488 0.010377824 2.1640731e-38
0.087334603 0.10889329 0.0088527203 2.1636125e-38
0.087176859 0.11279637 0.0089206696 2.2751475e-38
0.086893246 0.11679367 0.0094119906 2.2839304e-38
0.082955897 0.10219438 0.010253191 2.1823011e-38
0.084256738 0.10482146 0.0090920329 2.2006676e-38
0.084934384 0.10876959 0.0080926418 2.1723638e-38
0.084934369 0.11256441 0.0076304674 2.2284027e-38
0.084159136 0.11644737 0.0075612664 2.3028016e-38
0.079587698 0.10127116 0.0093020201 2.1729006e-38
0.081145257 0.10428104 0.0081288218 2.0992152e-38
0.075325981 0.098439924 0.009580791 1.9515598e-38
0.075424224 0.10041582 0.0079559088 1.8410329e-38
0.074198544 0.12187783 0.0050496459 1.9797192e-38
0.072637469 0.098319873 0.0094025731 1.2786445e-38
0.070909128 0.10102922 0.0075814128 1.1957723e-38
0.070865378 0.12095001 0.0052944422 2.0810284e-38
0.068514854 0.10154692 0.0067601204 1.1962407e-38
0.068514854 0.10344433 0.0065290332 1.2606344e-38
0.068514854 0.11735865 0.0048342943 1.8147788e-38
0.068266079 0.12030426 0.0052550435 1.9706847e-38
0.15393764 0.08123561 0.01103133 1.3993937e-38
0.15051836 0.074427985 0.012359738 1.4913734e-38
0.12901652 0.071438484 0.011464357 1.0401537e-38
0.13889754 0.080120794 0.0099407434 1.2520242e-38
0.14015301 0.090914413 0.0094439387 1.159937e-38
0.14399773 0.084617533 0.0078120828 1.3163833e-38
0.11648116 0.096202478 0.01133281 1.1136927e-38
0.1813364 0.035529938 0.036099792 6.9964156e-39
0.1813364 0.043825783 0.035089433 1.7776459e-38
0.18162039 0.046831001 0.03272891 2.0258907e-38
0.18163702 0.11870696 0.023863733 1.8141656e-38
0.1814155 0.12284216 0.024911225 2.1368874e-38
0.17878766 0.041231997 0.035061896 1.5563056e-38
0.17756251 0.043734178 0.034253299 1.9433458e-38
0.17780863 0.046769362 0.032222807 2.127417e-38
0.17791256 0.12272391 0.02336669 2.0906814e-38
0.17756313 0.12537655 0.024309456 2.1832377e-38
0.17374131 0.043672383 0.033746004 1.9803343e-38
0.17384353 0.046163559 0.03277874 2.1182323e-38
0.17389464 0.12256075 0.023141682 2.0168892e-38
0.17337161 0.12569812 0.024044275 2.1641509e-38
0.1698671 0.041087754 0.033877611 1.8788827e-38
0.17007908 0.043522067 0.032254517 1.9800112e-38
0.17034405 0.045919739 0.030304313 2.1363478e-38
0.17027628 0.12284555 0.022522688 1.9519933e-38
0.16986708 0.12596053 0.023540199 2.0627e-38
0.16572541 0.040701702 0.033366561 1.8510092e-38
0.16626352 0.043460377 0.031747997 1.9801175e-38
0.16677375 0.12315603 0.020924091 1.823172e-38
0.1660503 0.12616608 0.021984518 1.8692318e-38
0.16094652 0.03711465 0.033159614 1.657361e-38
0.16203883 0.040049538 0.032949388 1.8142035e-38
0.1623178 0.043223225 0.031075716 1.9339132e-38
0.16246712 0.12617341 0.021049201 1.7309382e-38
0.1622209 0.12902758 0.02213639 1.8233487e-38
0.15839778 0.037073441 0.032821298 1.6942773e-38
0.15851574 0.039570756 0.031855404 1.8139168e-38
0.1590402 0.042504475 0.030010343 1.9891568e-38
0.15873021 0.12601799 0.020112813 1.6206996e-38
0.15776061 0.12895545 0.021544218 1.7311563e-38
0.1539375 0.037001312 0.032229066 1.7313002e-38
0.15431158 0.039297327 0.030244291 1.8602281e-38
0.1540305 0.12299261 0.019125402 1.5375425e-38
0.15411931 0.1261324 0.020381153 1.5930423e-38
0.15521187 0.12891424 0.021205842 1.7130749e-38
0.14947721 0.036929194 0.031636953 1.8233501e-38
0.14970741 0.039381772 0.030126989 1.8785954e-38
0.14907162 0.042246096 0.028563201 1.8598299e-38
0.14985561 0.12266929 0.019212127 1.5654511e-38
0.14960335 0.12612981 0.020111859 1.648176e-38
0.14591038 0.039541058 0.030330002 1.8783428e-38
0.14600125 0.042646974 0.027713478 1.8873111e-38
0.14604384 0.12260766 0.018706083 1.5653793e-38
0.14575157 0.12546515 0.019843161 1.6390663e-38
0.14193128 0.039954849 0.029743493 1.9058571e-38
0.1422098 0.043022126 0.027995765 1.8872744e-38
0.1421646 0.12261394 0.018521428 1.5470505e-38
0.14212561 0.12534213 0.01967454 1.6392464e-38
0.1386451 0.040582877 0.029732466 1.9148627e-38
0.13821349 0.043037783 0.028358936 1.8781278e-38
0.13862647 0.045406856 0.026093423 1.9148608e-38
0.13814569 0.12275665 0.018978894 1.5472298e-38
0.13447627 0.043170713 0.028220356 1.8782359e-38
0.13467789 0.045405418 0.026239097 1.8414292e-38
0.13434401 0.12204503 0.017706335 1.5471212e-38
0.13354763 0.12473508 0.018796027 1.5839293e-38
0.13100906 0.046271496 0.025832832 1.8503601e-38
0.13101426 0.11897913 0.016106784 1.4642891e-38
0.13082051 0.12170254 0.016652286 1.5379025e-38
0.13015188 0.12489382 0.017810941 1.6298121e-38
0.1265386 0.044215962 0.02765888 1.7946808e-38
0.12694746 0.04596252 0.025637865 1.7952204e-38
0.12678525 0.11806368 0.015648425 1.4549994e-38
0.12690975 0.1217309 0.016573608 1.5380471e-38
0.12702459 0.12479054 0.017148077 1.6759796e-38
0.12277827 0.046528734 0.024983048 1.7772133e-38
0.12086463 0.048931457 0.023270965 1.7222208e-38
0.12227431 0.11403773 0.015530944 1.2705719e-38
0.12319821 0.11776242 0.016105175 1.3904974e-38
0.12291873 0.12182679 0.016814709 1.2250471e-38
0.12346618 0.12446664 0.01696223 1.3445057e-38
0.1190092 0.047236681 0.02576822 1.6295216e-38
0.11789092 0.04925067 0.02333957 1.5466533e-38
0.11811668 0.11386337 0.015895426 9.3870364e-39
0.11853507 0.11790352 0.017143369 9.0222013e-39
0.1188924 0.12117977 0.017254531 7.638534e-39
0.1144602 0.050725363 0.024222255 1.4177238e-38
0.11344764 0.053628795 0.022207677 1.3441122e-38
0.11325242 0.099632777 0.016070008 1.1600396e-38
0.11356959 0.10186147 0.015841246 1.1876641e-38
0.11325242 0.11106826 0.014677167 1.3170625e-38
0.11414415 0.1139292 0.016029835 8.8374317e-39
0.1150693 0.12124557 0.016731381 7.552853e-39
0.1112462 0.051626369 0.024695873 1.2792514e-38
0.11064278 0.054486796 0.023249745 1.1503217e-38
0.10985881 0.057295173 0.022192359 1.0213222e-38
0.11049356 0.10228781 0.016278267 1.1691891e-38
0.10986918 0.10550759 0.014898658 1.1691922e-38
0.11012632 0.11029861 0.015027285 1.2245462e-38
0.11007881 0.11387912 0.016520619 1.0864291e-38
0.10754886 0.058528922 0.022848785 1.1131227e-38
0.10551155 0.061743893 0.022690892 1.1598962e-38
0.10500202 0.066139288 0.021578729 1.0862445e-38
0.10487436 0.070667572 0.02151823 9.6600149e-39
0.10487437 0.073220134 0.021207273 9.1108362e-39
0.10653019 0.099686034 0.01795274 1.0859274e-38
0.10668367 0.10222536 0.015772581 1.1505354e-38
0.10665515 0.10562502 0.014451265 1.1874153e-38
0.10712034 0.11012203 0.013966203 1.3996078e-38
0.10622033 0.1135231 0.015463471 1.4822227e-38
0.10258467 0.099810123 0.016643822 1.1408863e-38
0.10281581 0.10220294 0.015479982 1.1778714e-38
0.10437149 0.10584223 0.014117181 1.1600438e-38
0.10339299 0.11371227 0.014381826 1.7494464e-38
0.099120215 0.10206334 0.014547408 1.1963472e-38
0.098662332 0.10511459 0.013436556 1.1506425e-38
0.098662317 0.11337356 0.012430608 1.9802218e-38
0.095200807 0.099415377 0.015951097 1.2054956e-38
0.09531033 0.10200173 0.014041603 1.2148584e-38
0.095744312 0.10494035 0.013064623 1.2426946e-38
0.090537727 0.099471159 0.016078293 1.3436454e-38
0.091071665 0.10217337 0.01409328 1.4358752e-38
0.091430724 0.10461647 0.012522876 1.5461867e-38
0.086790383 0.099107698 0.015182078 1.5094878e-38
0.086905569 0.10170677 0.013487279 1.7768551e-38
0.082630977 0.098733976 0.013941228 1.7489472e-38
0.083120704 0.10073379 0.011876166 2.0253904e-38
0.078702495 0.098611824 0.012555718 2.0990005e-38
0.074639603 0.096991755 0.013052583 1.9700702e-38
0.070711076 0.097544782 0.012828529 1.2047417e-38
0.16637178 0.070589408 0.01447928 1.5650566e-38
0.16618697 0.079792805 0.012690306 1.3532238e-38
0.1650475 0.086861916 0.012357354 1.3626232e-38
0.15912481 0.092142157 0.012829781 1.4087206e-38
0.16190132 0.064650737 0.016964614 1.7309019e-38
0.11294456 0.076742396 0.0096692443 4.9681089e-39
0.18112338 0.032284308 0.037990928 7.6410423e-39
0.18119439 0.036426872 0.036987782 7.3648366e-39
0.18116242 0.040096574 0.036762357 1.1882081e-38
0.17613307 0.026190516 0.04161799 5.7996773e-39
0.17684039 0.028742947 0.040950656 5.9848042e-39
0.17710185 0.032472614 0.03872478 6.5368598e-39
0.17711763 0.036309175 0.038146675 8.6512524e-39
0.1770944 0.039914913 0.036772847 1.3721307e-38
0.17709616 0.12796026 0.027150273 2.2387001e-38
0.17420734 0.026159376 0.041362345 5.5216512e-39
0.17310295 0.028865077 0.040756941 6.3496154e-39
0.17307687 0.032496952 0.039421737 7.7332393e-39
0.17307687 0.036348492 0.038952589 1.0403669e-38
0.17331539 0.040071495 0.03695035 1.5567388e-38
0.1736702 0.12781152 0.025656581 2.1554343e-38
0.17287211 0.13101467 0.027540028 2.2656377e-38
0.16939306 0.029617302 0.040292561 8.8392506e-39
0.16914257 0.032473162 0.039459229 1.0588441e-38
0.16933775 0.036234654 0.037785172 1.4090443e-38
0.16955036 0.039334334 0.036081135 1.7867595e-38
0.1697081 0.12808701 0.024276078 2.1365624e-38
0.16931966 0.13117179 0.026332378 2.1458186e-38
0.16778831 0.13405743 0.027355611 2.2287233e-38
0.16522071 0.029871266 0.039699435 1.1327075e-38
0.16538578 0.032372165 0.03840065 1.344398e-38
0.16567871 0.036087856 0.036180794 1.6026568e-38
0.16613458 0.039068371 0.034636974 1.8234946e-38
0.16715559 0.12804574 0.023937166 1.9430245e-38
0.16562381 0.13091832 0.024961948 2.0347528e-38
0.1658626 0.13402629 0.027099967 2.1733325e-38
0.16136928 0.029808987 0.039188147 1.2155791e-38
0.16159639 0.032286402 0.037561834 1.3997535e-38
0.16208234 0.035832919 0.035247386 1.6206633e-38
0.16268869 0.038501382 0.034241796 1.7406251e-38
0.16175251 0.13105857 0.024620891 1.9336254e-38
0.16008547 0.13393286 0.026332974 1.9426297e-38
0.15815976 0.029757086 0.038762033 1.2523505e-38
0.15771297 0.03223959 0.037270188 1.4091525e-38
0.1582218 0.035233721 0.034037948 1.6392101e-38
0.15802702 0.13129011 0.024489999 1.8784519e-38
0.15380794 0.032200713 0.03708756 1.4826565e-38
0.15415145 0.035270669 0.034840167 1.6390671e-38
0.15392444 0.13109845 0.023379922 1.8050176e-38
0.15010518 0.032522988 0.036759257 1.5926804e-38
0.14995797 0.035290424 0.034224391 1.6848404e-38
0.15002805 0.13052663 0.022851884 1.8048734e-38
0.14633232 0.033082936 0.036509335 1.7033505e-38
0.14553992 0.035805386 0.034066439 1.7678525e-38
0.14418299 0.03820214 0.031784892 1.9151846e-38
0.14545923 0.1276949 0.021056712 1.6850564e-38
0.14555322 0.13078818 0.022632957 1.8601539e-38
0.14126562 0.035712235 0.034845769 1.8229546e-38
0.14149553 0.038213532 0.032099009 1.9150771e-38
0.14131141 0.12730828 0.020545006 1.6667614e-38
0.14116195 0.1306935 0.022484004 1.8692674e-38
0.13706839 0.035809204 0.034731448 1.9977649e-38
0.13738346 0.039099205 0.031921148 1.9332661e-38
0.13752678 0.12657335 0.021479666 1.6760523e-38
0.13718313 0.1307739 0.022615731 1.887814e-38
0.13697694 0.1335592 0.023265064 1.9522408e-38
0.13342428 0.036541156 0.034399748 1.9885092e-38
0.13347799 0.039501913 0.032555759 1.9149336e-38
0.13269669 0.041850921 0.029792905 1.8967081e-38
0.13385262 0.12689978 0.021041751 1.6760883e-38
0.13331364 0.1307354 0.022211909 1.8416447e-38
0.12946746 0.03950315 0.032805681 1.8781982e-38
0.13039944 0.042325042 0.029425681 1.8596866e-38
0.13022617 0.12710902 0.019888818 1.6574708e-38
0.12973715 0.13022414 0.021389127 1.795941e-38
0.12557116 0.040101834 0.032433808 1.8506818e-38
0.1260547 0.042485207 0.030006528 1.8136949e-38
0.12588085 0.12703875 0.019311905 1.5748166e-38
0.12596539 0.12962839 0.02124393 1.6119111e-38
0.12189221 0.040420827 0.032576799 1.7954024e-38
0.12207961 0.043115024 0.03001529 1.7493762e-38
0.1212104 0.045499705 0.027800918 1.7311521e-38
0.12194416 0.1267384 0.01960212 1.0589163e-38
0.12285507 0.12947363 0.021860003 1.1234201e-38
0.11900365 0.040695552 0.032154143 1.7401558e-38
0.11830316 0.043623447 0.031025648 1.6570017e-38
0.11804426 0.045885071 0.028597891 1.6202672e-38
0.11865787 0.12310744 0.018004477 6.7201468e-39
0.11803252 0.12654114 0.020212233 6.5379303e-39
0.11771983 0.1293906 0.021178186 7.2736933e-39
0.11515221 0.044490479 0.03117305 1.6018272e-38
0.11424118 0.046897188 0.029176176 1.5465093e-38
0.11267269 0.049934551 0.027126789 1.3901005e-38
0.11610538 0.11955119 0.018093705 7.7350933e-39
0.11533961 0.12260643 0.017618418 7.3666246e-39
0.11475037 0.12597337 0.018145323 6.8145242e-39
0.11037171 0.047717132 0.029729366 1.4451664e-38
0.1100404 0.05022306 0.027922809 1.353005e-38
0.10908598 0.05361177 0.025179327 1.2145696e-38
0.1097241 0.1149744 0.01779139 1.0126706e-38
0.10744938 0.04822313 0.02968055 1.4730751e-38
0.10648254 0.050875738 0.02859199 1.5097328e-38
0.10626611 0.054250024 0.026899636 1.4080709e-38
0.10523948 0.057968654 0.025292039 1.2794274e-38
0.10461909 0.060569495 0.02373004 1.2151767e-38
0.10461909 0.075268485 0.021939754 8.6523594e-39
0.10526186 0.07947319 0.024055123 7.4566679e-39
0.10488176 0.082253627 0.025189757 7.2715689e-39
0.10564989 0.09503974 0.023227751 8.8320675e-39
0.10556954 0.097870588 0.020621657 1.0121711e-38
0.10359797 0.052018061 0.028699458 1.7309004e-38
0.10287005 0.054952294 0.027735829 1.6291986e-38
0.10180083 0.058361426 0.027176559 1.4083579e-38
0.10164323 0.062225267 0.025414228 1.2887556e-38
0.10161275 0.066490546 0.024382472 1.2060307e-38
0.10172032 0.070923254 0.023433566 1.0953625e-38
0.10151884 0.074869558 0.023716271 1.0124939e-38
0.10287005 0.078507416 0.02486676 8.5608532e-39
0.10180178 0.095191799 0.022690773 9.5681906e-39
0.10185665 0.097769819 0.020656347 1.048942e-38
0.09974654 0.055812992 0.027718306 1.6663629e-38
0.097820848 0.058996186 0.027071059 1.5188513e-38
0.09735477 0.066619232 0.025402308 1.2887584e-38
0.097531259 0.071030758 0.024211168 1.2335832e-38
0.097512782 0.074618019 0.024546146 1.1601489e-38
0.097568244 0.094266556 0.022233009 1.0856054e-38
0.09767054 0.097523272 0.020470858 1.131741e-38
0.092043698 0.059545644 0.026225865 1.472611e-38
0.093327507 0.062780745 0.026004791 1.3992854e-38
0.093584269 0.066384949 0.025600314 1.3071986e-38
0.09396942 0.07114841 0.025072098 1.2335134e-38
0.093070745 0.091191359 0.022509813 1.1687949e-38
0.093597889 0.094120182 0.02120769 1.1686164e-38
0.093843937 0.097557805 0.019297659 1.1963108e-38
0.090759903 0.062739223 0.025663912 1.3899933e-38
0.090759903 0.064667828 0.02542901 1.3440401e-38
0.088834196 0.082637005 0.022980928 1.2334054e-38
0.088192284 0.087769561 0.022269309 1.2701748e-38
0.08953765 0.090326853 0.021913171 1.2424073e-38
0.089844584 0.094003923 0.020377398 1.2514828e-38
0.090395212 0.097459249 0.018590987 1.2792854e-38
0.085749656 0.090229884 0.021188796 1.3528634e-38
0.086094171 0.09388791 0.019547462 1.3711942e-38
0.086469799 0.096873209 0.017879367 1.4078589e-38
0.081868723 0.090827756 0.020706058 1.4632112e-38
0.082188129 0.093861513 0.019250274 1.4816847e-38
0.082635373 0.096811205 0.017370284 1.5275685e-38
0.078563735 0.091471076 0.020521164 1.7306084e-38
0.07818231 0.093888655 0.019271851 1.8874163e-38
0.078800917 0.096749201 0.01686126 1.9606361e-38
0.072786599 0.091377653 0.019754231 2.0435406e-38
0.074203849 0.093883999 0.018318594 1.9883329e-38
0.075435847 0.096290611 0.015955508 2.0528334e-38
0.07021898 0.091336139 0.019413292 1.7673476e-38
0.070553094 0.093482465 0.017545342 1.6933411e-38
0.069734767 0.096646376 0.014635921 1.1583586e-38
0.067856789 0.093758479 0.018122494 1.4256492e-38
0.066614822 0.09731286 0.017386734 1.1590732e-38
0.0666776 0.10074603 0.016773701 1.168254e-38
0.06294407 0.10579018 0.016672671 1.3162371e-38
0.061616123 0.10937884 0.015650094 1.3717679e-38
0.059065521 0.10685948 0.015765846 1.3348902e-38
0.05886513 0.10945076 0.015550196 1.3442173e-38
0.16416274 0.064025089 0.016763031 1.6662557e-38
0.17618093 0.091941886 0.012150168 1.3533319e-38
0.082630977 0.098733976 0.013941228 1.7489472e-38
0.17891091 0.13232103 0.032114804 2.3230779e-38
0.17640626 0.1320104 0.031307042 2.2668969e-38
0.17239842 0.024828508 0.043694675 5.4312297e-39
0.17132929 0.027529098 0.04284054 5.6131546e-39
0.17326066 0.13330081 0.030217826 2.2655685e-38
0.16964079 0.025275867 0.043395579 6.4446571e-39
0.16846442 0.028011631 0.042599082 8.2846531e-39
0.16931938 0.13463768 0.030032158 2.2376203e-38
0.16480905 0.028101049 0.042400599 1.0035646e-38
0.164446 0.13558298 0.029514551 2.1366708e-38
0.16094346 0.028038543 0.041887343 1.096048e-38
0.160943 0.13514793 0.028841436 1.9890138e-38
0.15735674 0.028642561 0.041584671 1.1971395e-38
0.15707788 0.13508543 0.028328359 1.9244773e-38
0.15330313 0.029816642 0.040133178 1.2704997e-38
0.15319377 0.13491571 0.027927279 1.9062168e-38
0.14879659 0.031033285 0.039377809 1.5191404e-38
0.15072796 0.13422596 0.027069271 1.8510441e-38
0.14520434 0.031533562 0.039442718 1.6664363e-38
0.14161555 0.032887857 0.038692653 1.7491624e-38
0.14151624 0.13429919 0.02683562 1.9152928e-38
0.13739669 0.032906547 0.03804934 1.9518098e-38
0.13742293 0.13401082 0.025302887 1.9522785e-38
0.13384941 0.032989964 0.037803233 2.0253502e-38
0.1323799 0.034958761 0.036687851 2.0161671e-38
0.1327018 0.13393447 0.024676085 1.906542e-38
0.12915948 0.036342908 0.036593556 1.9334088e-38
0.12819526 0.13257208 0.024234831 1.8880301e-38
0.13012664 0.13389283 0.024334192 1.9434195e-38
0.12604259 0.037193321 0.036578178 1.8964592e-38
0.12497631 0.038385216 0.035273015 1.8688711e-38
0.12453987 0.13217303 0.024604023 1.4919154e-38
0.12096098 0.03923545 0.035306036 1.8321009e-38
0.12053147 0.13108963 0.024060428 9.394581e-39
0.11648881 0.040870026 0.034334958 1.7584146e-38
0.1163924 0.042544805 0.033609867 1.6751539e-38
0.11704978 0.13165879 0.023715675 7.6414249e-39
0.11325081 0.043404482 0.033662736 1.6479252e-38
0.1099242 0.044681136 0.033494532 1.638562e-38
0.10914147 0.046212051 0.032440364 1.5832805e-38
0.10576919 0.047416463 0.032195032 1.6017203e-38
0.10437497 0.049657747 0.031124353 1.7125318e-38
0.10566255 0.080626994 0.027525842 6.7191098e-39
0.10534066 0.083523206 0.02712971 6.8109565e-39
0.1041216 0.086558089 0.02761215 7.1797292e-39
0.10541105 0.092390276 0.027075529 7.5438454e-39
0.10566255 0.093522176 0.0259552 8.003746e-39
0.10154265 0.048419826 0.031909883 1.7585252e-38
0.10154243 0.05077751 0.030987561 1.8046933e-38
0.10094142 0.053900622 0.030144989 1.6852326e-38
0.10094142 0.080120817 0.026951373 8.837087e-39
0.10174224 0.083175845 0.026913106 8.008764e-39
0.10157102 0.087145634 0.027084053 7.6378123e-39
0.10154265 0.091036312 0.026719272 8.0030173e-39
0.10212171 0.093787298 0.025445879 8.9231884e-39
0.097674236 0.048357271 0.031396329 1.8319567e-38
0.097674251 0.050940089 0.031081736 1.7861466e-38
0.097710162 0.054573096 0.029881895 1.7216094e-38
0.097937047 0.057290755 0.029327273 1.6201933e-38
0.096649483 0.076612704 0.026800394 1.1324903e-38
0.097790837 0.079290144 0.027192771 9.944145e-39
0.097674251 0.08322531 0.027149439 9.1140424e-39
0.097674251 0.08709953 0.026677549 9.4799425e-39
0.099224642 0.093418069 0.02510047 1.0027717e-38
0.094235644 0.051314957 0.030572772 1.7400863e-38
0.093894899 0.054717168 0.029773712 1.6846954e-38
0.093706429 0.058327653 0.028631032 1.5555879e-38
0.093430519 0.061086431 0.028257787 1.4637147e-38
0.093706414 0.075459816 0.026544392 1.1783381e-38
0.093985021 0.079196669 0.026465535 1.0678473e-38
0.093895942 0.083114736 0.026315093 1.0862162e-38
0.093955606 0.086953573 0.025629699 1.1138378e-38
0.094503492 0.090332866 0.024840236 1.1228791e-38
0.089937419 0.055334918 0.029504061 1.6015751e-38
0.090016097 0.058304831 0.028263628 1.5092715e-38
0.089696512 0.061799772 0.02766788 1.4175444e-38
0.089894757 0.067347758 0.027131796 1.2795036e-38
0.090028167 0.071435183 0.027216494 1.215003e-38
0.090119764 0.075262882 0.026423872 1.1966715e-38
0.09021157 0.079087637 0.025631666 1.1875228e-38
0.090372503 0.082958795 0.02518183 1.1965637e-38
0.090211555 0.086824752 0.024689257 1.1965627e-38
0.09149915 0.089424595 0.024546027 1.1872692e-38
0.086069003 0.055918068 0.028911829 1.6196929e-38
0.085951567 0.058571108 0.028064728 1.5460798e-38
0.085705012 0.062251031 0.027075171 1.463176e-38
0.085956991 0.066706695 0.027270019 1.3620481e-38
0.086068988 0.07141497 0.027024329 1.3713743e-38
0.086130977 0.075259313 0.026338577 1.3531155e-38
0.086286426 0.079055473 0.02533257 1.288687e-38
0.082200572 0.058653563 0.028057456 1.6197999e-38
0.0809111 0.062291704 0.027440608 1.6199785e-38
0.081426904 0.066949107 0.02694273 1.5003037e-38
0.081555858 0.071341991 0.026425123 1.4542802e-38
0.081579626 0.075205028 0.025873244 1.4358754e-38
0.081555843 0.079090439 0.025481403 1.3346751e-38
0.08161445 0.082848229 0.025031626 1.2702832e-38
0.08137998 0.086718656 0.024528623 1.3162003e-38
0.081198484 0.08925803 0.023178458 1.4356957e-38
0.077816382 0.062241666 0.027029693 1.6201584e-38
0.077042699 0.066749081 0.026376486 1.5739156e-38
0.077042699 0.071269013 0.025825977 1.4727197e-38
0.077042699 0.07514324 0.025354087 1.426549e-38
0.077902347 0.078170426 0.025101185 1.3713024e-38
0.077226907 0.08713787 0.023917973 1.2976921e-38
0.076984331 0.090201475 0.023076653 1.6289784e-38
0.071884811 0.063437156 0.02608496 1.6015771e-38
0.073174268 0.066686526 0.025862932 1.5372907e-38
0.073174283 0.071206458 0.025312364 1.454423e-38
0.073335469 0.074921869 0.024881542 1.4266579e-38
0.074463755 0.07768435 0.024697125 1.3991059e-38
0.073432177 0.087482378 0.023364723 1.2882208e-38
0.069735706 0.066702671 0.025397658 1.5005562e-38
0.070079565 0.070898138 0.024932981 1.4267295e-38
0.070595354 0.087953068 0.022925198 1.2974751e-38
0.069458053 0.089791894 0.022039831 1.399287e-38
0.066399813 0.091275088 0.021616518 1.4629953e-38
0.064896062 0.094262488 0.021050096 1.3802709e-38
0.06445992 0.09801399 0.019856811 1.1591827e-38
0.06445992 0.10123778 0.019464135 1.1595047e-38
0.061998889 0.098575801 0.020473123 1.1688627e-38
0.061709136 0.10193566 0.019573212 1.1415315e-38
0.061026335 0.1048359 0.018563271 1.1783757e-38
0.058345363 0.099377654 0.019883215 1.1597883e-38
0.057700634 0.10195006 0.01948303 1.1504264e-38
0.058021963 0.10500225 0.018138289 1.2151808e-38
0.054691881 0.10276234 0.018978715 1.1874138e-38
