# .PCD v0.7 - Point Cloud Data file format
VERSION 0.7
FIELDS x y z rgb
SIZE 4 4 4 4
TYPE F F F F
COUNT 1 1 1 1
WIDTH 985
HEIGHT 1
VIEWPOINT 0 0 0 0 1 0 0
POINTS 985
DATA ascii
0.18692827 0.05122669 0.016980976 1.4081814e-38
0.18612772 0.054662198 0.018419445 1.3715185e-38
0.18585289 0.058666483 0.019952565 1.2981583e-38
0.18554765 0.062580451 0.020851344 1.3073386e-38
0.18449563 0.04350695 0.014057428 1.4357705e-38
0.18406406 0.048009738 0.014569759 1.4174376e-38
0.18345922 0.051438943 0.015305728 1.4082911e-38
0.18294692 0.054564565 0.016329736 1.3807025e-38
0.18185204 0.057218567 0.015984267 1.3531881e-38
0.20717901 0.043112651 0.03889811 1.1508609e-38
0.21264079 0.049485266 0.046993226 1.095903e-38
0.22152799 0.016976804 0.049949944 6.9953128e-39
0.22168887 0.039029732 0.053936869 9.3931586e-39
0.22057435 0.042293847 0.055439085 1.3263583e-38
0.21816492 0.0517371 0.05716303 2.1648317e-38
0.21959704 0.015211761 0.048198968 7.6428528e-39
0.22060981 0.019665062 0.047492236 5.8003905e-39
0.22055662 0.023790717 0.048155278 4.9706537e-39
0.22058702 0.027543992 0.048532695 5.0621066e-39
0.22031146 0.031155214 0.049206227 5.1561127e-39
0.21964449 0.035218239 0.050327003 6.9060374e-39
0.2190544 0.039319575 0.051374674 9.2091107e-39
0.21777987 0.042519286 0.053020149 1.2707524e-38
0.21682379 0.046487704 0.054426372 1.5840737e-38
0.21667391 0.050791129 0.055047929 1.9433143e-38
0.21647191 0.054180175 0.055034667 2.0449797e-38
0.21498147 0.058045 0.055794209 2.1920574e-38
0.21576864 0.012324855 0.044720113 4.9742606e-39
0.21752179 0.015582725 0.044817299 7.0882707e-39
0.2184028 0.01972571 0.044793457 6.2610057e-39
0.21857005 0.023965508 0.044931203 5.2483e-39
0.21928853 0.02732262 0.04632026 5.5245183e-39
0.21896732 0.031531319 0.047105372 5.8915002e-39
0.217659 0.036274418 0.047697842 7.9180117e-39
0.21626613 0.039544821 0.04896158 9.9448863e-39
0.21537209 0.042904571 0.050230175 1.2799354e-38
0.21478641 0.046399966 0.051203161 1.5287928e-38
0.21498564 0.05083625 0.051488787 1.731407e-38
0.21476001 0.055097297 0.05218333 1.9063636e-38
0.21363223 0.058393613 0.053681284 2.0995408e-38
0.21263438 0.062307894 0.054529518 2.1366347e-38
0.21170563 0.065562859 0.054651231 2.118053e-38
0.21426934 0.012146831 0.042702675 7.2744458e-39
0.21511656 0.015813455 0.041396141 7.2733514e-39
0.21588725 0.019568384 0.04139176 5.9829727e-39
0.2169506 0.022769198 0.042941183 4.6040137e-39
0.2153607 0.03187336 0.043796241 6.5357962e-39
0.21475932 0.037107736 0.044757187 8.8385401e-39
0.21391821 0.040186957 0.045284778 1.09583e-38
0.21329284 0.043652564 0.046290278 1.344436e-38
0.21295851 0.047242418 0.047019541 1.583893e-38
0.21247619 0.051395178 0.047958761 1.6850568e-38
0.21237296 0.055696487 0.048536271 1.795798e-38
0.21215612 0.059331328 0.049154907 1.9613556e-38
0.2115882 0.062979504 0.05032441 2.0624835e-38
0.2104193 0.06665726 0.051894218 2.016565e-38
0.20927569 0.070426479 0.053619146 1.9981633e-38
0.2099719 0.0056673735 0.037538886 1.0314032e-38
0.2110081 0.0083760917 0.038341373 9.7626516e-39
0.21198153 0.012119666 0.038886189 8.5637469e-39
0.21255749 0.016398847 0.037932903 7.6421521e-39
0.21333402 0.019331872 0.038645923 7.8247217e-39
0.21192151 0.041749775 0.043108851 1.2884009e-38
0.21135896 0.044429466 0.043271452 1.4273392e-38
0.21070492 0.047955051 0.043766141 1.5283253e-38
0.20988721 0.051919147 0.044519514 1.6389962e-38
0.20968366 0.05617547 0.045194685 1.7956545e-38
0.20956495 0.059843138 0.04572013 1.8507921e-38
0.20928955 0.063451618 0.046393245 1.8321396e-38
0.20848393 0.067550495 0.048135966 1.8508635e-38
0.20711344 0.071141571 0.050252527 1.7034966e-38
0.20576376 0.074084312 0.051255971 1.8416136e-38
0.20452374 0.077054754 0.050855577 2.0445495e-38
0.2095668 0.0065295994 0.034584373 1.0774278e-38
0.20969638 0.0090933144 0.03474763 9.5804282e-39
0.21004748 0.013007924 0.034847409 8.1960238e-39
0.21057326 0.016410291 0.035290092 7.2747989e-39
0.20866594 0.049221262 0.041972846 1.5377244e-38
0.20816654 0.051855132 0.042183101 1.6114083e-38
0.20788991 0.056457534 0.043111891 1.7494491e-38
0.20763755 0.05976437 0.043728769 1.7587051e-38
0.20676425 0.063876212 0.043968737 1.6940964e-38
0.2060453 0.067841664 0.044898689 1.6665821e-38
0.20483351 0.071747735 0.046514034 1.6299182e-38
0.20313153 0.074887097 0.048517823 1.5927879e-38
0.20270926 0.077226847 0.04919073 1.7496292e-38
0.20732647 0.0070166588 0.031667888 8.4701009e-39
0.20761532 0.0096535236 0.031689316 7.4573839e-39
0.20796746 0.013132915 0.031988353 6.9024165e-39
0.20481381 0.064508855 0.042294919 1.6205196e-38
0.20327854 0.068077445 0.04246974 1.5840002e-38
0.20228034 0.072058961 0.043878645 1.5194621e-38
0.20072964 0.075250775 0.045727909 1.5005914e-38
0.20005107 0.078336909 0.046973556 1.6020112e-38
0.2052224 0.0087204129 0.028262168 6.4396657e-39
0.20071048 0.06549491 0.038684219 1.4734746e-38
0.19998541 0.06833005 0.039694995 1.5102095e-38
0.19895738 0.072304964 0.041122526 1.436526e-38
0.19795984 0.07568334 0.042453766 1.4179777e-38
0.19718748 0.079577535 0.044479847 1.5191046e-38
0.19594288 0.083273932 0.044379324 1.5928997e-38
0.20191377 0.0086760819 0.025133848 7.4548686e-39
0.1996814 0.026197657 0.027559131 9.848355e-39
0.19743311 0.068758622 0.036580086 1.4733315e-38
0.19635892 0.072793558 0.037713766 1.5285396e-38
0.19551778 0.076221004 0.038894385 1.4362712e-38
0.19458812 0.080062136 0.041049868 1.4547123e-38
0.19362861 0.084094018 0.042411119 1.5101362e-38
0.19280559 0.088976845 0.042897701 1.6667253e-38
0.19207764 0.090647489 0.042643696 1.7220082e-38
0.19771808 0.0078592598 0.023067206 7.6356571e-39
0.19886041 0.010221928 0.023122936 8.0040753e-39
0.19680148 0.018912867 0.024361342 9.2937239e-39
0.19708055 0.021960333 0.025411934 9.662889e-39
0.19785136 0.0257359 0.025855601 1.0401539e-38
0.1967929 0.028859138 0.025525868 1.1966709e-38
0.19442433 0.073970035 0.03495273 1.4180493e-38
0.19402373 0.076873109 0.035325617 1.4549613e-38
0.19265032 0.080344051 0.037165433 1.4454206e-38
0.19093663 0.084127635 0.038867325 1.3993228e-38
0.19015768 0.088267013 0.040219843 1.4914838e-38
0.18979588 0.091321468 0.040668458 1.685236e-38
0.19412547 0.0074448287 0.022138566 8.3739536e-39
0.19442523 0.010088041 0.022172064 8.926061e-39
0.19487619 0.014045104 0.022221625 9.7550846e-39
0.19460136 0.017660752 0.022897094 1.0399006e-38
0.19421932 0.021852732 0.023737133 1.1320966e-38
0.19468683 0.026415274 0.023842126 1.2150735e-38
0.19470525 0.030054152 0.024042726 1.2610641e-38
0.19421756 0.033281639 0.024242729 1.3254204e-38
0.19353732 0.036330596 0.024389833 1.3254574e-38
0.19131881 0.077129632 0.032843769 1.3534768e-38
0.18965644 0.080786258 0.034637332 1.3719156e-38
0.18820834 0.084515736 0.03671509 1.408831e-38
0.18734097 0.08829391 0.037573367 1.4087591e-38
0.18717736 0.091913015 0.038354516 1.5468725e-38
0.18653905 0.094375938 0.038389742 1.7132194e-38
0.191365 0.013438001 0.02201882 1.1044763e-38
0.19078016 0.018066019 0.021665514 1.2333335e-38
0.19159138 0.022499546 0.021079153 1.2610995e-38
0.19091579 0.026452661 0.021464288 1.2978693e-38
0.19088519 0.03017129 0.021930486 1.3070178e-38
0.19097644 0.033936799 0.022290677 1.3069824e-38
0.19128323 0.036544383 0.022321641 1.297835e-38
0.188171 0.071459249 0.028413057 1.2796843e-38
0.18843827 0.073821455 0.029275298 1.2614594e-38
0.18785417 0.077331081 0.030214459 1.2982317e-38
0.18677446 0.080933869 0.031804144 1.2889396e-38
0.185637 0.08481805 0.034091473 1.3164899e-38
0.18473256 0.088541269 0.035180181 1.3720947e-38
0.18445557 0.092171147 0.03585726 1.4641119e-38
0.18336362 0.094677091 0.035476238 1.473404e-38
0.18790987 0.019371286 0.020297348 1.3621189e-38
0.18747294 0.022665158 0.019738555 1.3622219e-38
0.18713647 0.026490763 0.019078881 1.3804492e-38
0.18768227 0.030453905 0.019064099 1.3804139e-38
0.18765336 0.034169316 0.019531041 1.3530073e-38
0.18808508 0.03764762 0.019793749 1.3346018e-38
0.18526259 0.066561997 0.024407655 1.288939e-38
0.18550915 0.070083782 0.025550067 1.2888674e-38
0.18453783 0.07387957 0.027013928 1.2890822e-38
0.18426216 0.077492639 0.027687877 1.2890466e-38
0.18334198 0.081111386 0.029535443 1.2798287e-38
0.18312263 0.085139245 0.030268073 1.2797186e-38
0.18193042 0.088951349 0.031947374 1.3350378e-38
0.18146682 0.092525452 0.032783777 1.4180141e-38
0.18109548 0.094892204 0.033395171 1.4273419e-38
0.18336821 0.023805991 0.017165005 1.4358392e-38
0.1836791 0.026434347 0.017205238 1.4356601e-38
0.18447626 0.030505419 0.016989052 1.4449143e-38
0.18510962 0.034493282 0.016907662 1.4172911e-38
0.18512148 0.037928671 0.017074674 1.4082884e-38
0.18305242 0.056425497 0.019705921 1.3440764e-38
0.18286887 0.058830455 0.020154566 1.3072331e-38
0.182796 0.06271717 0.021090418 1.3072306e-38
0.18264878 0.070086181 0.023322105 1.270499e-38
0.18182874 0.074136496 0.024528235 1.2614255e-38
0.18138623 0.077697724 0.025342435 1.2613888e-38
0.18011838 0.081291631 0.026723146 1.2615685e-38
0.17966074 0.085330322 0.027920425 1.3074507e-38
0.17869419 0.089036182 0.029270202 1.325997e-38
0.17810476 0.092773438 0.030030251 1.3075943e-38
0.18070653 0.026924923 0.015230745 1.5001262e-38
0.18126509 0.030557394 0.014909416 1.5094519e-38
0.18181998 0.034514949 0.014901668 1.4911546e-38
0.18214279 0.038659498 0.014956683 1.4634982e-38
0.18135694 0.043454662 0.01475665 1.4450243e-38
0.18112749 0.046460882 0.01531744 1.4358755e-38
0.18154332 0.055673286 0.01808998 1.3531874e-38
0.18106556 0.05900149 0.0185 1.3256006e-38
0.18079025 0.062608942 0.019172966 1.316275e-38
0.18043151 0.06618844 0.019915402 1.2977635e-38
0.18000585 0.070363596 0.020787507 1.2611361e-38
0.1791195 0.074393436 0.022042423 1.2612807e-38
0.17867646 0.077954724 0.022856116 1.2705003e-38
0.17762977 0.081617668 0.024043679 1.3074155e-38
0.1765328 0.085466996 0.025771588 1.325854e-38
0.17570618 0.08879672 0.026742965 1.3075562e-38
0.17578283 0.092513159 0.027775615 1.2428766e-38
0.17610556 0.095365435 0.028816789 1.1324228e-38
0.17855489 0.027866066 0.013680011 1.5461175e-38
0.17794049 0.030665681 0.013125926 1.536932e-38
0.1781888 0.034404054 0.013160884 1.5187071e-38
0.17834923 0.039118677 0.012946248 1.4911214e-38
0.17847353 0.043428272 0.013198555 1.454316e-38
0.17813492 0.046846047 0.014122814 1.4358395e-38
0.17784214 0.050678805 0.014837533 1.4358762e-38
0.1779471 0.054990262 0.015049905 1.3900302e-38
0.17772052 0.059235215 0.015758723 1.3348933e-38
0.17725548 0.062778994 0.016586035 1.2795377e-38
0.17704353 0.066410929 0.017208368 1.2795399e-38
0.17642239 0.070524231 0.018239617 1.2704973e-38
0.17602175 0.074713334 0.019090444 1.2430559e-38
0.17568302 0.078306243 0.019816428 1.2796481e-38
0.17485386 0.08221148 0.021162897 1.3075226e-38
0.17370063 0.085156798 0.023563504 1.2984113e-38
0.17366081 0.09199369 0.025642425 1.2059977e-38
0.17560226 0.031149074 0.011747003 1.5372538e-38
0.17459154 0.035371199 0.011133313 1.5278535e-38
0.17487341 0.039837927 0.010199398 1.5094517e-38
0.17485005 0.043552399 0.010671467 1.5000911e-38
0.17394435 0.046972871 0.012177736 1.463425e-38
0.17376262 0.050379664 0.012747079 1.4452395e-38
0.17418787 0.055075616 0.012637258 1.4175804e-38
0.17399263 0.059336796 0.013321638 1.4082542e-38
0.1736325 0.062920526 0.014063805 1.3806285e-38
0.1734415 0.066562459 0.014669806 1.3807383e-38
0.17324674 0.070818558 0.015353262 1.3717347e-38
0.17279813 0.07499294 0.016242415 1.3442191e-38
0.17252204 0.078606442 0.016916186 1.3258866e-38
0.17074263 0.082476854 0.019143462 1.2891195e-38
0.17103943 0.085035101 0.021374673 1.2707158e-38
0.17115021 0.036376089 0.0089038908 1.5371105e-38
0.17094851 0.039730892 0.0088819861 1.5185988e-38
0.17052746 0.04320237 0.0094600618 1.4819033e-38
0.17016602 0.04679735 0.010203898 1.4910123e-38
0.17028952 0.05085969 0.010438114 1.4727898e-38
0.17125809 0.055386931 0.010487407 1.4175802e-38
0.17111385 0.059535146 0.010971695 1.4450953e-38
0.17083779 0.063148662 0.011645496 1.4635703e-38
0.17073232 0.066819385 0.012184054 1.4636062e-38
0.1704106 0.07103464 0.012970358 1.4637861e-38
0.16991827 0.07519716 0.013893008 1.4179024e-38
0.16870427 0.078526586 0.015318274 1.3535829e-38
0.16742212 0.082266226 0.016997188 1.1785195e-38
0.16832805 0.043850914 0.0081770122 1.5279265e-38
0.16747695 0.047134832 0.0082239509 1.5279624e-38
0.16700643 0.051378667 0.0087502301 1.5004113e-38
0.16688478 0.055551127 0.0092199743 1.4820089e-38
0.16729188 0.059412017 0.0093585849 1.5005196e-38
0.16727227 0.063119784 0.0098322332 1.5373261e-38
0.16733852 0.066852376 0.010238022 1.4913378e-38
0.16693014 0.071047053 0.011092693 1.3900655e-38
0.16609406 0.075109482 0.012286931 1.2981565e-38
0.16530344 0.078576669 0.013370126 1.1875231e-38
0.1644659 0.082655549 0.014567196 8.7420411e-39
0.1640166 0.086181611 0.015055269 8.2821378e-39
0.16447908 0.055927634 0.0076722801 1.5096686e-38
0.16383964 0.059525445 0.0076501966 1.4822257e-38
0.16352528 0.063035101 0.0081445277 1.4454537e-38
0.16345364 0.067025259 0.0090151131 1.4176874e-38
0.16301334 0.071651086 0.0098306239 1.261206e-38
0.16243029 0.075075656 0.01053533 9.9459218e-39
0.16215366 0.078704461 0.011212558 7.914402e-39
0.16205126 0.082802743 0.011949271 7.1736392e-39
0.16242051 0.085852504 0.013466626 7.3583892e-39
0.16057593 0.07461606 0.0088250935 7.9165698e-39
0.15929931 0.079541922 0.008895427 7.7307492e-39
0.15978712 0.082318172 0.0097929239 6.7176819e-39
0.1562438 0.11114863 0.014185399 1.500125e-38
0.15621406 0.11406867 0.01491189 1.8230997e-38
0.15537417 0.11799215 0.015134722 2.2007778e-38
0.15498906 0.12274338 0.015999764 2.2947362e-38
0.15510929 0.12601379 0.016958356 2.341769e-38
0.15385884 0.11148922 0.012026697 1.463285e-38
0.15321404 0.11440906 0.011863261 1.8321032e-38
0.15330845 0.11873315 0.012331754 1.9793275e-38
0.1530959 0.12298544 0.01303646 2.0069158e-38
0.15281934 0.12661073 0.013712794 2.1089798e-38
0.15217763 0.13029449 0.013904899 2.2569974e-38
0.15053326 0.11498641 0.0095979869 1.7951893e-38
0.15111929 0.11910367 0.0094334185 1.8133393e-38
0.15143734 0.12346208 0.0097333193 1.6384546e-38
0.15124983 0.12709729 0.01034081 1.5740269e-38
0.1506623 0.13126595 0.011330515 1.8413985e-38
0.15091717 0.13498247 0.011599272 2.2666799e-38
0.14768213 0.11552016 0.0070167482 1.6199058e-38
0.14831257 0.11959669 0.006600529 1.6846221e-38
0.14862806 0.12383455 0.0065617859 1.5183495e-38
0.14848542 0.12747675 0.0071356595 1.4637518e-38
0.14769667 0.13160495 0.0082749426 1.6391404e-38
0.14813936 0.13496119 0.0085110068 1.9900232e-38
0.14568818 0.11626811 0.00556463 1.5001609e-38
0.14519042 0.11932313 0.0044873953 1.5740249e-38
0.14519703 0.1240801 0.0038590133 1.574025e-38
0.14492136 0.12769809 0.0045344532 1.6017904e-38
0.14506948 0.13200524 0.0049716532 1.6112645e-38
0.14243948 0.12048009 0.0035927594 1.5186705e-38
0.19717765 0.054839671 0.0304057 1.353404e-38
0.20794523 0.06099841 0.04126212 1.6481068e-38
0.21554613 0.023036063 0.041832656 7.7332576e-39
0.19828922 0.0090405941 0.023095042 7.8196868e-39
0.1781531 0.079786196 0.023449868 1.28894e-38
0.17585236 0.076509789 0.019453466 1.2613519e-38
0.21673629 0.052687928 0.05932489 2.1832718e-38
0.21763003 0.01111716 0.049756378 8.657348e-39
0.21518964 0.054352298 0.057832003 2.1281712e-38
0.21382236 0.057731315 0.058116227 2.2197909e-38
0.2133418 0.061876774 0.058634937 2.2658897e-38
0.2126151 0.0649212 0.05953595 2.2658541e-38
0.21387517 0.0088885278 0.046242297 5.3290274e-39
0.21536869 0.011274233 0.047267348 6.9985904e-39
0.21231243 0.062457055 0.057216197 2.1827694e-38
0.21085644 0.066157266 0.057033807 2.1825896e-38
0.20960242 0.068827197 0.05770731 2.2098185e-38
0.21127993 0.0073245317 0.043393224 8.9311085e-39
0.2127246 0.009703353 0.043971062 7.9190781e-39
0.2089802 0.070604965 0.056182832 2.1269846e-38
0.20760447 0.073646024 0.056138694 2.1086554e-38
0.21073407 0.006777361 0.041689157 9.948845e-39
0.20526648 0.074873105 0.053787291 2.0720272e-38
0.20409206 0.077575788 0.053938746 2.0994345e-38
0.20070142 0.079056576 0.051344693 1.8694494e-38
0.19985878 0.082450941 0.052049369 1.8970339e-38
0.19946468 0.085074231 0.052356035 1.9613919e-38
0.19812989 0.080188796 0.048438251 1.7495953e-38
0.1980896 0.08308439 0.049148589 1.8601556e-38
0.19694033 0.086166427 0.050027341 1.9153656e-38
0.19560623 0.083492041 0.046914548 1.6391062e-38
0.19508159 0.086984381 0.04732278 1.8602296e-38
0.1946094 0.08994706 0.04810971 2.0350438e-38
0.19207892 0.086867511 0.044463992 1.6114087e-38
0.1915825 0.090633526 0.045249254 1.8786337e-38
0.18873429 0.087285116 0.041421145 1.4179079e-38
0.18879566 0.092400134 0.042800933 1.7773247e-38
0.18763065 0.093877986 0.042784393 1.8694131e-38
0.18689102 0.087761149 0.039807796 1.4454576e-38
0.18483374 0.095545068 0.040680259 1.7497019e-38
0.19036677 0.0067028552 0.022133917 9.5692921e-39
0.18900746 0.0091881156 0.022194624 1.0863248e-38
0.18849224 0.01350762 0.022126585 1.2059974e-38
0.18780565 0.016584992 0.02227509 1.2978346e-38
0.18238169 0.096060604 0.038340151 1.5840005e-38
0.18653142 0.011481732 0.021153718 1.2611714e-38
0.18629944 0.01452063 0.021720678 1.3071256e-38
0.18558204 0.017680362 0.020743102 1.3806673e-38
0.18438199 0.02093111 0.020872086 1.3989923e-38
0.17968339 0.096528709 0.035843074 1.3351809e-38
0.17894059 0.099088266 0.036643475 1.1142594e-38
0.18228263 0.018637568 0.018161923 1.4450596e-38
0.18219757 0.021187201 0.018705815 1.4266557e-38
0.17587769 0.090010524 0.030014187 1.3353944e-38
0.17626375 0.096429333 0.032910377 1.2431296e-38
0.17565775 0.10060637 0.033943266 8.4650605e-39
0.17410502 0.10316715 0.033142328 6.9881591e-39
0.17907187 0.022800326 0.016213149 1.4819367e-38
0.17872512 0.025077224 0.015915632 1.5001968e-38
0.17405754 0.090183139 0.028344244 1.2798966e-38
0.17337096 0.093260512 0.028492749 1.1874876e-38
0.17349219 0.096760735 0.030035675 1.1048332e-38
0.17325443 0.10157178 0.031229883 9.2886792e-39
0.17658192 0.023286149 0.014831662 1.5369669e-38
0.17580679 0.025937513 0.014187723 1.5461144e-38
0.17514122 0.028630212 0.013457745 1.5736648e-38
0.1714603 0.086332783 0.024902433 1.2706085e-38
0.17133546 0.089204624 0.02568242 1.2151815e-38
0.17063648 0.092927173 0.02652961 1.159935e-38
0.17256498 0.028494135 0.012393504 1.5554769e-38
0.1728788 0.030652121 0.011849046 1.5463642e-38
0.16881126 0.086205333 0.022374004 1.2062142e-38
0.16833791 0.089190483 0.023573309 1.1600432e-38
0.16764826 0.092918664 0.024411291 1.1416784e-38
0.17062914 0.031558588 0.010523289 1.5463289e-38
0.169137 0.034559533 0.0095668733 1.5279988e-38
0.16812247 0.037730187 0.0091975033 1.5371437e-38
0.16460264 0.083850384 0.017800838 9.5721465e-39
0.16598791 0.085979193 0.019795686 1.0768541e-38
0.16543013 0.08878468 0.021253377 1.1599364e-38
0.16562065 0.092809245 0.022472978 1.2703548e-38
0.16652185 0.036028653 0.0081819296 1.5556925e-38
0.16586846 0.038985983 0.0080200434 1.5371785e-38
0.16568506 0.042608812 0.0081622303 1.5279969e-38
0.16494825 0.046766788 0.0085426867 1.5187794e-38
0.16317123 0.086943671 0.018090546 9.7576294e-39
0.16271496 0.089862749 0.018508315 1.196636e-38
0.16171569 0.099515095 0.020527393 1.3621529e-38
0.16111106 0.10209323 0.02006498 1.3343507e-38
0.16062582 0.10563318 0.020382941 1.3252452e-38
0.15959579 0.10913348 0.020666629 1.6571173e-38
0.16357332 0.039604336 0.0067943633 1.5279616e-38
0.16352803 0.042925194 0.0064450502 1.5187082e-38
0.16259605 0.047295257 0.0070990026 1.5279279e-38
0.1621235 0.051360041 0.0078454316 1.5645898e-38
0.16143805 0.054854825 0.0078855157 1.5095611e-38
0.16039276 0.067983434 0.009734422 1.289011e-38
0.16025382 0.069803968 0.01007399 1.2061108e-38
0.158099 0.10265456 0.017732084 1.3803418e-38
0.15803868 0.10604343 0.017974168 1.3435752e-38
0.15810722 0.10976942 0.018380255 1.4819058e-38
0.15765631 0.11337098 0.019196898 2.0728932e-38
0.15630609 0.11668324 0.019518733 2.3231508e-38
0.1561783 0.1232063 0.020035744 2.341769e-38
0.1552102 0.12547398 0.021107703 2.341769e-38
0.1594283 0.055383623 0.0069675148 1.4911939e-38
0.15892619 0.059238017 0.006891638 1.3899953e-38
0.15851873 0.063027725 0.0073237717 1.2426614e-38
0.15849441 0.067223147 0.0081689656 1.0769263e-38
0.15825433 0.071163014 0.0086970031 8.7445284e-39
0.15778995 0.075029388 0.0091033876 7.3612619e-39
0.1575101 0.077893287 0.010139138 7.7300304e-39
0.15551287 0.10372362 0.015771717 1.3983884e-38
0.15513271 0.10626043 0.015603364 1.3894568e-38
0.15567404 0.10909649 0.015914172 1.4079324e-38
0.15505308 0.11845285 0.017980248 2.3317227e-38
0.15476459 0.12171403 0.019017309 2.3324778e-38
0.15429878 0.12556042 0.02027142 2.341769e-38
0.15624923 0.064434126 0.0063116252 1.067598e-38
0.1559 0.068101346 0.0059985816 8.5586924e-39
0.15570658 0.071202561 0.0072002113 6.3485477e-39
0.15526575 0.074889094 0.0076211095 8.0066187e-39
0.15527517 0.077197462 0.0086925328 8.8388456e-39
0.15229547 0.10734733 0.013677388 1.3801644e-38
0.15191931 0.10995461 0.012599051 1.3802375e-38
0.1523065 0.12658575 0.017261714 2.3325854e-38
0.1508615 0.12973507 0.016714364 2.3140749e-38
0.15319014 0.068947881 0.004596442 7.6381809e-39
0.14890224 0.110872 0.01092574 1.3708389e-38
0.14836639 0.11310302 0.010065585 1.5462618e-38
0.1462974 0.11183813 0.0091875792 1.4263329e-38
0.14555871 0.11319973 0.0083776414 1.3895264e-38
0.14272076 0.11604825 0.0055084229 1.3989279e-38
0.14055032 0.11600345 0.0048501194 1.4632479e-38
0.14001232 0.11925565 0.0041353405 1.5094151e-38
0.19793257 0.065896645 0.036885709 1.5375792e-38
0.19996417 0.036772117 0.029115885 1.0495178e-38
0.19944429 0.051478431 0.03174302 1.3809907e-38
0.20577002 0.031687632 0.029746979 8.6527027e-39
0.21273047 0.034207925 0.036330044 9.1133123e-39
0.21317226 0.022129059 0.037973732 5.8918547e-39
0.2156269 0.026387826 0.041976988 6.6276289e-39
0.20340759 0.02534236 0.032222897 9.1122347e-39
0.19560868 0.051414594 0.030239254 1.3073421e-38
0.17592365 0.064803377 0.020051569 1.353151e-38
0.17277396 0.077222168 0.01600942 1.4085418e-38
0.18043151 0.06618844 0.019915402 1.2977635e-38
0.17509693 0.033260137 0.011440128 1.5279618e-38
0.1876747 0.085236222 0.041295975 1.9160149e-38
0.21593478 0.006491527 0.05098024 1.0040298e-38
0.21765387 0.0093343109 0.051315039 9.114722e-39
0.21421614 0.054378971 0.059717655 2.1833814e-38
0.21363816 0.057290152 0.06062454 2.2568512e-38
0.21365866 0.061683521 0.061080277 2.2665379e-38
0.21239346 0.065674469 0.061618716 2.2572828e-38
0.21072334 0.068556175 0.063042313 2.2581453e-38
0.20907333 0.072320029 0.063703299 2.2677975e-38
0.21230137 0.0037772804 0.049030572 9.5825609e-39
0.21362323 0.0067407489 0.048245698 8.4715611e-39
0.20925814 0.069547847 0.059899151 2.2565632e-38
0.20813519 0.073257342 0.060848475 2.2571039e-38
0.20719701 0.07702212 0.06195268 2.2670069e-38
0.2114042 0.0049558431 0.044762164 8.2878943e-39
0.21177912 0.0067678839 0.045466989 8.1020583e-39
0.20546111 0.078220725 0.059029698 2.2288679e-38
0.20312074 0.08033146 0.060166329 2.2200801e-38
0.20330411 0.079209715 0.056204826 2.0811391e-38
0.20186365 0.081651986 0.057459384 2.1642591e-38
0.20047948 0.084123313 0.058657974 2.2663222e-38
0.20140362 0.079766348 0.054208845 2.026144e-38
0.2005496 0.082389355 0.054641366 2.0169978e-38
0.19880748 0.08592464 0.055171937 2.1646195e-38
0.1961413 0.088278428 0.055645227 2.2477737e-38
0.19692135 0.087040216 0.051866293 1.9982007e-38
0.19572389 0.089717478 0.051954299 2.1831298e-38
0.19157788 0.090921685 0.051097482 2.1832735e-38
0.1900844 0.092090651 0.05092451 2.2012821e-38
0.18986875 0.09108527 0.048015296 2.0080318e-38
0.18922132 0.092543736 0.048364729 2.1094826e-38
0.18686646 0.098466694 0.049541026 2.1190236e-38
0.18667868 0.095337138 0.045526415 2.0261824e-38
0.18543023 0.098917529 0.046673685 1.9985581e-38
0.18484569 0.10108669 0.048314422 1.7312996e-38
0.18440381 0.096687645 0.042567581 1.786617e-38
0.18316853 0.09947598 0.042901129 1.6484308e-38
0.18179193 0.10195799 0.044730902 1.1591087e-38
0.18698829 0.0074080974 0.021929324 1.1231312e-38
0.18075758 0.099823862 0.040098459 1.2337648e-38
0.17924106 0.10315602 0.041860968 8.3736369e-39
0.18414831 0.0068573058 0.021907479 1.1784479e-38
0.18404511 0.0094955415 0.021268845 1.2704271e-38
0.18413424 0.013377383 0.02138254 1.3439681e-38
0.18286121 0.015862688 0.021624446 1.3991077e-38
0.17808971 0.10025765 0.037542045 9.7565251e-39
0.17707568 0.10356578 0.038839728 7.9180244e-39
0.17613405 0.10694034 0.039873183 6.6279918e-39
0.18084136 0.01040341 0.021106601 1.3623342e-38
0.18025863 0.013424709 0.020872563 1.4173649e-38
0.18145585 0.016879961 0.020004302 1.4266209e-38
0.17523706 0.1005282 0.034924656 8.284293e-39
0.17483348 0.10395336 0.035895616 6.624064e-39
0.1750145 0.10678659 0.037730336 6.7184064e-39
0.17735165 0.014376894 0.018846065 1.4726108e-38
0.17787927 0.017744809 0.017138034 1.4818675e-38
0.17759201 0.020687506 0.016509503 1.4911577e-38
0.17107713 0.097145781 0.030131847 1.2516241e-38
0.17168725 0.10008043 0.032064021 1.2241822e-38
0.17397755 0.017523438 0.015682042 1.5095604e-38
0.17434573 0.02145803 0.014699012 1.5369663e-38
0.17391324 0.024360046 0.013993204 1.555513e-38
0.16857606 0.097139806 0.029016763 1.648571e-38
0.16705191 0.099725768 0.030641228 2.2390213e-38
0.17092061 0.022788092 0.013097614 1.5924274e-38
0.17158145 0.026543632 0.012760311 1.5462936e-38
0.16615751 0.090360671 0.023743838 1.1691567e-38
0.16624099 0.096886128 0.026091307 1.5197537e-38
0.16470993 0.10053028 0.027604491 2.1377893e-38
0.16297227 0.10437529 0.028558791 2.3142161e-38
0.16356069 0.10817611 0.028930485 2.2863793e-38
0.16457802 0.11105689 0.027604491 2.341769e-38
0.16782695 0.022868797 0.012068093 1.5557295e-38
0.16764161 0.026606932 0.011461735 1.5555496e-38
0.16765141 0.030412301 0.010706961 1.5463299e-38
0.16393453 0.090197861 0.021957129 1.2703555e-38
0.1635797 0.093264088 0.022065789 1.3530068e-38
0.1638208 0.09722966 0.023317724 1.3346055e-38
0.1632396 0.10142562 0.024320573 1.5463005e-38
0.16235024 0.10418284 0.025407016 1.9615073e-38
0.16117221 0.10868233 0.027177513 2.341733e-38
0.16110098 0.11177155 0.026843667 2.341769e-38
0.16495505 0.0276943 0.010609686 1.5646998e-38
0.16510087 0.030824676 0.0094592869 1.5279973e-38
0.16478586 0.034499198 0.0083646476 1.5189223e-38
0.16080558 0.089014366 0.020311326 1.1414278e-38
0.16097766 0.093111977 0.020351917 1.3071252e-38
0.16073817 0.097547054 0.020603508 1.352935e-38
0.16166991 0.10166378 0.022437453 1.3528263e-38
0.16094667 0.10559493 0.023121506 1.6104805e-38
0.15981883 0.10908103 0.02348426 2.1192811e-38
0.15831119 0.11246746 0.024240077 2.3325494e-38
0.15792829 0.11473288 0.025552124 2.341769e-38
0.16146535 0.031667769 0.0083491504 1.5279981e-38
0.16196716 0.034499586 0.0072821677 1.5372541e-38
0.16135848 0.038515583 0.0064235628 1.5278551e-38
0.16069889 0.043138161 0.0063976943 1.5278909e-38
0.15688896 0.093619898 0.020048738 1.1871639e-38
0.15706795 0.09773317 0.018611372 1.3342454e-38
0.15674204 0.10092251 0.017603636 1.3986724e-38
0.15567356 0.11704372 0.021961629 2.341769e-38
0.15480393 0.12126619 0.02187416 2.341769e-38
0.15839839 0.034872636 0.0062883198 1.5094515e-38
0.15772593 0.038913667 0.0053012967 1.5093082e-38
0.15830785 0.043236688 0.0053145289 1.5277484e-38
0.15828866 0.047479346 0.005715102 1.5278549e-38
0.15757751 0.050981894 0.0067270696 1.5186719e-38
0.15714985 0.054577857 0.006570071 1.4726829e-38
0.15734828 0.057354957 0.0069154203 1.4358053e-38
0.15363818 0.098437339 0.017112941 1.3339945e-38
0.15381557 0.10190873 0.015900612 1.3617245e-38
0.15457106 0.044463351 0.005161345 1.5001604e-38
0.15438432 0.046909377 0.0056176484 1.518528e-38
0.15410429 0.05057846 0.0063021481 1.4909776e-38
0.15344191 0.054801747 0.0063035786 1.4357691e-38
0.1541906 0.058526501 0.0056416094 1.2978714e-38
0.15409225 0.062695786 0.0059274137 1.030935e-38
0.1535148 0.06647341 0.0061267316 8.4665024e-39
0.15349638 0.071014985 0.0068170726 6.531483e-39
0.15206712 0.074466422 0.0077606142 9.5746226e-39
0.15311247 0.078600243 0.0098135471 8.1946141e-39
0.15045887 0.10263669 0.014690727 1.3526849e-38
0.15106505 0.10551707 0.013722837 1.3893827e-38
0.15097982 0.05573149 0.0046903789 1.4357675e-38
0.1502369 0.058673918 0.0039122403 1.1041526e-38
0.15112126 0.063189536 0.0040823519 9.0178769e-39
0.15089107 0.067242503 0.0044362843 8.9274735e-39
0.15042967 0.070954233 0.0054657161 1.0954003e-38
0.14955181 0.073404133 0.0068639815 1.1879868e-38
0.14743304 0.10655969 0.012854159 1.3802353e-38
0.1475721 0.10891388 0.011729628 1.3432165e-38
0.14769602 0.05998899 0.0026971996 9.4752733e-39
0.14692706 0.063473463 0.0025626719 1.0768879e-38
0.14719826 0.06702821 0.0032488406 1.2705705e-38
0.14739269 0.070653573 0.0040492415 1.3718429e-38
0.14421177 0.11042789 0.010120273 1.3250615e-38
0.14039123 0.11096876 0.0089908838 1.2879614e-38
0.14140195 0.11382776 0.0073267817 1.3433925e-38
0.13852608 0.11155039 0.0073840618 1.3063274e-38
0.13796014 0.1141995 0.006603688 1.417113e-38
0.13758069 0.1180256 0.0046721399 1.5279269e-38
0.20107126 0.059573501 0.035824031 1.574386e-38
0.21486929 0.025129408 0.036897302 7.088593e-39
0.21432036 0.035233393 0.038413137 8.7473941e-39
0.21522391 0.032163575 0.042682737 8.1031219e-39
0.21338254 0.043420598 0.042963773 1.2983388e-38
0.21064132 0.04945606 0.04401347 1.3996815e-38
0.20357078 0.060935736 0.043259382 1.0771774e-38
0.19446144 0.031667903 0.024142712 1.2886505e-38
0.16812247 0.037730187 0.0091975033 1.5371437e-38
0.16970628 0.083278611 0.020299226 1.7126802e-38
0.17396489 0.050809339 0.01252076 1.4359473e-38
0.17368886 0.062939912 0.014018446 1.3898497e-38
0.17109483 0.060705587 0.015139252 1.3993214e-38
0.17186004 0.082812771 0.024261773 1.6850928e-38
0.17265329 0.099634707 0.030046493 1.7307957e-38
0.16117221 0.10868233 0.027177513 2.341733e-38
0.20761877 0.076111048 0.066667825 2.3142183e-38
0.20625782 0.078743875 0.066904992 2.3142183e-38
0.20636743 0.0781077 0.064047962 2.2675816e-38
0.20461676 0.079939112 0.064869136 2.2769445e-38
0.20288926 0.08112894 0.062251121 2.2667194e-38
0.20060211 0.087631255 0.063594311 2.2300184e-38
0.19991618 0.085472092 0.060153395 2.2673633e-38
0.19848007 0.088747397 0.061580837 2.2393467e-38
0.19887131 0.091641739 0.063279986 2.2490696e-38
0.19633925 0.089434281 0.058343858 2.2663213e-38
0.19498765 0.092881292 0.059941858 2.2387708e-38
0.19381112 0.090867803 0.056449145 2.2659969e-38
0.19232887 0.093350515 0.056459844 2.2476651e-38
0.19138545 0.096254826 0.057420224 2.2107847e-38
0.18968236 0.093640566 0.053361028 2.2569208e-38
0.18852362 0.09756206 0.054751366 2.2201514e-38
0.18725359 0.10006194 0.054511786 2.164153e-38
0.18717426 0.0944594 0.05050388 2.2014957e-38
0.18671554 0.098044083 0.051561207 2.1367442e-38
0.18548134 0.1008241 0.052480072 2.0170336e-38
0.18336481 0.10230023 0.049829185 1.5191074e-38
0.1817205 0.10465245 0.050485879 1.1230617e-38
0.18104863 0.10320804 0.046683669 9.2047821e-39
0.17938048 0.10495571 0.048359782 8.5601484e-39
0.18130136 0.0063072294 0.021879226 1.2336568e-38
0.17856735 0.0085238665 0.021507472 1.3438955e-38
0.1781998 0.011736616 0.020826548 1.4266199e-38
0.17535335 0.010320291 0.020109117 1.4265849e-38
0.17564559 0.012602746 0.019296676 1.4542074e-38
0.17269051 0.013411224 0.01700145 1.4818646e-38
0.17173743 0.016131774 0.015408725 1.5097028e-38
0.16566789 0.1008404 0.032514602 2.0534766e-38
0.16493613 0.10305288 0.032862961 1.8506708e-38
0.16944665 0.014253542 0.015281618 1.4911923e-38
0.16879451 0.017807856 0.014068097 1.5371483e-38
0.16323686 0.10138722 0.030831724 2.3415151e-38
0.1630581 0.10329641 0.030807287 2.3320391e-38
0.16574749 0.018906564 0.012440294 1.5278912e-38
0.16541368 0.021929666 0.011788636 1.5648049e-38
0.15987712 0.10525135 0.027616829 2.1837102e-38
0.15949333 0.10687368 0.027325124 2.2489648e-38
0.16265333 0.022136405 0.011198997 1.5371832e-38
0.16259426 0.025834605 0.01052621 1.5555163e-38
0.16226149 0.028785393 0.009752214 1.5646555e-38
0.15758741 0.090030029 0.021176785 1.1135865e-38
0.15677649 0.11260345 0.026246578 2.341769e-38
0.15956706 0.029585287 0.0086190403 1.5187777e-38
0.15494508 0.092571601 0.020043433 1.1042952e-38
0.15445811 0.095190912 0.019562632 1.2328314e-38
0.15329939 0.11645719 0.025830984 2.341769e-38
0.15637273 0.029973105 0.0066863596 1.491011e-38
0.15688276 0.033551604 0.0059169829 1.4726438e-38
0.15139776 0.09400095 0.01870206 1.1409577e-38
0.15159905 0.097109169 0.017644674 1.2880762e-38
0.15409291 0.031242445 0.0054880679 1.4632081e-38
0.15373498 0.035326883 0.0056472719 1.4724654e-38
0.15291518 0.038758084 0.0053224862 1.4725377e-38
0.15319705 0.042706117 0.0050904453 1.4725724e-38
0.15183634 0.046622142 0.0052400231 1.490979e-38
0.15168607 0.05034478 0.0058276355 1.4633548e-38
0.15157574 0.053308666 0.006023556 1.4356971e-38
0.1494779 0.076814801 0.010122031 6.7212874e-39
0.14921707 0.095131084 0.017405868 1.2695655e-38
0.14853173 0.09769623 0.01622501 1.3157697e-38
0.14740431 0.10094924 0.015337914 1.3525046e-38
0.15048516 0.042562202 0.005014956 1.4542425e-38
0.14928263 0.046335444 0.0048572719 1.4543155e-38
0.14844197 0.050297976 0.004889518 1.4449495e-38
0.14877558 0.054018751 0.0044430196 1.3989603e-38
0.14666885 0.075022191 0.0087600648 7.1822404e-39
0.14680576 0.077370003 0.0091462433 3.037086e-39
0.14589608 0.098698646 0.015199512 1.3616853e-38
0.14454162 0.10192658 0.014233351 1.3710153e-38
0.14462984 0.10495206 0.01329264 1.3803066e-38
0.14522254 0.051599458 0.0023929179 1.3713377e-38
0.14556432 0.054897293 0.0027683079 1.1783034e-38
0.14593226 0.05860205 0.0022750199 1.0490096e-38
0.14471495 0.067538291 0.0032378733 1.4365557e-38
0.1433 0.070462555 0.005107075 1.0771015e-38
0.14441115 0.073938295 0.0071220696 6.9935485e-39
0.14190269 0.10616402 0.012434751 1.3987089e-38
0.14204258 0.10852864 0.011313707 1.3617959e-38
0.14300495 0.056688696 0.0016190708 1.1137642e-38
0.14315873 0.059668139 0.0014854372 1.1967037e-38
0.14312017 0.063170642 0.001725167 1.3900268e-38
0.1422227 0.066406354 0.0028344095 1.4083564e-38
0.14206731 0.068974987 0.003910929 1.0767426e-38
0.13869905 0.1091298 0.010066837 1.2879288e-38
0.13986611 0.061865345 0 1.3258478e-38
0.13584441 0.11061934 0.0077625811 1.3156589e-38
0.1355204 0.11364371 0.0068410337 1.4355515e-38
0.13289106 0.11131622 0.0062091053 1.3713028e-38
0.20492062 0.051383376 0.03684184 1.1877396e-38
0.20599401 0.036073357 0.031971723 9.5728527e-39
0.20614636 0.014244139 0.026809484 6.2581177e-39
0.20580786 0.025929615 0.02858147 7.7307338e-39
0.20541978 0.039195806 0.03093949 1.2428752e-38
0.20846802 0.040499851 0.038915545 1.1969597e-38
0.20243728 0.057145476 0.03921923 1.0128196e-38
0.1973924 0.072160423 0.041208595 1.2430218e-38
0.17082193 0.081940725 0.020700991 1.5188887e-38
0.19651884 0.060358077 0.03479144 1.344185e-38
0.20328981 0.080881998 0.067457438 2.323257e-38
0.20217335 0.083243355 0.067947984 2.2491063e-38
0.20036498 0.086028188 0.069177538 2.2303443e-38
0.19941312 0.088233486 0.0662646 2.2299486e-38
0.19794941 0.091308489 0.066519111 2.2493932e-38
0.19551188 0.092475861 0.064699382 2.2395626e-38
0.1940105 0.094542339 0.065741152 2.2488175e-38
0.19403276 0.093994334 0.062125653 2.2301266e-38
0.19195068 0.095789492 0.063224405 2.2391666e-38
0.18977997 0.09735246 0.059985787 2.2014975e-38
0.18815035 0.099734083 0.060863465 2.2293734e-38
0.18705425 0.10244055 0.061928332 2.2578594e-38
0.18606216 0.10074477 0.058318764 2.1737324e-38
0.18434289 0.1038703 0.05921945 1.7678567e-38
0.18305779 0.10650659 0.059214294 1.2612816e-38
0.18383843 0.10193048 0.054922819 1.8233882e-38
0.18268663 0.10454293 0.055871964 1.3625873e-38
0.18127608 0.1078463 0.057357967 1.2524551e-38
0.18083817 0.10535531 0.053098053 1.141787e-38
0.17905572 0.10836886 0.054527491 1.3720954e-38
0.17782462 0.10610849 0.050686866 1.0224011e-38
0.17622352 0.10821399 0.052218914 1.2711459e-38
0.17493498 0.10594858 0.04862231 1.0410166e-38
0.17331105 0.10743094 0.050271392 1.050201e-38
0.1754868 0.0064419061 0.022028297 1.3255283e-38
0.17539278 0.0076742619 0.022258192 1.3714825e-38
0.17239735 0.0060545504 0.021347791 1.3530082e-38
0.17267692 0.0084768534 0.020839214 1.3989266e-38
0.16862121 0.00586842 0.019606262 1.3806674e-38
0.16984653 0.008973226 0.018922538 1.4541353e-38
0.16676471 0.006044507 0.017902881 1.399321e-38
0.16669238 0.0091674328 0.01689449 1.463536e-38
0.16707075 0.012541622 0.015676469 1.4819383e-38
0.16321284 0.0098617375 0.015194029 1.4177965e-38
0.16409379 0.013239846 0.01445055 1.4544957e-38
0.16370839 0.016530856 0.01354003 1.527784e-38
0.16091168 0.010286584 0.013485551 1.3625513e-38
0.16011757 0.013284504 0.013112754 1.4453123e-38
0.16056639 0.016962305 0.012488991 1.5003054e-38
0.15973049 0.020990774 0.011294812 1.5095224e-38
0.15670913 0.021119401 0.010151595 1.4544224e-38
0.15740865 0.024550512 0.0096779764 1.4911576e-38
0.15053582 0.09021081 0.022968322 1.0215348e-38
0.15309983 0.021465302 0.0084913075 1.4082894e-38
0.15467554 0.025600657 0.0077242851 1.4726101e-38
0.14841717 0.091323271 0.020794004 1.0119911e-38
0.1506843 0.023546562 0.0072778165 1.4265137e-38
0.1514042 0.026812285 0.0067029893 1.4632126e-38
0.15114081 0.030963764 0.006549418 1.4540267e-38
0.15008026 0.033959925 0.0062545836 1.4724651e-38
0.14467072 0.078193024 0.015735358 5.7078614e-39
0.14452904 0.080049962 0.01608178 6.5372171e-39
0.14558631 0.093253836 0.018493026 1.2331519e-38
0.14748698 0.03448002 0.0063923895 1.4633886e-38
0.14706153 0.037933692 0.005563885 1.4174368e-38
0.14740497 0.042078346 0.005017072 1.4358382e-38
0.14679164 0.045866549 0.0051851869 1.4451661e-38
0.14327836 0.078325078 0.014457792 5.7989696e-39
0.14330703 0.079961017 0.014907658 6.7201832e-39
0.14249891 0.094059169 0.017323762 1.3528246e-38
0.14256716 0.096921548 0.016031057 1.3619008e-38
0.14402825 0.038311347 0.0048233569 1.4909762e-38
0.14371622 0.041802108 0.0048723817 1.4449839e-38
0.14366823 0.045699373 0.0046459734 1.42669e-38
0.14444727 0.049715593 0.0041462779 1.4173272e-38
0.1425311 0.053611264 0.0031731427 1.178089e-38
0.14135504 0.074171737 0.007378906 6.1591552e-39
0.14120615 0.076982319 0.0079648793 7.5427917e-39
0.13969636 0.098101065 0.015262395 1.380448e-38
0.13943797 0.10109745 0.014328927 1.4078553e-38
0.13909 0.10471044 0.013137281 1.4262235e-38
0.14058894 0.050833866 0.0037012994 1.2885776e-38
0.14018333 0.054472312 0.0025820434 1.1500346e-38
0.1396119 0.058469996 0.0019584596 1.2426947e-38
0.13933152 0.062478796 0.0024507642 1.4085373e-38
0.1385951 0.066003054 0.0035997629 1.1041493e-38
0.1391905 0.070234507 0.0052541494 7.6298922e-39
0.14005518 0.074032858 0.0061184466 8.0952326e-39
0.13637787 0.10233055 0.01416111 1.4355148e-38
0.13622016 0.10542914 0.012416869 1.4077128e-38
0.13562065 0.10809809 0.010744542 1.3062618e-38
0.13710785 0.055505708 0.001699239 1.2515184e-38
0.13693899 0.058895543 0.00049397349 1.3164103e-38
0.13713622 0.062310889 0.00089856982 1.270458e-38
0.1366064 0.065762311 0.0035280883 1.0121706e-38
0.13329428 0.10582638 0.011460751 1.3893095e-38
0.1346966 0.10818572 0.0098967254 1.3339923e-38
0.12872976 0.13009396 0.014131457 1.3624441e-38
0.12863529 0.13133192 0.014362365 1.3716274e-38
0.12780148 0.130182 0.013279706 1.2334795e-38
0.20313784 0.029979512 0.028187543 9.7579629e-39
0.20562676 0.048805192 0.040477902 1.1786639e-38
0.19092581 0.030186936 0.02189514 1.2978342e-38
0.19128323 0.036544383 0.022321641 1.297835e-38
0.17035371 0.071017072 0.013015836 1.4453465e-38
0.17617616 0.078184381 0.025215566 1.5376511e-38
0.19164205 0.095169291 0.069030732 2.2770523e-38
0.19018185 0.096693322 0.066185087 2.2674017e-38
0.188254 0.098178312 0.066989511 2.2582173e-38
0.18669021 0.099535838 0.065028429 2.2391319e-38
0.18505043 0.10322914 0.064997524 2.3040281e-38
0.18388659 0.10541062 0.065303594 2.3391442e-38
0.18415019 0.10367303 0.062656343 2.0451985e-38
0.18248737 0.10697675 0.063302904 1.5932234e-38
0.18197563 0.10938403 0.064064264 1.7867958e-38
0.18089384 0.10817409 0.060868621 1.3350392e-38
0.17908299 0.1100715 0.060585022 1.777723e-38
0.17560941 0.11095636 0.058240414 1.7500616e-38
0.17239234 0.10909887 0.054729819 1.1516888e-38
0.17332897 0.11012113 0.056575328 1.4552504e-38
0.17052653 0.10595363 0.050062358 8.3811731e-39
0.17069399 0.10852476 0.051350683 7.5492615e-39
0.16838449 0.10590058 0.049428791 6.7184176e-39
0.16752389 0.10800242 0.050279588 6.6280128e-39
0.1633054 0.0067889094 0.017632276 1.4727187e-38
0.16031075 0.0070783645 0.016563654 1.3717343e-38
0.15722358 0.0087478906 0.014739305 1.3164539e-38
0.15790027 0.01099962 0.013628751 1.3719134e-38
0.1483916 0.11495896 0.034333855 2.341769e-38
0.15573931 0.010803804 0.012940407 1.334893e-38
0.15512747 0.013595253 0.012153447 1.3716632e-38
0.15472806 0.016231313 0.011992425 1.4177255e-38
0.15158528 0.013814017 0.010736972 1.2612797e-38
0.15237564 0.017115355 0.010284394 1.389994e-38
0.14610821 0.08727105 0.023629338 8.3739662e-39
0.14962262 0.018173054 0.0090827048 1.3256002e-38
0.1485948 0.021266058 0.0083546937 1.3623356e-38
0.14806014 0.024876311 0.0079452693 1.4356628e-38
0.14731038 0.028645545 0.0082129538 1.4816503e-38
0.14311057 0.088247672 0.021834403 8.6491168e-39
0.14205927 0.091395453 0.019483 1.1593592e-38
0.14515102 0.02500774 0.0080346763 1.4266224e-38
0.14461744 0.028917566 0.0079832971 1.4449514e-38
0.14361537 0.032764554 0.0071946681 1.435836e-38
0.1403085 0.078001663 0.014372349 5.7031754e-39
0.14019787 0.079967052 0.01524207 7.180783e-39
0.14058203 0.089734808 0.020458251 1.0029521e-38
0.13863915 0.092119917 0.018545359 1.2884689e-38
0.14067954 0.033529773 0.0057918131 1.4174339e-38
0.14102447 0.037072435 0.0051682889 1.4357312e-38
0.14052546 0.04124631 0.0050778985 1.4357309e-38
0.13818204 0.078102469 0.012861222 6.8106146e-39
0.1384449 0.079727694 0.014460832 7.1804495e-39
0.13626653 0.093121886 0.016802132 1.3160583e-38
0.1362164 0.096285403 0.016174644 1.3804495e-38
0.13822716 0.035555735 0.0042381287 1.398887e-38
0.13856369 0.038237289 0.0043161213 1.408037e-38
0.13783354 0.042235866 0.0047548711 1.3989275e-38
0.13752794 0.046062082 0.0047219992 1.3806288e-38
0.13676125 0.049504504 0.004365027 1.2699951e-38
0.13375986 0.094091073 0.015157372 1.3620475e-38
0.133003 0.096851304 0.014957935 1.408036e-38
0.13304394 0.10045569 0.014729649 1.4264392e-38
0.13202685 0.1031758 0.01447463 1.4354438e-38
0.12894565 0.1328766 0.020645738 1.9434919e-38
0.13457006 0.047030345 0.0037585199 1.3067997e-38
0.13452053 0.049988627 0.003777355 1.2329016e-38
0.13420415 0.053054839 0.0032232702 1.2515547e-38
0.13236135 0.062403485 0.0042527616 1.177977e-38
0.13038796 0.10182935 0.013980776 1.4173653e-38
0.1295312 0.10447195 0.013390541 1.3987449e-38
0.12814009 0.10698821 0.013196409 1.3618309e-38
0.12679833 0.13266811 0.018568963 1.5284338e-38
0.130723 0.060995772 0.0037435591 1.2334002e-38
0.1271587 0.10769948 0.012455702 1.3618313e-38
0.12424546 0.12157638 0.013297588 1.1775517e-38
0.12462234 0.12505685 0.013853103 1.1502483e-38
0.12541217 0.12838456 0.013919294 1.1599715e-38
0.12448716 0.1320951 0.016043931 1.3072698e-38
0.12331158 0.12166495 0.012440771 1.1775862e-38
0.12281674 0.12511203 0.012865454 1.0488687e-38
0.1221261 0.12865342 0.012663931 1.10426e-38
0.12161732 0.13171697 0.013442457 1.1322074e-38
0.20309198 0.024307653 0.025833338 8.4665052e-39
0.20564222 0.038419098 0.033546656 1.3165603e-38
0.20818242 0.050284281 0.042355716 1.5837135e-38
0.18900746 0.0091881156 0.022194624 1.0863248e-38
0.20340759 0.02534236 0.032222897 9.1122347e-39
0.18665212 0.099303707 0.069475889 2.2863795e-38
0.1845085 0.10236271 0.067897588 2.313715e-38
0.18312135 0.10627567 0.068126351 2.2206934e-38
0.18174005 0.10984838 0.069243461 2.1279576e-38
0.1793232 0.11118288 0.066290855 2.1744118e-38
0.17896718 0.11404936 0.065697759 2.2110741e-38
0.17720768 0.11182973 0.0638161 2.1100548e-38
0.17442682 0.11261976 0.06105119 1.9899083e-38
0.17428389 0.11449351 0.061400741 1.98987e-38
0.17060745 0.11092465 0.058133364 1.3633436e-38
0.16914061 0.10878067 0.055079162 7.6468507e-39
0.16798502 0.11025475 0.057167351 9.580417e-39
0.1648404 0.10868724 0.053799868 7.3666274e-39
0.15538657 0.10118794 0.042956054 1.2966426e-38
0.15498441 0.10340279 0.043149501 1.500297e-38
0.15507001 0.10226096 0.040139318 2.1637772e-38
0.15338171 0.10480487 0.041128516 2.2200738e-38
0.14891732 0.10957542 0.039029449 2.341769e-38
0.14863044 0.11333412 0.039730579 2.3417689e-38
0.15531331 0.0055151433 0.016764045 1.2520605e-38
0.15504175 0.0071873516 0.015542448 1.2613172e-38
0.14793009 0.11029096 0.038284332 2.341769e-38
0.14764315 0.11400072 0.037320793 2.3417687e-38
0.14608985 0.11684555 0.037312835 2.332585e-38
0.15225214 0.0085764378 0.013673156 1.205928e-38
0.14389628 0.11912478 0.035835534 2.3233297e-38
0.14233947 0.12151164 0.035218686 2.3232932e-38
0.14891106 0.0088460445 0.011993229 1.0862536e-38
0.14869064 0.011790425 0.01121518 1.1782685e-38
0.14838141 0.015259758 0.011354417 1.3163813e-38
0.14311379 0.079948887 0.02450791 6.1605579e-39
0.14365131 0.082478985 0.025202185 6.6204822e-39
0.14044547 0.1228172 0.034470797 2.3417684e-38
0.13968891 0.12662046 0.034740895 2.3417689e-38
0.14686245 0.012525246 0.010614783 1.1782321e-38
0.14532727 0.016241744 0.010688275 1.2795391e-38
0.14528543 0.019273713 0.0094752014 1.3074492e-38
0.14076859 0.080171287 0.022356182 5.7013566e-39
0.14074224 0.083214983 0.022609651 6.8073706e-39
0.14013743 0.086728737 0.022058368 8.3750424e-39
0.14288843 0.01748164 0.0095498562 1.2240426e-38
0.14264232 0.020532891 0.0087086856 1.3070544e-38
0.14232832 0.02451469 0.0080440044 1.408253e-38
0.14185578 0.027659819 0.0084116757 1.4357666e-38
0.13821703 0.08051227 0.019574612 7.2715521e-39
0.13784689 0.083602041 0.020257443 7.9151419e-39
0.13796502 0.087983891 0.020511061 9.6614681e-39
0.13878 0.022431985 0.0069589317 1.3252416e-38
0.13938892 0.025034055 0.0068071187 1.362045e-38
0.13972831 0.028811917 0.0070160031 1.3897036e-38
0.13498062 0.080035135 0.016588986 8.1913728e-39
0.13447905 0.083744064 0.018244237 9.296626e-39
0.13456708 0.088210866 0.018591851 1.113731e-38
0.13423151 0.091009215 0.017600924 1.2703191e-38
0.13741732 0.026463002 0.0053191185 1.4172195e-38
0.13605779 0.029483214 0.0056177676 1.3988162e-38
0.13623244 0.033322051 0.0055095255 1.4081784e-38
0.13472962 0.037274733 0.0055813789 1.3987819e-38
0.1343708 0.041211933 0.0055617988 1.3712316e-38
0.13410753 0.043896198 0.0053085685 1.3896695e-38
0.13254064 0.077376947 0.013183981 9.385991e-39
0.13259774 0.079771027 0.014244884 1.0031348e-38
0.1319651 0.082149789 0.015040368 1.0863237e-38
0.13117796 0.088642806 0.016709 1.2426244e-38
0.13182384 0.092287391 0.015837997 1.3346044e-38
0.13015115 0.095736623 0.014978915 1.380557e-38
0.12841296 0.13226421 0.02417931 2.0995768e-38
0.12733763 0.13440058 0.023951381 1.6662222e-38
0.12628901 0.13722 0.024857134 1.5839998e-38
0.13319021 0.034571216 0.00483042 1.3898154e-38
0.132999 0.037077025 0.0052978098 1.3804151e-38
0.13259083 0.041144431 0.0047994554 1.3803423e-38
0.13156968 0.045126215 0.004234314 1.3344571e-38
0.13130987 0.048873976 0.003959626 1.2698149e-38
0.1307255 0.051657706 0.0041284263 1.2978681e-38
0.12986755 0.062900186 0.0062256753 1.1410635e-38
0.12955248 0.065465719 0.0074306726 1.0029155e-38
0.12963849 0.068912521 0.0084956586 9.2004745e-39
0.13038343 0.072359011 0.011020094 1.0305382e-38
0.13022113 0.076516807 0.011941701 1.0766758e-38
0.12892598 0.079753608 0.012490004 1.2153623e-38
0.12889856 0.082658485 0.013214916 1.242767e-38
0.12870175 0.089310929 0.014748722 1.2794322e-38
0.12834662 0.092301592 0.014138728 1.3254571e-38
0.12829745 0.09639512 0.014101833 1.3622263e-38
0.12756509 0.10014321 0.01461336 1.3621914e-38
0.12682968 0.10319722 0.01424399 1.3805221e-38
0.12546551 0.13276471 0.020134151 1.5832502e-38
0.12524074 0.13528076 0.021208197 1.5468717e-38
0.12444639 0.13801932 0.02272889 1.5008069e-38
0.1290192 0.045713797 0.0030819178 1.3345251e-38
0.12872142 0.049247012 0.0033648908 1.3159842e-38
0.12796015 0.052933052 0.0034255683 1.35315e-38
0.1277169 0.055948511 0.0038010776 1.3622213e-38
0.12857801 0.062240049 0.0055392683 1.1873397e-38
0.1271376 0.064997211 0.0069916844 1.1224804e-38
0.12707502 0.068503022 0.0074893534 1.1318798e-38
0.12531602 0.092356578 0.012346417 1.3438243e-38
0.12521678 0.096275195 0.01326564 1.3438228e-38
0.12485516 0.099792227 0.013833851 1.3254898e-38
0.12426192 0.10423493 0.013584495 1.3989254e-38
0.12292886 0.10719423 0.013233215 1.3804508e-38
