# .PCD v0.7 - Point Cloud Data file format
VERSION 0.7
FIELDS x y z rgb
SIZE 4 4 4 4
TYPE F F F F
COUNT 1 1 1 1
WIDTH 990
HEIGHT 1
VIEWPOINT 0 0 0 0 1 0 0
POINTS 990
DATA ascii
0.15415597 0.099610239 0.035262048 7.9144076e-39
0.15364558 0.10209975 0.036382079 7.5470432e-39
0.14777029 0.128759 0.047899902 1.3895997e-38
0.14683121 0.13214117 0.049135745 1.8136277e-38
0.14542103 0.13593826 0.050109088 2.2384482e-38
0.14479226 0.14014603 0.052274466 2.3324778e-38
0.14456046 0.14241759 0.053568661 2.341769e-38
0.14282525 0.14888439 0.056001753 2.3417684e-38
0.14496589 0.12979141 0.045347303 1.4448058e-38
0.1444304 0.13298282 0.04617402 1.813519e-38
0.14428407 0.13715878 0.047524065 2.080636e-38
0.14338011 0.14097238 0.049331307 2.1919162e-38
0.14225304 0.14408129 0.051094592 2.3129956e-38
0.14141244 0.14706501 0.052384257 2.332549e-38
0.14050424 0.15053028 0.052752167 2.2849026e-38
0.14280403 0.13101801 0.043676019 1.4816833e-38
0.14202583 0.13369657 0.04349342 1.7952243e-38
0.14278126 0.13863844 0.043971121 1.8686559e-38
0.14246035 0.14216591 0.045532495 1.7673155e-38
0.14121985 0.14571299 0.046904862 1.7308675e-38
0.13954306 0.14857347 0.049613684 2.053486e-38
0.13897884 0.15143582 0.051040113 2.3214952e-38
0.14000297 0.13484761 0.040890992 1.6571098e-38
0.14026117 0.13867226 0.040788829 1.7122463e-38
0.14078921 0.1422029 0.042305291 1.5554797e-38
0.13910991 0.14692104 0.043599427 1.4178341e-38
0.13795781 0.15023845 0.046014458 1.7218292e-38
0.13661188 0.13544178 0.03867504 1.5276768e-38
0.13711119 0.13990858 0.038127184 1.6107592e-38
0.13628185 0.14434388 0.038534015 1.6383456e-38
0.13622409 0.14755245 0.040886223 1.6017922e-38
0.13567281 0.15128304 0.042602956 1.6757283e-38
0.13436806 0.13622341 0.037443042 1.3621924e-38
0.13344228 0.1402604 0.03683275 1.500375e-38
0.13365567 0.14434959 0.037350297 1.4174718e-38
0.13310301 0.14748539 0.038889766 1.436018e-38
0.19740784 0.059962779 0.045217037 1.3438957e-38
0.19392037 0.070474952 0.047462165 1.3348211e-38
0.2178663 0.042232573 0.059702039 5.8925862e-39
0.21664494 0.051149309 0.063715428 5.8929463e-39
0.19981086 0.068012238 0.056054831 1.2153981e-38
0.21737114 0.030884624 0.061508358 8.7506437e-39
0.21699381 0.028966248 0.063672632 8.7466976e-39
0.21442866 0.026129663 0.059014797 9.1179969e-39
0.21225876 0.024019212 0.055036634 9.2073367e-39
0.21289182 0.025701851 0.056090921 8.3768571e-39
0.20964065 0.023424327 0.051580369 9.8552116e-39
0.20699728 0.020955801 0.047084987 1.0503447e-38
0.20758533 0.023753285 0.04899469 1.0865751e-38
0.20487297 0.015950054 0.041726798 1.2434516e-38
0.20517546 0.018476069 0.042696983 1.3082409e-38
0.20585001 0.021192729 0.044791788 1.1972452e-38
0.2039347 0.015711099 0.039125115 9.6686735e-39
0.1925211 0.018107295 0.027156442 5.9808413e-39
0.19018584 0.019414902 0.026460379 6.9924723e-39
0.18989724 0.022192806 0.027476549 7.8179212e-39
0.18924451 0.023975432 0.029065281 8.6476819e-39
0.1864627 0.035925597 0.032374173 1.3345315e-38
0.17176884 0.11331484 0.068557531 1.5558037e-38
0.17008561 0.11547807 0.068718851 1.0498067e-38
0.16880217 0.1176621 0.069779962 8.2839426e-39
0.18414047 0.036834151 0.031979024 1.3988891e-38
0.18150383 0.040732205 0.030753791 1.4633906e-38
0.16762877 0.11748528 0.066610932 8.0091452e-39
0.16715646 0.1190623 0.067988008 7.2719445e-39
0.1668199 0.12131259 0.069986582 6.5333215e-39
0.17946181 0.042056084 0.029457092 1.4727179e-38
0.17900437 0.044347793 0.029829919 1.472681e-38
0.16410333 0.11465186 0.060557604 1.2240411e-38
0.16419417 0.1162115 0.06173718 1.0952543e-38
0.17716902 0.042754173 0.027942181 1.5187428e-38
0.17616808 0.045410216 0.027885497 1.5186712e-38
0.17527711 0.048136532 0.027764678 1.5280012e-38
0.16298932 0.10806844 0.054728538 1.1969227e-38
0.16242045 0.11084306 0.055976868 1.0404784e-38
0.16243511 0.11349165 0.058658242 1.2332576e-38
0.16201973 0.11669374 0.060659945 1.6208044e-38
0.17437819 0.046422869 0.026379585 1.5464723e-38
0.17248189 0.049612343 0.026789308 1.5462953e-38
0.17200136 0.052096725 0.026679218 1.537004e-38
0.16152251 0.10420713 0.050363064 1.2337638e-38
0.16112411 0.10781902 0.052386343 1.1784479e-38
0.16054755 0.11056957 0.054169625 1.1599733e-38
0.1587106 0.11272344 0.054635972 1.2800342e-38
0.16951379 0.052008808 0.025405586 1.5556212e-38
0.16938865 0.054539859 0.025320828 1.5554781e-38
0.1591 0.1050072 0.048094809 1.1322021e-38
0.1586014 0.1079852 0.049565017 1.1783735e-38
0.15734249 0.11153519 0.050880402 1.2705695e-38
0.15686524 0.1137003 0.053161085 1.2612436e-38
0.16606653 0.055309504 0.023456335 1.5462928e-38
0.16546509 0.05860734 0.023555607 1.5279258e-38
0.15616566 0.1063008 0.045570731 1.0493376e-38
0.15579933 0.10873881 0.047303677 1.215361e-38
0.15440506 0.11165828 0.0488922 1.3257071e-38
0.15397191 0.11541209 0.0509727 1.352971e-38
0.1526401 0.11959779 0.052304775 1.3159137e-38
0.15161347 0.12276649 0.053291678 1.4358457e-38
0.15053564 0.12611783 0.054344773 1.9714076e-38
0.16363591 0.05660674 0.021731079 1.5279536e-38
0.16343641 0.058995187 0.022582918 1.518813e-38
0.16196072 0.062586129 0.023177892 1.5097382e-38
0.16090012 0.066058606 0.024214298 1.5279611e-38
0.1600582 0.070291698 0.025308132 1.5186718e-38
0.15947789 0.074123591 0.027271092 1.5189215e-38
0.15846539 0.078060627 0.028803468 1.528105e-38
0.15812403 0.079725415 0.02955246 1.5189585e-38
0.15402812 0.099702716 0.038540393 8.0015964e-39
0.15368676 0.1013675 0.039289415 7.4501742e-39
0.15110129 0.11774242 0.049236536 1.3984942e-38
0.15051484 0.12080875 0.049223989 1.3526842e-38
0.14962298 0.12377581 0.050549239 1.3251712e-38
0.14931166 0.12721249 0.051992416 1.6203437e-38
0.14796716 0.13030338 0.053276658 2.1840667e-38
0.14640719 0.13261375 0.054012924 2.3232943e-38
0.15910167 0.066686571 0.023394555 1.5645895e-38
0.15797538 0.070453584 0.024303913 1.5187447e-38
0.15735573 0.074659884 0.026011705 1.5189592e-38
0.15659028 0.077769578 0.026981682 1.4912999e-38
0.15616775 0.081255674 0.028329492 1.4452387e-38
0.15540546 0.084472775 0.029657423 1.3165245e-38
0.15437788 0.087315023 0.030418485 1.1600443e-38
0.15223145 0.096448898 0.034209311 7.2679494e-39
0.15232432 0.099148154 0.036512345 8.005883e-39
0.15158445 0.10141101 0.038134217 7.1789796e-39
0.14782256 0.12188995 0.047015488 1.3894534e-38
0.14720517 0.12449551 0.047857195 1.3527908e-38
0.14679223 0.13098875 0.051660568 1.9800857e-38
0.14504343 0.13486534 0.052775085 2.313787e-38
0.14444876 0.13841298 0.054045081 2.3325854e-38
0.14256048 0.14361754 0.055430919 2.341769e-38
0.14233291 0.14472738 0.055930257 2.341769e-38
0.15411162 0.078989536 0.026058197 1.4543136e-38
0.15296054 0.081776619 0.026397496 1.334748e-38
0.15230143 0.085389614 0.027593911 1.09558e-38
0.1512903 0.089823455 0.028552473 8.0998877e-39
0.15047252 0.092974484 0.029980659 7.0810568e-39
0.15035295 0.096167505 0.032390267 7.4552329e-39
0.15079814 0.09943372 0.034596503 8.3796779e-39
0.15034306 0.10165346 0.035595179 6.7216196e-39
0.14479053 0.12244558 0.045130849 1.3711239e-38
0.14448011 0.12513435 0.045569658 1.3711607e-38
0.14272851 0.12811047 0.044949889 1.3528999e-38
0.14180988 0.14327282 0.054320097 2.341769e-38
0.14146852 0.14493759 0.055069119 2.341769e-38
0.15094471 0.082400054 0.024721056 1.2239683e-38
0.14928138 0.086501032 0.025608957 9.2937617e-39
0.14808363 0.090246499 0.026046485 9.013921e-39
0.14751911 0.093090385 0.028094947 9.9373305e-39
0.14723945 0.095657915 0.029537261 1.1233417e-38
0.14194262 0.12630659 0.044474989 1.3251341e-38
0.1402539 0.12939554 0.043515503 1.3526126e-38
0.13760793 0.13055721 0.041516453 1.3619399e-38
0.1370796 0.13229635 0.041258097 1.4534907e-38
0.13410544 0.13243711 0.039575696 1.3158788e-38
0.13173485 0.13451302 0.037573636 1.3987097e-38
0.13077855 0.13699229 0.037158728 1.5371098e-38
0.12905961 0.1381764 0.036814541 1.5464356e-38
0.19813997 0.051102906 0.040529609 1.0032397e-38
0.19457772 0.067090631 0.046009064 1.2703915e-38
0.19161004 0.081384361 0.051163554 1.3533322e-38
0.17847356 0.093336582 0.052514344 1.2706799e-38
0.1752041 0.091050327 0.053145409 1.1969222e-38
0.16302925 0.099085957 0.0441432 1.4729331e-38
0.15686524 0.1137003 0.053161085 1.2612436e-38
0.21282744 0.014971584 0.057036936 9.1194402e-39
0.21301067 0.017273664 0.058835059 9.7640908e-39
0.21341056 0.021344155 0.059300125 1.0316187e-38
0.21454886 0.025025994 0.060917407 1.0774989e-38
0.21094796 0.014720261 0.054676652 9.5800442e-39
0.21168327 0.01842317 0.054718554 9.9470219e-39
0.21177229 0.021386951 0.055901587 9.7633803e-39
0.2084496 0.014796555 0.051821828 8.3832695e-39
0.20926762 0.01870802 0.05210337 9.0268873e-39
0.21000871 0.021722823 0.053359807 9.3031378e-39
0.20607814 0.016026288 0.048074186 1.0501291e-38
0.20741758 0.019659936 0.049933195 1.0683526e-38
0.20436066 0.013333976 0.043173522 1.1512907e-38
0.20481807 0.01705116 0.044775456 1.2801863e-38
0.20332432 0.013476104 0.039903164 9.9495624e-39
0.19002727 0.015971631 0.02782923 6.1673808e-39
0.187727 0.017113984 0.026219189 6.3510574e-39
0.18634054 0.021149486 0.028224885 8.5583533e-39
0.18588993 0.024671853 0.030406117 9.9398514e-39
0.18431756 0.017273307 0.024696946 6.2570653e-39
0.18423563 0.019934595 0.026060224 7.7310939e-39
0.18302926 0.025760531 0.029788703 1.1321345e-38
0.18303007 0.02887091 0.030249357 1.2243292e-38
0.18227887 0.032429516 0.031104565 1.3530079e-38
0.18133956 0.035890132 0.031913728 1.4265494e-38
0.17841896 0.036209673 0.030496746 1.4726107e-38
0.17796639 0.039651185 0.029256374 1.4819376e-38
0.17474011 0.037127554 0.027968705 1.4726834e-38
0.1745804 0.040429503 0.02753365 1.5187082e-38
0.17445952 0.043766618 0.027168036 1.5462209e-38
0.15996552 0.11445898 0.058973104 1.888385e-38
0.15982842 0.11713672 0.060657203 2.0265304e-38
0.17042142 0.041843951 0.026190192 1.5555853e-38
0.17172498 0.044905007 0.026170969 1.5740608e-38
0.17105961 0.048295617 0.026329726 1.5555894e-38
0.15829623 0.11378801 0.057027102 1.6581531e-38
0.15683931 0.11647359 0.058403909 2.2123706e-38
0.15377426 0.12001032 0.060635656 2.3412261e-38
0.16883981 0.042494208 0.02479741 1.5462953e-38
0.16826189 0.04603225 0.024458677 1.5740943e-38
0.1689074 0.049702972 0.025214523 1.555513e-38
0.15563047 0.11551327 0.054654121 1.3993574e-38
0.15462697 0.11807162 0.056182086 1.8414689e-38
0.15350783 0.12119067 0.057961643 2.2398507e-38
0.15235984 0.12524348 0.059229165 2.341769e-38
0.1649887 0.047149986 0.023521304 1.5740602e-38
0.16494128 0.05005762 0.023599684 1.583064e-38
0.16510978 0.053099096 0.023553997 1.5647327e-38
0.15232241 0.11155787 0.048081309 1.2978337e-38
0.15202099 0.11543912 0.050402701 1.3713031e-38
0.15253478 0.11855793 0.053148001 1.417256e-38
0.15217125 0.12228942 0.055714428 1.8506952e-38
0.15018278 0.12514326 0.057347596 2.2675466e-38
0.14852738 0.12773901 0.057328284 2.341697e-38
0.16223788 0.050475508 0.02260986 1.5461143e-38
0.1618095 0.053833425 0.022321165 1.527961e-38
0.1604687 0.058233529 0.022248805 1.509594e-38
0.16022092 0.060980231 0.02245003 1.500412e-38
0.15076399 0.10829937 0.04705143 1.0673105e-38
0.14949095 0.11158758 0.047609657 1.2237898e-38
0.14945519 0.11559394 0.048134953 1.3433567e-38
0.14878535 0.11876464 0.048927039 1.37112e-38
0.14733285 0.1296446 0.056409359 2.3233302e-38
0.14554632 0.13225961 0.056611329 2.341769e-38
0.1588223 0.055025369 0.021767676 1.51867e-38
0.15709323 0.058153033 0.021348357 1.4910834e-38
0.15748274 0.062023491 0.021663636 1.5003031e-38
0.15712309 0.066012293 0.022519827 1.5186e-38
0.15590799 0.069962323 0.023615211 1.5096323e-38
0.15555024 0.073046267 0.025322258 1.5096679e-38
0.14633322 0.11190218 0.04639405 1.1502117e-38
0.14615631 0.11608291 0.046314538 1.3158047e-38
0.14363068 0.13495913 0.055760294 2.341769e-38
0.14244515 0.13714923 0.057570279 2.341769e-38
0.15465033 0.059227854 0.019806147 1.4726456e-38
0.15371799 0.061756939 0.020462483 1.4634255e-38
0.15353757 0.066415548 0.021778375 1.4818646e-38
0.15258282 0.070037007 0.022973955 1.5003753e-38
0.15267944 0.073859513 0.024036199 1.4819728e-38
0.15231633 0.077331543 0.025139958 1.4542779e-38
0.15180027 0.07995221 0.025713086 1.3990682e-38
0.14739263 0.098587841 0.034535795 8.0130422e-39
0.143053 0.11723083 0.044323593 1.3708697e-38
0.14338779 0.12057695 0.044614315 1.380234e-38
0.14246494 0.12347502 0.044815004 1.3710879e-38
0.14997351 0.069928825 0.021731406 1.472682e-38
0.14908415 0.073962718 0.022212595 1.4449521e-38
0.14921385 0.077733189 0.02304408 1.3989251e-38
0.14873815 0.081229627 0.023990273 1.1319515e-38
0.14829385 0.084330827 0.024647295 9.6628708e-39
0.14646018 0.093943983 0.029132158 1.1321003e-38
0.14552975 0.096183062 0.03127265 1.068273e-38
0.14471275 0.097871244 0.03316614 5.705709e-39
0.13990068 0.12088484 0.043747485 1.3710128e-38
0.13992947 0.12472722 0.043927908 1.3526479e-38
0.13917911 0.12744737 0.043726265 1.3341712e-38
0.14655793 0.074478686 0.020889193 1.3990697e-38
0.14570963 0.077607214 0.022055984 1.3344596e-38
0.14512938 0.081251413 0.022395015 9.9380227e-39
0.14525157 0.08591494 0.023103267 1.0123513e-38
0.14407706 0.089839041 0.024373412 1.3625486e-38
0.14364272 0.092690825 0.02691263 1.3351048e-38
0.14303899 0.09625864 0.028426319 7.9115167e-39
0.13612473 0.12536532 0.043783545 1.3710835e-38
0.13618743 0.12812847 0.042059124 1.3160199e-38
0.14233977 0.082942903 0.021808118 9.2062478e-39
0.14121634 0.086403966 0.022883773 1.3993174e-38
0.14049792 0.089235246 0.023997128 1.3996074e-38
0.13323599 0.12974989 0.039837033 1.2513417e-38
0.13020456 0.13062006 0.037485063 1.2973293e-38
0.12976414 0.13306876 0.037200898 1.3434283e-38
0.12788445 0.13413478 0.036027789 1.5184895e-38
0.12702483 0.13851273 0.037200779 1.4449153e-38
0.19832191 0.057955831 0.043474287 1.0493362e-38
0.19386986 0.073460817 0.048184901 1.3348572e-38
0.20520273 0.051879048 0.049979419 8.9285679e-39
0.19908613 0.065121859 0.051438928 1.3165614e-38
0.1996358 0.066188335 0.053014815 1.2337655e-38
0.19841528 0.071980834 0.05516392 1.0772125e-38
0.18617094 0.075414866 0.045769095 1.2980875e-38
0.1607424 0.11141208 0.051052362 1.1877039e-38
0.19927213 0.078733534 0.067932606 1.7864022e-38
0.17551419 0.085564852 0.04850769 1.5016722e-38
0.15761209 0.11462119 0.049979389 1.3532238e-38
0.16425884 0.11294457 0.062366098 1.565417e-38
0.21108574 0.010361195 0.05688107 8.2875173e-39
0.21254522 0.012803942 0.058243245 8.8425002e-39
0.20934743 0.010700434 0.054671347 9.1201605e-39
0.21135902 0.012825876 0.055532426 9.3949355e-39
0.20760185 0.011097163 0.05277285 8.5687888e-39
0.20722687 0.01276654 0.050683081 7.7376086e-39
0.20425603 0.011156559 0.047799081 9.7658998e-39
0.2059184 0.013084769 0.049379408 9.9459793e-39
0.20302674 0.0091186762 0.046647251 9.948845e-39
0.20355415 0.010467052 0.044825792 1.0131804e-38
0.18385699 0.021642834 0.029598624 9.7529448e-39
0.18362731 0.022762954 0.030102551 1.0126034e-38
0.18184894 0.020253837 0.027566761 9.1100907e-39
0.18074057 0.023444384 0.029374719 1.1135882e-38
0.18019184 0.027354121 0.029938281 1.2333705e-38
0.17951757 0.030680031 0.030770928 1.3898508e-38
0.18009251 0.017769277 0.022550881 4.9695873e-39
0.18034488 0.019570291 0.024084628 7.0864854e-39
0.17765105 0.027478993 0.029338002 1.270249e-38
0.17699766 0.031242013 0.029907078 1.4172939e-38
0.17654061 0.034419388 0.02988115 1.4175809e-38
0.17388621 0.032076597 0.02786994 1.3990693e-38
0.17378205 0.035030186 0.027652055 1.4449881e-38
0.17145616 0.033342749 0.026586533 1.4541699e-38
0.16934481 0.036727309 0.02597928 1.500303e-38
0.17026117 0.03940624 0.026427567 1.5370736e-38
0.15458232 0.11654195 0.061430305 2.2673222e-38
0.1533674 0.11866152 0.062596917 2.2758152e-38
0.15219462 0.12134492 0.063079715 2.3308551e-38
0.1671499 0.03812623 0.024868727 1.500267e-38
0.16655123 0.041227579 0.024345338 1.5278919e-38
0.15035588 0.12237954 0.059970528 2.341769e-38
0.16321194 0.042520642 0.022751033 1.50956e-38
0.16352648 0.045039207 0.023009241 1.5280348e-38
0.14601916 0.12708586 0.060686767 2.341769e-38
0.14513576 0.12945688 0.060450256 2.341769e-38
0.15988535 0.045880437 0.021473378 1.4820105e-38
0.16016954 0.049303055 0.021798164 1.5093808e-38
0.15926856 0.052632451 0.022321284 1.5188139e-38
0.14290172 0.13232338 0.059263527 2.341769e-38
0.14159471 0.13458152 0.059857845 2.341769e-38
0.15800792 0.04622072 0.019803196 1.4450976e-38
0.15692604 0.04954645 0.020203292 1.4634616e-38
0.15665305 0.053063601 0.021045953 1.5094518e-38
0.15552634 0.056735307 0.020791292 1.4543854e-38
0.14577335 0.11036834 0.046368003 1.0583046e-38
0.14349276 0.11340618 0.045805693 1.2237168e-38
0.1534481 0.05426836 0.020037711 1.4449517e-38
0.15304255 0.056835949 0.019988179 1.4358741e-38
0.15139377 0.062658131 0.020620435 1.4634609e-38
0.15047497 0.065075994 0.021496326 1.4634976e-38
0.14207631 0.11192983 0.045243055 1.1685785e-38
0.14132935 0.11444122 0.044561148 1.2881454e-38
0.14877307 0.062877744 0.020524979 1.5000875e-38
0.14847881 0.066183746 0.020776868 1.4634609e-38
0.14831716 0.069663137 0.02130264 1.4634274e-38
0.14541066 0.071167886 0.022319853 1.4542066e-38
0.1421628 0.09563747 0.032024205 8.1916895e-39
0.14193308 0.096757561 0.032528162 4.4095822e-39
0.1388334 0.11717775 0.043540776 1.3709398e-38
0.13698471 0.11974636 0.043438256 1.3801956e-38
0.13665116 0.12251979 0.044118792 1.3526835e-38
0.14545703 0.066886663 0.019426227 1.4632118e-38
0.14522672 0.068010181 0.019931674 1.4540638e-38
0.14407468 0.07322368 0.020498902 1.3714821e-38
0.14352769 0.076736718 0.021271884 1.242122e-38
0.14023471 0.092913687 0.027905107 1.0678392e-38
0.14042735 0.095208138 0.029709011 7.449098e-39
0.14069343 0.097413838 0.031537354 4.1372833e-39
0.13435411 0.12002572 0.043092042 1.3803425e-38
0.13419294 0.12375286 0.042948067 1.3711581e-38
0.14060342 0.078536808 0.020958245 1.0676274e-38
0.14028239 0.081489623 0.021296322 1.1320966e-38
0.13946033 0.085309595 0.022104919 1.4086456e-38
0.13776022 0.088400602 0.024160624 1.2519491e-38
0.13848907 0.091742754 0.026469022 9.8465446e-39
0.13901788 0.094805956 0.027791917 6.2534331e-39
0.13105905 0.12441331 0.041437507 1.3895612e-38
0.13116425 0.12704688 0.040850639 1.2784264e-38
0.13721246 0.082769096 0.020766973 1.3438606e-38
0.13699079 0.085015237 0.021214634 1.3534004e-38
0.12860471 0.12708196 0.039577901 1.2974002e-38
0.2006855 0.053905696 0.045655221 1.0677777e-38
0.19846812 0.065358281 0.049184889 1.2151819e-38
0.19616175 0.069280267 0.049772382 1.3073421e-38
0.19888082 0.054893494 0.042156309 1.0492654e-38
0.2034443 0.066405267 0.058998853 1.5008442e-38
0.19334275 0.071415424 0.049368322 1.5190681e-38
0.18575424 0.078263462 0.043882012 1.3350725e-38
0.18234953 0.073489577 0.043298781 1.1232024e-38
0.18649542 0.091410995 0.062495112 1.6850924e-38
0.14262074 0.1404022 0.044751793 1.8133759e-38
0.15159643 0.12282738 0.053313732 1.574389e-38
0.2105296 0.0073652864 0.058585554 7.4556309e-39
0.21123481 0.0099288821 0.060120344 8.566642e-39
0.20822483 0.0075822473 0.055674642 8.2918291e-39
0.20510018 0.0081948638 0.052796632 8.0102424e-39
0.20356533 0.0087488592 0.051223755 8.6534622e-39
0.17829913 0.020080268 0.02878198 1.0767455e-38
0.17783701 0.022334099 0.029796004 1.1411759e-38
0.17547643 0.018772602 0.027960449 9.8476614e-39
0.17544061 0.022908688 0.028844476 1.1873454e-38
0.17432481 0.026396811 0.029515147 1.3069838e-38
0.17163843 0.023816824 0.028648794 1.2797214e-38
0.17083859 0.026745439 0.028683305 1.3439339e-38
0.17118469 0.030376345 0.027591765 1.4083959e-38
0.16798377 0.027789086 0.026457995 1.380882e-38
0.16855207 0.031526148 0.026280761 1.4452021e-38
0.1647706 0.028713942 0.024028212 1.353331e-38
0.16539401 0.031744242 0.024410844 1.4177238e-38
0.16540363 0.035912246 0.024675786 1.4819014e-38
0.16365474 0.038632035 0.024513125 1.518565e-38
0.16187012 0.03264612 0.023360252 1.3992516e-38
0.16173661 0.035492659 0.023272753 1.4543167e-38
0.16148019 0.039380103 0.023506761 1.5003051e-38
0.14468169 0.12532663 0.063805133 2.341769e-38
0.14290547 0.12739965 0.064006418 2.341769e-38
0.15855676 0.036586672 0.021797061 1.3991768e-38
0.15801156 0.039839894 0.021468461 1.4360564e-38
0.15857327 0.043080032 0.021662205 1.4728251e-38
0.13990736 0.13029411 0.063351035 2.341769e-38
0.15479296 0.044369936 0.019832999 1.4175087e-38
0.15436941 0.047314614 0.019685745 1.4453103e-38
0.15089864 0.04896611 0.019586712 1.4359103e-38
0.15097678 0.052083254 0.020222038 1.4450226e-38
0.14725184 0.052873075 0.020275176 1.4266575e-38
0.14669478 0.056446075 0.020685464 1.4449115e-38
0.14631081 0.059903175 0.020937204 1.4541323e-38
0.14598423 0.063808769 0.021284103 1.463425e-38
0.13532364 0.11122039 0.04522115 1.2701018e-38
0.13511807 0.11385447 0.044777364 1.3343149e-38
0.14460695 0.053516328 0.017640054 1.3715523e-38
0.14402664 0.056346446 0.018913329 1.4174685e-38
0.14302063 0.06037581 0.019465894 1.4265473e-38
0.14236635 0.063474357 0.020447463 1.4632106e-38
0.14270073 0.067903966 0.021754086 1.4449873e-38
0.13232636 0.11500514 0.044002622 1.3712297e-38
0.13158435 0.11904234 0.043115824 1.4080716e-38
0.14056933 0.060951859 0.018060863 1.4080725e-38
0.13998908 0.063781977 0.019334137 1.4081093e-38
0.13880539 0.068192929 0.020993799 1.3899212e-38
0.13757122 0.072339773 0.021291405 1.2424812e-38
0.13775277 0.076292813 0.021561593 1.1319159e-38
0.1369524 0.079389483 0.021501005 1.2240037e-38
0.135104 0.088404894 0.025557101 8.8270285e-39
0.13560337 0.072915584 0.020518959 1.1779421e-38
0.13448316 0.076158583 0.020727694 1.2055305e-38
0.13418359 0.0804286 0.020465791 1.3069811e-38
0.13262957 0.083752126 0.021996856 1.2700297e-38
0.13309234 0.086591423 0.024490237 1.0304974e-38
0.1322757 0.089212 0.02744633 6.0654882e-39
0.12578714 0.12324479 0.041224927 1.3803056e-38
0.13068408 0.080565542 0.020061433 1.3069807e-38
0.11666566 0.14178833 0.045900106 1.1872334e-38
0.19882935 0.074734569 0.052930832 1.3532957e-38
0.19799745 0.077894896 0.054512292 1.3257082e-38
0.20461988 0.050752908 0.048109591 8.9314476e-39
0.1883015 0.08379212 0.052890867 1.3074501e-38
0.18551302 0.062494814 0.034566402 1.3898123e-38
0.17233908 0.053212494 0.029895902 1.3255992e-38
0.17059165 0.017825663 0.027790308 9.848718e-39
0.16932294 0.021295071 0.028328776 1.2060708e-38
0.16815317 0.024299175 0.028288484 1.3346789e-38
0.1669811 0.018382132 0.026214153 7.6428724e-39
0.16626921 0.022036463 0.025846124 1.1506817e-38
0.16610527 0.025066972 0.026433915 1.3347135e-38
0.16351402 0.022183925 0.02395606 9.665089e-39
0.16330606 0.025297403 0.025016785 1.2887951e-38
0.1596818 0.030018181 0.023488939 1.3257095e-38
0.15658951 0.031344742 0.021784812 1.2614591e-38
0.15675896 0.033974826 0.021690667 1.3257437e-38
0.15367031 0.033228397 0.020105034 1.1969941e-38
0.15339887 0.036046237 0.020327806 1.2888668e-38
0.15269399 0.039211035 0.020985842 1.380703e-38
0.13882875 0.10364115 0.050472319 8.7409495e-39
0.15087163 0.036611825 0.019177705 1.2520237e-38
0.15093011 0.039886177 0.020098597 1.3532582e-38
0.14877397 0.04353404 0.020381451 1.3900284e-38
0.1476264 0.046552777 0.019722939 1.3898854e-38
0.13598126 0.10473809 0.048586398 9.3837882e-39
0.14598566 0.043652683 0.018940091 1.3256352e-38
0.14495379 0.047644317 0.019286305 1.3898836e-38
0.14426094 0.051139146 0.019925326 1.3991045e-38
0.14371616 0.054696023 0.020779312 1.435764e-38
0.13349426 0.10532957 0.046436012 1.0392923e-38
0.13260806 0.10842913 0.045688927 1.2425497e-38
0.14205986 0.048681766 0.018074423 1.3439306e-38
0.14118159 0.050961435 0.018201411 1.3714802e-38
0.14132249 0.055637777 0.018642187 1.4082851e-38
0.14022529 0.058062375 0.019034535 1.3990324e-38
0.13279575 0.094810635 0.038044423 4.324948e-39
0.12942052 0.10957626 0.043983907 1.2978349e-38
0.12873197 0.11260089 0.044330776 1.3529712e-38
0.14038861 0.05316782 0.015854686 1.3713735e-38
0.1388526 0.056437999 0.017159581 1.3806653e-38
0.13709557 0.059764773 0.018246144 1.3805934e-38
0.13658655 0.064117014 0.019529462 1.3622268e-38
0.13579088 0.067334712 0.02067861 1.3623708e-38
0.12618291 0.11070538 0.042301655 1.3529004e-38
0.12612218 0.11373979 0.043058902 1.4264738e-38
0.12564689 0.11678943 0.043064058 1.4447333e-38
0.11822069 0.14645706 0.057651103 1.9891189e-38
0.13440299 0.0613648 0.017896354 1.3713721e-38
0.13396764 0.064375043 0.018060863 1.3621182e-38
0.13362473 0.068099201 0.01910457 1.3070527e-38
0.13279527 0.071393073 0.020047009 1.2238595e-38
0.13189292 0.074113756 0.020389557 1.23344e-38
0.12890661 0.088546127 0.02769202 7.3555011e-39
0.12342829 0.11489204 0.041978717 1.4080716e-38
0.12377203 0.11756712 0.042538643 1.4171846e-38
0.12048686 0.12101787 0.042773366 1.3804501e-38
0.11605942 0.14680699 0.054816365 1.7772851e-38
0.11488283 0.14835092 0.055070698 1.6206932e-38
0.13085753 0.068511218 0.017849892 1.2610979e-38
0.13067418 0.071590483 0.018915653 1.2605599e-38
0.13006622 0.075417519 0.019722104 1.307052e-38
0.12753016 0.078621477 0.020658553 1.3345674e-38
0.12893689 0.082384586 0.022644043 1.2143909e-38
0.12712407 0.086720437 0.026042372 9.7493631e-39
0.12099814 0.12315369 0.041475326 1.3710109e-38
0.12076533 0.12428918 0.041986138 1.3340923e-38
0.11548114 0.14391463 0.049349159 1.3531144e-38
0.11395115 0.14689603 0.051933825 1.3995725e-38
0.11355233 0.14867449 0.05374521 1.4551024e-38
0.11303997 0.13473193 0.043549478 1.2421943e-38
0.11257297 0.13700968 0.044574261 1.1592202e-38
0.11311275 0.14097175 0.045407683 1.0858212e-38
0.11301768 0.14451373 0.046894938 1.0952536e-38
0.11165112 0.14746694 0.049206376 1.1967787e-38
0.11170948 0.1350555 0.04222399 1.2421875e-38
0.11124253 0.13733324 0.043248773 1.1777286e-38
0.1101405 0.14106394 0.044534981 1.1134423e-38
0.10934776 0.14463139 0.045437962 1.104403e-38
0.10876596 0.14740641 0.047021955 1.1230548e-38
0.19958067 0.071520656 0.05140543 1.3624417e-38
0.20935822 0.053281248 0.054510266 9.5739486e-39
0.20063153 0.072583258 0.05849126 1.5743141e-38
0.18974447 0.077654958 0.049227685 1.4822253e-38
0.19531354 0.068482906 0.05543533 1.2891539e-38
0.15831953 0.10725439 0.050191343 7.727515e-39
0.16503599 0.015569746 0.026218563 5.336237e-39
0.1583873 0.022130966 0.02451247 1.0494462e-38
0.15735519 0.025134295 0.024706483 1.2613142e-38
0.1543873 0.026465744 0.023290604 1.1968855e-38
0.15400589 0.029199332 0.021925837 1.1785919e-38
0.15083128 0.030134887 0.020317197 1.0955447e-38
0.15051723 0.033846438 0.021065652 1.2429126e-38
0.13696718 0.095672667 0.049546659 6.3495664e-39
0.13662606 0.098779976 0.050448209 6.9002487e-39
0.1482324 0.030264139 0.019303739 1.0309008e-38
0.14770216 0.034366786 0.01982972 1.2061056e-38
0.14651346 0.038150072 0.020490825 1.3072674e-38
0.13441163 0.09575069 0.046626389 5.2468468e-39
0.13439989 0.099441737 0.048389643 6.9002599e-39
0.13311315 0.093195558 0.042795539 5.7985885e-39
0.13238353 0.095836341 0.044325233 6.5332878e-39
0.13174528 0.099864602 0.045795411 7.5452804e-39
0.13101798 0.10352781 0.046350032 9.1050867e-39
0.14053345 0.043144017 0.017866969 1.2883992e-38
0.14044654 0.046097964 0.018262208 1.3529e-38
0.13190061 0.093726039 0.040628582 5.244728e-39
0.12948793 0.09654054 0.041440427 7.5470866e-39
0.12874103 0.10033923 0.043326944 8.9278505e-39
0.12860817 0.10470164 0.044727623 1.1044042e-38
0.13769794 0.048755825 0.01809454 1.4448063e-38
0.13773888 0.0507195 0.018653333 1.4081427e-38
0.13564956 0.054827571 0.018209606 1.3715172e-38
0.12785089 0.088741571 0.032484144 6.6189969e-39
0.12769151 0.091168046 0.033969373 7.6313551e-39
0.12806439 0.093820214 0.036733717 7.4523841e-39
0.12695575 0.097020477 0.038824111 9.2937772e-39
0.12553287 0.10070896 0.040969193 1.0678123e-38
0.12513506 0.10493621 0.042529166 1.2242926e-38
0.12448746 0.10844436 0.042135537 1.3346052e-38
0.12316686 0.11158741 0.042762667 1.3897051e-38
0.11573851 0.14695925 0.061204612 1.7120308e-38
0.11445701 0.14951333 0.062102377 1.6394252e-38
0.13355529 0.055198073 0.017709255 1.3713744e-38
0.13143146 0.058524877 0.018649489 1.3714107e-38
0.13067788 0.062505126 0.018270612 1.3621182e-38
0.13010031 0.065402508 0.019032776 1.3162715e-38
0.12582648 0.088672876 0.030417323 8.9224569e-39
0.12493956 0.090853572 0.032232076 1.0400419e-38
0.12454402 0.094246864 0.034738779 1.1041859e-38
0.12410361 0.097576141 0.036261499 1.1783391e-38
0.12278998 0.10132515 0.038341612 1.2149647e-38
0.12192327 0.10531056 0.040170401 1.2702465e-38
0.12158561 0.1095995 0.040114582 1.3162364e-38
0.12066561 0.11284494 0.041558713 1.3621552e-38
0.11987042 0.11663118 0.042679608 1.3712319e-38
0.11953753 0.11898208 0.043630451 1.3987827e-38
0.11436152 0.1462889 0.056407869 1.833176e-38
0.11371684 0.14844897 0.058322161 1.5743109e-38
0.11237812 0.15104786 0.059805572 1.5468351e-38
0.12784821 0.063524574 0.018482417 1.3437867e-38
0.12722749 0.066791326 0.018327594 1.2612062e-38
0.12640429 0.070201039 0.019156694 1.3163798e-38
0.12579197 0.074047625 0.019971281 1.3530787e-38
0.12300992 0.078852773 0.023405522 1.2976175e-38
0.12449098 0.081638426 0.02452457 1.1870186e-38
0.12369412 0.084898651 0.026346564 1.1227691e-38
0.12288702 0.087890595 0.028283864 1.1138354e-38
0.12216353 0.091250718 0.030956656 1.2149974e-38
0.12144715 0.0947451 0.032528758 1.2702092e-38
0.12035501 0.098004311 0.033501804 1.3071966e-38
0.11986881 0.10180697 0.035554171 1.2610269e-38
0.11929768 0.1057454 0.037601262 1.2978344e-38
0.11792094 0.10975122 0.038009733 1.3254546e-38
0.1172716 0.11313081 0.039697826 1.3254219e-38
0.11642182 0.11657661 0.041151345 1.3437164e-38
0.11577141 0.11996126 0.042444497 1.3805232e-38
0.11067617 0.14943086 0.055003226 1.3905306e-38
0.10941672 0.15175077 0.057056874 1.4085049e-38
0.12376195 0.071049839 0.018908322 1.3531518e-38
0.11483562 0.11458674 0.038495898 1.3714439e-38
0.11460072 0.11573243 0.039011359 1.3714811e-38
0.11319125 0.12260669 0.042104125 1.3989249e-38
0.11079574 0.12808788 0.043090314 1.4175773e-38
0.11130822 0.13145167 0.043760329 1.3436795e-38
0.10800177 0.14964044 0.052435637 1.2336212e-38
0.1073187 0.15124936 0.054990709 1.2981227e-38
0.10919899 0.12829477 0.041374624 1.3437497e-38
0.10856408 0.13226992 0.041843981 1.2792103e-38
0.10797513 0.13679858 0.043002516 1.205387e-38
0.10738558 0.14011678 0.044040322 1.1502469e-38
0.10663617 0.14274104 0.044975102 1.1228776e-38
0.10556161 0.14788276 0.047825456 1.0955435e-38
0.10520446 0.14937425 0.049894154 1.1965993e-38
0.10572338 0.13422006 0.041409582 1.251484e-38
0.10405111 0.14041747 0.04309991 1.1689382e-38
0.10361409 0.1436553 0.044400126 1.1136944e-38
0.10274059 0.14707863 0.0463112 1.0769955e-38
0.14430463 0.13672863 0.046621203 1.5372906e-38
0.1583873 0.022130966 0.02451247 1.0494462e-38
0.15917146 0.011841774 0.025235981 4.8744994e-39
0.15659428 0.012605339 0.023603529 4.8755405e-39
0.15655303 0.015897125 0.024476409 5.7021189e-39
0.15526879 0.019488513 0.024697959 8.5608686e-39
0.15260309 0.021049917 0.023091257 8.2828412e-39
0.15243089 0.02360028 0.023637682 1.1412084e-38
0.14948374 0.021635115 0.021545768 8.2821195e-39
0.14931226 0.024630427 0.021936953 9.9394801e-39
0.14653075 0.025638461 0.020865768 9.5735842e-39
0.14451945 0.028554648 0.019972384 9.84766e-39
0.14448214 0.032753617 0.020017058 1.1229148e-38
0.14256209 0.030436367 0.019550681 9.1118984e-39
0.14158982 0.033880562 0.019669443 1.1228792e-38
0.1402514 0.036993206 0.019694567 1.1690478e-38
0.13029253 0.092785567 0.043155074 5.9837e-39
0.13005733 0.093932986 0.04367131 6.5343542e-39
0.13934922 0.034320384 0.018486172 1.0948963e-38
0.13750625 0.038201749 0.01853323 1.1688326e-38
0.13585293 0.040281057 0.018521309 1.2700321e-38
0.12916368 0.094150305 0.042781055 6.718384e-39
0.11569858 0.14513922 0.066328466 1.8412854e-38
0.114663 0.14782315 0.067569196 1.6757293e-38
0.134341 0.042108834 0.018020391 1.297834e-38
0.11577874 0.14700967 0.063598692 1.7028108e-38
0.11346006 0.1498234 0.064729512 1.666652e-38
0.11126238 0.15193447 0.066442311 1.5469783e-38
0.12791061 0.056239307 0.019425124 1.3622632e-38
0.11138093 0.15189493 0.061844319 1.6393875e-38
0.10897738 0.1533078 0.063803852 1.556266e-38
0.12697029 0.05448705 0.017965376 1.362191e-38
0.12702811 0.057114273 0.018720269 1.3530789e-38
0.12432092 0.063465357 0.019382179 1.2795736e-38
0.1205101 0.090803832 0.030406743 1.2242906e-38
0.11992198 0.093672395 0.031697303 1.297975e-38
0.11721659 0.10686764 0.037633955 1.3345672e-38
0.10780644 0.15276426 0.05828321 1.4362358e-38
0.10666806 0.15420203 0.0611251 1.5007719e-38
0.1052779 0.15612863 0.062702298 1.6110835e-38
0.12173903 0.068964422 0.018902361 1.3348203e-38
0.12260455 0.072306126 0.020108342 1.3807029e-38
0.11969692 0.077711284 0.023809522 1.3252409e-38
0.11939591 0.080496579 0.024416029 1.2792133e-38
0.11893922 0.083626479 0.025949359 1.2425505e-38
0.11776811 0.087144107 0.027849317 1.2518077e-38
0.11737114 0.090514719 0.029357463 1.2978337e-38
0.11691922 0.094028175 0.030549973 1.3623696e-38
0.11686456 0.098231643 0.031278402 1.3714836e-38
0.11622643 0.1022391 0.033600688 1.3253833e-38
0.11493921 0.10578972 0.035736322 1.3529346e-38
0.11451197 0.10970581 0.03644073 1.3714103e-38
0.11399436 0.11292058 0.038051754 1.3898099e-38
0.11296403 0.1168415 0.039552331 1.3806299e-38
0.11239469 0.12003255 0.041086793 1.3898871e-38
0.11155254 0.12372601 0.042649746 1.3805934e-38
0.11077166 0.12587827 0.043222815 1.39939e-38
0.10560119 0.15239257 0.056021541 1.3163478e-38
0.10372746 0.15431213 0.058686525 1.3901751e-38
0.11638594 0.081152678 0.024007618 1.3437141e-38
0.11591327 0.083457738 0.025044739 1.3437509e-38
0.11520439 0.086915344 0.026600331 1.3622266e-38
0.11398578 0.090870082 0.02727443 1.4173286e-38
0.11343229 0.094334245 0.028524995 1.4541709e-38
0.11287785 0.098505527 0.030191004 1.4266561e-38
0.11159801 0.10230184 0.032249659 1.3896348e-38
0.11079854 0.10571131 0.03385368 1.3895626e-38
0.1111834 0.10970837 0.03481105 1.3714481e-38
0.11011177 0.11297882 0.036563337 1.3899565e-38
0.10976923 0.11660683 0.037914991 1.408325e-38
0.10906219 0.12005514 0.0394665 1.3989999e-38
0.10853803 0.1235899 0.040916383 1.343859e-38
0.10792273 0.12734985 0.040920675 1.3529695e-38
0.10322887 0.15024349 0.051220715 1.2612446e-38
0.10236907 0.15220979 0.054003 1.2890809e-38
0.10139835 0.15433264 0.056390435 1.344151e-38
0.11168456 0.091604143 0.025732398 1.4909765e-38
0.11068743 0.094803303 0.026774704 1.491084e-38
0.11062115 0.096790552 0.028065801 1.4634582e-38
0.10771489 0.10680538 0.031579137 1.426439e-38
0.10758168 0.10991174 0.032628477 1.4356957e-38
0.10714877 0.11349988 0.034034431 1.454457e-38
0.10634881 0.11690891 0.035637647 1.4542781e-38
0.10527319 0.12018907 0.037391722 1.4172574e-38
0.10474861 0.12373039 0.038845778 1.3713367e-38
0.10396105 0.12746298 0.039751709 1.3437149e-38
0.10430217 0.13220894 0.040052772 1.2791427e-38
0.10291648 0.13623771 0.041214198 1.2884696e-38
0.10216373 0.13887373 0.04215315 1.2425515e-38
0.10098743 0.14461081 0.044734269 1.1227353e-38
0.10051697 0.1469056 0.045766771 1.1874501e-38
0.10019439 0.14943007 0.04965204 1.2150728e-38
0.099156857 0.15173113 0.052130938 1.1962707e-38
0.10580158 0.10781828 0.03004986 1.4633541e-38
0.10475266 0.1096065 0.030060351 1.4818298e-38
0.10430825 0.1134378 0.032181084 1.4913369e-38
0.1039111 0.11703858 0.034198105 1.4449867e-38
0.1027959 0.12081403 0.035499692 1.4174716e-38
0.10178226 0.1243366 0.036535352 1.3989244e-38
0.10153484 0.12792394 0.037619382 1.3253129e-38
0.10004759 0.13239095 0.038590372 1.251733e-38
0.099544048 0.13644412 0.040047616 1.2332967e-38
0.099581957 0.14021465 0.041192919 1.1230576e-38
0.099061787 0.1437405 0.042641461 1.1782315e-38
0.098450065 0.14699414 0.044263214 1.2518065e-38
0.097428501 0.14886954 0.047308713 1.2422668e-38
0.099564195 0.12576124 0.035145074 1.3438601e-38
0.098685265 0.12838414 0.03592813 1.2701036e-38
0.097107053 0.13219914 0.036718309 1.1780859e-38
0.096145272 0.13686958 0.037973821 1.214892e-38
0.095588207 0.14030805 0.039225727 1.2518416e-38
0.0949983 0.14358106 0.040839463 1.2609894e-38
0.094682872 0.14652497 0.043340147 1.2050959e-38
0.094838142 0.148812 0.045515835 1.1865195e-38
0.093138099 0.14046486 0.037790537 1.2978301e-38
0.092639565 0.14305702 0.038154095 1.3619735e-38
0.20619953 0.05768171 0.053417742 9.5753723e-39
0.19558391 0.063892394 0.046553999 9.9420066e-39
0.18112713 0.076771617 0.04083395 1.3807372e-38
0.15368867 0.011363506 0.023851693 4.7844435e-39
0.15259868 0.015291005 0.02528739 6.0716161e-39
0.14944911 0.011503339 0.02275151 4.5997076e-39
0.14965272 0.014977634 0.023605466 5.7953781e-39
0.15144271 0.018244803 0.023173183 6.6240555e-39
0.14723068 0.012083381 0.020475984 4.4135156e-39
0.14678204 0.016242743 0.021416187 5.6109658e-39
0.1469388 0.020085901 0.021553904 7.3612268e-39
0.14341593 0.017005563 0.019369721 5.3336713e-39
0.14327723 0.020262748 0.020105332 6.8073566e-39
0.14375293 0.023936957 0.020497918 8.4665318e-39
0.14002025 0.020702094 0.01829946 5.8879395e-39
0.14002603 0.024516046 0.018876553 7.4548952e-39
0.1400789 0.028348774 0.019428074 8.4679709e-39
0.13641876 0.025347143 0.017306507 6.1663144e-39
0.13654608 0.02850762 0.017948896 7.3626856e-39
0.13727295 0.033101112 0.018033415 9.4817263e-39
0.13667995 0.036092043 0.018281579 1.0125319e-38
0.11599576 0.14530808 0.069406629 1.8602653e-38
0.13411325 0.032993823 0.016805261 8.2867859e-39
0.13464546 0.037683547 0.017009616 1.0495892e-38
0.13132328 0.039559722 0.018919975 1.2519154e-38
0.12959272 0.042506933 0.021177471 1.3713028e-38
0.11258894 0.14942667 0.068277717 1.6754062e-38
0.11062014 0.15192571 0.069388837 1.51925e-38
0.12875521 0.040724874 0.018976003 1.3351069e-38
0.12770802 0.043737531 0.019831449 1.3162014e-38
0.12659431 0.047799528 0.021051794 1.3529702e-38
0.12662607 0.051431119 0.020506084 1.3713744e-38
0.10791266 0.15331528 0.067194939 1.4544576e-38
0.10561764 0.1551781 0.068609595 1.6389602e-38
0.12432104 0.049867094 0.019269466 1.4079286e-38
0.12339234 0.052298516 0.019862711 1.362155e-38
0.12309051 0.056140751 0.019634336 1.3530066e-38
0.12326038 0.059746027 0.020071924 1.3713023e-38
0.1031816 0.15578958 0.065705091 1.7031373e-38
0.12015408 0.056167096 0.019318372 1.3711949e-38
0.11923826 0.060033053 0.020073533 1.3620831e-38
0.11870271 0.063914478 0.020300984 1.3163443e-38
0.11860412 0.070098758 0.020660102 1.380849e-38
0.11715871 0.071445256 0.023689121 1.3806657e-38
0.1168254 0.074163467 0.024752229 1.3621189e-38
0.10154116 0.15540357 0.059536457 1.2125608e-38
0.099674761 0.15589726 0.063085884 1.2790409e-38
0.116808 0.061281294 0.019226074 1.3804847e-38
0.11645091 0.063022912 0.020009637 1.3347111e-38
0.11659664 0.068390161 0.01995033 1.3624071e-38
0.11468834 0.071059287 0.022370398 1.4082518e-38
0.11367166 0.074560583 0.024088323 1.3804506e-38
0.1134389 0.078837663 0.024029434 1.3620454e-38
0.11239791 0.082602382 0.024849534 1.3896701e-38
0.11250043 0.086512238 0.025979102 1.4174723e-38
0.11212081 0.08922255 0.026282251 1.4633901e-38
0.097760201 0.15469347 0.057450652 1.1307373e-38
0.097489715 0.15560566 0.060846835 1.0296452e-38
0.10985821 0.07841599 0.022935838 1.3988142e-38
0.1095134 0.082790613 0.023384273 1.4356244e-38
0.10879719 0.086282462 0.024500996 1.4635e-38
0.10939521 0.090463758 0.024926096 1.5093076e-38
0.10838479 0.094858527 0.026375562 1.4817927e-38
0.10769939 0.098519653 0.029032946 1.426548e-38
0.10771978 0.10235649 0.030203462 1.4264762e-38
0.1072464 0.10466495 0.031242073 1.4264393e-38
0.09711802 0.14989913 0.050599337 1.1505304e-38
0.096083403 0.15212984 0.052949131 9.9305146e-39
0.10781163 0.080016911 0.021656394 1.4264399e-38
0.10688341 0.082449019 0.022250742 1.4356594e-38
0.10487235 0.08693105 0.022809327 1.454135e-38
0.10449165 0.090910614 0.024284095 1.4999815e-38
0.10387826 0.094767183 0.025739759 1.4540269e-38
0.10353231 0.098431468 0.027112633 1.4447368e-38
0.10423017 0.10635811 0.028897732 1.481829e-38
0.10320073 0.11085814 0.030798078 1.5003762e-38
0.10215968 0.11385307 0.031648517 1.4912653e-38
0.10173357 0.1169726 0.033300519 1.4359837e-38
0.10085803 0.12020141 0.034504712 1.4543139e-38
0.10010087 0.1228531 0.035449266 1.408503e-38
0.094225228 0.14950578 0.048980236 1.0665895e-38
0.092353761 0.15134339 0.051935613 9.9294384e-39
0.091973305 0.15447231 0.054487944 1.1590407e-38
0.10193312 0.091926783 0.02301544 1.4630991e-38
0.10133791 0.0948295 0.024321377 1.4723217e-38
0.10011351 0.098806769 0.025004148 1.4907972e-38
0.10020435 0.10261226 0.025931418 1.5001224e-38
0.10013819 0.10640535 0.027158082 1.5186342e-38
0.099980474 0.11014667 0.02842924 1.5278892e-38
0.099454582 0.11370349 0.029892355 1.5372537e-38
0.098558187 0.11708349 0.031550288 1.5095597e-38
0.097476244 0.12037891 0.033307374 1.4726827e-38
0.096832335 0.12380159 0.034611017 1.3807734e-38
0.09632206 0.1275934 0.035156429 1.2608825e-38
0.097014427 0.10343993 0.024657845 1.4817927e-38
0.096447468 0.10625249 0.025654316 1.5278181e-38
0.096230686 0.10993034 0.026612759 1.5371451e-38
0.095577776 0.11347851 0.028496087 1.5279631e-38
0.094446003 0.1167601 0.030279338 1.5279276e-38
0.093281031 0.12034953 0.03139475 1.4911203e-38
0.092941165 0.12399846 0.032764167 1.352863e-38
0.092976093 0.1278103 0.033934385 1.2240387e-38
0.093268514 0.13235641 0.035162568 1.1504274e-38
0.092400074 0.13612242 0.036296338 1.2149618e-38
0.090829611 0.14008617 0.037646323 1.3252032e-38
0.090223014 0.14332946 0.041415751 1.2791424e-38
0.089472413 0.14460534 0.043102354 1.2331519e-38
0.089738905 0.12486213 0.031501085 1.297688e-38
0.088956118 0.12788466 0.031923503 1.2424415e-38
0.088452697 0.13208956 0.033578813 1.2241844e-38
0.086534083 0.12931883 0.03083998 1.2609897e-38
0.086296022 0.13047987 0.031362414 1.242659e-38
0.21143121 0.049171776 0.052347064 7.0886112e-39
0.20985407 0.047182083 0.049266338 6.4439663e-39
0.17273808 0.041264057 0.025746197 1.1597218e-38
0.14335698 0.011226594 0.020031035 4.7801289e-39
0.14245856 0.014243543 0.020053715 4.873035e-39
0.13896173 0.015838981 0.018091917 4.8737805e-39
0.1375553 0.018514603 0.017848909 5.0581788e-39
0.13567108 0.019230723 0.017270446 4.5989999e-39
0.13596642 0.022092193 0.017902523 5.5238275e-39
0.13319755 0.027191281 0.018191099 6.9985526e-39
0.12512976 0.041324019 0.018533021 1.132278e-38
0.12412536 0.043321908 0.019860923 1.3162734e-38
0.12338388 0.04548794 0.021049857 1.3253845e-38
0.12319297 0.042210251 0.01857096 1.0037099e-38
0.12275243 0.046537936 0.020197034 1.3528994e-38
0.12067372 0.050365984 0.020413637 1.3621189e-38
0.098183334 0.15577313 0.067655444 1.6392831e-38
0.099306583 0.15660799 0.069537401 1.8873482e-38
0.11855537 0.052202523 0.020053864 1.3347476e-38
0.11679494 0.055296183 0.01901415 1.3436789e-38
0.11658442 0.057785749 0.019922674 1.3803744e-38
0.096366763 0.15621489 0.065845668 1.5188915e-38
0.1148659 0.059863329 0.019353241 1.4079612e-38
0.11381555 0.062884837 0.02021125 1.3530788e-38
0.11126441 0.066718161 0.021563411 1.3715891e-38
0.11135668 0.070674598 0.022713155 1.417542e-38
0.11099863 0.072421312 0.023499012 1.4174005e-38
0.094339311 0.15572494 0.061887652 1.1685838e-38
0.10975844 0.069854558 0.021970272 1.4082502e-38
0.1086266 0.074039906 0.022974253 1.4264746e-38
0.10756159 0.076576471 0.022360176 1.3896678e-38
0.091694772 0.15595761 0.059390813 1.1958478e-38
0.10487437 0.07861346 0.021644562 1.4265476e-38
0.10418808 0.081822604 0.022046387 1.4449496e-38
0.089039385 0.154247 0.05470252 1.2239706e-38
0.088869989 0.15676689 0.057021201 1.1780538e-38
0.10251564 0.079926372 0.020476192 1.4543511e-38
0.10183573 0.083338797 0.021361858 1.4450222e-38
0.10069036 0.086887717 0.022024006 1.4356954e-38
0.099573493 0.090255409 0.022902817 1.463029e-38
0.098777533 0.094202697 0.024273694 1.4631383e-38
0.087374985 0.14824274 0.04933247 1.223647e-38
0.087422371 0.15081558 0.051158994 1.2789986e-38
0.087354362 0.15396938 0.05313915 1.29801e-38
0.086854279 0.15631224 0.054842889 1.0310405e-38
0.097638905 0.091084778 0.022483766 1.4630303e-38
0.096725285 0.094180912 0.023272038 1.4631029e-38
0.095748067 0.097886801 0.024293959 1.490762e-38
0.094807684 0.10086352 0.024800688 1.4634253e-38
0.086267769 0.14260846 0.043043584 1.3159857e-38
0.085549116 0.14485648 0.045016229 1.343716e-38
0.085593045 0.14731139 0.04717803 1.3527917e-38
0.08544457 0.15056083 0.049242496 1.3808426e-38
0.092642665 0.1028263 0.02475363 1.4633893e-38
0.092086852 0.10560668 0.025600761 1.5094148e-38
0.090709805 0.10920167 0.026263297 1.5093061e-38
0.089384139 0.11600578 0.029475272 1.5003041e-38
0.088073194 0.11954838 0.030669153 1.4819353e-38
0.087383091 0.12315917 0.030950665 1.3069087e-38
0.086331367 0.1209819 0.029909372 1.4268328e-38
0.08522737 0.12366119 0.029908776 1.1963836e-38
0.084409952 0.1274251 0.030848205 1.2701717e-38
0.083773971 0.13085279 0.03260833 1.2519863e-38
0.15735573 0.074659884 0.026011705 1.5189592e-38
0.16618726 0.023551732 0.026140064 1.2426975e-38
0.14016694 0.0097863078 0.019924045 5.0574277e-39
0.14040393 0.012920558 0.020115316 4.8733938e-39
0.1373294 0.010915726 0.018520623 4.6904655e-39
0.13801026 0.014057517 0.01811263 4.7822953e-39
0.1344552 0.012186468 0.017732501 4.3216773e-39
0.13394868 0.014739096 0.016882479 3.679196e-39
0.13386893 0.019503415 0.017042726 4.4149758e-39
0.13327026 0.022423148 0.018356353 5.6131532e-39
0.13060337 0.015877008 0.015310615 3.4937243e-39
0.13089418 0.019822478 0.016043067 4.0465352e-39
0.13236064 0.022644371 0.017450213 5.0617703e-39
0.12867117 0.019328177 0.014237016 3.4011896e-39
0.12436485 0.038459837 0.019034296 9.8505327e-39
0.12264132 0.040543497 0.018463194 8.0109459e-39
0.12064302 0.043070078 0.020119876 1.2338008e-38
0.1197021 0.046348989 0.020161301 1.3896325e-38
0.11914593 0.049161255 0.020328999 1.3804858e-38
0.11772025 0.043005288 0.019476682 9.7594132e-39
0.11799663 0.046078503 0.019672036 1.2887209e-38
0.11654037 0.049866796 0.019800663 1.3254577e-38
0.094280541 0.15752491 0.068804502 1.8500773e-38
0.11242318 0.054103732 0.020112991 1.3252737e-38
0.11407089 0.057053506 0.01985696 1.3711847e-38
0.10967916 0.061229646 0.020984977 1.3344609e-38
0.11081499 0.064503372 0.021197319 1.3530072e-38
0.09280771 0.15654658 0.063614011 1.380382e-38
0.091879249 0.15861136 0.065484047 1.5833212e-38
0.090255976 0.16002363 0.068083763 1.8696634e-38
0.10843927 0.058636844 0.019438684 1.3251691e-38
0.10786748 0.061587125 0.019333035 1.3252049e-38
0.10780525 0.065906763 0.020342946 1.3528622e-38
0.10730088 0.069756359 0.021397293 1.3897749e-38
0.10687292 0.072489977 0.022108674 1.4356586e-38
0.09007895 0.15721023 0.060895443 1.3253488e-38
0.089040399 0.15932946 0.062267125 1.2336189e-38
0.087674737 0.16138445 0.06545639 1.3076287e-38
0.10661209 0.059081197 0.017618328 1.2977655e-38
0.10515124 0.062108815 0.016882002 1.297725e-38
0.10442632 0.066114038 0.018403292 1.3160911e-38
0.10375696 0.070351064 0.020653725 1.3896689e-38
0.10388398 0.074694932 0.021109581 1.4081086e-38
0.10259819 0.076952517 0.021888375 1.4265479e-38
0.086895406 0.15798445 0.05772382 1.0397616e-38
0.085644484 0.15950719 0.060049415 1.076854e-38
0.085231364 0.16124561 0.063077927 1.1416768e-38
0.10242832 0.066785902 0.018054426 1.3252377e-38
0.10158658 0.0708915 0.019901544 1.3803781e-38
0.1001929 0.074232817 0.02001977 1.3897061e-38
0.099792242 0.078638554 0.020064235 1.4266571e-38
0.099151313 0.082277387 0.0207026 1.4265119e-38
0.09879756 0.0851807 0.021448791 1.3989242e-38
0.086345911 0.14591172 0.048772186 1.186663e-38
0.084837198 0.15432376 0.052808255 1.2055996e-38
0.084081948 0.1572969 0.055237681 9.2948085e-39
0.082268119 0.16016753 0.057878286 9.7576111e-39
0.096163511 0.081896484 0.020607173 1.4356939e-38
0.096325994 0.08637619 0.021497965 1.4446633e-38
0.094899833 0.089832723 0.022078067 1.4722497e-38
0.094392598 0.094019651 0.022408396 1.4722868e-38
0.093793929 0.096939445 0.023722082 1.4999457e-38
0.084096014 0.14423954 0.045002788 1.353084e-38
0.083712697 0.14821661 0.047294915 1.4175102e-38
0.083274722 0.15125579 0.048877865 1.3439297e-38
0.081528783 0.15401125 0.051359177 1.2145333e-38
0.080150962 0.15703732 0.053427577 1.0307888e-38
0.079456866 0.160198 0.055636764 9.9423359e-39
0.091463804 0.090628684 0.021710634 1.4539192e-38
0.091319263 0.093640029 0.022354662 1.4724663e-38
0.090289831 0.097176611 0.023411512 1.4817212e-38
0.089901149 0.1007852 0.024152309 1.4542392e-38
0.089584887 0.1047093 0.024846256 1.4818993e-38
0.080929995 0.1377719 0.041910648 1.4081084e-38
0.082592845 0.14145765 0.04301998 1.4265825e-38
0.080575883 0.14398566 0.044095159 1.4174732e-38
0.079761147 0.14746156 0.045727134 1.4082174e-38
