# .PCD v0.7 - Point Cloud Data file format
VERSION 0.7
FIELDS x y z rgb
SIZE 4 4 4 4
TYPE F F F F
COUNT 1 1 1 1
WIDTH 974
HEIGHT 1
VIEWPOINT 0 0 0 0 1 0 0
POINTS 974
DATA ascii
0.087353043 0.12660426 0.036304057 1.8590741e-38
0.086102635 0.12947991 0.036936522 1.7771119e-38
0.083659872 0.038385034 0.040088415 1.8596511e-38
0.083660886 0.041569822 0.03867197 1.8412115e-38
0.083455041 0.12947965 0.036923051 1.8217967e-38
0.079838887 0.039206743 0.040162206 1.8595425e-38
0.079443939 0.042041145 0.039299309 1.8411043e-38
0.080807328 0.12815657 0.036961079 2.341397e-38
0.075526811 0.042839989 0.040082514 1.7766405e-38
0.075492188 0.045399986 0.038348258 1.7397618e-38
0.072856225 0.043495867 0.040210187 1.7580224e-38
0.07172019 0.046176564 0.038813531 1.6659677e-38
0.070806496 0.1311475 0.035793245 2.331002e-38
0.07021752 0.13344678 0.03670162 2.3215291e-38
0.068885237 0.047463909 0.040035844 1.6751497e-38
0.06722188 0.049683154 0.039274037 1.7305057e-38
0.066545479 0.052791469 0.037815392 1.7394747e-38
0.068703279 0.13152426 0.035100698 2.2936212e-38
0.067230865 0.13426283 0.035987616 2.2380146e-38
0.063846976 0.050495628 0.039463699 1.8134828e-38
0.063783072 0.13531336 0.035428882 1.8878151e-38
0.063016735 0.13736273 0.036012471 1.8507916e-38
0.060280979 0.051431492 0.039837956 1.8408897e-38
0.059745841 0.054088742 0.038953662 1.7486948e-38
0.059506014 0.057187457 0.037608862 1.7212862e-38
0.059953764 0.13588813 0.034553111 1.4273036e-38
0.059460759 0.13788116 0.035874248 1.4641817e-38
0.056640849 0.054407462 0.039703846 1.610832e-38
0.055672631 0.057891499 0.038437724 1.7030263e-38
0.055106454 0.061144035 0.03743273 1.6385974e-38
0.054673836 0.13588759 0.034526289 1.2708918e-38
0.05591777 0.13831431 0.036010981 1.2983001e-38
0.052104563 0.058236495 0.039246082 1.6569649e-38
0.051909342 0.062019341 0.038049638 1.5923205e-38
0.050706856 0.064660951 0.037273705 1.5371836e-38
0.051916212 0.13595508 0.035176814 1.1320991e-38
0.05224897 0.138451 0.036215782 1.2890078e-38
0.049029522 0.059367254 0.039472461 1.6015021e-38
0.047946393 0.062391587 0.039063573 1.5095949e-38
0.047945812 0.065319739 0.037901223 1.4728256e-38
0.046571344 0.13202572 0.035635889 1.2141766e-38
0.048553348 0.13334683 0.035594642 1.1404543e-38
0.045058534 0.063335299 0.039298058 1.353008e-38
0.04407458 0.066244327 0.038779795 1.4082156e-38
0.042787433 0.06927669 0.037054181 1.3992107e-38
0.042793214 0.12797239 0.034773469 1.0306829e-38
0.043821126 0.13075879 0.036243021 1.2883619e-38
0.04002443 0.069945388 0.038515329 1.3530411e-38
0.039688006 0.073709145 0.037295103 1.3898849e-38
0.038300335 0.078113578 0.03668797 1.3898506e-38
0.039246187 0.12776238 0.035364032 1.2887221e-38
0.039676428 0.13059825 0.036281884 1.4819021e-38
0.038446486 0.13344365 0.036540329 1.5932548e-38
0.036299527 0.074353486 0.038491905 1.3346747e-38
0.035612911 0.077678151 0.037691951 1.3620831e-38
0.03420876 0.081806384 0.03652364 1.3803413e-38
0.033549026 0.084444329 0.036417842 1.3343517e-38
0.033550203 0.096315369 0.035956562 1.2887204e-38
0.033550456 0.098953381 0.035854101 1.2885754e-38
0.033550844 0.10291039 0.035700321 1.2517335e-38
0.034840316 0.12732714 0.034924984 1.0766386e-38
0.035930276 0.13073573 0.035965562 1.3168133e-38
0.035798907 0.13344339 0.036526918 1.4550702e-38
0.031890199 0.082065642 0.038169861 1.4081801e-38
0.031398922 0.085787229 0.037188709 1.3157663e-38
0.031501204 0.08973214 0.036535561 1.2796089e-38
0.031212568 0.094410054 0.037770152 1.3346025e-38
0.031162247 0.099049836 0.03783983 1.3346028e-38
0.03136611 0.1029636 0.036687911 1.2976161e-38
0.031138688 0.10656682 0.036046386 1.2976493e-38
0.030119643 0.11056028 0.035385668 1.2610972e-38
0.029592872 0.12269507 0.034911454 8.9281938e-39
0.031359583 0.12695214 0.035155296 1.0120637e-38
0.031962723 0.13073534 0.035945415 1.1417842e-38
0.031827524 0.133443 0.036506712 1.3444008e-38
0.029174984 0.083175898 0.038446426 1.5184907e-38
0.028687134 0.086079799 0.038131058 1.3621526e-38
0.028948158 0.089442201 0.037701488 1.3347466e-38
0.029176027 0.093758389 0.038035274 1.3806632e-38
0.029176682 0.10037245 0.037778258 1.3438236e-38
0.028846025 0.10334874 0.037660897 1.3252047e-38
0.028123245 0.10712116 0.037010252 1.2792856e-38
0.027471513 0.11086716 0.036027431 1.2334749e-38
0.026622146 0.1151105 0.035191059 1.0858544e-38
0.027329654 0.11892627 0.035046458 9.3873348e-39
0.027437866 0.12276401 0.035731792 8.8367044e-39
0.027947724 0.12678951 0.036300778 9.1133039e-39
0.027855769 0.12947416 0.036640763 9.7597551e-39
0.024764776 0.10786794 0.037464619 1.3254198e-38
0.024291173 0.11113381 0.037192404 1.3254203e-38
0.023851097 0.11471324 0.036568463 1.1504271e-38
0.023851484 0.11867811 0.036414385 9.8472494e-39
0.023978472 0.12282323 0.03643471 8.3753465e-39
0.024325341 0.12638727 0.036742866 7.822921e-39
0.02520819 0.12947391 0.036627293 8.3779151e-39
0.021235824 0.11955243 0.036992669 9.1082719e-39
0.021236002 0.12153665 0.0369156 8.2824306e-39
0.13528228 0.10518097 0.01300025 1.4364519e-38
0.095968358 0.11292912 0.0094969869 2.2946991e-38
0.10323856 0.066190027 0.021441162 1.5555495e-38
0.10143571 0.068180636 0.019786835 1.5556204e-38
0.087341815 0.084717907 0.028468013 1.436056e-38
0.094348766 0.077118553 0.027429998 1.5926079e-38
0.095753916 0.038238291 0.035526991 1.684552e-38
0.080088742 0.048238635 0.035503626 1.7952952e-38
0.15912387 0.0054999106 0.044126451 5.5270322e-39
0.15885043 0.13109197 0.040245771 2.2584329e-38
0.15484932 0.0035535321 0.045181215 7.0900293e-39
0.15487549 0.0049688332 0.044125497 5.4355597e-39
0.154879 0.13169283 0.039535046 2.2394186e-38
0.15486217 0.13374862 0.04012233 2.258432e-38
0.15071495 0.0060966723 0.044435799 4.8820286e-39
0.15088469 0.13194552 0.039838552 2.2575686e-38
0.14708365 0.0066370666 0.044449985 4.60186e-39
0.1482145 0.13241944 0.040140212 2.2579634e-38
0.14601204 0.13504303 0.039693356 2.2396349e-38
0.14555608 0.13839751 0.039894342 2.3136035e-38
0.14315 0.007006526 0.0449875 5.2443497e-39
0.14157739 0.0095701516 0.044379473 6.8113069e-39
0.13894486 0.01093705 0.043812633 7.8258357e-39
0.13494384 0.010910265 0.044126928 8.2871572e-39
0.13364747 0.14293501 0.038656831 1.7960407e-38
0.13118485 0.010990918 0.04477185 8.5623274e-39
0.12965184 0.012926068 0.043688178 9.1147879e-39
0.13099201 0.14028153 0.038746297 2.0547712e-38
0.13075869 0.14263481 0.03936851 2.1187291e-38
0.12697476 0.014227927 0.043957591 1.0218602e-38
0.12833682 0.14028126 0.038732886 2.0634533e-38
0.12827295 0.14304563 0.039625943 2.2108174e-38
0.12427185 0.015507199 0.044561327 1.1878799e-38
0.122646 0.017202049 0.043986738 1.2429138e-38
0.11925067 0.018987205 0.044000208 1.4545673e-38
0.11563046 0.019491918 0.044362605 1.5833894e-38
0.1143852 0.020884264 0.043301344 1.6577188e-38
0.11364733 0.13241604 0.039964616 1.1229469e-38
0.1143538 0.13369571 0.039418101 1.363051e-38
0.11076492 0.022716347 0.043612003 1.8230613e-38
0.10974914 0.12767656 0.039128184 8.9289211e-39
0.11130658 0.13023451 0.039437056 1.0030223e-38
0.10770015 0.023506764 0.043665826 1.8141295e-38
0.10641998 0.024863329 0.043106258 1.9058573e-38
0.10842121 0.12435988 0.039250374 7.73328e-39
0.10727025 0.12664685 0.039298534 1.0494778e-38
0.10307609 0.026838847 0.04326272 1.9054624e-38
0.1035205 0.12726381 0.039446235 1.334893e-38
0.10034191 0.027461536 0.043975174 1.8413195e-38
0.098831505 0.029362585 0.043092966 1.8320283e-38
0.099092908 0.12704164 0.039432287 1.8695866e-38
0.09533444 0.030934691 0.043414474 1.8596869e-38
0.093808554 0.032821797 0.042732954 1.8689073e-38
0.09510795 0.12770519 0.039386272 2.0538027e-38
0.094369218 0.12975708 0.039969981 2.1369952e-38
0.092365257 0.031446315 0.04377985 1.8780904e-38
0.091153353 0.032821536 0.042719483 1.9240437e-38
0.091123886 0.1277048 0.039366126 2.007489e-38
0.091104254 0.13037497 0.039428949 2.0904294e-38
0.086808451 0.034136016 0.04289645 1.90557e-38
0.08850757 0.12833777 0.03899461 1.887777e-38
0.087144762 0.13101828 0.03916949 1.8783452e-38
0.086791486 0.13427332 0.039756 1.9889443e-38
0.083376132 0.034916792 0.043198943 1.8780182e-38
0.081860527 0.03680047 0.042517662 1.8965643e-38
0.083154529 0.13168576 0.039170861 1.7023812e-38
0.082902722 0.13490398 0.039711773 1.8229902e-38
0.079171732 0.037453238 0.042728782 1.8965281e-38
0.079878092 0.12767363 0.03897655 2.3228222e-38
0.079139419 0.13104275 0.039397836 2.0071566e-38
0.079346247 0.13427258 0.039718211 1.7410158e-38
0.075175613 0.038776673 0.042740524 1.8502518e-38
0.075222902 0.040779669 0.042329311 1.822809e-38
0.075091571 0.13174796 0.039794803 2.144844e-38
0.075091772 0.13374075 0.039717317 1.9893328e-38
0.071758695 0.039415404 0.043365419 1.8505021e-38
0.071198232 0.042096049 0.04254365 1.813483e-38
0.069912896 0.044759005 0.042147756 1.7119945e-38
0.072038084 0.13193712 0.039438248 2.3216316e-38
0.070867039 0.13478321 0.039455175 2.3121275e-38
0.068435259 0.042736389 0.043219566 1.8045519e-38
0.067214184 0.046077143 0.04236877 1.7212145e-38
0.068101808 0.13588715 0.038931191 2.2749638e-38
0.066821188 0.13803174 0.039258182 2.1735497e-38
0.063196354 0.04673437 0.042537212 1.7675638e-38
0.062611476 0.048738137 0.041955948 1.8319569e-38
0.0636217 0.13857636 0.039137483 1.9523867e-38
0.059395015 0.046853911 0.043013632 1.7583083e-38
0.059079319 0.049681947 0.042044342 1.7673124e-38
0.059247062 0.13986802 0.038731456 1.4641473e-38
0.056470156 0.047385033 0.042978168 1.6754744e-38
0.055403255 0.050430186 0.042425513 1.5647692e-38
0.054485075 0.14038132 0.039354563 1.252126e-38
0.05514995 0.14170992 0.039306283 1.2430552e-38
0.051817283 0.051370136 0.042799652 1.5186722e-38
0.051606946 0.054223418 0.042258799 1.573882e-38
0.050000101 0.057359908 0.041556954 1.6105439e-38
0.050539613 0.1393577 0.039124012 1.408899e-38
0.047284886 0.058240183 0.041842461 1.4912272e-38
0.046681434 0.060676131 0.041411161 1.4727871e-38
0.047244385 0.13502702 0.039125502 1.3064429e-38
0.044062555 0.058897659 0.042467833 1.3249522e-38
0.043173105 0.061835717 0.041473329 1.279249e-38
0.042477772 0.065097772 0.041218102 1.3990675e-38
0.041853979 0.13240895 0.039600074 1.6387032e-38
0.043183595 0.13373761 0.039555371 1.6751154e-38
0.040517583 0.062661447 0.042303503 1.3163805e-38
0.03975822 0.066513553 0.041949689 1.3621522e-38
0.038052917 0.0699616 0.041006565 1.3255254e-38
0.040714294 0.13231292 0.038597345 1.6294563e-38
0.039243072 0.13437702 0.039260089 1.7586331e-38
0.036197424 0.07030002 0.041984797 1.3071235e-38
0.034446508 0.073060118 0.041201413 1.3252747e-38
0.035020187 0.13555685 0.039042771 1.5195713e-38
0.032541737 0.074617356 0.041798413 1.3063319e-38
0.031707689 0.07811787 0.041086197 1.3528985e-38
0.030752167 0.080573827 0.040557086 1.4081802e-38
0.031353369 0.13566241 0.038753211 1.4646129e-38
0.029888958 0.13772187 0.039332926 1.5842139e-38
0.026385263 0.085555069 0.040591538 1.2977977e-38
0.026553228 0.090139449 0.040564358 1.316524e-38
0.027884156 0.094621614 0.04056859 1.3715154e-38
0.02731508 0.099173769 0.040388763 1.3622263e-38
0.026638791 0.10286061 0.039670229 1.3528285e-38
0.026108041 0.10577911 0.039554119 1.3157698e-38
0.027333766 0.13169624 0.039053619 1.0591665e-38
0.027894363 0.13440037 0.039451838 1.2711457e-38
0.024565861 0.086573258 0.041293383 1.2334415e-38
0.024566054 0.088566042 0.041215897 1.2429139e-38
0.024567232 0.10052273 0.040751338 1.3806656e-38
0.023648262 0.10336149 0.040493429 1.4358042e-38
0.022974327 0.10667286 0.039670229 1.371374e-38
0.022125691 0.11042188 0.039353549 1.3438266e-38
0.022569954 0.12788907 0.038677037 7.3641093e-39
0.023348451 0.13036829 0.039085031 8.1942259e-39
0.020579457 0.10782921 0.040447116 1.3437879e-38
0.020091668 0.11140269 0.0401057 1.3070909e-38
0.019988209 0.11511197 0.039827526 1.1782295e-38
0.019426838 0.11852898 0.039224863 9.9398248e-39
0.019222483 0.12322126 0.039216638 7.9154684e-39
0.019349113 0.12705362 0.039249122 7.1789922e-39
0.019916862 0.12974975 0.039592028 7.4570238e-39
0.016592473 0.12377107 0.039807439 8.0065584e-39
0.016592801 0.12709238 0.039678395 7.8232545e-39
0.0099449456 0.12377042 0.039773703 9.9358871e-39
0.15203939 0.040384158 0.017826974 1.8233127e-38
0.12453065 0.081593677 0.012861252 1.9247291e-38
0.12259179 0.040241145 0.021574795 1.8411753e-38
0.1721732 0.10190326 0.017540276 2.201532e-38
0.077233173 0.055363715 0.034005105 1.5740243e-38
0.075337768 0.13619229 0.039480269 1.427624e-38
0.016592473 0.12377107 0.039807439 8.0065584e-39
0.1587901 0.13737807 0.04300344 2.1260863e-38
0.15607271 0.00049576163 0.049642801 6.9971092e-39
0.15545075 0.0019985661 0.04774642 6.7223286e-39
0.15639648 0.13480328 0.042691052 2.2860912e-38
0.15593265 0.13764918 0.042835534 2.1378878e-38
0.15204079 0.0004336983 0.050291836 6.7219797e-39
0.15183477 0.002485849 0.048209667 6.6304861e-39
0.15214355 0.13461018 0.042076528 2.2582526e-38
0.15211716 0.13803324 0.042832971 2.2390534e-38
0.15211432 0.14071301 0.042840064 1.1849706e-38
0.14869322 0.00043337047 0.050274849 7.823993e-39
0.14807068 0.0025592595 0.048854828 6.4446781e-39
0.14613082 0.0047076009 0.047093451 4.6025844e-39
0.14858241 0.13440439 0.042233229 2.2489621e-38
0.14812088 0.13800962 0.042591155 2.3136751e-38
0.14837575 0.14124632 0.042800307 1.1318114e-38
0.14406252 0.0030036047 0.048817158 5.5223715e-39
0.14413084 0.0047074072 0.047083318 4.785161e-39
0.14543821 0.14071232 0.042806089 1.8795612e-38
0.14000487 0.003806524 0.049766123 5.7052984e-39
0.13983546 0.0065216832 0.047591507 6.3496028e-39
0.13946463 0.0087039322 0.046904385 7.2705068e-39
0.13624057 0.0039110333 0.050076485 5.9840307e-39
0.13606022 0.0065928586 0.048303485 6.9949526e-39
0.13613133 0.0087035969 0.046887457 7.8243672e-39
0.13262525 0.0044458881 0.050037324 6.6269268e-39
0.13200749 0.0071943998 0.049037814 7.2715802e-39
0.12860815 0.0044454969 0.05001694 6.4443152e-39
0.12862916 0.0071486086 0.049578488 7.2712186e-39
0.12779936 0.0110237 0.047755778 8.7463459e-39
0.12396821 0.011854503 0.049038351 9.4828291e-39
0.12330376 0.014535196 0.046996057 1.1412807e-38
0.11990525 0.012472864 0.049660802 1.0497338e-38
0.1197283 0.014432743 0.048382878 1.1874876e-38
0.11879906 0.017139964 0.046471536 1.3809541e-38
0.11617209 0.015611038 0.048376262 1.2521326e-38
0.11542426 0.017993972 0.046921611 1.4549277e-38
0.1132105 0.016486324 0.049470842 1.2429503e-38
0.11199313 0.01925372 0.047956049 1.5008103e-38
0.11213283 0.020692185 0.046299696 1.6575766e-38
0.11172579 0.1341731 0.042317152 1.7316551e-38
0.11339252 0.13670649 0.042798936 2.1277735e-38
0.1091938 0.020500038 0.049294472 1.5379066e-38
0.10746635 0.02202405 0.046224236 1.7770359e-38
0.10766804 0.13041809 0.042347014 1.3814208e-38
0.10793854 0.13335282 0.04410249 1.8792794e-38
0.10397533 0.023259044 0.047759712 1.8231326e-38
0.10413332 0.024688382 0.046103776 1.9607076e-38
0.10429204 0.13036327 0.042427301 1.5747084e-38
0.10021369 0.024047948 0.047910094 1.8048368e-38
0.099800214 0.026353355 0.046017051 1.8506107e-38
0.10010906 0.12997323 0.042325914 1.7495195e-38
0.099934883 0.1331329 0.043870211 1.8418964e-38
0.096473403 0.024512906 0.049073935 1.7773958e-38
0.095967911 0.02660219 0.047489047 1.8506472e-38
0.095467173 0.028684504 0.045904458 1.8964236e-38
0.096552007 0.13041699 0.042290509 2.1920588e-38
0.095590651 0.13313247 0.043848157 2.2288658e-38
0.092178747 0.028218348 0.048407674 1.8872379e-38
0.091742449 0.030324239 0.046322167 1.8872738e-38
0.093477316 0.13127357 0.041908145 2.201244e-38
0.091848306 0.13388228 0.042924225 2.2102845e-38
0.090458855 0.13690749 0.044676065 2.2382667e-38
0.08910913 0.028526288 0.048880517 1.8874542e-38
0.087751463 0.030889541 0.047352254 1.9147894e-38
0.088944294 0.13393778 0.041781545 2.0811039e-38
0.087599069 0.13711467 0.043402553 2.2009203e-38
0.08398068 0.13806903 0.042882502 2.025678e-38
0.079814486 0.034527242 0.045998216 1.9056035e-38
0.079928413 0.13813996 0.041947842 2.0442969e-38
0.07907749 0.14092049 0.044462383 2.1825886e-38
0.075948268 0.035286874 0.046883106 1.9055344e-38
0.076134846 0.036676571 0.045495749 1.8872018e-38
0.075477943 0.13526878 0.041661382 1.9336575e-38
0.075622253 0.13784108 0.04183507 2.0258907e-38
0.071893439 0.036607631 0.047144771 1.8503245e-38
0.071395375 0.03798883 0.045920908 1.8593996e-38
0.07214465 0.13526845 0.041644454 2.2938344e-38
0.071702205 0.13816859 0.041958511 2.2659237e-38
0.07104332 0.14091969 0.044421554 2.2565225e-38
0.067666166 0.038888276 0.047225356 1.8780555e-38
0.067802131 0.04167198 0.045259237 1.8597251e-38
0.065469131 0.044669487 0.045130908 1.7672413e-38
0.068367317 0.13948712 0.041461349 2.2378711e-38
0.067349374 0.14173979 0.043703854 2.2564514e-38
0.063719891 0.039908908 0.047975779 1.8227021e-38
0.063789345 0.042924196 0.046190977 1.8043354e-38
0.064135812 0.044669356 0.045124114 1.7764607e-38
0.062811829 0.13926452 0.041441798 1.9885464e-38
0.063781776 0.14151643 0.043694377 1.9981256e-38
0.060990624 0.039896838 0.048295856 1.7676724e-38
0.059939794 0.043431833 0.04740268 1.7399427e-38
0.059877314 0.14188859 0.04299283 1.5654924e-38
0.055968747 0.044056132 0.047708452 1.6570731e-38
0.055760525 0.046326995 0.045267344 1.6755109e-38
0.054802991 0.048665419 0.044921517 1.6293412e-38
0.056647375 0.14262949 0.043614864 1.3166357e-38
0.052956901 0.044579178 0.048073113 1.5650216e-38
0.05178947 0.047281027 0.046961486 1.5371469e-38
0.05207888 0.049546007 0.045207024 1.5373263e-38
0.048940204 0.048592895 0.047896743 1.4542072e-38
0.047753811 0.051285606 0.046928406 1.4359842e-38
0.048076861 0.054210983 0.045005322 1.4910862e-38
0.046803892 0.056658596 0.044570208 1.4727179e-38
0.047273517 0.13823929 0.041803002 1.620198e-38
0.046940774 0.14091732 0.044299185 1.8049444e-38
0.044923514 0.052606612 0.047720313 1.3806684e-38
0.043742567 0.05529388 0.046752214 1.4172576e-38
0.044137299 0.057324499 0.044530749 1.4080373e-38
0.04347834 0.13526562 0.041498899 1.6844836e-38
0.044042766 0.13798849 0.041952074 1.8327475e-38
0.043717206 0.14084543 0.0436185 1.9528169e-38
0.040712267 0.056191046 0.046225429 1.4265124e-38
0.039915726 0.059089355 0.045608401 1.3252402e-38
0.039248958 0.061987169 0.044324815 1.343932e-38
0.038360417 0.065539956 0.044182241 1.4077471e-38
0.040811718 0.13526537 0.041485429 1.8415368e-38
0.039556921 0.13786575 0.041923821 1.860226e-38
0.039576083 0.14091659 0.044261754 1.9155791e-38
0.036572829 0.06019257 0.046716094 1.2701403e-38
0.035912871 0.063479856 0.046251416 1.3349282e-38
0.035274699 0.066650681 0.045124173 1.2787842e-38
0.034805268 0.069314532 0.044017494 1.2792513e-38
0.035760239 0.1384615 0.042169571 1.7311517e-38
0.035224289 0.14125067 0.044226706 1.7587728e-38
0.032873437 0.064647764 0.047191262 1.2608111e-38
0.032404512 0.067320183 0.046084344 1.2237537e-38
0.031961486 0.070653193 0.044826686 1.2792874e-38
0.031250209 0.073977329 0.043818235 1.3157683e-38
0.032210886 0.13856715 0.042314112 1.6483929e-38
0.032881036 0.14158493 0.044201791 1.8050875e-38
0.028547466 0.072222702 0.046207905 1.3250614e-38
0.027694672 0.075339489 0.045891821 1.2884673e-38
0.028035447 0.078205317 0.044137955 1.3254179e-38
0.026806504 0.080638535 0.043536901 1.3622261e-38
0.027487561 0.13772473 0.041922629 1.5474434e-38
0.024840415 0.076689318 0.046682537 1.3804072e-38
0.023804978 0.079336472 0.045144916 1.3068004e-38
0.024104238 0.082196578 0.043629467 1.2885454e-38
0.023140386 0.085634403 0.043324113 1.2150028e-38
0.023254991 0.090245336 0.043545842 1.2337641e-38
0.024093494 0.093970388 0.043227434 1.2978997e-38
0.023974895 0.097791977 0.042855978 1.3439666e-38
0.022808522 0.10062306 0.042739987 1.3899575e-38
0.023978487 0.1340979 0.041445255 1.2249741e-38
0.023932725 0.13669768 0.042344809 1.6027254e-38
0.020823702 0.080703035 0.046506166 1.2053513e-38
0.020375013 0.08363571 0.045989692 1.1319196e-38
0.01986973 0.087195136 0.045248389 1.1046549e-38
0.020263448 0.09072075 0.045613766 1.1320964e-38
0.0198704 0.094209373 0.044975877 1.1781961e-38
0.019946441 0.097998977 0.043716967 1.2611732e-38
0.020054117 0.10224225 0.043063402 1.34379e-38
0.019087344 0.10596599 0.04276371 1.3347483e-38
0.018809423 0.10928279 0.042383194 1.30709e-38
0.020144925 0.13126634 0.041535735 8.194593e-39
0.020047709 0.13397489 0.041874826 1.0774634e-38
0.019634575 0.13683274 0.043652058 1.492523e-38
0.016956493 0.098064914 0.045144916 1.1967787e-38
0.016539812 0.10231625 0.044443786 1.2611005e-38
0.015668064 0.10607339 0.044604659 1.2704647e-38
0.01599282 0.10999106 0.043008566 1.2518449e-38
0.016030774 0.11464648 0.04266119 1.1690079e-38
0.015877053 0.11874203 0.042000771 1.0399707e-38
0.015699565 0.12149549 0.041892886 8.6501412e-39
0.015144482 0.12626961 0.041704535 8.0069241e-39
0.01595439 0.13031426 0.04155153 8.1913532e-39
0.016021386 0.13398516 0.041965187 9.2991273e-39
0.01502803 0.13766223 0.043863237 1.1877006e-38
0.011620417 0.1062921 0.045465171 1.2334424e-38
0.011861593 0.11002555 0.043542266 1.2611351e-38
0.011913493 0.11401454 0.043165147 1.2053828e-38
0.01204133 0.11797496 0.042455912 1.0860332e-38
0.012144089 0.12193925 0.0418576 9.2937393e-39
0.012144476 0.12593624 0.041702271 8.4646947e-39
0.012144893 0.12993322 0.041546941 8.8363471e-39
0.012017384 0.13398476 0.041944861 9.298784e-39
0.011762619 0.13810098 0.042895615 1.0497305e-38
0.0087751001 0.1074626 0.045405209 1.1967073e-38
0.0077205449 0.11027357 0.044790328 1.2152512e-38
0.0076975822 0.11407486 0.044030964 1.1781928e-38
0.007934168 0.11800831 0.042878509 1.0399724e-38
0.0079477876 0.12178215 0.041967392 9.4792404e-39
0.0079482347 0.12611341 0.041799247 9.1104341e-39
0.0080921799 0.1299535 0.041747928 8.928177e-39
0.0079357624 0.13401675 0.042256474 7.915474e-39
0.0077531338 0.13810059 0.04287523 8.4683045e-39
0.0065754503 0.14269999 0.042023361 9.0225488e-39
0.0047587305 0.11482141 0.045098841 1.0492276e-38
0.0038875788 0.11823947 0.043710768 8.0026488e-39
0.0039563328 0.1220008 0.042591929 7.5452678e-39
0.0038758963 0.12603207 0.042768478 7.1772041e-39
0.003634423 0.13012728 0.043608904 6.0723111e-39
0.0047606528 0.13422297 0.044344962 6.5322088e-39
0.0047609806 0.13756806 0.044215024 7.0871735e-39
0.004172042 0.14283317 0.042005956 6.723437e-39
0.00074210763 0.11950415 0.044896543 6.2537975e-39
0.00074234605 0.12218022 0.044792473 5.9822595e-39
0.00074270368 0.12552533 0.044662535 6.3481665e-39
0.11938384 0.028989732 0.03819555 1.2979049e-38
0.1466472 0.00034065545 0.051268935 7.4570196e-39
0.14396532 0.00034039468 0.051255286 6.8123789e-39
0.14262453 0.0016801953 0.051196396 6.1637977e-39
0.13987796 0.00021666288 0.05257374 6.3499714e-39
0.13994265 0.0016799197 0.051182806 5.9811903e-39
0.13583188 0.00018543005 0.052887976 5.9840461e-39
0.13558465 0.0020144954 0.05114758 6.0762515e-39
0.13168207 0 0.054875433 5.9833342e-39
0.13167137 0.0025844425 0.051677525 6.2603037e-39
0.12902835 6.1415136e-05 0.054192543 5.6145461e-39
0.12816007 0.0029536262 0.051823974 6.1680884e-39
0.12651181 0.0070100799 0.0512411 7.5474328e-39
0.1265341 0.0097182579 0.05080235 8.5605085e-39
0.12492085 0.0040111765 0.055018902 6.9974708e-39
0.12385299 0.0070077926 0.053270817 7.7321715e-39
0.12382831 0.009691596 0.051123261 8.3789843e-39
0.11955158 0.0080803335 0.054499924 8.5630224e-39
0.11971615 0.010268793 0.052247405 9.3016665e-39
0.11582445 0.011274386 0.052831888 9.6704686e-39
0.11513655 0.013736967 0.05058825 1.1050884e-38
0.11154768 0.014880951 0.053241968 1.1785203e-38
0.11106968 0.01772251 0.050913215 1.3624459e-38
0.11105324 0.13843866 0.046556056 2.2477019e-38
0.11077459 0.14146034 0.049606204 2.2574617e-38
0.10775065 0.015818007 0.054222703 1.0217174e-38
0.10741954 0.018802386 0.052228689 1.197248e-38
0.10775022 0.13536084 0.046074986 2.146611e-38
0.10748534 0.13867393 0.048808277 2.1926008e-38
0.10469374 0.016137168 0.054444969 8.7449054e-39
0.10362403 0.019073278 0.05319953 1.2154706e-38
0.10301875 0.021744389 0.050716043 1.6394959e-38
0.10375062 0.1356705 0.04579258 1.9708649e-38
0.10348848 0.13862836 0.048345029 2.0536594e-38
0.099333994 0.020200625 0.053926229 1.2702874e-38
0.099250257 0.022032462 0.051436186 1.5384054e-38
0.099686123 0.13517402 0.046191394 1.9155069e-38
0.099531837 0.13854679 0.047549546 1.9889048e-38
0.098637603 0.14145914 0.049544573 1.9977627e-38
0.096602812 0.020179041 0.054246783 1.1326345e-38
0.095329143 0.022634514 0.05171448 1.3720251e-38
0.095929608 0.13517365 0.046172321 2.2472682e-38
0.095534645 0.1385121 0.047197104 2.2748549e-38
0.094726883 0.14226729 0.049493313 2.2742427e-38
0.091887638 0.023440622 0.052094638 1.3164545e-38
0.091356628 0.026307523 0.050379395 1.7587055e-38
0.093023144 0.13566944 0.045738041 2.2380502e-38
0.09169171 0.13866095 0.046990991 2.2472343e-38
0.091259472 0.14209643 0.049148917 2.2281845e-38
0.087203115 0.024240188 0.0537076 1.5286834e-38
0.087313101 0.026889618 0.051311851 1.8138774e-38
0.087807439 0.13925824 0.046572864 2.2839303e-38
0.086954132 0.14195408 0.049065828 2.2559836e-38
0.083444305 0.027150095 0.052658141 1.8873456e-38
0.08268927 0.030242831 0.050115645 1.942411e-38
0.084977925 0.13968846 0.045540988 2.1921288e-38
0.083355941 0.14261287 0.047643006 2.200956e-38
0.080014996 0.027831048 0.053531587 1.859401e-38
0.079410322 0.03108082 0.051178396 1.8319567e-38
0.079693139 0.14284569 0.04624927 2.2009207e-38
0.075281873 0.031155545 0.0530864 1.8503611e-38
0.075488023 0.033802234 0.050274432 1.8687657e-38
0.075529918 0.14241663 0.04583174 2.1822274e-38
0.07098148 0.032304496 0.053645492 1.8227739e-38
0.071148559 0.034376346 0.052398324 1.8411771e-38
0.071595736 0.14287665 0.046492934 2.2470538e-38
0.06755951 0.035497047 0.052336574 1.78604e-38
0.06746982 0.14367725 0.048049092 2.1824437e-38
0.062890552 0.036346365 0.053447366 1.7304004e-38
0.063046262 0.037733138 0.052393436 1.7767484e-38
0.063367829 0.14381732 0.046271622 1.9242972e-38
0.06205482 0.1459097 0.048852324 1.8326781e-38
0.058898017 0.036359679 0.053093016 1.4727931e-38
0.058807328 0.038927142 0.051181793 1.638634e-38
0.058149576 0.041870113 0.049205542 1.7029926e-38
0.060171023 0.14370584 0.045258939 1.6759095e-38
0.059178233 0.14594463 0.047168314 1.7865451e-38
0.056147791 0.036345698 0.053413033 1.1511899e-38
0.055095509 0.039105128 0.051521361 1.3442579e-38
0.055090278 0.042196423 0.049427569 1.5650944e-38
0.054807283 0.14370532 0.04523164 1.3626229e-38
0.055019073 0.14653435 0.047874868 1.6114808e-38
0.054585725 0.15043849 0.048971951 1.9434185e-38
0.053462245 0.15358269 0.048844039 1.3992876e-38
0.051375151 0.039525241 0.052264631 1.2338041e-38
0.051168986 0.043021653 0.049750805 1.436128e-38
0.050104357 0.045889147 0.049008548 1.4455264e-38
0.051445998 0.14307734 0.046840131 1.2707513e-38
0.051720351 0.14590868 0.048799694 1.4546776e-38
0.047382578 0.0403875 0.05321151 1.1686173e-38
0.047589406 0.043119177 0.051938832 1.1876313e-38
0.047141984 0.047186755 0.050515711 1.3807016e-38
0.046081945 0.049908571 0.04883188 1.3991414e-38
0.047253609 0.14247389 0.046241939 1.777213e-38
0.044057429 0.047467835 0.052669346 1.2426959e-38
0.043162659 0.051221471 0.050052762 1.3164164e-38
0.042059541 0.053927995 0.048655272 1.3715535e-38
0.043225095 0.14247349 0.046221495 1.9617482e-38
0.0413149 0.048472226 0.052866518 1.1225544e-38
0.039773151 0.051170237 0.052587152 1.223969e-38
0.038037136 0.057947423 0.048478723 1.2977974e-38
0.039161861 0.14318691 0.047774315 1.9062161e-38
0.037269637 0.052514497 0.052688897 1.205782e-38
0.035729468 0.055483986 0.052165449 1.2242218e-38
0.035160288 0.058941439 0.049426198 1.2333691e-38
0.034014732 0.061966855 0.048302114 1.2886137e-38
0.035545021 0.14321324 0.048822284 1.7404085e-38
0.033224374 0.056556761 0.052511275 1.1601888e-38
0.032264665 0.059526537 0.051790535 1.1873076e-38
0.031467929 0.063030556 0.050249279 1.2333331e-38
0.030439407 0.067326263 0.048075676 1.2053144e-38
0.029796422 0.13978848 0.046257555 1.6852359e-38
0.031340659 0.14102313 0.04521662 1.7778285e-38
0.028052539 0.063679203 0.052065372 1.2147503e-38
0.027857408 0.067137748 0.050071478 1.2148228e-38
0.026759818 0.070902631 0.048418462 1.2974409e-38
0.02597031 0.074025534 0.047792673 1.3437149e-38
0.027110741 0.13978821 0.046243906 1.6946702e-38
0.028716922 0.1413449 0.048193097 1.7780778e-38
0.024128526 0.067718595 0.051316619 1.1780507e-38
0.023534834 0.071360886 0.049885333 1.3163079e-38
0.023040488 0.075202972 0.048107326 1.3896654e-38
0.021947905 0.078044958 0.047616065 1.3343852e-38
0.023180947 0.13906744 0.047052443 1.7871893e-38
0.023792878 0.14145178 0.049164593 1.833431e-38
0.021088585 0.068683557 0.051978409 1.0863945e-38
0.020522177 0.071373783 0.051370621 1.1965248e-38
0.019428164 0.075397052 0.050041199 1.1872326e-38
0.019671842 0.079127803 0.048162758 1.2240388e-38
0.018260822 0.083069369 0.047402024 1.0583417e-38
0.017926157 0.088764094 0.047179103 1.0765267e-38
0.01792635 0.090774 0.047100961 1.0673413e-38
0.017926544 0.092783913 0.047022879 1.0953629e-38
0.019436717 0.13925713 0.047559917 1.8330715e-38
0.017044052 0.080137372 0.051512778 1.095037e-38
0.01560162 0.083723098 0.049364686 9.7540126e-39
0.015765503 0.087445065 0.047886491 9.8476474e-39
0.015020341 0.090809688 0.04808563 1.0215348e-38
0.015119627 0.094145998 0.047511637 1.0676316e-38
0.014499381 0.098158829 0.047130227 1.1412102e-38
0.014239877 0.10182816 0.046652675 1.215075e-38
0.016056105 0.13927186 0.046407878 1.3911063e-38
0.015850306 0.14137942 0.048459947 1.418008e-38
0.01322487 0.084826022 0.050310552 8.7398607e-39
0.011827409 0.087523915 0.05042094 8.7423676e-39
0.01120548 0.090881258 0.050064981 9.8483761e-39
0.011357754 0.094217613 0.049269021 9.7547119e-39
0.011244923 0.098407149 0.048343003 1.0397948e-38
0.011069164 0.10219717 0.047289431 1.1319554e-38
0.0098821223 0.1048426 0.046513498 1.1407095e-38
0.010923401 0.1425 0.047557414 1.1325266e-38
0.0085040182 0.088446446 0.051146626 6.8084188e-39
0.0082795024 0.090916939 0.051049411 7.271192e-39
0.008090198 0.09446086 0.050481915 8.1920567e-39
0.0075831562 0.098130718 0.050140142 8.9267673e-39
0.0072135031 0.10243555 0.048166037 1.0030612e-38
0.0069733858 0.10602898 0.046702683 1.0674189e-38
0.0058597177 0.10886202 0.04633683 1.1507854e-38
0.0074193478 0.14224678 0.04576242 9.3891874e-39
0.0039568841 0.09932664 0.050450504 6.619392e-39
0.0035713762 0.10216314 0.049837947 7.7293045e-39
0.0035273135 0.10625842 0.047760546 8.8320605e-39
0.0037278086 0.11023355 0.046773195 1.0034171e-38
0.002691254 0.1140592 0.046547711 9.2004759e-39
0.0018377006 0.11690128 0.046004057 7.2636698e-39
0.0025098771 0.13432059 0.045330644 5.7975095e-39
0.0028765053 0.13837528 0.045508504 6.8116544e-39
0.0026040971 0.1414631 0.046054304 6.4436258e-39
0.00086373091 0.10371798 0.05051434 9.0974552e-39
0.0011071563 0.10635525 0.04941237 8.366772e-39
0.0011075437 0.11039221 0.04925549 8.0977353e-39
0.00049681962 0.11757112 0.045971215 6.4371434e-39
0.00049780309 0.12762067 0.045580685 5.9815462e-39
0.00049807131 0.13030055 0.045476615 5.613121e-39
0.0011104643 0.13999653 0.04810524 6.5354416e-39
0.12742528 0.0010445118 0.058149278 5.9815518e-39
0.12607114 0.0023976415 0.058089793 6.2592037e-39
0.12208036 0.0051886663 0.056960285 7.8290041e-39
0.12065434 0.0051036365 0.057957113 8.0116269e-39
0.11934994 0.006512098 0.057228565 8.1942371e-39
0.11523767 0.0091629103 0.057771862 9.1158515e-39
0.11389622 0.13907617 0.05271709 2.0911515e-38
0.11185227 0.011869092 0.057649553 9.7616329e-39
0.109821 0.013222165 0.05758667 1.0216805e-38
0.11254202 0.13975266 0.052683949 2.266286e-38
0.10711255 0.014124058 0.057537913 9.2048171e-39
0.10712515 0.14178202 0.052577615 2.202035e-38
0.10304992 0.015928023 0.057447135 8.1060001e-39
0.10169578 0.017281152 0.05738765 9.3938803e-39
0.10283128 0.14227997 0.052136064 2.145996e-38
0.099404015 0.018345267 0.05658406 9.9380816e-39
0.099237792 0.14347461 0.052042782 2.062665e-38
0.094961278 0.019557238 0.056931376 9.6642847e-39
0.095668502 0.14375618 0.051942229 2.2008844e-38
0.093582861 0.14584048 0.052351058 2.3112676e-38
0.092216171 0.019986752 0.057234347 9.1097068e-39
0.089998394 0.021810919 0.056818545 1.0027386e-38
0.090989739 0.1443758 0.051393986 2.1635409e-38
0.090874322 0.14584023 0.052337408 2.1186628e-38
0.087741964 0.022261791 0.056789517 1.1220567e-38
0.087240875 0.14406538 0.051637173 2.2191408e-38
0.086134389 0.14583975 0.052313268 2.1917331e-38
0.084216058 0.024103992 0.056032956 1.7036729e-38
0.081511468 0.025455091 0.055966735 1.8323885e-38
0.082833998 0.14576405 0.051632166 2.3117322e-38
0.079429388 0.14578256 0.051780939 2.302443e-38
0.076642886 0.028104797 0.056839764 1.8318498e-38
0.075707547 0.14612052 0.051748931 2.1270562e-38
0.072045393 0.030409146 0.055726111 1.7952583e-38
0.072009377 0.14576299 0.05157721 2.2103171e-38
0.067889825 0.031728245 0.056320906 1.7676001e-38
0.066636249 0.033561785 0.055576086 1.7670982e-38
0.067340098 0.14662725 0.051986992 2.1826245e-38
0.063880064 0.034222223 0.055869997 1.647785e-38
0.063904263 0.14642891 0.051426768 1.9890497e-38
0.061226942 0.034912616 0.055496156 1.702957e-38
0.059129916 0.14848518 0.0515728 1.9979845e-38
0.059130169 0.1511898 0.051467717 2.1554671e-38
0.059049822 0.15395668 0.051860273 1.8319936e-38
0.054465257 0.036263309 0.055409312 1.0860446e-38
0.055828691 0.14842641 0.051057994 1.8234591e-38
0.057181306 0.15112928 0.050959826 2.0536923e-38
0.053112887 0.036263175 0.055402458 1.0306889e-38
0.050408289 0.037614275 0.055336237 9.7583721e-39
0.050923616 0.14786617 0.052055597 1.6394975e-38
0.051600948 0.14989614 0.051980197 1.897678e-38
0.048379891 0.03896543 0.055273414 1.0767502e-38
0.047714114 0.14437154 0.051174343 1.6021874e-38
0.047919989 0.14614603 0.051856935 1.6113353e-38
0.044487923 0.043910138 0.055395007 1.1136604e-38
0.042684361 0.046162866 0.055298328 1.0675623e-38
0.04365702 0.14437115 0.051153719 1.9151119e-38
0.043474942 0.14583555 0.052096725 1.8875242e-38
0.03983447 0.047397655 0.055402637 1.0674164e-38
0.038238227 0.049775325 0.054801881 1.1780146e-38
0.04095228 0.14437088 0.05114001 1.8874888e-38
0.039412126 0.14583515 0.052076161 1.7127498e-38
0.03669399 0.048399825 0.055848181 1.1963412e-38
0.035727054 0.05138826 0.055126786 1.1413514e-38
0.03485772 0.053829074 0.05462718 1.1689403e-38
0.035542831 0.14437035 0.051112533 1.6938107e-38
0.033995062 0.14583461 0.052048564 1.4912691e-38
0.032631516 0.051782589 0.05569613 1.0030978e-38
0.031667307 0.055444986 0.054948509 1.0768181e-38
0.030508578 0.058329627 0.054763734 1.1042973e-38
0.030998096 0.14411542 0.051849842 1.7404404e-38
0.028068408 0.059497111 0.05517298 1.0305047e-38
0.026744321 0.061936438 0.054270923 1.186911e-38
0.027264848 0.14310595 0.051920116 1.8699835e-38
0.02422072 0.063623108 0.054943085 1.0491564e-38
0.022581294 0.065990493 0.05459255 1.0033115e-38
0.023244902 0.14254278 0.051721513 1.8608023e-38
0.019874856 0.068019174 0.054499984 9.1097404e-39
0.017882109 0.071397252 0.054191828 8.7456186e-39
0.019227654 0.14225025 0.051512301 1.8141993e-38
0.016382769 0.07681638 0.05464083 1.0309672e-38
0.015117258 0.079514861 0.054129243 9.8483326e-39
0.013898894 0.082205594 0.05341804 9.1089711e-39
0.015109733 0.1430898 0.051725626 1.3812033e-38
0.013905302 0.14707094 0.050897658 1.0956463e-38
0.01108034 0.08379434 0.053842306 7.7264192e-39
0.012552589 0.1436924 0.051022053 1.2891509e-38
0.012011945 0.14680046 0.050898552 1.0587365e-38
0.0078064948 0.084484033 0.054299414 6.6168445e-39
0.0068199933 0.087346308 0.053382456 6.2545191e-39
0.0057855695 0.090988643 0.053035557 5.7982367e-39
0.0037440807 0.08854343 0.054121017 7.9972426e-39
0.0036373287 0.091006413 0.053524256 6.8916461e-39
0.0033305436 0.094583407 0.053455353 6.1608942e-39
0.0026666373 0.097637102 0.053361773 6.7086982e-39
0.00037717819 0.101799 0.052587986 9.1918201e-39
0.12593892 0.00086316466 0.060150325 6.0733817e-39
0.12451291 0.00077242404 0.061147332 6.4414369e-39
0.12322298 0.0028984994 0.060057342 7.0867783e-39
0.11912434 0.0044524074 0.060309768 7.8272496e-39
0.11567342 0.0048484765 0.060944021 7.549225e-39
0.1148461 0.0072241239 0.060275674 8.1938924e-39
0.11182049 0.0084720366 0.060783744 7.9208774e-39
0.1106393 0.010681108 0.059941232 8.1957001e-39
0.1070921 0.011666998 0.060302019 8.0098388e-39
0.10623775 0.14406003 0.054736257 2.2478084e-38
0.1054875 0.14618084 0.05540061 2.2845075e-38
0.10348263 0.013037853 0.060063541 7.2715675e-39
0.10251347 0.014770836 0.05949086 7.4577469e-39
0.10320529 0.14437121 0.054458559 2.2105712e-38
0.10344752 0.14618063 0.055390239 2.3026962e-38
0.10139441 0.013000913 0.060554683 6.1670052e-39
0.099009208 0.016031459 0.059824407 7.364468e-39
0.099294066 0.14638418 0.054760814 2.2561303e-38
0.095981799 0.016414765 0.060144365 7.090765e-39
0.094704881 0.018502008 0.059306264 8.8309507e-39
0.095739253 0.14695004 0.054920912 2.2744251e-38
0.091591932 0.018808044 0.059778929 8.4672227e-39
0.091963299 0.148141 0.054588556 2.2566684e-38
0.092115484 0.15138568 0.054630101 2.2847217e-38
0.088741019 0.019362871 0.059909701 8.3725019e-39
0.087631352 0.14744645 0.054460108 2.1641125e-38
0.08786691 0.15087517 0.054628253 2.2845087e-38
0.085075423 0.021153163 0.060155094 1.2146419e-38
0.083406404 0.022866752 0.059829831 1.5833182e-38
0.083810657 0.14746103 0.054573536 2.2372206e-38
0.080995739 0.023870707 0.060028732 1.77693e-38
0.078861363 0.025738165 0.058944523 1.8323541e-38
0.079757333 0.14812034 0.054360569 2.3209184e-38
0.079376295 0.15079877 0.05508852 2.3121657e-38
0.075420268 0.02622287 0.059480011 1.7953307e-38
0.075895064 0.14830589 0.05476737 2.2379782e-38
0.074208304 0.15025467 0.055083454 2.2286495e-38
0.071748212 0.027403124 0.059844434 1.6570017e-38
0.0709396 0.029356238 0.058763742 1.7399417e-38
0.06807632 0.027946353 0.059804738 1.3901078e-38
0.067213267 0.029878445 0.059124768 1.5285407e-38
0.068161666 0.14815813 0.054633737 2.2747101e-38
0.066048533 0.15161285 0.054989219 2.1274127e-38
0.063820913 0.031132493 0.059325814 1.4084704e-38
0.063783504 0.14846775 0.054349244 2.0722426e-38
0.06338001 0.15157276 0.054643571 2.1828019e-38
0.062422231 0.15478343 0.054847598 1.730292e-38
0.059236825 0.032022409 0.059601426 1.085503e-38
0.059276402 0.034072101 0.059271753 1.4269464e-38
0.060765788 0.1487775 0.054071724 2.0074559e-38
0.0606611 0.15157272 0.054629683 2.164795e-38
0.056598663 0.034082111 0.059007525 1.1230524e-38
0.054428451 0.15239573 0.053898931 1.9157576e-38
0.054654971 0.1542052 0.05382973 1.6022234e-38
0.049901173 0.14877644 0.05401659 1.7226885e-38
0.050307311 0.15185933 0.05469954 1.8788796e-38
0.050409012 0.15432924 0.054804146 1.3060878e-38
0.046877667 0.14825667 0.05422163 1.6851278e-38
0.047915354 0.15070507 0.054932356 1.9249074e-38
0.042624161 0.042899985 0.05884409 1.0030626e-38
0.043019608 0.14815566 0.054506123 1.8230597e-38
0.039611295 0.044266079 0.058525562 9.3870266e-39
0.038252965 0.046302512 0.058439493 9.9394394e-39
0.039817169 0.147948 0.054664612 1.7218608e-38
0.035438672 0.04764827 0.058873355 1.0219237e-38
0.034273565 0.050387226 0.057760239 1.0586259e-38
0.034962088 0.14651318 0.05402863 1.5833559e-38
0.032039016 0.050592378 0.058741689 9.4777859e-39
0.029973373 0.054231837 0.057588935 9.7514861e-39
0.031368449 0.14617352 0.055024326 1.574277e-38
0.028639242 0.052404009 0.05865401 8.9238778e-39
0.027537808 0.05513091 0.057941973 8.7387873e-39
0.026125968 0.059207387 0.057376146 9.7515113e-39
0.026134402 0.14470288 0.054054141 1.8324613e-38
0.027968496 0.14617319 0.0550071 1.7036715e-38
0.024560034 0.059877966 0.058342874 8.8299067e-39
0.022625715 0.062597245 0.057726979 8.4589536e-39
0.023418263 0.14470261 0.054040313 1.795836e-38
0.023888543 0.14617279 0.054986358 1.6944201e-38
0.021373242 0.064635202 0.057141066 8.0008551e-39
0.019120753 0.066672303 0.058051229 7.9101351e-39
0.019629374 0.14439076 0.054283321 1.6478201e-38
0.01980859 0.14617239 0.054965734 1.4639306e-38
0.017081007 0.068710566 0.057961643 7.9998139e-39
0.015721276 0.071428373 0.057849109 8.004839e-39
0.01515232 0.075497724 0.057187736 9.0196762e-39
0.015876025 0.14473891 0.054334164 1.3995005e-38
0.01550208 0.14707795 0.054908633 1.1785521e-38
0.014369071 0.15024877 0.054779589 8.2796406e-39
0.013001859 0.076864004 0.057624161 8.2785196e-39
0.011803284 0.079567432 0.05679816 7.4491219e-39
0.010510355 0.082276061 0.056400418 6.8059287e-39
0.013232663 0.1447016 0.053988576 1.3073417e-38
0.013009101 0.15024863 0.054772675 8.2860894e-39
0.0079597235 0.08059527 0.057203352 6.0644064e-39
0.0074547082 0.082615025 0.056371689 6.6150368e-39
0.0035298169 0.084467851 0.057080448 1.0212069e-38
0.0033210367 0.08669316 0.05644238 9.567773e-39
0.0010043234 0.087703407 0.056141257 1.316375e-38
0.0010046512 0.091096088 0.056009412 1.232897e-38
0.0010049194 0.09381023 0.055903912 8.9145059e-39
0.092540644 0.10412163 0.013253093 1.3806278e-38
0.10343067 0.081425384 0.017334878 1.1872e-38
0.099579521 0.057625763 0.019281149 1.3622241e-38
0.13596474 0.030454744 0.024691761 1.9520616e-38
0.13206689 0.030437484 0.025006175 1.9060361e-38
0.12164956 0.0019537285 0.063088477 7.1782383e-39
0.12152015 0.14458379 0.059547246 2.2581814e-38
0.12166396 0.14777131 0.057422578 1.8138014e-38
0.11861905 0.0024630651 0.063453615 7.3673533e-39
0.11939381 0.14127353 0.060665786 1.8336097e-38
0.11958992 0.14364865 0.059773982 2.1838487e-38
0.11939435 0.14674748 0.060453057 2.2395918e-38
0.12007958 0.15153727 0.060270429 4.5928538e-39
0.11477724 0.0037122332 0.063652337 7.1822362e-39
0.11542799 0.1410886 0.058901489 2.2297301e-38
0.11541779 0.14315 0.058946431 2.2766553e-38
0.11631286 0.14572081 0.060477316 2.295202e-38
0.11253271 0.0037394837 0.06597501 6.9070814e-39
0.11116528 0.0064676329 0.06319344 7.2740801e-39
0.11141688 0.14415079 0.059312582 2.2580372e-38
0.11186203 0.14629057 0.060432553 2.2490699e-38
0.10805759 0.0074611753 0.064181447 6.2595736e-39
0.10868537 0.14439088 0.057738185 2.2391305e-38
0.10757162 0.14718065 0.059375465 2.2574254e-38
0.1079822 0.15085185 0.060235679 2.2292239e-38
0.10363139 0.008528322 0.065743744 4.6061577e-39
0.10380758 0.010720521 0.063824773 6.1684626e-39
0.1037751 0.14796115 0.058992267 2.3034518e-38
0.10296054 0.14948285 0.060263276 2.3031991e-38
0.10089239 0.0085280538 0.065729797 2.7611787e-39
0.099551812 0.011286441 0.065329909 4.3238353e-39
0.098466314 0.014216483 0.062494159 5.8940099e-39
0.10052519 0.14776923 0.057315171 2.265315e-38
0.10090629 0.14948264 0.060252905 2.2748587e-38
0.096099511 0.012633059 0.065545976 4.416768e-39
0.095342897 0.014521562 0.062966824 5.5220282e-39
0.09427841 0.14924826 0.058226764 2.2377635e-38
0.094908401 0.15067239 0.058674991 2.2837156e-38
0.092675745 0.01263272 0.065528572 3.1253048e-39
0.091559097 0.01552397 0.063186586 4.878814e-39
0.086511768 0.000315696 0.065975845 1.1068568e-38
0.087882474 0.012632251 0.065504253 1.4697407e-39
0.087342396 0.015453685 0.064168632 2.6664874e-39
0.086503319 0.01930926 0.062485695 8.5554582e-39
0.088251188 0.14913079 0.057199895 2.1832352e-38
0.088251323 0.15049359 0.057146966 2.2576754e-38
0.083772749 0.00031542033 0.065961897 7.2925464e-39
0.084459119 0.016737375 0.065327287 4.0515252e-39
0.083286442 0.019573104 0.063638628 1.0308952e-38
0.083477914 0.14913033 0.057175696 2.2195742e-38
0.082979076 0.15125424 0.058892071 2.2565616e-38
0.07897947 0.00031495094 0.065937579 4.6023308e-39
0.079306908 0.020319764 0.064761639 1.3357543e-38
0.079048626 0.022912301 0.062457919 1.7036771e-38
0.074870959 0.00031454861 0.065916717 3.4015721e-39
0.076242492 0.020842046 0.065126121 1.4462113e-38
0.075076364 0.022983298 0.063535869 1.6116611e-38
0.075513922 0.15135828 0.057448983 2.2841814e-38
0.074941345 0.15383688 0.057549953 1.970824e-38
0.071362555 0.02409105 0.063974261 1.4083981e-38
0.069827892 0.026478685 0.061872184 1.4728251e-38
0.071132876 0.15123363 0.057531714 2.2101376e-38
0.070606485 0.15478256 0.059892893 1.859689e-38
0.066684946 0.026791856 0.062344432 1.1047312e-38
0.067721024 0.15123329 0.05751431 2.1456374e-38
0.068038695 0.15495336 0.059873283 1.8044443e-38
0.062955305 0.027743205 0.063622892 9.2040828e-39
0.061489977 0.030517474 0.062673569 1.1691589e-38
0.060493909 0.028367192 0.064753652 9.1104439e-39
0.059100114 0.031539328 0.062621713 1.1044419e-38
0.05581107 0.032274067 0.063910961 9.6610715e-39
0.0546619 0.03461086 0.062479854 9.5761024e-39
0.051763594 0.035249896 0.063441157 9.75297e-39
0.048341863 0.03661805 0.063370585 9.4756699e-39
0.046655804 0.15185227 0.056882858 2.0537245e-38
0.042553544 0.041466586 0.061151266 9.8491159e-39
0.043746889 0.15129095 0.057890654 1.9986235e-38
0.038934007 0.040476996 0.063506424 6.9038724e-39
0.039779499 0.042139333 0.061361194 8.7452641e-39
0.036262393 0.043675981 0.063034952 8.6523048e-39
0.034632161 0.045980617 0.061936259 8.2827992e-39
0.035745054 0.14776285 0.056986332 1.620125e-38
0.035169974 0.14947617 0.059919178 1.6110117e-38
0.032030955 0.047559232 0.062362194 8.2795664e-39
0.029981241 0.050290309 0.062245667 9.1072167e-39
0.031588539 0.14825566 0.057279766 1.5833892e-38
0.030376717 0.14947569 0.0598948 1.638706e-38
0.028260618 0.050528299 0.061727166 9.0135735e-39
0.026189387 0.055092786 0.06053865 8.4611368e-39
0.027426884 0.14783867 0.057608247 1.7129276e-38
0.02763772 0.14947543 0.059880912 1.7223247e-38
0.024204776 0.056417681 0.063479364 8.5526192e-39
0.022937596 0.058896601 0.061575174 8.1838199e-39
0.023122802 0.14795321 0.058582783 1.5836775e-38
0.021474928 0.1494748 0.05984956 1.2435572e-38
0.020053193 0.063950256 0.0601632 6.9902905e-39
0.017791212 0.065994963 0.061073005 7.7261025e-39
0.018985465 0.14813063 0.057137132 1.2888647e-38
0.018865928 0.15049809 0.059196174 1.0496935e-38
0.018736333 0.15358001 0.05967617 7.9234081e-39
0.015496686 0.063260585 0.062740266 8.8281005e-39
0.015467882 0.067362748 0.062259018 8.0937724e-39
0.0151705 0.071448304 0.060347438 8.0094969e-39
0.013917133 0.074170515 0.059734941 8.2774686e-39
0.016435787 0.15106145 0.057760835 8.4719016e-39
0.017366812 0.15357988 0.059669197 7.9219564e-39
0.011535436 0.076235577 0.061143756 7.9086595e-39
0.0098261535 0.078258455 0.059555352 7.2625586e-39
0.0091422349 0.076943561 0.062605262 7.5387629e-39
0.0070916265 0.078748219 0.061523914 7.6299258e-39
0.004135713 0.081005149 0.060420394 1.0303528e-38
0.0032254159 0.08282464 0.060345113 1.0948168e-38
0.16362101 0.064702511 0.010574877 1.7309738e-38
0.14174603 0.076442868 0.009457171 1.2981929e-38
0.11914458 0.080710426 0.010477543 1.3441136e-38
0.13457352 0.058931742 0.012895703 1.9059287e-38
0.15593871 0.075533122 0.0093048811 1.5191761e-38
0.12204812 0.00022859871 0.067160606 6.7187091e-39
0.1193053 0.00022833049 0.067146659 6.6290512e-39
0.11863419 0.14823085 0.061392367 2.1655088e-38
0.11886396 0.15080723 0.062794566 1.2596219e-38
0.11503054 0.0014209002 0.069080114 6.9067381e-39
0.1155853 0.14772838 0.061796665 2.3045659e-38
0.11589164 0.15097138 0.061271966 1.5275975e-38
0.11070485 0.0032804124 0.068652332 6.078041e-39
0.11207838 0.14794511 0.061870515 2.2860562e-38
0.11173581 0.15085858 0.061755657 2.0170995e-38
0.1074671 0.0041685477 0.068934917 4.602569e-39
0.10627742 0.0057086125 0.066867471 4.4156778e-39
0.10903432 0.14822993 0.06134361 2.2854798e-38
0.10720605 0.15097052 0.061227798 2.3308179e-38
0.10629202 0.15371121 0.061116636 1.5741649e-38
0.10302822 0.0046838447 0.069292665 2.116531e-39
0.10387756 0.0067361854 0.066815376 3.5880668e-39
0.10363515 0.15149909 0.062332928 2.3213808e-38
0.10332412 0.15468436 0.063399017 1.4350808e-38
0.099470459 0.004975304 0.069063127 5.5137591e-40
0.099146277 0.007626459 0.066756725 1.1034749e-39
0.09804938 0.0098189898 0.066666007 2.1169108e-39
0.099058397 0.15137902 0.063172102 2.2930061e-38
0.099196546 0.15468395 0.063378036 1.6751471e-38
0.095808476 0.0043577403 0.069869161 2.026499e-39
0.095451102 0.007803645 0.067932069 1.0123583e-39
0.095110729 0.010797549 0.066613019 2.2080386e-39
0.095633738 0.15135615 0.062488377 2.2930408e-38
0.094933107 0.15515769 0.063004315 1.8865576e-38
0.090335235 0.0007776171 0.06847924 1.2533192e-38
0.090163656 0.0024226531 0.067914128 1.3360464e-38
0.092340089 0.0082896687 0.068697929 5.5173885e-40
0.090935774 0.010959435 0.067336142 1.3782583e-39
0.088448547 0.00022528321 0.066990018 1.2169857e-38
0.086745709 0.0030997209 0.067092061 1.5573497e-38
0.086163536 0.0070770197 0.066712081 8.192777e-39
0.086529657 0.011188239 0.066554248 7.350455e-40
