# .PCD v0.7 - Point Cloud Data file format
VERSION 0.7
FIELDS x y z rgb
SIZE 4 4 4 4
TYPE F F F F
COUNT 1 1 1 1
WIDTH 975
HEIGHT 1
VIEWPOINT 0 0 0 0 1 0 0
POINTS 975
DATA ascii
0.097024381 0.041263185 0.039958358 1.8137334e-38
0.096871525 0.043082908 0.038167298 1.6753695e-38
0.094439268 0.041202869 0.039465487 1.8041175e-38
0.092841163 0.043477602 0.037338972 1.795005e-38
0.092310339 0.046622537 0.036338449 1.7952218e-38
0.088962495 0.043595582 0.037086904 1.8597592e-38
0.089070097 0.047056809 0.035804868 1.8411766e-38
0.085141525 0.044345308 0.036871254 1.7583468e-38
0.085206091 0.04738941 0.035553813 1.8042264e-38
0.085436612 0.050587259 0.034523129 1.7858212e-38
0.081513673 0.04482061 0.036521316 1.6658629e-38
0.081218377 0.047328975 0.035131335 1.7030636e-38
0.081491664 0.051169194 0.033916414 1.7673483e-38
0.080710977 0.054167874 0.033170342 1.7215382e-38
0.077284724 0.047461201 0.034995079 1.7032431e-38
0.077425838 0.051131278 0.033704162 1.730938e-38
0.077519596 0.054589666 0.032501221 1.6845861e-38
0.074404612 0.048574068 0.034686208 1.6939526e-38
0.073595107 0.05494161 0.032382488 1.6108321e-38
0.072548449 0.057451189 0.031188905 1.6017916e-38
0.070526928 0.052402928 0.033467233 1.5464385e-38
0.069848686 0.05538056 0.032458663 1.5187784e-38
0.069418162 0.058284037 0.030823231 1.5001222e-38
0.068681985 0.061268963 0.029973447 1.4635705e-38
0.066649258 0.056231789 0.032248259 1.4635682e-38
0.066097826 0.059171461 0.030926943 1.4264389e-38
0.065549523 0.062103964 0.029607058 1.3898835e-38
0.065674752 0.067277893 0.028656244 1.4082859e-38
0.065588802 0.072139166 0.028044701 1.3620101e-38
0.06578216 0.074553601 0.027786613 1.3161292e-38
0.064710408 0.11562978 0.024604321 1.2242933e-38
0.064710408 0.11824267 0.024284601 1.2891135e-38
0.062771559 0.060060643 0.031029284 1.3896289e-38
0.06211853 0.062758483 0.029840052 1.4266544e-38
0.06192109 0.067078166 0.02880913 1.380808e-38
0.062110811 0.071581326 0.027781844 1.3991036e-38
0.06205377 0.075071424 0.027001739 1.3161295e-38
0.060949087 0.078674488 0.026346982 1.1966352e-38
0.060567766 0.11077071 0.023371339 1.3719865e-38
0.061859399 0.11536711 0.023058832 1.2521678e-38
0.060832739 0.11749897 0.023625135 1.2430197e-38
0.057487667 0.067923158 0.028916299 1.3714069e-38
0.057901025 0.071601026 0.027876556 1.3715192e-38
0.058114111 0.075444229 0.026877642 1.279431e-38
0.058003217 0.079070993 0.025728405 1.1780154e-38
0.058371454 0.08252234 0.025377333 1.1783034e-38
0.058371454 0.11118094 0.021870315 1.2702842e-38
0.05798617 0.11462455 0.022400141 1.2705335e-38
0.057278186 0.11774265 0.022907436 1.2335822e-38
0.05501619 0.068371579 0.028511405 1.3898113e-38
0.053897053 0.07155177 0.027449667 1.380521e-38
0.054114312 0.075397171 0.02645123 1.3069806e-38
0.054287761 0.079250038 0.025557458 1.1872693e-38
0.054417759 0.083114572 0.024767697 1.1690108e-38
0.05424723 0.086464368 0.024096787 1.2519884e-38
0.054609358 0.11016551 0.02212137 1.3624063e-38
0.05501619 0.11344392 0.02299571 1.3261051e-38
0.050707698 0.072408132 0.027183652 1.3162751e-38
0.050254524 0.075522229 0.026073694 1.2702109e-38
0.050304055 0.079094738 0.025517881 1.168904e-38
0.051111192 0.083191961 0.025172651 9.2862396e-39
0.051401466 0.087126799 0.024832785 9.6499802e-39
0.050758153 0.090972759 0.023895681 1.0017291e-38
0.049872667 0.09468016 0.023270726 9.0067492e-39
0.049795061 0.098691948 0.022251785 8.8212719e-39
0.049472868 0.10292139 0.021671832 9.0074625e-39
0.049820036 0.10697845 0.022011995 9.8379406e-39
0.05113855 0.10943411 0.022736013 1.1035035e-38
0.047260851 0.098892085 0.023275673 9.5609978e-39
0.047660857 0.10133768 0.02202791 9.8390322e-39
0.17191152 0.081156738 0.016051292 1.3164531e-38
0.18895549 0.080715358 0.019787014 1.2703557e-38
0.15365659 0.076737963 0.015287697 1.5558381e-38
0.12455225 0.095741488 0.01163888 1.6849116e-38
0.14194874 0.087852404 0.015286088 1.6849123e-38
0.10262266 0.046474122 0.038975239 1.3532942e-38
0.067494541 0.070746846 0.026532054 1.3803028e-38
0.17046478 0.015733659 0.061398566 6.9063962e-39
0.1678647 0.015672997 0.060902834 7.2716208e-39
0.16686544 0.016897094 0.059191823 7.4556211e-39
0.16266453 0.01555166 0.059911311 7.362694e-39
0.16257165 0.017141115 0.058673024 7.6385508e-39
0.16247971 0.14909428 0.041481733 2.266968e-38
0.15918687 0.018420763 0.057861328 8.4690177e-39
0.15847123 0.020626422 0.05693996 8.8367226e-39
0.15616432 0.018685013 0.058269918 9.3001951e-39
0.15532288 0.021673575 0.056715608 1.0127082e-38
0.15441731 0.14918724 0.041106939 2.2117257e-38
0.15445809 0.15177226 0.040627539 2.341769e-38
0.15147555 0.022801578 0.056089342 1.169191e-38
0.15068781 0.14631727 0.040052533 2.0814585e-38
0.15107396 0.14920312 0.040857017 2.1191328e-38
0.15104637 0.1518558 0.04064101 2.0366999e-38
0.14836408 0.023102038 0.056219876 1.2063948e-38
0.1474452 0.02495778 0.054276109 1.3352155e-38
0.14746335 0.14528921 0.039481044 2.0537313e-38
0.14732403 0.1484341 0.040681362 2.1372468e-38
0.14355321 0.025725581 0.054070175 1.3350727e-38
0.14238706 0.028084669 0.052401662 1.519246e-38
0.14238706 0.14207432 0.038452387 1.8783445e-38
0.14342299 0.14495483 0.03932631 2.0445834e-38
0.14381394 0.14782658 0.040076375 2.220041e-38
0.14004554 0.026817426 0.053642392 1.3069842e-38
0.13927044 0.028389737 0.052530587 1.5837136e-38
0.139423 0.14416769 0.039058805 1.9981621e-38
0.13544554 0.029594924 0.051386416 1.8511891e-38
0.13583782 0.14165181 0.03749305 1.9620024e-38
0.13521242 0.14411613 0.038455486 1.9896961e-38
0.13178557 0.02986034 0.050987601 1.9338768e-38
0.13201666 0.14183235 0.036475062 1.5376874e-38
0.13174072 0.14468223 0.037098825 1.455145e-38
0.13081351 0.14883727 0.037436843 1.4923481e-38
0.12810007 0.030131701 0.050668538 1.9523158e-38
0.12812775 0.031682633 0.049201787 2.0345726e-38
0.12942405 0.14177185 0.035980701 1.1410654e-38
0.12778287 0.14464238 0.036565781 1.1788425e-38
0.1277259 0.14860097 0.036868215 1.1515794e-38
0.12821344 0.15140459 0.036619425 1.2528528e-38
0.12405977 0.030072808 0.050406873 1.9521359e-38
0.12409402 0.031624846 0.048941195 2.0438989e-38
0.12382314 0.14460206 0.036032319 1.6301285e-38
0.1241833 0.14815694 0.036236942 8.4657933e-39
0.11976317 0.030318741 0.049801707 1.9885113e-38
0.11965866 0.03190339 0.048818171 2.0160618e-38
0.11991784 0.13718265 0.034702599 4.6965989e-39
0.11976948 0.14058781 0.034990013 1.0494523e-38
0.11982837 0.14458707 0.035602987 1.9073981e-38
0.12041318 0.14793757 0.035534143 6.2452117e-39
0.11610225 0.032800954 0.047968805 1.9791833e-38
0.11746022 0.1410681 0.034777403 1.8420414e-38
0.11746022 0.14303628 0.034536541 2.1742665e-38
0.11258808 0.033476423 0.046795726 1.9334083e-38
0.11127585 0.035220113 0.045507669 1.9517038e-38
0.10806277 0.033987757 0.047088385 1.9885106e-38
0.10829952 0.035706088 0.045282602 1.9976587e-38
0.1054627 0.03392709 0.046592653 1.9887641e-38
0.10435547 0.036274094 0.044937074 1.9516331e-38
0.10047641 0.03638446 0.044643104 1.9515599e-38
0.10090545 0.038908817 0.043049335 1.9240446e-38
0.09701243 0.037671946 0.04449904 1.9792891e-38
0.096580148 0.039575633 0.043498576 1.9056765e-38
0.092466921 0.039768871 0.042776644 1.8870213e-38
0.088935852 0.04022092 0.041983008 1.8592907e-38
0.085005954 0.041246049 0.040712237 1.8505392e-38
0.084701687 0.042461418 0.039478719 1.7951153e-38
0.080761909 0.041234795 0.040918171 1.7493779e-38
0.081286192 0.043081671 0.039254785 1.6843732e-38
0.076861799 0.041143797 0.040174544 1.6292718e-38
0.077334881 0.043659735 0.038590372 1.6385255e-38
0.07313019 0.047027677 0.037022531 1.6388135e-38
0.072386831 0.050035432 0.036168635 1.65718e-38
0.069711566 0.044918984 0.038328767 1.5372188e-38
0.069346488 0.047462448 0.037149012 1.4727545e-38
0.069556445 0.050919689 0.035659194 1.5371836e-38
0.068497956 0.053875372 0.034946144 1.4820096e-38
0.065594763 0.04788895 0.037168682 1.3344214e-38
0.065450519 0.051309153 0.035924315 1.4544222e-38
0.065560192 0.054788686 0.03470552 1.4361266e-38
0.06396088 0.058355302 0.033519864 1.4173278e-38
0.061423779 0.051459901 0.035924494 1.3622985e-38
0.06155473 0.055155873 0.034699738 1.3622631e-38
0.061395556 0.05856999 0.033510089 1.3896691e-38
0.059423834 0.062180117 0.032173812 1.4542786e-38
0.061299056 0.1196801 0.025939941 1.261459e-38
0.061386496 0.12218285 0.026920736 1.2798261e-38
0.058336198 0.055494122 0.034833252 1.3345332e-38
0.057445914 0.059061281 0.033996463 1.3804155e-38
0.056903034 0.062955968 0.033129871 1.4913365e-38
0.05756709 0.065890327 0.031702399 1.3621902e-38
0.057287782 0.12010015 0.025185525 1.1967072e-38
0.056773067 0.12226609 0.025333822 1.2059271e-38
0.054761082 0.060338236 0.033548594 1.40804e-38
0.053887755 0.063116193 0.032893181 1.5094158e-38
0.053057402 0.067109078 0.030794561 1.3989594e-38
0.052078128 0.11201567 0.024653673 1.2888266e-38
0.053093284 0.11512946 0.024640024 1.2517739e-38
0.053265572 0.11919925 0.024859309 1.2609199e-38
0.053546697 0.12223167 0.024371684 1.3530089e-38
0.050210923 0.064174086 0.032198608 1.5918874e-38
0.049616814 0.067080088 0.030907333 1.3897379e-38
0.049053431 0.071437284 0.029034019 1.2978347e-38
0.047757119 0.074355043 0.028426111 1.279396e-38
0.047757119 0.080906175 0.027624428 1.2885773e-38
0.049053431 0.083556876 0.027550936 1.0666999e-38
0.049053431 0.087487549 0.027069926 1.0382466e-38
0.047757119 0.092043094 0.026261568 9.0957232e-39
0.049492687 0.1113819 0.024436116 9.9279852e-39
0.049792796 0.11537982 0.024825752 1.0578743e-38
0.050135702 0.11841203 0.024726093 1.2882204e-38
0.045922846 0.068148211 0.030625999 1.362295e-38
0.045747846 0.071706779 0.029771984 1.3438958e-38
0.045478106 0.075727768 0.02867198 1.3163078e-38
0.04606083 0.07970085 0.028469503 1.3070148e-38
0.046072632 0.083857812 0.02834785 1.2700662e-38
0.045882434 0.087638438 0.02791965 1.1866216e-38
0.045747072 0.091291808 0.026843905 1.149637e-38
0.045745701 0.095299274 0.025644779 1.0847404e-38
0.045164555 0.099188849 0.024885416 1.0661233e-38
0.045522302 0.10346171 0.024842203 1.0854241e-38
0.045911133 0.10722174 0.024901748 1.0759549e-38
0.046735376 0.11167783 0.025456369 1.0207101e-38
0.04735902 0.11384618 0.024542272 1.0210682e-38
0.041805506 0.091553979 0.027107477 1.2884672e-38
0.041940361 0.095442779 0.026315629 1.2515891e-38
0.041895241 0.099400654 0.025936663 1.1959846e-38
0.041895241 0.10334078 0.025454402 1.131771e-38
0.042612582 0.10661042 0.025022209 1.1962027e-38
0.038640559 0.095703103 0.026101232 1.021679e-38
0.038835585 0.099058367 0.025728285 8.9267757e-39
0.16995198 0.079429172 0.015290737 1.4085407e-38
0.19350094 0.077859752 0.019726694 1.2335472e-38
0.15961286 0.058094397 0.021989465 1.8415001e-38
0.16567358 0.015082188 0.063115716 6.9038836e-39
0.16241562 0.014596604 0.062236905 7.1793719e-39
0.15813106 0.015574042 0.061766863 8.2864131e-39
0.15763797 0.016848296 0.060831606 8.655546e-39
0.15425706 0.01844256 0.060495138 9.7604488e-39
0.15307473 0.020695187 0.059477746 1.0863907e-38
0.15152431 0.019394957 0.060362697 1.0496933e-38
0.15015633 0.021165323 0.059060574 1.0865024e-38
0.14630167 0.022792242 0.058936357 1.0959767e-38
0.14622986 0.1506671 0.04224807 1.935209e-38
0.14655581 0.15232196 0.042108595 1.825007e-38
0.14369039 0.023171209 0.058384538 1.105266e-38
0.14134069 0.024374764 0.056756675 1.2707158e-38
0.14255726 0.14989269 0.041974008 1.870168e-38
0.1431665 0.15236521 0.041960299 1.7327395e-38
0.13860044 0.025439937 0.056608856 1.2426967e-38
0.13873312 0.14653882 0.041302443 2.0630957e-38
0.13886008 0.14869818 0.041832149 2.0262511e-38
0.13501224 0.026565291 0.055776775 1.3071284e-38
0.13482177 0.028176025 0.055029929 1.5739963e-38
0.13514772 0.14645517 0.040618777 2.0727444e-38
0.13467187 0.14954314 0.040718734 1.9162623e-38
0.12998104 0.026810367 0.055286109 1.436562e-38
0.13091043 0.028084762 0.054284155 1.6668009e-38
0.1322142 0.14935175 0.039696634 1.795981e-38
0.12606408 0.026718974 0.054539263 1.3532285e-38
0.12656902 0.028550755 0.054002464 1.7403404e-38
0.12569529 0.15051743 0.038292408 9.2015843e-39
0.12569529 0.1518352 0.038131118 8.9293148e-39
0.12265354 0.028459769 0.053255856 1.7219716e-38
0.12243584 0.14978248 0.037751555 7.5485244e-39
0.12439151 0.1518048 0.037882566 6.8135475e-39
0.11914948 0.028965257 0.052755296 1.9058584e-38
0.12048016 0.15039575 0.037298024 6.0928527e-39
0.11506508 0.030397777 0.051618457 1.9975155e-38
0.11461315 0.031657867 0.050692916 1.9883311e-38
0.11235473 0.030358132 0.051440835 1.9700366e-38
0.11087449 0.031936869 0.050448179 1.9611029e-38
0.10713208 0.0322158 0.050202847 1.9793265e-38
0.10360299 0.033026647 0.049010217 1.9793625e-38
0.099752188 0.033449389 0.048008084 1.9885457e-38
0.095489636 0.033898175 0.047401786 1.9515602e-38
0.095475033 0.036117148 0.04659009 1.988581e-38
0.092117101 0.033844963 0.047097623 1.9238306e-38
0.091611922 0.03643626 0.046226799 1.9608147e-38
0.087735057 0.036336888 0.045374691 1.8871665e-38
0.086581826 0.038910545 0.044380665 1.8501083e-38
0.083687961 0.03693381 0.044917464 1.8133004e-38
0.083974242 0.0395086 0.043802798 1.841247e-38
0.080583811 0.03709501 0.044467986 1.7491959e-38
0.080004334 0.039429966 0.043215096 1.7124292e-38
0.076199234 0.039509725 0.042913496 1.6293802e-38
0.072385788 0.040928844 0.041899264 1.5646627e-38
0.070936441 0.042498861 0.040913761 1.5555863e-38
0.069268167 0.041229911 0.041772068 1.555515e-38
0.068207055 0.043563217 0.04059726 1.5462597e-38
0.065039366 0.044619232 0.040196896 1.4269424e-38
0.063423723 0.046747968 0.039281785 1.3809498e-38
0.06061551 0.048359137 0.038609624 1.4084335e-38
0.059202403 0.050131805 0.037708819 1.3806648e-38
0.059665501 0.12404221 0.029266715 1.2245804e-38
0.057082027 0.052382804 0.038048983 1.2424106e-38
0.055658519 0.055099763 0.036825418 1.3252061e-38
0.056172609 0.12357954 0.028390944 1.1877378e-38
0.052294642 0.056670032 0.036597848 1.2882532e-38
0.052422822 0.059061736 0.035560489 1.3157699e-38
0.051379681 0.062468268 0.034685314 1.5368234e-38
0.049128681 0.059866317 0.035337508 1.3622261e-38
0.048574597 0.062901713 0.034602284 1.5553348e-38
0.045113593 0.064420544 0.034259617 1.4540248e-38
0.044434339 0.065961055 0.033170223 1.3438546e-38
0.043423027 0.080120921 0.031327248 1.3253834e-38
0.043556988 0.082711473 0.030694187 1.3252762e-38
0.043556988 0.10906725 0.027468979 1.2696723e-38
0.044078499 0.11145142 0.027278125 1.2418709e-38
0.045729965 0.1157069 0.02707696 1.2880727e-38
0.041488677 0.068507567 0.03264761 1.298225e-38
0.04172489 0.071863525 0.032180011 1.3624424e-38
0.041849464 0.075561658 0.03226459 1.3530787e-38
0.041849464 0.08150021 0.031537831 1.352829e-38
0.040633529 0.084077619 0.030759156 1.3437145e-38
0.040881485 0.087286957 0.029787421 1.2885773e-38
0.040264934 0.10827381 0.027339339 1.0859643e-38
0.036871821 0.088336989 0.029591382 1.3070169e-38
0.037292808 0.092024766 0.028635383 1.2426208e-38
0.035956949 0.0954239 0.02792418 1.0030598e-38
0.036255807 0.099935926 0.0271734 8.9267673e-39
0.036720186 0.10386822 0.027166724 8.7445032e-39
0.037130296 0.10731341 0.027294636 8.9296287e-39
0.035321206 0.1163194 0.026013553 1.3258898e-38
0.035321206 0.11829891 0.02577126 1.3626222e-38
0.034015507 0.096493743 0.028186977 9.1100837e-39
0.034015507 0.099792942 0.027783275 8.7434368e-39
0.032709867 0.11295927 0.025919378 1.3074822e-38
0.032709867 0.11493877 0.025677145 1.3625869e-38
0.19656472 0.090370551 0.018845558 8.9300043e-39
0.1964682 0.09418153 0.018873513 9.7594076e-39
0.16026279 0.081585564 0.018138707 1.6297027e-38
0.14679539 0.088934928 0.0099027157 1.3441814e-38
0.16543438 0.01453314 0.065701365 6.7205672e-39
0.16281559 0.013148576 0.065364003 6.8130837e-39
0.1594962 0.01320396 0.067792475 7.2726213e-39
0.15872984 0.014407497 0.065103233 7.7336051e-39
0.1547168 0.01499239 0.064596951 9.1161654e-39
0.15364982 0.016905099 0.063130498 8.8413862e-39
0.1507507 0.016415697 0.064886272 8.9296427e-39
0.15064158 0.018502183 0.062609315 9.8515836e-39
0.14581475 0.020167161 0.063779712 9.5761066e-39
0.14513876 0.02200035 0.060859859 9.7633817e-39
0.14248708 0.020098787 0.063315094 8.9296483e-39
0.14180036 0.022598561 0.060397029 1.0037434e-38
0.14055589 0.15225428 0.044033408 1.6043114e-38
0.13845611 0.02068783 0.062804878 8.1906288e-39
0.13866733 0.02244813 0.060783684 9.1143829e-39
0.1379371 0.150208 0.043776989 1.769612e-38
0.13845913 0.15232724 0.044131637 1.5681533e-38
0.13478015 0.023421191 0.060733199 9.9466645e-39
0.13531831 0.025079861 0.058582544 1.2062482e-38
0.1366277 0.15017745 0.043527365 1.7473329e-38
0.1364941 0.15228185 0.043756902 1.5776593e-38
0.13084076 0.023771681 0.059927821 1.0586979e-38
0.13139012 0.025980804 0.057712078 1.3075222e-38
0.12722039 0.023807861 0.059017599 1.0863194e-38
0.12746194 0.025889147 0.056963086 1.2983752e-38
0.12390348 0.024213087 0.057505429 1.0126389e-38
0.12315714 0.026012495 0.05652529 1.2148245e-38
0.11916736 0.026121888 0.056868196 1.4171843e-38
0.11485282 0.026346695 0.056665242 1.9058906e-38
0.11567739 0.028591964 0.054351747 1.9703236e-38
0.11110045 0.027017567 0.055857003 1.9702876e-38
0.11134571 0.029500701 0.053658664 1.9608168e-38
0.11137959 0.12867004 0.04252702 8.745613e-39
0.11110398 0.13222843 0.043861985 9.4788579e-39
0.10699937 0.027241763 0.055573225 1.9699283e-38
0.10766685 0.029762939 0.053171098 1.9057143e-38
0.10778658 0.12438173 0.041216493 9.9391073e-39
0.10771823 0.12839839 0.040939808 1.1232018e-38
0.10821097 0.13162926 0.043375432 1.1046874e-38
0.10333876 0.027284808 0.054791152 1.9607431e-38
0.10357794 0.029702287 0.052900255 1.9424125e-38
0.10258345 0.0315951 0.051450193 1.9608874e-38
0.10357869 0.1244664 0.041303754 1.1781193e-38
0.10334985 0.12853441 0.042044044 1.2430193e-38
0.10360844 0.13152188 0.042497873 1.3719137e-38
0.10032094 0.027772821 0.054557741 1.8870954e-38
0.099523842 0.029824246 0.053331733 1.9332281e-38
0.099702775 0.03205727 0.050836146 1.9516318e-38
0.10002795 0.12485961 0.040739536 1.3165231e-38
0.099523827 0.12780383 0.041341662 1.3810978e-38
0.095386088 0.030907881 0.052193284 1.8872035e-38
0.09505567 0.032817442 0.050869703 1.9240096e-38
0.097022563 0.12563792 0.039891601 1.3810263e-38
0.095060915 0.1279996 0.041274726 1.5283238e-38
0.091642782 0.030967981 0.051666617 1.8872402e-38
0.091205508 0.033039838 0.049840868 1.9055348e-38
0.09160912 0.12881058 0.039994478 1.638994e-38
0.087170869 0.031453386 0.051562488 1.7860419e-38
0.087716371 0.033145778 0.048998833 1.8780917e-38
0.08651337 0.12580648 0.039888918 1.8775122e-38
0.084540874 0.031392023 0.051060975 1.6479298e-38
0.084067658 0.03359234 0.049161315 1.7954041e-38
0.083597228 0.035122477 0.047344267 1.7951873e-38
0.079976112 0.034453616 0.047751188 1.7492332e-38
0.080323741 0.035487249 0.046666086 1.7583445e-38
0.07533583 0.035164647 0.048817933 1.6660403e-38
0.076041371 0.037011892 0.046676695 1.6660043e-38
0.071698397 0.0376666 0.046928465 1.5829939e-38
0.072467387 0.039494898 0.044655263 1.5739184e-38
0.068103284 0.038983285 0.046950936 1.537182e-38
0.067755312 0.040484887 0.04490453 1.5371476e-38
0.064018518 0.041422617 0.044425666 1.491121e-38
0.06395632 0.043597557 0.042506099 1.4454528e-38
0.06292966 0.1261678 0.033228934 1.8230597e-38
0.059804946 0.042717293 0.044204175 1.4081431e-38
0.060120016 0.044441901 0.042481065 1.3530754e-38
0.060028136 0.046483688 0.041392744 1.380629e-38
0.060682833 0.12458315 0.031962156 1.3900645e-38
0.059969783 0.12696442 0.034200013 1.445669e-38
0.056925744 0.04270988 0.044331789 1.380521e-38
0.056976408 0.045607232 0.042961121 1.3714088e-38
0.056033701 0.04836075 0.04162097 1.3438234e-38
0.055881709 0.050798476 0.040062249 1.2239703e-38
0.056132078 0.12698677 0.031959772 1.2520588e-38
0.052232414 0.049655415 0.042231619 1.2514488e-38
0.052438587 0.052365385 0.040230155 1.269781e-38
0.052171767 0.054902874 0.038842022 1.3525757e-38
0.048375279 0.053177185 0.040113807 1.3711229e-38
0.04855755 0.056031369 0.038209677 1.3526835e-38
0.048243612 0.058119871 0.037688136 1.325125e-38
0.045090675 0.054395929 0.040611327 1.4171158e-38
0.044336766 0.057091832 0.039109707 1.334426e-38
0.04477039 0.060081445 0.037288904 1.34368e-38
0.044708222 0.062537141 0.036463439 1.4728245e-38
0.043260694 0.11643139 0.030613959 1.3253453e-38
0.041145653 0.060949542 0.03904587 1.3528271e-38
0.040657043 0.064224131 0.037114322 1.2793924e-38
0.040033787 0.066351451 0.035433948 1.2519093e-38
0.039732516 0.072479352 0.034283817 1.3807729e-38
0.039994389 0.07619115 0.033880293 1.3621903e-38
0.040387213 0.079773657 0.033517897 1.3711582e-38
0.039732516 0.081743576 0.033150136 1.3803422e-38
0.039732516 0.11350662 0.029263198 1.2793953e-38
0.040395528 0.11568704 0.03076607 1.3990328e-38
0.039830655 0.11807156 0.031801224 1.4270145e-38
0.037743956 0.067347147 0.036236882 1.1967072e-38
0.036902755 0.071466967 0.035325706 1.2521665e-38
0.036752492 0.075485185 0.034570396 1.3530068e-38
0.036591381 0.079313561 0.033737302 1.4450935e-38
0.036680877 0.08282768 0.032573521 1.4267616e-38
0.036240786 0.086073637 0.031944513 1.3714809e-38
0.036822736 0.11167412 0.028924346 1.0403332e-38
0.036551565 0.11568528 0.029791594 1.3166344e-38
0.036395401 0.11920095 0.030382693 1.3626579e-38
0.032926887 0.07571052 0.035649002 1.3347832e-38
0.032493085 0.079164557 0.033774614 1.3714818e-38
0.032954603 0.08299084 0.032255769 1.3897771e-38
0.032901138 0.087076388 0.031517506 1.3621919e-38
0.032819837 0.091293044 0.031083465 1.261097e-38
0.032316566 0.094573133 0.030350149 1.1044369e-38
0.031876147 0.098765261 0.029546738 8.7430781e-39
0.032233208 0.10307968 0.029498219 8.0987624e-39
0.032632768 0.10699087 0.029126287 8.4689855e-39
0.033228844 0.1112232 0.028470397 1.0958981e-38
0.033621997 0.11512867 0.027882159 1.307376e-38
0.029310614 0.08326865 0.034024239 1.3439681e-38
0.029310614 0.087256052 0.033536315 1.3164154e-38
0.029310614 0.091243453 0.033048332 1.2057453e-38
0.029119581 0.095359243 0.031687021 9.6643267e-39
0.028579175 0.099195905 0.03090781 8.0062221e-39
0.028368205 0.10302708 0.030512154 6.7158448e-39
0.028730184 0.10683338 0.030148983 7.0842728e-39
0.029885024 0.11108109 0.028680146 1.1049056e-38
0.030566782 0.11461622 0.027353585 1.3353597e-38
0.025365591 0.10045533 0.031157613 7.4544832e-39
0.025365591 0.10178446 0.030994952 7.0839085e-39
0.1965532 0.081724457 0.018875539 9.5728317e-39
0.19661561 0.086747885 0.018375397 9.1132997e-39
0.16164809 0.097663246 0.015594006 1.4824062e-38
0.16126475 0.10116208 0.015823007 1.5561977e-38
0.12541625 0.096935146 0.016921759 1.5283587e-38
0.10799095 0.042646199 0.039859653 1.8228798e-38
0.15243538 0.014460687 0.068324029 9.4838759e-39
0.14940609 0.014734305 0.067960739 8.8356563e-39
0.14553294 0.015689816 0.068091631 7.7332632e-39
0.14629652 0.018623035 0.06611377 9.1158445e-39
0.14169525 0.015774991 0.067495227 6.2628162e-39
0.1418854 0.018213276 0.065823138 7.7346967e-39
0.13780096 0.016265616 0.068348646 5.2486475e-39
0.13792822 0.018786762 0.064987123 7.2729815e-39
0.13316569 0.00076373667 0.069348693 5.7139837e-39
0.13254867 0.0034216344 0.068732858 8.9386433e-39
0.13237108 0.0071703941 0.068410814 6.0805409e-39
0.13370323 0.019406691 0.065119445 6.8112985e-39
0.12946731 0.00065016747 0.067620873 2.577945e-39
0.12931471 0.0033378825 0.06783241 1.0135401e-38
0.12919261 0.007196635 0.067792594 9.8562331e-39
0.12955885 0.019346245 0.065008819 6.7198189e-39
0.13029136 0.021883983 0.062104344 8.1013044e-39
0.12549983 0.000557594 0.066864431 1.1024519e-39
0.12537506 0.0032424927 0.066967607 1.0414155e-38
0.12528162 0.0072649643 0.066799343 1.2623942e-38
0.12654391 0.0099793188 0.066939414 5.1431479e-39
0.12549922 0.019269854 0.06457448 5.7071187e-39
0.12594096 0.022129603 0.061488867 1.0404365e-38
0.12172174 0.00045125932 0.065462351 5.5145579e-40
0.12172176 0.0031221211 0.065135419 1.032917e-38
0.12153238 0.0071485043 0.065290093 1.4014051e-38
0.12124646 0.0098557211 0.065929413 6.253066e-39
0.12173526 0.019674141 0.06465137 5.7960927e-39
0.11814795 0.00033152103 0.063417614 3.6959667e-40
0.11756492 0.0030458421 0.065024316 1.1348365e-38
0.11746773 0.0070665404 0.064855456 1.5305524e-38
0.11727339 0.020471711 0.06386137 8.4646737e-39
0.11785582 0.023042176 0.061607718 1.1597534e-38
0.1137943 0.0002662912 0.063950837 1.0106641e-39
0.11359745 0.0029532686 0.064267814 1.2539013e-38
0.11339936 0.006983839 0.064420223 1.4929552e-38
0.11462468 0.020409901 0.06335628 9.9397785e-39
0.11382836 0.022960562 0.06106621 1.5378282e-38
0.11351186 0.13425854 0.045447409 7.7311332e-39
0.11428685 0.13750371 0.044986486 8.5601358e-39
0.11014014 0.002888754 0.064119637 1.5021758e-38
0.10998943 0.0062465966 0.064192474 1.5200732e-38
0.11002281 0.023040466 0.06034857 1.7219003e-38
0.11053821 0.025416147 0.057849288 1.9701804e-38
0.11013284 0.1342724 0.044706285 9.9409234e-39
0.11023465 0.13743702 0.04510808 1.1139427e-38
0.11009946 0.14153337 0.045036554 1.8792772e-38
0.1102336 0.14410159 0.04429239 2.256706e-38
0.10535416 0.00011481345 0.064045846 9.2130638e-39
0.10583383 0.022787035 0.059768379 1.4734061e-38
0.10658757 0.025323972 0.057096124 1.9245862e-38
0.10626857 0.13340467 0.04432106 1.2337985e-38
0.10562807 0.13779819 0.046338081 1.5289708e-38
0.1059452 0.1414381 0.046660721 1.9251953e-38
0.10667853 0.14471298 0.046607137 2.1924545e-38
0.10204327 3.7550926e-05 0.063414514 1.058878e-38
0.10153808 0.023420364 0.059942305 1.4178712e-38
0.10222879 0.025570814 0.056478798 1.8140218e-38
0.10132009 0.1303519 0.043224037 1.3534026e-38
0.10181928 0.13384044 0.044945598 1.482402e-38
0.10230091 0.13756213 0.046224654 1.6577188e-38
0.097736776 0.023483921 0.059506714 1.196746e-38
0.098281354 0.026342422 0.05613333 1.6942417e-38
0.097369462 0.029101949 0.054849803 1.9240098e-38
0.098357111 0.12995002 0.042699814 1.4547468e-38
0.09783411 0.13351139 0.04489857 1.5286102e-38
0.092993468 0.023474749 0.058795094 8.3725663e-39
0.093796656 0.026543081 0.057435215 1.5653481e-38
0.094735682 0.029040501 0.054347634 1.8779131e-38
0.094735682 0.1301983 0.041968644 1.6387788e-38
0.09408842 0.13302147 0.044135809 1.7496282e-38
0.089745313 0.026885644 0.057455897 1.445783e-38
0.090041429 0.0293498 0.054683626 1.8782014e-38
0.08990714 0.12919828 0.04115659 1.6388872e-38
0.089875922 0.13306823 0.042985141 1.8507571e-38
0.085623354 0.027202502 0.056502223 1.2520281e-38
0.086217374 0.029634126 0.054507196 1.6848434e-38
0.086505234 0.12967348 0.040440023 1.63867e-38
0.085675687 0.13339511 0.04335767 1.8325348e-38
0.082840085 0.027699791 0.056313097 1.1784906e-38
0.082119733 0.030032221 0.053579986 1.5098167e-38
0.082225382 0.032741666 0.051473618 1.7033188e-38
0.082769811 0.12865889 0.040183246 1.7763147e-38
0.081705928 0.13330206 0.042600811 1.7311563e-38
0.078128338 0.030566722 0.05387795 1.5004514e-38
0.078530371 0.033217672 0.051110685 1.6939538e-38
0.077672988 0.13307977 0.042032719 1.7490183e-38
0.074452445 0.031073652 0.054277062 1.4268018e-38
0.074628353 0.033304766 0.050960422 1.5833894e-38
0.074452445 0.13235998 0.041882336 1.7860723e-38
0.07224521 0.031468339 0.053801537 1.2429508e-38
0.070299625 0.034150664 0.051557839 1.3533701e-38
0.069715053 0.036442835 0.048599601 1.5093809e-38
0.066106945 0.034758452 0.051595449 1.2883996e-38
0.066579968 0.037389427 0.048756421 1.3715909e-38
0.064665377 0.13013428 0.039234698 1.9984862e-38
0.063066751 0.034581061 0.051387846 1.3901712e-38
0.062462091 0.037955012 0.049319208 1.4723201e-38
0.062286258 0.040305518 0.047202289 1.4909772e-38
0.062719256 0.12900385 0.03632915 1.8692308e-38
0.06312418 0.13191625 0.038278699 1.8507916e-38
0.06032595 0.035205986 0.05103749 1.3995711e-38
0.058730274 0.037630703 0.050138831 1.4268354e-38
0.058993697 0.041087404 0.047187448 1.5004838e-38
0.058569044 0.12918106 0.0358634 1.4453456e-38
0.059188992 0.13211972 0.038444817 1.5282149e-38
0.056037277 0.038647491 0.049444497 1.3164922e-38
0.055447787 0.041359015 0.047493815 1.3439321e-38
0.054209739 0.045187317 0.045144379 1.3251684e-38
0.055507451 0.1294955 0.035488844 1.3254205e-38
0.055690706 0.13147601 0.038359582 1.3716272e-38
0.052066088 0.042568684 0.048195958 1.2608117e-38
0.051036268 0.045540296 0.046265244 1.2884337e-38
0.050271243 0.04844445 0.043710113 1.2699201e-38
0.047581643 0.046363268 0.046590209 1.3346014e-38
0.047109693 0.049280256 0.043223858 1.2883965e-38
0.046011299 0.051862039 0.042125463 1.3621182e-38
0.044828057 0.046796322 0.045594037 1.2607379e-38
0.042817324 0.049730159 0.045256197 1.2425873e-38
0.043745011 0.052915514 0.041968346 1.3345326e-38
0.042060643 0.055762932 0.040883541 1.2883643e-38
0.040019125 0.054364771 0.044763148 1.242445e-38
0.039749175 0.057130806 0.041123748 1.2149649e-38
0.038633227 0.061045453 0.0399158 1.2334408e-38
0.038109988 0.063656889 0.03915298 1.2242939e-38
0.039426893 0.11692856 0.03288883 1.4085409e-38
0.038668752 0.12006208 0.033726513 1.4087189e-38
0.037811875 0.12302733 0.035933435 1.4086466e-38
0.036316484 0.058219858 0.042890787 1.1507881e-38
0.035453349 0.06112577 0.040658414 1.1415333e-38
0.035202712 0.064335138 0.039191306 1.1322057e-38
0.034612209 0.06763114 0.038502753 1.1228414e-38
0.034159392 0.070885338 0.037503898 1.1688686e-38
0.036793143 0.11819812 0.032223761 1.3902812e-38
0.03648752 0.12366573 0.035599053 1.3533648e-38
0.031906009 0.061683044 0.04161346 1.0033828e-38
0.030941933 0.064517707 0.040738046 1.0029881e-38
0.031493336 0.067704245 0.039086998 1.085999e-38
0.031248569 0.071570009 0.037540674 1.1227366e-38
0.027879208 0.064567089 0.041165173 9.4785047e-39
0.027893633 0.068015151 0.040013313 1.030897e-38
0.027393818 0.071654223 0.038152218 1.1042605e-38
0.027247459 0.075488925 0.036400735 1.1412826e-38
0.027017683 0.07924132 0.035538912 1.251737e-38
0.0266352 0.083453663 0.035193682 1.2888293e-38
0.02649501 0.08749824 0.035013556 1.2424809e-38
0.026565105 0.091471694 0.034369886 1.1320973e-38
0.026481718 0.095038228 0.033318937 9.6643351e-39
0.026258141 0.097986959 0.032658279 8.1888239e-39
0.026258141 0.10796963 0.031436682 6.9942169e-39
0.02456829 0.069174893 0.039960563 9.387021e-39
0.023727268 0.071900852 0.038694799 9.5685648e-39
0.023148447 0.075651497 0.037525415 1.0398677e-38
0.023857534 0.079439208 0.035489321 1.1505021e-38
0.023573399 0.083530799 0.03561759 1.2333327e-38
0.023148477 0.087677337 0.036053717 1.1964544e-38
0.023007005 0.091734819 0.035871804 1.1138381e-38
0.023574978 0.095618002 0.033454776 9.1104369e-39
0.023140103 0.099206351 0.032675028 7.637092e-39
0.023139417 0.10353713 0.032144904 6.4414257e-39
0.023362547 0.10725295 0.031989813 6.7183755e-39
0.023933142 0.11154064 0.033627272 1.0219999e-38
0.020595223 0.073097944 0.038711607 8.6494713e-39
0.019597143 0.075867333 0.037794828 9.4792236e-39
0.019604832 0.079656653 0.036919475 1.0676325e-38
0.019652843 0.083653048 0.036325634 1.2334396e-38
0.019700795 0.087647587 0.03573215 1.1965587e-38
0.01960507 0.091690898 0.035446823 1.086105e-38
0.019535482 0.095496811 0.034739614 9.5738897e-39
0.019495308 0.10319047 0.032031715 7.7314429e-39
0.019568622 0.10778226 0.032656431 7.8229196e-39
0.019270867 0.1108821 0.033831537 8.6516069e-39
0.015490919 0.087634452 0.035489023 1.0123119e-38
0.015684694 0.091581486 0.034587562 9.2029912e-39
0.015733331 0.095575184 0.033994198 8.837761e-39
0.015479863 0.099339567 0.033191502 8.2831509e-39
0.015567988 0.10375858 0.032960832 8.0995065e-39
0.015684754 0.10762476 0.032624185 7.6392374e-39
0.012649029 0.087636985 0.035394728 7.3540354e-39
0.012941927 0.091552533 0.034288228 7.4519847e-39
0.013088346 0.09551347 0.033489883 7.7324995e-39
0.013088346 0.099523559 0.032999158 7.6403108e-39
0.012941927 0.10358972 0.032815218 6.9953016e-39
0.012795478 0.10765904 0.032630801 6.7190832e-39
0.012649059 0.11039295 0.03260994 7.4548546e-39
0.19669329 0.077846155 0.019719243 1.0583412e-38
0.11234854 0.039859354 0.041557014 1.8690136e-38
0.1474452 0.02495778 0.054276109 1.3352155e-38
0.12864323 0.008766938 0.069545805 7.0831994e-39
0.12757409 0.011007525 0.06974858 2.8472605e-39
0.12840831 0.015652619 0.068914115 2.0232774e-39
0.12447238 0.011159189 0.069129765 1.9296258e-39
0.12468481 0.015577752 0.068459153 1.1049126e-39
0.12072122 0.011645276 0.068686306 9.2213847e-41
0.12137006 0.016236644 0.067908049 1.1027532e-39
0.11969331 0.018419407 0.066974461 3.3993833e-39
0.11654457 0.01051937 0.067502797 3.4029454e-39
0.11639883 0.016585395 0.067245305 2.1126088e-39
0.11664206 0.018563308 0.066195428 4.593249e-39
0.11234626 0.01071237 0.066740036 2.8476277e-39
0.11240889 0.015596136 0.066594243 1.9292741e-39
0.1124655 0.018973559 0.065422416 7.541658e-39
0.10739362 0.002901651 0.066151202 1.6212362e-38
0.10812959 0.0074905902 0.065937161 1.1226257e-38
0.10865405 0.010994468 0.065632761 1.8370715e-39
0.10872173 0.013671581 0.065090299 2.0214809e-39
0.10873637 0.019235577 0.064925134 8.9264029e-39
0.10739362 0.021694791 0.063851416 1.4089029e-38
0.10490346 0.0026757568 0.065696955 1.3175325e-38
0.10522707 0.0066460669 0.066299558 9.4802872e-39
0.10531572 0.010501683 0.065844953 1.6534019e-39
0.10509408 0.020354398 0.064596295 9.4781922e-39
0.1044291 0.14333847 0.049417675 2.0353984e-38
0.1044291 0.14535487 0.049170911 2.1737279e-38
0.099425048 3.0986965e-05 0.064960361 1.0587687e-38
0.10147831 0.0029781163 0.065729916 8.0116759e-39
0.10193539 0.0066700801 0.065659642 2.1158276e-39
0.10176913 0.020276822 0.0639624 8.9253267e-39
0.10075313 0.021539845 0.062585294 9.3813205e-39
0.10008909 0.13831031 0.048167229 1.6390649e-38
0.10176915 0.14126003 0.049157262 1.82353e-38
0.098328769 0.0022633821 0.065158904 5.0581746e-39
0.099109203 0.0054279193 0.065264702 2.2962503e-39
0.097513229 0.019639805 0.063216686 8.5565484e-39
0.097432882 0.021462377 0.061952233 8.3693251e-39
0.097885445 0.13818347 0.048440158 1.6390287e-38
0.094226539 0.022301648 0.061570942 8.4661689e-39
0.092784539 0.13545513 0.047102988 1.8419306e-38
0.093950987 0.13760689 0.047578275 1.7772851e-38
0.090686053 0.019570135 0.061904013 8.9224541e-39
0.090130404 0.022673644 0.061074674 8.0948808e-39
0.088800237 0.02528806 0.05981344 1.0857549e-38
0.090792388 0.13540864 0.046723127 1.9338758e-38
0.090131909 0.13729179 0.047390759 2.0073795e-38
0.085812002 0.025553927 0.059202552 1.0398691e-38
0.085809499 0.13685489 0.046607792 1.9981967e-38
0.081657648 0.026495829 0.058796227 9.4774706e-39
0.081572592 0.13703704 0.045508981 1.9612824e-38
0.078666627 0.027769823 0.058061481 1.1138065e-38
0.076847345 0.029036269 0.057041526 1.2887948e-38
0.076847345 0.13508329 0.044064224 1.8045501e-38
0.077944309 0.13659799 0.044775069 1.9057138e-38
0.074016392 0.029675815 0.056928277 1.2704283e-38
0.073188007 0.13462317 0.043754339 1.7589917e-38
0.074191138 0.13636366 0.043393493 1.8510079e-38
0.070117593 0.030910473 0.055766225 1.1233131e-38
0.069862336 0.1338546 0.043375731 1.8414277e-38
0.066524923 0.031552788 0.055761814 1.1041904e-38
0.066222548 0.03281546 0.054522932 1.2053527e-38
0.066041857 0.13426876 0.042585671 2.0074852e-38
0.06163007 0.033099789 0.054368734 1.2426597e-38
0.062902302 0.13475791 0.04140532 1.786249e-38
0.058445156 0.034259729 0.053046167 1.2242933e-38
0.057402998 0.13406751 0.040938437 1.5466531e-38
0.057277471 0.13749671 0.040836453 1.5663194e-38
0.053890198 0.037979271 0.052530229 1.1962773e-38
0.052941531 0.040559776 0.051005006 1.2426572e-38
0.054078996 0.1326457 0.04046917 1.3996435e-38
0.054776818 0.13702697 0.040581107 1.5756133e-38
0.049142629 0.042319469 0.050738335 1.1964564e-38
0.051230282 0.13201526 0.040508032 1.3716621e-38
0.046797007 0.042742718 0.05057466 1.1322099e-38
0.04587087 0.044780381 0.049376607 1.141354e-38
0.0423446 0.046006527 0.048903167 1.040081e-38
0.040590495 0.048423015 0.048678398 1.1595767e-38
0.038131028 0.053354673 0.047085941 1.1412092e-38
0.037930578 0.12229513 0.039123654 1.4915876e-38
0.03434816 0.057576716 0.045324266 1.0954707e-38
0.031280726 0.058959857 0.045587301 9.9448569e-39
0.029340118 0.060630128 0.044323385 9.11189e-39
0.02639392 0.062293693 0.043823242 8.4668709e-39
0.02484116 0.064797856 0.043113649 9.1115103e-39
0.025051445 0.067427553 0.042319655 9.0203964e-39
0.022303432 0.065135613 0.043094218 7.6356669e-39
0.021910489 0.067951366 0.042417169 7.9136958e-39
0.021067142 0.070690505 0.041149318 8.4636521e-39
0.021067142 0.11230389 0.036056936 9.8515374e-39
0.018867642 0.068976209 0.041959345 6.8076943e-39
0.018770188 0.071762927 0.040983915 7.638171e-39
0.01708284 0.074624643 0.039896786 8.5601217e-39
0.018528491 0.11301077 0.035992026 9.3898796e-39
0.01631853 0.072389387 0.041048288 6.6207989e-39
0.014875799 0.076293513 0.04008615 6.6229709e-39
0.014872879 0.080013849 0.039322615 9.6603484e-39
0.014339536 0.083986469 0.038425386 1.1227286e-38
0.014873862 0.11292549 0.035295188 8.5576204e-39
0.015321046 0.1150463 0.035635233 9.2969651e-39
0.012661129 0.077345014 0.039734066 6.8948761e-39
0.012661099 0.080033541 0.039405107 8.0051207e-39
0.012364239 0.084009327 0.038519084 8.4668135e-39
0.012067348 0.11305209 0.034565628 8.0065836e-39
0.1964024 0.074101612 0.020035625 1.2792493e-38
0.081995904 0.10491831 0.0041262507 1.4447749e-38
0.11349456 0.036544196 0.043210328 1.9425201e-38
0.11314833 0.012565337 0.069159925 6.4360237e-40
0.11325502 0.014892217 0.069188952 1.4704652e-39
0.10909736 0.015848916 0.068145156 3.0320301e-39
0.10381237 0.0083033815 0.06787473 5.5139133e-40
0.10381237 0.0096514225 0.067709804 1.1023903e-39
0.10524964 0.016125605 0.067965031 4.8759301e-39
0.10469544 0.018330585 0.067434072 6.9917381e-39
0.10247864 0.0096203014 0.067455471 8.2688941e-40
0.1005657 0.015825842 0.067351758 8.0004866e-39
0.1010412 0.018366292 0.066448987 7.8175667e-39
0.1010409 0.1426692 0.051237583 1.9063975e-38
0.10216841 0.14532152 0.051815152 2.1181229e-38
0.097716466 0.015849359 0.066797554 8.9242253e-39
0.097477227 0.01792885 0.065470815 8.8327752e-39
0.096476942 0.14024007 0.050309658 1.7036027e-38
0.096826077 0.14182204 0.051209569 1.749523e-38
0.093309373 0.01901114 0.064531803 8.8320479e-39
0.093142658 0.14016229 0.049673915 1.7491962e-38
0.091483757 0.14169741 0.050190866 1.8785893e-38
0.087476999 0.020110205 0.064294457 9.1097334e-39
0.087642431 0.022109259 0.06356895 9.0157329e-39
0.089141518 0.13917023 0.049021006 1.9980522e-38
0.08881259 0.14073512 0.049791753 1.9980865e-38
0.085273311 0.023532208 0.062833726 8.6469756e-39
0.085140377 0.13862753 0.048313081 1.9795778e-38
0.08569622 0.1406624 0.049197555 1.9519543e-38
0.080799103 0.025354113 0.062360406 8.6490958e-39
0.076717794 0.026897013 0.060612381 9.5653334e-39
0.077138126 0.13844082 0.046787262 1.9338027e-38
0.073206902 0.027522597 0.060369253 1.0675617e-38
0.072470129 0.029140707 0.059259295 1.1784126e-38
0.073067069 0.137851 0.046276808 1.8507565e-38
0.072117805 0.13989559 0.046663582 1.8509027e-38
0.069016844 0.029532425 0.058884978 1.1228097e-38
0.069016844 0.13765129 0.045654178 1.8412853e-38
0.064619511 0.030677952 0.058064818 1.1134803e-38
0.065014154 0.13755789 0.044891 1.8967815e-38
0.060949475 0.030929331 0.057323813 1.0400114e-38
0.05979988 0.13534018 0.043811321 1.6295581e-38
0.061133593 0.13739336 0.043818176 1.5932546e-38
0.057799309 0.031494476 0.056132078 9.9383758e-39
0.05624333 0.033255551 0.055615425 1.1414584e-38
0.057132453 0.13527793 0.043302715 1.5375415e-38
0.058466166 0.13733113 0.043309569 1.5752121e-38
0.055423051 0.031511664 0.056695998 1.0305369e-38
0.054339141 0.034134656 0.055481315 1.1502853e-38
0.052686751 0.038115378 0.054332435 1.1595404e-38
0.050080687 0.038811628 0.054768801 1.1042233e-38
0.049604505 0.040782474 0.053922534 1.1687597e-38
0.04620418 0.041166808 0.053388476 1.0949345e-38
0.042570204 0.042767756 0.052215695 9.4756517e-39
0.04112789 0.044585876 0.051303744 9.0189629e-39
0.039595157 0.045269903 0.051436305 1.0032374e-38
0.037926584 0.050289899 0.050499082 1.0859989e-38
0.038060457 0.12290179 0.042152226 1.4547835e-38
0.034923881 0.053929307 0.04947263 9.7515225e-39
0.033125669 0.056531511 0.048293233 1.0030614e-38
0.030586511 0.05787506 0.048150361 9.7568881e-39
0.027790785 0.059103116 0.046946108 8.3743544e-39
0.025580883 0.060456708 0.046865761 7.9154992e-39
0.022214502 0.061734915 0.046131313 6.9002487e-39
0.021122247 0.064339675 0.045014799 6.8066279e-39
0.021122247 0.11421712 0.038911104 1.1876262e-38
0.018133253 0.062335439 0.045451045 5.0592087e-39
0.01810208 0.064832404 0.044575214 5.8882505e-39
0.017565668 0.067402117 0.04395175 5.7949731e-39
0.019788533 0.11418601 0.038656831 1.0865324e-38
0.017845601 0.1161821 0.038857281 9.7608103e-39
0.015355557 0.06499999 0.044843853 6.1608956e-39
0.014586627 0.068110213 0.0438748 6.8952208e-39
0.013566345 0.072007872 0.042819321 4.4117234e-39
0.013119966 0.074937277 0.042169273 4.5013869e-39
0.014453679 0.11714276 0.037262559 9.298784e-39
0.015120536 0.11946925 0.037106931 8.29039e-39
0.011494607 0.072290152 0.042862654 7.9071951e-39
0.011786252 0.075580172 0.041832507 7.0742129e-39
0.011786252 0.11669537 0.0368011 8.7459479e-39
0.19720317 0.077862822 0.019063532 1.1136923e-38
0.16060714 0.085225619 0.01581496 1.5375435e-38
0.035672516 0.085818969 0.034857929 1.2241491e-38
0.11002281 0.023040466 0.06034857 1.7219003e-38
0.098869309 0.14367497 0.053429961 1.8785604e-38
0.099032074 0.14602128 0.055568099 2.0629141e-38
0.09597823 0.14375931 0.053544044 1.7867947e-38
0.096582457 0.14566404 0.055821598 1.8974289e-38
0.091988653 0.14329171 0.053581476 1.7768202e-38
0.089857787 0.14550713 0.054539382 1.9156547e-38
0.087689504 0.14300925 0.051963389 1.9890466e-38
0.087162495 0.14555359 0.052986264 1.9894436e-38
0.08346954 0.022274498 0.0673576 9.2012172e-39
0.083601266 0.14268827 0.051416636 1.9336958e-38
0.084472805 0.14560017 0.051434159 1.9524596e-38
0.080559999 0.023749791 0.065930009 8.3746823e-39
0.078779459 0.025433358 0.064011633 8.9249624e-39
0.080788434 0.13919199 0.050479412 2.0072713e-38
0.079856306 0.1423291 0.052736282 1.9795052e-38
0.081788182 0.14599854 0.0529176 1.8787412e-38
0.076408431 0.024208218 0.066780329 8.650874e-39
0.076597586 0.02541405 0.064104676 8.7405796e-39
0.076344952 0.14222303 0.051186323 2.0258931e-38
0.076408416 0.14587301 0.051891863 1.6763443e-38
0.072300941 0.0257628 0.065025806 9.6621897e-39
0.072922856 0.14242655 0.050026953 1.9801196e-38
0.071989357 0.1462554 0.050989866 1.5478468e-38
0.069035083 0.026946463 0.063787341 1.0674915e-38
0.069176376 0.14167494 0.049364567 1.7956226e-38
0.06968376 0.1463958 0.0505265 1.5573902e-38
0.065386206 0.029181994 0.060960948 1.09508e-38
0.065648943 0.14086413 0.050422549 1.7038546e-38
0.061614156 0.027941175 0.063460469 1.0126796e-38
0.061001927 0.029148556 0.061142445 1.0123534e-38
0.056978792 0.029731542 0.060292542 9.4784865e-39
0.052535117 0.030876383 0.059702814 9.7525833e-39
0.051992983 0.034284335 0.057744622 1.1409926e-38
0.051992983 0.036991756 0.05741334 1.1684744e-38
0.04931286 0.034872551 0.058590233 1.0214621e-38
0.048470944 0.037785977 0.057455301 1.0397597e-38
0.045474917 0.035720903 0.059385061 8.9227946e-39
0.044831783 0.038479801 0.057512343 9.8462124e-39
0.043957055 0.040865384 0.055384159 1.0392221e-38
0.044802457 0.13018233 0.047695398 1.3623718e-38
0.043315679 0.1337778 0.046454787 1.224402e-38
0.043457538 0.13694787 0.046607196 7.1729526e-39
0.041516453 0.03914158 0.056832612 8.7420257e-39
0.040746361 0.041171845 0.055238247 9.0153588e-39
0.039939076 0.12334802 0.044512928 1.4080035e-38
0.04121235 0.12544248 0.044674039 1.4454182e-38
0.041331381 0.12855384 0.045171201 1.4364135e-38
0.04110387 0.1334945 0.046574295 1.1413888e-38
0.038750261 0.039642148 0.057603836 8.6433182e-39
0.037887275 0.042587221 0.054682732 9.8458187e-39
0.036460429 0.046970002 0.055238068 1.0030583e-38
0.035519242 0.0495658 0.053712428 9.5696256e-39
0.038599759 0.12263992 0.044340372 1.4272672e-38
0.036927402 0.12547851 0.044524252 1.4455634e-38
0.037131011 0.1277574 0.045481682 1.3993539e-38
0.03307122 0.051227488 0.053291798 9.4745601e-39
0.032136112 0.053813986 0.051768422 8.83172e-39
0.034178048 0.12612602 0.044083953 1.3994639e-38
0.034042984 0.12789223 0.045893431 1.2611007e-38
0.029335707 0.051656924 0.054311574 9.9337095e-39
0.029019952 0.054396518 0.052303135 8.2767456e-39
0.028331608 0.057196572 0.050361753 8.278905e-39
0.02530089 0.055187806 0.053098679 7.9097329e-39
0.025012881 0.058131121 0.050630987 7.728608e-39
0.021506965 0.058206983 0.051408827 7.2697543e-39
0.019849211 0.060608551 0.04830265 6.4363937e-39
0.020239413 0.11723096 0.043757379 1.2799666e-38
0.018754333 0.059341639 0.049271643 6.5289494e-39
0.017291844 0.061621286 0.048196733 5.4236809e-39
0.018074185 0.11842295 0.041397154 1.0126e-38
0.016743571 0.12126537 0.041304827 7.5478013e-39
0.017231315 0.12342181 0.043187022 6.9028018e-39
0.013605446 0.0632293 0.04728657 9.0153546e-39
0.012935787 0.065245189 0.046910286 9.378382e-39
0.01494664 0.12218864 0.040331066 7.2726493e-39
0.011377782 0.065269731 0.047118664 1.2607355e-38
0.011813313 0.06922017 0.045693636 1.0574738e-38
0.19766079 0.083175927 0.017373443 8.7426969e-39
0.15190935 0.067263924 0.015767038 1.5835327e-38
0.1282257 0.10625421 0.0154742 1.0861438e-38
0.070738524 0.06229955 0.027509689 1.4726466e-38
0.052535117 0.030876383 0.059702814 9.7525833e-39
0.098312363 0.14854953 0.05785501 2.0721362e-38
0.098855257 0.15130156 0.059162199 1.6759737e-38
0.098023936 0.15345067 0.059251189 6.98995e-39
0.094933078 0.14737198 0.05700326 1.9248715e-38
0.095423743 0.15126085 0.058674037 1.7691099e-38
0.096671522 0.15341911 0.05899334 1.0122427e-38
0.091494828 0.14771304 0.057407498 1.8418248e-38
0.092614263 0.15127403 0.058470666 1.7051877e-38
0.087204605 0.14773044 0.057857394 1.9894096e-38
0.07875815 0.022963066 0.068413317 9.1097194e-39
0.079431564 0.14617404 0.053465962 1.7869418e-38
0.071674615 0.02353783 0.067998052 9.5699801e-39
0.073370934 0.14739391 0.052143753 1.4744513e-38
0.067079693 0.023783885 0.068104565 9.7554602e-39
0.067310303 0.026099142 0.065814078 1.0491592e-38
0.066847831 0.14353657 0.052037418 1.6213144e-38
0.067379266 0.14640534 0.051874578 1.5392028e-38
0.063897103 0.025465239 0.067282915 9.3898838e-39
0.063461035 0.026776738 0.066354215 1.0218233e-38
0.059229463 0.027952503 0.064023435 9.1108264e-39
0.056839168 0.027281176 0.064668953 8.4665122e-39
0.052904874 0.029338356 0.065194666 9.0135623e-39
0.047781616 0.034491763 0.061007798 9.755093e-39
0.045761436 0.034444623 0.060622573 9.2022878e-39
0.039700776 0.13095364 0.047639608 1.4456336e-38
0.039700776 0.1336762 0.047306418 1.0861441e-38
0.039700776 0.13707939 0.046889961 5.6099345e-39
0.034860343 0.043898501 0.05940783 9.8465347e-39
0.035660386 0.045099128 0.057363927 9.4806319e-39
0.036408395 0.13051093 0.048595488 1.3165601e-38
0.036459357 0.13360935 0.048592567 9.3027202e-39
0.036714345 0.13789502 0.049289823 4.7830142e-39
0.032608479 0.047030769 0.058588684 9.3834014e-39
0.031798452 0.049611412 0.05674839 9.5667375e-39
0.032431692 0.13073257 0.049337506 1.0585233e-38
0.032657117 0.13324389 0.049073815 8.1952923e-39
0.029050678 0.047953434 0.058813155 9.5692234e-39
0.028547138 0.050551228 0.057115495 1.0117379e-38
0.02823922 0.12612382 0.049090147 1.1970643e-38
0.028374463 0.12927094 0.048731208 8.5551569e-39
0.024608016 0.053986259 0.054821491 8.0958912e-39
0.023380697 0.12212133 0.047613859 1.3625484e-38
0.023979098 0.12540928 0.048353136 1.113799e-38
0.02364096 0.12847701 0.0479123 8.1016827e-39
0.020565957 0.12111071 0.045825005 1.1232726e-38
0.020973414 0.12528768 0.047330379 8.1920679e-39
0.021612376 0.12842968 0.047525525 7.3665994e-39
0.018151909 0.12160257 0.044613659 7.8254756e-39
0.018151909 0.12364448 0.044363797 7.5449413e-39
0.19766079 0.073888071 0.018509984 1.2237897e-38
0.089779213 0.15179831 0.06042248 1.6862833e-38
0.086387873 0.14829001 0.060195506 1.9617154e-38
0.086223409 0.14977452 0.060495019 1.8057757e-38
0.054680735 0.025439747 0.068580031 1.0852755e-38
0.054906756 0.027272664 0.068399549 8.3743222e-39
0.049934179 0.029441178 0.067171812 1.0576945e-38
0.035016447 0.13600981 0.051243722 5.4316038e-39
0.035016447 0.13738054 0.051075995 4.7826401e-39
0.031424195 0.044132113 0.062304735 9.8458299e-39
0.030947983 0.045446903 0.061538815 9.1086152e-39
0.0329822 0.13596237 0.050855815 4.4138519e-39
0.0329822 0.13733307 0.050688088 4.0479463e-39
0.029186189 0.044124722 0.062385559 9.663954e-39
0.028269082 0.046825193 0.06162101 9.2940714e-39
0.026879519 0.049464151 0.060259879 1.0303208e-38
