# .PCD v0.7 - Point Cloud Data file format
VERSION 0.7
FIELDS x y z rgb
SIZE 4 4 4 4
TYPE F F F F
COUNT 1 1 1 1
WIDTH 940
HEIGHT 1
VIEWPOINT 0 0 0 0 1 0 0
POINTS 940
DATA ascii
0.17336869 0.085345566 0.068461984 1.509524e-38
0.17224193 0.088347703 0.069110066 1.5370743e-38
0.16912657 0.092568666 0.068028688 1.4910096e-38
0.16770828 0.095908731 0.069698095 1.4818651e-38
0.16006315 0.10859412 0.068265408 9.0171454e-39
0.17880899 0.069268256 0.067910612 1.5465467e-38
0.17823178 0.071958989 0.068647623 1.5647693e-38
0.17734802 0.075177401 0.0698753 1.5463294e-38
0.17621803 0.073292047 0.066885054 1.5371455e-38
0.1750657 0.075719744 0.067680448 1.5554751e-38
0.17439443 0.079307497 0.068321228 1.5371469e-38
0.172005 0.080596 0.065893233 1.4911214e-38
0.17120463 0.083666533 0.06679973 1.48201e-38
0.17078793 0.087478429 0.067848533 1.5097028e-38
0.16896683 0.084998399 0.064888 1.4452408e-38
0.16837883 0.088885933 0.065949291 1.4727526e-38
0.16606086 0.095929116 0.068153709 1.4726813e-38
0.16616142 0.08954069 0.064141363 1.4175814e-38
0.16595638 0.092662305 0.065472454 1.454386e-38
0.16397601 0.095689446 0.066636562 1.463463e-38
0.16228402 0.098894447 0.067780435 1.3807013e-38
0.16085541 0.10298896 0.068681031 1.086036e-38
0.16042256 0.1067318 0.069935918 9.3870168e-39
0.16202277 0.096858412 0.064249486 1.3899573e-38
0.16044426 0.0999282 0.064837337 1.2519512e-38
0.15889287 0.10378793 0.065810978 9.9369605e-39
0.15760863 0.10792926 0.067195803 1.0397912e-38
0.15649879 0.11105362 0.068993151 1.2243281e-38
0.15691042 0.10541004 0.063426435 1.1501789e-38
0.15586114 0.10817096 0.065230399 1.2702479e-38
0.15500331 0.11024526 0.066346049 1.4084672e-38
0.15328747 0.11439383 0.068577349 1.1601182e-38
0.17976755 0.058150023 0.068299502 1.5002701e-38
0.1803925 0.062601924 0.069478333 1.5188531e-38
0.17928457 0.065145761 0.069632977 1.5833891e-38
0.17721206 0.062599212 0.066698521 1.4362007e-38
0.17766047 0.066644549 0.067566693 1.5281444e-38
0.17590088 0.069730788 0.066979975 1.5282508e-38
0.17508459 0.063867629 0.064928144 1.4635702e-38
0.17424089 0.066497773 0.064848125 1.4818307e-38
0.1741811 0.071343511 0.065391362 1.5003045e-38
0.17284858 0.074638516 0.06610018 1.5370738e-38
0.17050588 0.071731687 0.062550396 1.4727183e-38
0.17070723 0.07582888 0.064128846 1.4726459e-38
0.17055982 0.078149527 0.065109104 1.4909788e-38
0.1685155 0.073067755 0.060363084 1.4359468e-38
0.16753775 0.076641649 0.061454058 1.4357672e-38
0.16769946 0.080618709 0.062831491 1.4541354e-38
0.16645908 0.084468424 0.063388616 1.4451315e-38
0.16394711 0.081313819 0.060812891 1.4448438e-38
0.16401941 0.08441183 0.061519921 1.435768e-38
0.16329128 0.087820172 0.06256184 1.4633558e-38
0.1625694 0.091625243 0.064038515 1.463498e-38
0.16101712 0.094929188 0.065175653 1.4358761e-38
0.16015279 0.0879291 0.060728431 1.4631749e-38
0.15961653 0.091546178 0.061437398 1.4265841e-38
0.15913445 0.095169753 0.062669933 1.3622986e-38
0.15864891 0.098557413 0.064140916 1.2609197e-38
0.15716636 0.09274143 0.059888512 1.380559e-38
0.15592408 0.095720351 0.060093641 1.2701755e-38
0.15667087 0.10064813 0.061773688 1.1317036e-38
0.15463811 0.10441908 0.061833233 1.2423003e-38
0.15345198 0.10746676 0.063728422 1.3808814e-38
0.15205383 0.11051163 0.066522896 1.3991389e-38
0.15013957 0.11303118 0.068144202 1.0213549e-38
0.15429294 0.096979558 0.058311224 1.2151773e-38
0.1538229 0.10074085 0.059167475 1.1778694e-38
0.15208703 0.10447779 0.059977829 1.2978314e-38
0.1509282 0.10772473 0.061968356 1.3254557e-38
0.14987624 0.11028528 0.064440459 1.0579452e-38
0.14786321 0.11269215 0.066181868 6.8937817e-39
0.1756525 0.057720453 0.065331787 1.4269093e-38
0.1747874 0.060267776 0.065015852 1.4177256e-38
0.17336887 0.05972597 0.063156456 1.4178669e-38
0.17322731 0.062228292 0.063491374 1.4360543e-38
0.17147177 0.065566957 0.063997626 1.4635015e-38
0.16981709 0.064056098 0.061467618 1.4174382e-38
0.1692279 0.066776663 0.062222123 1.4451328e-38
0.16754502 0.068785101 0.059518248 1.4083251e-38
0.16700816 0.070924312 0.059142262 1.426764e-38
0.16519088 0.071787953 0.058667064 1.4174022e-38
0.1638453 0.075733423 0.05905062 1.4449164e-38
0.1626569 0.078523487 0.0600923 1.4815414e-38
0.16099775 0.081833214 0.059851736 1.426479e-38
0.16013861 0.078653336 0.058829308 1.4448078e-38
0.15824699 0.083351254 0.059081584 1.4172918e-38
0.15775633 0.08662492 0.059727758 1.4356949e-38
0.15623891 0.087945253 0.057503641 1.3988187e-38
0.15507841 0.091239274 0.058510929 1.3621561e-38
0.15253001 0.093327969 0.057338268 1.2610991e-38
0.1512953 0.095996618 0.057641745 1.214926e-38
0.14930362 0.099314362 0.057975292 1.2700632e-38
0.1460557 0.10848781 0.062745988 1.0484715e-38
0.14452767 0.11317119 0.066263795 7.9976153e-39
0.14876342 0.097071171 0.055801928 1.2976146e-38
0.14818782 0.099343628 0.056915969 1.3160534e-38
0.1476506 0.10327137 0.058004171 1.3068728e-38
0.14716887 0.10590902 0.059476435 1.2514498e-38
0.14530188 0.10808289 0.061399996 1.039361e-38
0.1503315 0.10442474 0.059718847 1.2700303e-38
0.17386568 0.049539626 0.064294398 1.288797e-38
0.17060053 0.057419926 0.062179983 1.3624779e-38
0.16799045 0.058647484 0.059553623 1.2795741e-38
0.16770488 0.06116274 0.060371667 1.3715182e-38
0.16600192 0.059446573 0.057681441 1.2152874e-38
0.16550773 0.062372357 0.05845055 1.2980137e-38
0.16446233 0.06521827 0.058799684 1.3530448e-38
0.16278905 0.06622234 0.057189316 1.3164531e-38
0.1609326 0.070307821 0.057450831 1.3990341e-38
0.16068727 0.072980851 0.057763547 1.426513e-38
0.158373 0.071798772 0.055651039 1.3896703e-38
0.15843034 0.074727148 0.056825429 1.4171851e-38
0.15696639 0.078383535 0.057596385 1.4080026e-38
0.15604335 0.081475317 0.058440655 1.4173282e-38
0.15460193 0.079643548 0.056015342 1.3805583e-38
0.15380204 0.082814127 0.056854427 1.4079279e-38
0.15152627 0.083478481 0.054993778 1.3710506e-38
0.15118492 0.086923182 0.055808932 1.3435734e-38
0.15031981 0.090575129 0.056589395 1.2977979e-38
0.1479696 0.094617337 0.056428492 1.2424771e-38
0.14208198 0.10885289 0.064085096 7.9022345e-39
0.1405555 0.11254361 0.06607011 9.5681836e-39
0.14747876 0.091386348 0.054530442 1.2058172e-38
0.14632612 0.094683409 0.05447644 1.2977242e-38
0.14513588 0.098096579 0.055541873 1.3530036e-38
0.14227885 0.10509565 0.060117245 1.1226636e-38
0.14058596 0.10803583 0.062781155 9.8411888e-39
0.13891202 0.11101297 0.063948452 1.0581259e-38
0.13801545 0.11309889 0.066588044 1.0860682e-38
0.18015778 0.031288654 0.067518443 3.0366824e-39
0.17970163 0.03380388 0.068838894 5.063201e-39
0.17652214 0.038060457 0.067605913 7.8254854e-39
0.17668474 0.041424572 0.068090439 1.1047291e-38
0.17427218 0.042720884 0.06559816 9.9427605e-39
0.17183417 0.044020474 0.062819988 9.4796132e-39
0.17233288 0.046965271 0.063162595 1.1506842e-38
0.16899115 0.048173815 0.062202692 1.1690142e-38
0.16841793 0.051252216 0.062182099 1.2981211e-38
0.16598237 0.052477449 0.059471101 1.1782677e-38
0.16649926 0.054880649 0.059970856 1.2519519e-38
0.16357994 0.056262225 0.056718737 1.1046551e-38
0.16353464 0.061265856 0.056843817 1.2245443e-38
0.1623857 0.05849269 0.055621356 1.0956143e-38
0.16037893 0.061398208 0.055775285 1.2060345e-38
0.15907347 0.066109419 0.056436568 1.3256372e-38
0.15685511 0.067010164 0.054653794 1.2977631e-38
0.15702724 0.070574224 0.054745972 1.362084e-38
0.15585291 0.074041873 0.055462748 1.389563e-38
0.15420413 0.071388692 0.052755535 1.4170063e-38
0.1537993 0.074834496 0.053580552 1.3803781e-38
0.15286958 0.07800436 0.054600358 1.371266e-38
0.15184528 0.080985576 0.055288374 1.3987439e-38
0.15076381 0.078710496 0.05255121 1.3711595e-38
0.14946985 0.082259268 0.053696483 1.3712312e-38
0.14703882 0.085461825 0.054334164 1.3345684e-38
0.14761859 0.088458985 0.055398792 1.3162366e-38
0.13742828 0.11340272 0.069249123 9.8497745e-39
0.14621782 0.08300817 0.052143514 1.325421e-38
0.14531279 0.085626692 0.053143024 1.325241e-38
0.14502358 0.089364141 0.053145468 1.2885063e-38
0.13944924 0.10546526 0.060636461 1.0856406e-38
0.13798094 0.10725284 0.061813027 1.0394367e-38
0.13682073 0.11182052 0.064054638 1.1504639e-38
0.13481468 0.11331666 0.06621328 1.1873387e-38
0.13287866 0.11551496 0.068173438 1.2335112e-38
0.13145983 0.11865154 0.069896579 1.2795022e-38
0.14263237 0.088918984 0.051396072 1.3253128e-38
0.14153224 0.091578841 0.052826643 1.3437869e-38
0.13525259 0.10674331 0.060274959 1.1505367e-38
0.13475275 0.11071476 0.061772197 1.2058536e-38
0.13276476 0.11329529 0.063201487 1.2701361e-38
0.13109195 0.11616489 0.065115333 1.2980504e-38
0.12958783 0.11984551 0.067157298 1.3160934e-38
0.12801594 0.12333944 0.068600267 1.3160198e-38
0.12804592 0.12142834 0.064954579 1.3897413e-38
0.12642002 0.12483406 0.06603846 1.3711228e-38
0.12527966 0.12774894 0.067830592 1.2978332e-38
0.12346423 0.1318166 0.06956023 1.353008e-38
0.11169386 0.15177038 0.068185508 1.2333307e-38
0.11122501 0.15408686 0.069299459 1.2057439e-38
0.10960984 0.15474063 0.066838056 1.14135e-38
0.10806841 0.15830323 0.068520516 1.1783356e-38
0.14227885 0.10509565 0.060117245 1.1226636e-38
0.17870164 0.021830171 0.064383656 4.5111063e-39
0.17846763 0.024434924 0.065963507 4.7865931e-39
0.17648518 0.027189285 0.067266047 1.8431853e-39
0.17835802 0.032123536 0.067047179 4.5067819e-39
0.17651534 0.025263995 0.063593417 4.5085811e-39
0.17656803 0.029478937 0.065505207 3.405095e-39
0.17683798 0.03355065 0.065976828 4.51253e-39
0.17545998 0.036675006 0.065999746 4.9731606e-39
0.1746884 0.02701816 0.060746014 3.8646354e-39
0.17416155 0.030662715 0.061995596 3.8661026e-39
0.17368823 0.03387472 0.063602179 4.7873204e-39
0.17267895 0.037662029 0.06420055 5.7042727e-39
0.17249846 0.04076615 0.063830823 6.9975282e-39
0.17201453 0.032102019 0.058961004 4.2341494e-39
0.17096168 0.035278231 0.06003502 4.7858939e-39
0.16956127 0.038738221 0.060979486 5.3376425e-39
0.16973943 0.041246921 0.062087655 7.2705054e-39
0.17065108 0.0320324 0.056685418 4.7840708e-39
0.16802138 0.036538005 0.056471646 4.1412321e-39
0.16713047 0.038956672 0.058149278 5.5195199e-39
0.16599113 0.042637587 0.059404343 8.0062725e-39
0.16755056 0.047246903 0.060679704 1.0219678e-38
0.16439849 0.043942511 0.056482106 7.0871693e-39
0.16469646 0.048192978 0.057899863 9.2977176e-39
0.16459048 0.051598936 0.057860076 1.0493383e-38
0.16239673 0.04504317 0.053794116 6.6243933e-39
0.16177034 0.048423737 0.054636747 8.2835559e-39
0.16245174 0.052308023 0.055975467 9.7594006e-39
0.15966541 0.053158075 0.053772539 8.7434872e-39
0.15834183 0.056197256 0.054564804 1.040155e-38
0.15702355 0.059117854 0.054735094 1.150395e-38
0.15522051 0.057299674 0.053134203 1.0675613e-38
0.15455592 0.060395867 0.053344876 1.141391e-38
0.15513211 0.063946903 0.054427832 1.2518455e-38
0.15249509 0.061110586 0.051228255 1.0770328e-38
0.1520896 0.064965904 0.051492691 1.2702474e-38
0.14632088 0.081038862 0.05272159 1.3714104e-38
0.14412117 0.081245363 0.051683933 1.3436804e-38
0.14343876 0.085705429 0.051954538 1.3435728e-38
0.14049733 0.082641512 0.050121099 1.3711952e-38
0.14025557 0.084394008 0.050683975 1.3895267e-38
0.13936973 0.089502484 0.051525593 1.325384e-38
0.13526118 0.092590511 0.053655654 1.4359785e-38
0.13611758 0.095392436 0.055289418 1.3712995e-38
0.13508624 0.098767638 0.056997865 1.2974383e-38
0.13434315 0.10263383 0.058521301 1.2148565e-38
0.13341033 0.10672972 0.058674634 1.2791781e-38
0.1323086 0.10939351 0.060107321 1.2701032e-38
0.13032556 0.11418834 0.062686235 1.3256711e-38
0.12922382 0.11685213 0.064118981 1.2979789e-38
0.12859452 0.11868063 0.0655393 1.3437525e-38
0.13472211 0.092967629 0.052539945 1.4725709e-38
0.13403273 0.095726728 0.053535849 1.4081425e-38
0.13236105 0.098926991 0.054286003 1.3619367e-38
0.13140339 0.10226753 0.055783004 1.3161588e-38
0.13126779 0.10655376 0.057083905 1.3436064e-38
0.13013369 0.110275 0.058436126 1.3621539e-38
0.12969434 0.11387262 0.05989483 1.399106e-38
0.12837231 0.11706921 0.061614096 1.4265841e-38
0.12681091 0.12066039 0.063283473 1.4081448e-38
0.12522399 0.12406743 0.064504236 1.3986738e-38
0.12345338 0.12827194 0.066656381 1.3162734e-38
0.12234926 0.13038701 0.068639368 1.3438971e-38
0.13066673 0.099994034 0.052363425 1.3805217e-38
0.12911016 0.1030961 0.053090036 1.3713031e-38
0.12828553 0.10659361 0.054387748 1.3988529e-38
0.12742168 0.1100606 0.055685639 1.4449858e-38
0.12607551 0.11400247 0.056886643 1.4909413e-38
0.12507981 0.11783877 0.058476955 1.4541339e-38
0.12432969 0.12178311 0.060622841 1.3897784e-38
0.12267315 0.12513584 0.062359929 1.3987091e-38
0.12114716 0.12823635 0.0640966 1.3804139e-38
0.12002528 0.1315389 0.065805078 1.3989626e-38
0.11951095 0.13514236 0.06747064 1.4358045e-38
0.11676788 0.13764545 0.069294184 1.4175785e-38
0.12638974 0.10755637 0.052475154 1.4172932e-38
0.12528151 0.1102359 0.053916365 1.463355e-38
0.1229533 0.11478457 0.054824531 1.4817558e-38
0.1218214 0.11854103 0.056253821 1.4447715e-38
0.12049246 0.12175411 0.057981968 1.4264414e-38
0.11943907 0.12543216 0.059527129 1.4449151e-38
0.11822248 0.1287002 0.06084156 1.4358038e-38
0.11730057 0.13211063 0.062541723 1.472681e-38
0.11627841 0.13546857 0.064248055 1.4634641e-38
0.11454517 0.13847753 0.065999866 1.4356241e-38
0.11342257 0.14178261 0.067710757 1.3989604e-38
0.11291397 0.14537558 0.069375634 1.3070192e-38
0.12033957 0.11940596 0.054892808 1.4629604e-38
0.11910439 0.122022 0.055772424 1.4630321e-38
0.11728847 0.12585676 0.057043791 1.4816121e-38
0.11573339 0.12947178 0.05776006 1.4909388e-38
0.11497617 0.13288763 0.0592435 1.527782e-38
0.11385149 0.13619915 0.060959369 1.4820096e-38
0.11242187 0.13935992 0.062692374 1.4818284e-38
0.111094 0.14257064 0.064419299 1.4174707e-38
0.11027837 0.14602163 0.066111058 1.3253848e-38
0.11081398 0.14945924 0.067433596 1.2609898e-38
0.11273098 0.1339241 0.056499511 1.5095932e-38
0.11182857 0.13713047 0.057639331 1.5188142e-38
0.11019307 0.14019576 0.059384614 1.5095942e-38
0.10903728 0.14312798 0.061352283 1.4266184e-38
0.10794556 0.1468153 0.062816381 1.2884686e-38
0.10774952 0.15054819 0.064469457 1.1780108e-38
0.10617679 0.15894806 0.067360401 1.1967059e-38
0.10391223 0.16184813 0.069923788 1.2796433e-38
0.1101383 0.13758731 0.055441767 1.5003759e-38
0.10592699 0.1477696 0.060918301 1.2421559e-38
0.10485852 0.15077943 0.061782569 1.1775833e-38
0.17717433 0.019220203 0.064903438 4.4174687e-39
0.17625201 0.021167576 0.062824607 4.510407e-39
0.17321801 0.027109832 0.064036965 3.2189255e-39
0.17091632 0.026912004 0.058450729 4.0479701e-39
0.16982961 0.02888909 0.057907104 4.3249143e-39
0.16904825 0.028079361 0.055672586 4.6951416e-39
0.16792071 0.031180233 0.055830896 4.7858855e-39
0.1670903 0.034261435 0.056973457 4.4185421e-39
0.16492689 0.034787923 0.054645479 4.5074881e-39
0.16379166 0.038934618 0.055953532 5.4258879e-39
0.16108584 0.041691124 0.053603262 5.6124063e-39
0.15967691 0.044986308 0.052493006 6.5318543e-39
0.15601206 0.051369816 0.052399904 8.0044971e-39
0.15494269 0.053645879 0.053183198 9.4795963e-39
0.1539948 0.052381575 0.051526725 8.3743306e-39
0.15277648 0.055054009 0.051553786 9.4810313e-39
0.15198696 0.058005512 0.051560789 1.0216465e-38
0.15024656 0.05749023 0.048645824 7.9169468e-39
0.15022767 0.059807092 0.049720615 9.3892014e-39
0.14896506 0.058960557 0.047119021 6.7144729e-39
0.14850521 0.061390281 0.048258662 8.7445901e-39
0.1480459 0.063818365 0.049397469 1.132424e-38
0.13913381 0.078079313 0.050780177 1.3619752e-38
0.13831389 0.079987973 0.049658805 1.3436083e-38
0.13393939 0.090493709 0.053165376 1.3990654e-38
0.13246381 0.091343671 0.051796287 1.4266177e-38
0.13111156 0.094385475 0.051882833 1.40818e-38
0.12933272 0.095264345 0.050752521 1.3989597e-38
0.12881482 0.098471433 0.05117467 1.3897041e-38
0.12669408 0.10243791 0.051654965 1.3988532e-38
0.1250369 0.10286 0.050864726 1.4171124e-38
0.12354463 0.10694548 0.051290572 1.4173648e-38
0.12201005 0.11036745 0.052837372 1.4725385e-38
0.12107068 0.11324736 0.053501546 1.4819003e-38
0.11923826 0.11478093 0.052653819 1.4539155e-38
0.11766779 0.11813113 0.053411096 1.4721764e-38
0.11613327 0.12196493 0.054627448 1.4722127e-38
0.11571765 0.12386778 0.055907607 1.5274949e-38
0.11475921 0.12175551 0.052551687 1.4447722e-38
0.11347741 0.12574503 0.053922087 1.4543136e-38
0.11236596 0.12900248 0.055026829 1.50945e-38
0.11115772 0.13164142 0.055460215 1.5095939e-38
0.11057317 0.12989208 0.053081602 1.4910848e-38
0.1092627 0.13318524 0.054008663 1.4637487e-38
0.1068365 0.13663188 0.054460853 1.5003401e-38
0.10646784 0.13968292 0.056725085 1.5187067e-38
0.10538805 0.14303759 0.059588045 1.3989249e-38
0.10377079 0.14627963 0.059767634 1.2791788e-38
0.10206515 0.1472379 0.05884093 1.2514491e-38
0.10065502 0.15050125 0.059366852 1.223826e-38
0.099528551 0.15366057 0.060664982 1.2702455e-38
0.097739041 0.1567674 0.062641978 1.3255642e-38
0.09843719 0.15321878 0.058084637 1.2888684e-38
0.14909089 0.082143903 0.053527266 1.352864e-38
0.17647576 0.015048474 0.063850075 3.9561346e-39
0.16716927 0.023120195 0.055821866 4.6922563e-39
0.16906822 0.025013596 0.057082891 4.5082364e-39
0.16580772 0.024072707 0.053003848 4.3238213e-39
0.16666394 0.025950968 0.054187238 4.4171016e-39
0.16616535 0.029145718 0.054651529 4.8791657e-39
0.16444027 0.027131438 0.051027715 4.6908074e-39
0.16415393 0.030720741 0.052763313 5.0610528e-39
0.16360307 0.034536034 0.053680629 4.5986019e-39
0.16238588 0.036919922 0.054166973 4.2291286e-39
0.16198546 0.028674811 0.048291355 4.3249185e-39
0.16105956 0.031832188 0.049837619 5.0603466e-39
0.16023844 0.035250574 0.051089704 4.6011439e-39
0.16044664 0.03855142 0.052735478 4.508242e-39
0.15993154 0.031261742 0.0468795 5.1521681e-39
0.15833694 0.036428124 0.049481452 4.5089427e-39
0.15707773 0.039035827 0.050942928 4.8748413e-39
0.15674496 0.041588157 0.052079946 5.7020796e-39
0.15312392 0.048356444 0.050168246 6.5308089e-39
0.15307873 0.051348239 0.050432593 7.7296856e-39
0.15225112 0.053970367 0.052727044 9.9423499e-39
0.15124595 0.049277276 0.048234403 5.978703e-39
0.1515162 0.052952141 0.048200518 6.7162568e-39
0.15062439 0.055108368 0.049360275 8.0955997e-39
0.14953995 0.055867046 0.047115713 6.8070189e-39
0.14555502 0.060433269 0.047804296 7.9176895e-39
0.14373559 0.06313777 0.049570411 1.1875576e-38
0.14418167 0.060750961 0.046424389 6.2530856e-39
0.13870609 0.076471359 0.050239831 1.4262958e-38
0.13816386 0.076850682 0.049117595 1.3711225e-38
0.13569713 0.077060282 0.049210519 1.3436437e-38
0.13262033 0.088390619 0.052671701 1.3624037e-38
0.13266182 0.080351323 0.049304068 1.3804148e-38
0.13090038 0.085947961 0.050132811 1.334603e-38
0.13075966 0.089701414 0.050881535 1.3805563e-38
0.12878871 0.086908609 0.048834503 1.3621891e-38
0.12788165 0.089647144 0.049041182 1.3713369e-38
0.12768006 0.094614953 0.049510807 1.3897414e-38
0.12513137 0.098252952 0.050325423 1.3897392e-38
0.12535375 0.10036984 0.051156878 1.3988882e-38
0.12395531 0.095163763 0.048390061 1.389705e-38
0.12297678 0.098741889 0.048976094 1.4080708e-38
0.12283796 0.10280371 0.049606532 1.4447702e-38
0.12194335 0.10582039 0.050109506 1.4175055e-38
0.12104237 0.10002327 0.047895461 1.4632094e-38
0.11977899 0.10366932 0.047634304 1.4356953e-38
0.11941135 0.1069234 0.048811525 1.4171829e-38
0.11841071 0.11061835 0.05042541 1.4539183e-38
0.11699045 0.11390221 0.050956726 1.4446629e-38
0.11630356 0.11666158 0.051961541 1.4354429e-38
0.116449 0.10785392 0.047444761 1.4171846e-38
0.11534077 0.11035362 0.047852188 1.4354795e-38
0.11419725 0.11434302 0.048846841 1.4263314e-38
0.11406738 0.1181317 0.050326198 1.444807e-38
0.11291724 0.12228683 0.051339716 1.4541015e-38
0.11200136 0.12426838 0.052073926 1.4634271e-38
0.11126333 0.11800608 0.048146665 1.4724289e-38
0.10979974 0.12152144 0.049323469 1.4816526e-38
0.10925543 0.12549594 0.050867945 1.472537e-38
0.10743082 0.12862393 0.051423043 1.4818632e-38
0.10747623 0.13241425 0.052476227 1.4541346e-38
0.10413194 0.14050022 0.05682525 1.4819722e-38
0.10324013 0.14265648 0.057984978 1.399033e-38
0.10484755 0.12982193 0.050601363 1.4816827e-38
0.10420638 0.13297504 0.051174611 1.463175e-38
0.10288274 0.13601199 0.052348226 1.4724317e-38
0.10119408 0.13917264 0.054324389 1.490761e-38
0.10019982 0.1424993 0.055838078 1.3895612e-38
0.099930823 0.14623567 0.057117432 1.2330464e-38
0.099383891 0.14918515 0.057517499 1.2513773e-38
0.095550478 0.15577886 0.061341912 1.3899566e-38
0.090068221 0.16555616 0.069821 1.3622991e-38
0.097839296 0.14395919 0.054208726 1.3249123e-38
0.097362101 0.14716604 0.054770321 1.2791424e-38
0.097231269 0.15074071 0.05588299 1.2975788e-38
0.09498924 0.15381303 0.057597488 1.2887557e-38
0.094295859 0.15520293 0.059980094 1.3348919e-38
0.094861865 0.14835081 0.052574396 1.3804114e-38
0.093966186 0.15051654 0.05373919 1.3988836e-38
0.15835214 0.030775696 0.048661351 5.9776254e-39
0.15522718 0.032149315 0.048771471 4.6933367e-39
0.13691717 0.064889759 0.049967319 1.2612056e-38
0.13404405 0.070189357 0.050472915 1.3252762e-38
0.13349628 0.070572585 0.049339175 1.3161993e-38
0.13263941 0.072584867 0.048974663 1.3437157e-38
0.1306659 0.075445235 0.047111899 1.325456e-38
0.12947989 0.077724725 0.047500521 1.316236e-38
0.12887132 0.081662476 0.048635095 1.3345675e-38
0.12750667 0.079406947 0.046051443 1.2977618e-38
0.12657678 0.082082629 0.047077328 1.3344602e-38
0.12592489 0.085814178 0.047454357 1.3528623e-38
0.12503076 0.088816941 0.047814697 1.3621898e-38
0.12316048 0.087091595 0.046164989 1.334424e-38
0.1220572 0.089931279 0.046404958 1.3436817e-38
0.12139052 0.093240947 0.047231555 1.3895983e-38
0.1206972 0.096479356 0.047927946 1.4081061e-38
0.11984307 0.091347367 0.043094426 1.3433925e-38
0.11889702 0.094084889 0.044696569 1.3712628e-38
0.1184721 0.097869366 0.046060681 1.4081435e-38
0.11798418 0.10069269 0.046854049 1.4539912e-38
0.11626995 0.098104209 0.044048846 1.371302e-38
0.11516953 0.10227147 0.044859737 1.4173296e-38
0.11448932 0.10559535 0.045803159 1.3988891e-38
0.11337745 0.10854617 0.046402037 1.4080007e-38
0.11304998 0.103066 0.042697877 1.3621552e-38
0.11235154 0.10651937 0.04400304 1.3806304e-38
0.11135459 0.10980603 0.045315772 1.4172565e-38
0.10994339 0.11337081 0.046496809 1.4265479e-38
0.107988 0.11698171 0.047121704 1.4907966e-38
0.10620457 0.11722568 0.045888096 1.4633181e-38
0.10533237 0.1209006 0.047029942 1.444988e-38
0.10364985 0.12391484 0.048171997 1.4358029e-38
0.10248756 0.12748182 0.04932937 1.4725012e-38
0.10201526 0.13038704 0.050133139 1.4999444e-38
0.091235399 0.15645123 0.064151734 1.343931e-38
0.08962512 0.15767106 0.065087765 1.3992465e-38
0.088050723 0.1614776 0.067135125 1.4450585e-38
0.086701274 0.16474038 0.068889976 1.426692e-38
0.10278094 0.12224737 0.044975251 1.4632832e-38
0.10163045 0.1247938 0.046009868 1.4633188e-38
0.10046732 0.12831569 0.047163129 1.4264771e-38
0.09953928 0.13170227 0.048276603 1.4540279e-38
0.09823668 0.13539165 0.049668014 1.4080767e-38
0.097157359 0.13845748 0.051577091 1.4815775e-38
0.095821917 0.14185032 0.052934706 1.4171452e-38
0.094986677 0.14456549 0.053750962 1.3068361e-38
0.090280294 0.15508968 0.060645461 1.3530794e-38
0.086564183 0.16145715 0.066064209 1.4634973e-38
0.085566819 0.16518149 0.067212373 1.4910847e-38
0.09708333 0.13319951 0.046846211 1.3897417e-38
0.09595722 0.1359224 0.048310727 1.3714469e-38
0.09483099 0.13864529 0.049775243 1.4357662e-38
0.093695045 0.1424962 0.051375329 1.3619381e-38
0.093476772 0.14546821 0.052367628 1.325132e-38
0.091132045 0.15019819 0.053574681 1.4079963e-38
0.089691877 0.15296954 0.055279404 1.3254509e-38
0.088962495 0.15504327 0.057653189 1.3165228e-38
0.1522541 0.028219551 0.047174037 4.7826751e-39
0.15068996 0.032560259 0.048942178 4.5093098e-39
0.14933157 0.035844535 0.050708652 4.9670411e-39
0.15121746 0.029463768 0.046046406 3.8621747e-39
0.14960718 0.033120483 0.047676206 4.0479841e-39
0.14816153 0.036551178 0.048845768 4.3245598e-39
0.14777386 0.040243417 0.050229222 5.5184451e-39
0.14775217 0.035001993 0.044982195 3.4019057e-39
0.146393 0.038288444 0.0467498 2.8537513e-39
0.14588839 0.040069103 0.047143668 4.0472695e-39
0.13292384 0.063281298 0.049411118 1.3529343e-38
0.1323148 0.063994378 0.047691941 1.0312242e-38
0.13174605 0.068273604 0.048612118 1.3161983e-38
0.12906879 0.069664448 0.046619564 1.1967456e-38
0.12866211 0.071837991 0.046622664 1.2702493e-38
0.126122 0.073099971 0.045258552 1.1046897e-38
0.12482309 0.07680884 0.044997692 1.2610281e-38
0.12381601 0.080887079 0.045785338 1.3159497e-38
0.12284017 0.08350119 0.046191871 1.3528267e-38
0.12147522 0.081021816 0.044802636 1.3158415e-38
0.12089086 0.084579468 0.044866353 1.3434276e-38
0.11983669 0.087931156 0.044543236 1.3251691e-38
0.11918509 0.086220235 0.043030441 1.3159503e-38
0.11856782 0.088253856 0.042851865 1.324954e-38
0.11638153 0.093453377 0.043482155 1.3621861e-38
0.11696154 0.091106981 0.040876329 1.334315e-38
0.11480534 0.093811393 0.042028189 1.3435709e-38
0.11392742 0.097498983 0.042970538 1.3437518e-38
0.1124745 0.100068 0.043008476 1.3711956e-38
0.1117205 0.09724763 0.041419059 1.3069099e-38
0.10990632 0.10025778 0.04135114 1.3069091e-38
0.10798776 0.10369191 0.042845547 1.3712693e-38
0.1063087 0.11214414 0.045472354 1.4265848e-38
0.10449779 0.11187404 0.043963253 1.3805954e-38
0.10367149 0.11631784 0.044581741 1.4449865e-38
0.10217583 0.11930487 0.045292497 1.4358045e-38
0.08613795 0.15808198 0.066148669 1.435982e-38
0.10238588 0.11344972 0.042703211 1.3253495e-38
0.10178173 0.11635023 0.042907894 1.3438594e-38
0.10061175 0.11997032 0.043666005 1.3989259e-38
0.098991394 0.12397489 0.044513375 1.3988888e-38
0.097817063 0.12701178 0.045406312 1.3712671e-38
0.086135685 0.15529427 0.061694354 1.3808453e-38
0.08507359 0.15757766 0.063311994 1.4545646e-38
0.083390355 0.16102642 0.064510047 1.5003036e-38
0.082230985 0.16469657 0.06567502 1.5098111e-38
0.080423892 0.1690658 0.068025082 1.4911217e-38
0.079262316 0.17064559 0.069576681 1.5003762e-38
0.09798193 0.12094221 0.042240888 1.3345665e-38
0.097047925 0.1237779 0.043226123 1.3343876e-38
0.095812917 0.12734127 0.044602782 1.3252777e-38
0.09425652 0.13085479 0.045796454 1.417435e-38
0.093337178 0.13418105 0.047113448 1.3530782e-38
0.091532528 0.13805923 0.048167974 1.3715904e-38
0.090459526 0.14127406 0.049690813 1.3526796e-38
0.089166403 0.14509565 0.051101446 1.3436048e-38
0.088037014 0.1478264 0.052570194 1.3898092e-38
0.086907625 0.15055719 0.054038942 1.3619712e-38
0.084803939 0.1552476 0.058040887 1.3717325e-38
0.082393169 0.15797532 0.06054154 1.4729342e-38
0.081034541 0.16126043 0.062308431 1.4910131e-38
0.080147743 0.16474432 0.064046413 1.5465452e-38
0.079262614 0.16822428 0.065782309 1.4728626e-38
0.076824307 0.17123052 0.068053067 1.4820079e-38
0.092283964 0.1321944 0.044699162 1.3713002e-38
0.091377854 0.13438532 0.045877576 1.3070505e-38
0.089241147 0.13860491 0.046799451 1.3898859e-38
0.08810842 0.14134359 0.048272401 1.3618642e-38
0.086844921 0.14483255 0.04974547 1.3344953e-38
0.085640788 0.14854118 0.051444709 1.3528624e-38
0.084224164 0.15160322 0.052983582 1.2882892e-38
0.082810462 0.15491968 0.055498242 1.2425868e-38
0.081863284 0.15739012 0.058250695 1.3722011e-38
0.07959795 0.16286746 0.061196625 1.4270857e-38
0.078554034 0.16515473 0.06208995 1.4358379e-38
0.077559114 0.16779706 0.063847989 1.4359827e-38
0.14963335 0.028994471 0.047844976 4.5075175e-39
0.14796233 0.0289855 0.046161681 3.5870046e-39
0.1473788 0.031976998 0.045935214 3.4951523e-39
0.14593101 0.035097927 0.047073156 3.8625027e-39
0.14596176 0.033124447 0.043308765 2.9427212e-39
0.14458644 0.036331296 0.044864625 3.4951565e-39
0.13090563 0.05929184 0.046897173 6.0741034e-39
0.12913603 0.062867075 0.046456814 7.7354576e-39
0.12862253 0.065554112 0.047235847 1.1877013e-38
0.127653 0.064303845 0.045532525 7.367712e-39
0.12653911 0.067104846 0.045558095 9.0233069e-39
0.1248554 0.068215638 0.043576121 5.5202317e-39
0.1237092 0.072023958 0.044036359 8.6548411e-39
0.12258089 0.074465156 0.043919563 1.1690466e-38
0.12090588 0.076239288 0.043676764 1.2425539e-38
0.1190685 0.07928881 0.04401499 1.3065861e-38
0.11036217 0.093308598 0.040185392 1.2884696e-38
0.10827917 0.096792281 0.040529579 1.2701029e-38
0.10686272 0.10107622 0.042014092 1.3530442e-38
0.10573041 0.10034889 0.039958626 1.2238963e-38
0.10452145 0.10395494 0.041134298 1.2793945e-38
0.10295808 0.10723811 0.041682094 1.3619763e-38
0.10119492 0.10917044 0.040424734 1.3068002e-38
0.10007405 0.11159632 0.041033328 1.2700666e-38
0.09877646 0.11493102 0.041356802 1.2700673e-38
0.096750736 0.11616686 0.040077269 1.2422636e-38
0.095742226 0.11915866 0.040567189 1.2607031e-38
0.094417095 0.1228604 0.041904986 1.2976161e-38
0.092802227 0.12652755 0.043539435 1.2793592e-38
0.091893435 0.12872478 0.044721246 1.4906525e-38
0.074854314 0.16992301 0.06687963 1.4727524e-38
0.092463911 0.12371448 0.040943235 1.2241827e-38
0.091326356 0.12646496 0.042422563 1.2332255e-38
0.090188742 0.12921545 0.04390192 1.4079998e-38
0.088600516 0.13387939 0.044518828 1.2511628e-38
0.086608827 0.13687813 0.045588136 1.2699616e-38
0.085692048 0.14087066 0.047199309 1.3805555e-38
0.08432889 0.14416653 0.048972011 1.3437872e-38
0.082484126 0.14594248 0.050191611 1.3437495e-38
0.079352438 0.15562057 0.055671215 1.2056715e-38
0.078600764 0.15822932 0.058200926 1.2795028e-38
0.077206492 0.1611867 0.059591413 1.3069444e-38
0.075348437 0.16464895 0.060687721 1.279322e-38
0.07443738 0.16756001 0.063533694 1.40818e-38
0.073125124 0.17047271 0.066092104 1.3991033e-38
0.12818396 0.05831629 0.045830488 4.232381e-39
0.12541687 0.058752775 0.043875515 4.0472709e-39
0.12601018 0.062086195 0.044721484 5.0621122e-39
0.12489915 0.064718843 0.045039803 7.0882679e-39
0.12309861 0.060176164 0.042189628 3.4951635e-39
0.12276429 0.062749326 0.043362409 4.1412419e-39
0.12079805 0.066473573 0.042537451 3.5895241e-39
0.12186539 0.069193512 0.043374509 5.6181643e-39
0.1186769 0.067994267 0.042305112 4.785545e-39
0.11841428 0.071193755 0.041956753 7.1775544e-39
0.11826599 0.074468821 0.042694598 1.1595771e-38
0.11746264 0.076978266 0.043489516 1.2882906e-38
0.11563009 0.072488129 0.040632695 9.5667319e-39
0.11490166 0.075337797 0.041672051 1.2148215e-38
0.11348611 0.078608662 0.041853398 1.2789993e-38
0.1037035 0.096180528 0.03890273 1.1136922e-38
0.10069323 0.097112089 0.037518859 8.2756553e-39
0.10015774 0.10044089 0.038119256 9.0164742e-39
0.10006362 0.10388297 0.038417906 8.923931e-39
0.099604964 0.10632947 0.03959468 1.1687237e-38
0.097587585 0.1049549 0.03585726 7.9104616e-39
0.096038342 0.10809746 0.037426203 8.556931e-39
0.094988227 0.11121836 0.038741738 1.0766704e-38
0.094696522 0.11485994 0.039432198 1.1505341e-38
0.093453884 0.10887003 0.035663992 8.7398593e-39
0.092995048 0.11265978 0.037432045 9.0113959e-39
0.092396379 0.11525673 0.03774181 9.476002e-39
0.090637803 0.11915907 0.038661927 1.0120281e-38
0.089512229 0.1227605 0.040148586 1.1870178e-38
0.08831805 0.12619323 0.042158544 1.288291e-38
0.0873276 0.12981647 0.04340449 1.3713739e-38
0.070899606 0.16953698 0.064768106 1.3438943e-38
0.085954309 0.12317246 0.037903875 8.9224415e-39
0.084785223 0.12659553 0.039686292 9.5685311e-39
0.085048795 0.1306138 0.041211307 1.0029158e-38
0.083501518 0.13368252 0.042926043 1.0858208e-38
0.081713796 0.13721445 0.044721872 1.1780482e-38
0.080197871 0.13996908 0.04592824 1.2795715e-38
0.080651939 0.14313158 0.047360927 1.2703879e-38
0.076616645 0.14722079 0.050208896 1.1782284e-38
0.076406538 0.15431485 0.053866267 9.847262e-39
0.074149609 0.15631726 0.055279106 1.0489047e-38
0.07304424 0.15985474 0.056734622 1.104437e-38
0.071383834 0.16319963 0.058091164 1.06756e-38
0.069598317 0.16595557 0.060415059 1.1596127e-38
0.067798018 0.1688613 0.062301308 1.1872709e-38
0.083495975 0.12761894 0.036801964 1.0395388e-38
0.083671808 0.13167527 0.038553953 8.3696474e-39
0.081826687 0.13344815 0.039766133 6.2491634e-39
0.070403636 0.1588566 0.054370284 9.2923044e-39
0.068799615 0.1627349 0.056456178 1.0026993e-38
0.063622594 0.16950646 0.051919401 1.3079515e-38
0.063164294 0.17061454 0.052515388 1.3261386e-38
0.12504375 0.048199505 0.044800997 4.3231123e-39
0.12564486 0.052745134 0.045571595 4.7830058e-39
0.12319374 0.049600929 0.042204291 2.0225431e-39
0.12280643 0.052999318 0.042429537 2.2090854e-39
0.12370288 0.057026088 0.04217723 2.6682699e-39
0.12078309 0.05325827 0.03971836 6.4392887e-40
0.12047726 0.05776903 0.040703535 1.8392407e-39
0.11959791 0.061903864 0.041701287 2.8523108e-39
0.11677861 0.061977208 0.040312767 1.9314251e-39
0.11644334 0.065621585 0.041199714 3.3104233e-39
0.11622381 0.069355637 0.040618151 3.6745199e-39
0.11332411 0.066594034 0.039521277 2.484264e-39
0.11338508 0.070132107 0.039520741 5.1550029e-39
0.11279058 0.074532896 0.040317953 1.1505362e-38
0.11009657 0.070659518 0.03842935 5.8918533e-39
0.10955691 0.073476523 0.039032549 1.0494069e-38
0.1093154 0.078195661 0.039626747 1.1965622e-38
0.10815084 0.081843793 0.040390253 1.2885416e-38
0.10640162 0.077587426 0.037938505 9.8504948e-39
0.10469419 0.081462055 0.038571566 1.1504983e-38
0.10342491 0.085019261 0.039545208 1.2426234e-38
0.10119033 0.086406946 0.038662016 1.1597181e-38
0.099649906 0.089351743 0.038114697 1.0032388e-38
0.099122167 0.092148095 0.038718343 1.1687943e-38
0.096979022 0.09340018 0.036861926 8.7373299e-39
0.097358584 0.098389894 0.036719441 7.7253963e-39
0.094492137 0.095851302 0.034131736 9.5699675e-39
0.095384717 0.099046558 0.035299242 8.5522661e-39
0.090631008 0.11095488 0.036165953 9.2904813e-39
0.088593602 0.11512867 0.036659062 8.0023111e-39
0.086730242 0.11082792 0.034339905 1.0120612e-38
0.087449074 0.11556149 0.034930736 9.4745278e-39
0.078964472 0.13642803 0.043930829 1.0033789e-38
0.075466037 0.14341486 0.048317462 1.1874841e-38
0.073730826 0.1488902 0.051381797 9.8415447e-39
0.07285428 0.15158504 0.052629054 8.9264001e-39
0.071621418 0.15418243 0.053480029 9.2051324e-39
0.078155041 0.13339365 0.041321635 6.7094128e-39
0.075293958 0.13538238 0.042865455 7.3526229e-39
0.073596179 0.14364693 0.046422541 9.1014363e-39
0.072273016 0.14623752 0.047630548 8.2745441e-39
0.072378457 0.14956868 0.049079239 7.4451968e-39
0.071230292 0.15234476 0.050572395 7.5381029e-39
0.069599628 0.15588978 0.052204549 7.5434629e-39
0.068037987 0.1595014 0.053329796 6.0701587e-39
0.066538334 0.16272944 0.054791689 6.437851e-39
0.065465987 0.16588446 0.057580471 8.1906105e-39
0.064220905 0.16926083 0.058944643 8.1913574e-39
0.068240762 0.14871463 0.04746291 7.8171855e-39
0.066704273 0.15213835 0.047867805 6.8048343e-39
0.065682054 0.15547505 0.04958111 5.8825108e-39
0.064741969 0.15931839 0.05077076 6.1627005e-39
0.063676596 0.16279194 0.052554727 7.3565647e-39
0.062519193 0.16622019 0.054341942 8.5554568e-39
0.060913861 0.16947225 0.05614838 9.845474e-39
0.059355497 0.17144462 0.0573771 1.1047609e-38
0.06355691 0.15714633 0.047879368 9.3898908e-39
0.062854052 0.15995261 0.048921555 1.1413184e-38
0.062201917 0.16311774 0.050842106 1.0768557e-38
0.058589995 0.17030993 0.053878874 1.1515065e-38
0.1229341 0.044719547 0.043993324 3.8621397e-39
0.12208855 0.045311004 0.042243481 1.8377973e-39
0.12163758 0.047194839 0.041662276 1.562288e-39
0.12039763 0.046493977 0.038743734 1.0105534e-39
0.11980641 0.049266547 0.038878232 1.0112695e-39
0.11592567 0.05440101 0.038860559 5.5246192e-40
0.11462283 0.05690527 0.039288431 1.0112737e-39
0.11248088 0.060793102 0.039541215 1.4711714e-39
0.10688156 0.069488794 0.037324876 3.1242145e-39
0.10616964 0.072338194 0.037739396 7.9169089e-39
0.10436374 0.073639482 0.036799997 6.9027906e-39
0.10317004 0.076445222 0.036832571 8.1009611e-39
0.10159719 0.079724401 0.037169635 9.844053e-39
0.099891782 0.081546575 0.036916852 8.7391488e-39
0.098958731 0.084628046 0.037297845 9.1093551e-39
0.097809017 0.087314695 0.036976159 8.3710978e-39
0.096301556 0.089082718 0.036276579 8.7377209e-39
0.094269037 0.092972398 0.03588897 8.4592703e-39
0.093243361 0.094485313 0.035325944 8.6458658e-39
0.065792084 0.14828551 0.046364933 8.0948318e-39
0.065097809 0.14996418 0.047267795 7.4509057e-39
0.063146412 0.15371528 0.047908604 6.1641186e-39
0.062330604 0.15202537 0.045871884 9.1950445e-39
0.061116099 0.15491971 0.046551675 1.1044334e-38
0.12339222 0.038122743 0.044888884 4.4174589e-39
0.12282622 0.038518727 0.043717355 3.8664291e-39
0.11961734 0.043778598 0.040537953 1.5622852e-39
0.11802256 0.044531554 0.037615955 5.5138572e-40
0.11573797 0.047876358 0.037674546 5.5173745e-40
0.11465621 0.049033076 0.036219954 2.1161681e-39
0.11405194 0.05198732 0.037483066 5.5210038e-40
0.11231029 0.056223005 0.038162172 7.3576437e-40
0.11072743 0.059726387 0.03958562 1.1956649e-39
0.11241078 0.053003252 0.036278635 2.7622816e-40
0.11086971 0.056080788 0.037010878 7.361203e-40
0.10902679 0.059969395 0.038294733 9.2015002e-40
0.1085102 0.062302679 0.039050013 2.0239893e-39
0.10979462 0.052034199 0.025373816 5.4321111e-39
0.10263026 0.069842845 0.035644412 2.6682741e-39
0.10192811 0.071779609 0.035664678 3.2221793e-39
0.10894561 0.052628189 0.023616552 2.7586816e-39
0.10010183 0.074011058 0.035117298 4.3188439e-39
0.099279523 0.076563686 0.035931528 7.7289654e-39
0.098567724 0.079414397 0.036349386 8.5558408e-39
0.097072899 0.082057506 0.036388427 8.2760113e-39
0.095079184 0.084086508 0.035548776 7.7250137e-39
0.092849851 0.086682409 0.035010189 8.6473105e-39
0.091585636 0.088766515 0.034746647 8.7380236e-39
0.091056645 0.090896755 0.035061151 8.644749e-39
0.12131739 0.036646932 0.043024331 3.6806113e-39
0.11984146 0.039484054 0.043508977 3.7735244e-39
0.11730444 0.037550896 0.041200101 2.3898865e-39
0.11259925 0.040261418 0.032364845 1.6950684e-38
0.11387753 0.04389295 0.035034508 8.5623176e-39
0.11390018 0.046046525 0.035931766 2.5832657e-39
0.11237144 0.0386087 0.028339058 9.954729e-39
0.11223102 0.041552484 0.029997945 1.2993519e-38
0.11231744 0.04517749 0.031503648 1.3085661e-38
0.11153674 0.048244685 0.033016831 1.2069311e-38
0.10998487 0.051549643 0.034417093 5.244693e-39
0.10840207 0.055018783 0.035627455 5.5316677e-40
0.1071955 0.058356255 0.036999106 3.6913705e-40
0.11204231 0.036221415 0.022524029 6.0781181e-39
0.11134893 0.038978815 0.02463761 4.1481181e-39
0.11186981 0.042888671 0.026154548 3.0432293e-39
0.11084688 0.045804709 0.02767238 8.388778e-39
0.11002779 0.049557626 0.029490083 1.345697e-38
0.10833526 0.052763492 0.03131476 1.2721548e-38
0.10615385 0.05567494 0.033148497 5.5248714e-39
0.10416234 0.058700711 0.035406679 6.4392607e-40
0.11121911 0.03478387 0.016871184 8.1002618e-39
0.11085176 0.036651701 0.019269973 4.9703342e-39
0.10944557 0.040051579 0.021098584 4.6044061e-39
0.11001933 0.04398945 0.022625625 3.8668271e-39
0.10904533 0.046936274 0.024145126 2.8534164e-39
0.10828102 0.050614178 0.026134104 7.6537451e-39
0.10653436 0.053894997 0.027789414 1.4851445e-38
0.10356796 0.056333989 0.029626667 1.5868042e-38
0.098872662 0.065810949 0.035232097 7.3577838e-40
0.11064911 0.035182625 0.015691519 1.0224319e-38
0.10957742 0.037382007 0.016316801 6.168471e-39
0.10802054 0.041048437 0.018149316 3.6820869e-39
0.10831416 0.045182437 0.019096404 4.049412e-39
0.10724294 0.048068404 0.020616204 2.9470414e-39
0.10622126 0.051786929 0.022293538 2.4875276e-39
0.10452199 0.054806322 0.02440992 7.9433024e-39
0.1023401 0.057448506 0.026679128 1.7620887e-38
0.10008907 0.060127676 0.028271675 1.6497925e-38
0.097270906 0.070756525 0.033971339 1.9296637e-39
0.094377041 0.073546737 0.034931421 6.4364329e-39
0.09485209 0.079422861 0.035834581 9.1068453e-39
0.10601556 0.045628071 0.01614514 3.9568367e-39
0.10529184 0.049014598 0.017231822 3.2232639e-39
0.10394734 0.052265346 0.018980235 4.1430566e-39
0.10187507 0.054972202 0.021242797 3.3143904e-39
0.10003352 0.057911545 0.023733646 1.2912825e-38
0.098757267 0.061119884 0.025633544 1.7873342e-38
0.093104005 0.075645417 0.034666061 9.1043454e-39
0.091388822 0.078617185 0.034591377 8.1888267e-39
0.091949701 0.082948834 0.034122705 7.4537994e-39
0.10404938 0.046242774 0.014669329 2.6689887e-39
0.10211718 0.053457588 0.016041011 3.4062048e-39
0.10026342 0.056300819 0.018301517 4.7880533e-39
0.098759294 0.058641851 0.020780474 5.7128963e-39
0.097956061 0.060975581 0.022593349 1.4479037e-38
0.091108978 0.07704106 0.030537039 3.0352601e-39
0.089764118 0.080129653 0.031965882 3.768163e-39
0.089066625 0.083236545 0.032390475 7.3605038e-39
0.088215947 0.087753832 0.033419907 9.1079019e-39
0.087712348 0.090833992 0.033641875 9.5692304e-39
0.099048615 0.054963499 0.013540179 4.7837317e-39
0.097785354 0.057470769 0.015131652 4.8777238e-39
0.097652197 0.058771938 0.017225653 5.2483196e-39
0.088277817 0.081437886 0.029416472 1.0112849e-39
0.087809145 0.082571179 0.030026019 2.9423386e-39
0.083723724 0.091469646 0.033417851 1.0488329e-38
0.083020687 0.09316957 0.034332126 1.0482964e-38
0.11676848 0.028884977 0.038020492 9.4687825e-39
0.11598992 0.032363981 0.039440662 2.4799269e-39
0.1145556 0.036365896 0.039628983 2.6635923e-39
0.11322725 0.033552974 0.037711263 1.7563942e-38
0.11243099 0.036697567 0.037733793 7.0792267e-39
0.11216414 0.035504192 0.031750977 2.3325836e-38
0.11133683 0.037915647 0.034767836 1.7041427e-38
0.11250257 0.033338249 0.026624382 1.0965606e-38
0.11230922 0.035955727 0.028369576 1.5940951e-38
0.11154926 0.030715168 0.022284627 7.5550306e-39
0.11224025 0.034309566 0.023541152 6.2675232e-39
0.11040646 0.02904737 0.019165725 7.1873075e-39
0.1111818 0.032053024 0.018536747 7.1797517e-39
0.11159337 0.034157217 0.021016002 6.5383718e-39
0.10115314 0.058296889 0.032428861 3.4965662e-39
0.099745035 0.061701506 0.034260064 5.5209198e-40
0.11081982 0.033085406 0.016251236 9.3985312e-39
0.10780072 0.038423508 0.016330093 4.1376588e-39
0.099764228 0.059570998 0.030147403 1.0592341e-38
0.09804529 0.062991351 0.030939996 3.0341657e-39
0.096771359 0.066071749 0.032596737 1.379689e-39
0.094658375 0.070199937 0.03342095 1.4704778e-39
0.10722995 0.03882283 0.015148759 6.0765696e-39
0.10647517 0.040157348 0.015168458 4.0515799e-39
0.095350027 0.063895732 0.02752316 9.6653959e-39
0.095461845 0.066949427 0.029811233 1.2882095e-39
0.091522872 0.070726544 0.031833589 1.3786283e-39
0.091425359 0.073929816 0.032673776 6.4414397e-39
0.090884566 0.076872557 0.033519566 9.5749799e-39
0.097335458 0.057842463 0.018397868 5.5220198e-39
0.096095026 0.059749335 0.019911498 5.3394586e-39
0.094766259 0.061938226 0.022695631 1.3079545e-38
0.088723302 0.071860522 0.02714619 2.5760868e-39
0.089168847 0.074609816 0.029013306 2.3898907e-39
0.088750184 0.078526229 0.030779362 2.7561845e-39
0.095908523 0.058840752 0.015444517 4.7858967e-39
0.094199479 0.059777737 0.017237067 4.507163e-39
0.088994682 0.07678324 0.026840001 2.2998489e-39
0.082287312 0.090189934 0.03209269 1.1042564e-38
0.081307292 0.093653977 0.03347072 1.0765659e-38
0.094411492 0.054466099 0.010905117 8.5734971e-39
0.093160093 0.057268649 0.012435108 3.9611779e-39
0.091911137 0.058993578 0.014243364 3.9568633e-39
0.081019163 0.091091901 0.03017813 1.1687947e-38
0.080451131 0.094252974 0.031698704 1.1596511e-38
0.092650056 0.055237114 0.0094191134 4.3425469e-39
0.091943145 0.056946546 0.010338515 3.8693368e-39
0.09005779 0.06150496 0.012790203 3.8635774e-39
0.11501765 0.025910676 0.03705579 9.6715014e-39
0.11378503 0.028397202 0.037690312 9.0921667e-39
0.1121583 0.02888611 0.035319716 2.1025929e-38
0.1114285 0.031873077 0.036396742 2.0739933e-38
0.11099595 0.027554035 0.030522615 2.341769e-38
0.11093473 0.030143678 0.031815886 2.341769e-38
0.11019158 0.032805979 0.03396976 2.3417659e-38
0.10993433 0.027873725 0.026133984 9.773174e-39
0.11023444 0.030069053 0.02874884 1.8550409e-38
0.10936886 0.026636064 0.021079332 7.6450808e-39
0.10992807 0.027847022 0.023336321 7.6461795e-39
0.10886168 0.026968837 0.01794365 6.4476054e-39
0.091151118 0.065346271 0.032258779 1.9299846e-39
0.089179039 0.066129297 0.031092525 9.2159336e-40
0.08816433 0.067923486 0.031119078 1.0127226e-39
0.087409794 0.067028165 0.026766211 2.024341e-39
0.087118506 0.06914255 0.028889239 1.9321496e-39
0.090334177 0.059420973 0.017825395 4.1369428e-39
0.089387059 0.061236858 0.020169705 6.4439593e-39
0.088465214 0.06324026 0.022969186 5.6170741e-39
0.086664796 0.067346066 0.024825573 2.8530199e-39
0.089308202 0.059597343 0.014640033 3.4955348e-39
0.088068426 0.061161429 0.016505003 3.1299837e-39
0.089227378 0.057488173 0.010225415 2.761906e-39
0.088194907 0.05990243 0.01140672 3.5894961e-39
0.087562561 0.062172055 0.013681829 4.1433789e-39
0.1096741 0.020990103 0.033527613 1.2441285e-38
0.11024296 0.023966014 0.033832222 2.1390066e-38
0.10846364 0.021427542 0.030219257 1.6782885e-38
0.10922325 0.024555653 0.029776305 2.1938982e-38
0.10762674 0.019965976 0.024472088 7.7422889e-39
0.10820574 0.022158623 0.02599892 7.0087078e-39
0.1088171 0.024987996 0.027523756 1.3822554e-38
0.10668027 0.020013958 0.02130869 7.0054456e-39
0.10491598 0.021043479 0.017255723 5.7114613e-39
0.10616684 0.023338825 0.017891526 6.4472383e-39
0.087329388 0.064603478 0.029904991 4.6313054e-40
0.086616158 0.064939231 0.028109312 9.2195209e-40
0.084260106 0.062249631 0.022078961 4.5082224e-39
0.082236052 0.063931376 0.023313642 3.4058391e-39
0.084840059 0.061232388 0.017449588 3.6838567e-39
0.083052278 0.063028634 0.019683242 4.0529882e-39
0.084088683 0.060832232 0.015440255 3.7760187e-39
0.11353487 0.008723855 0.027864277 7.5528488e-39
0.1118803 0.011747271 0.029801875 2.4853121e-39
0.11067486 0.015383959 0.031229734 1.471561e-39
0.10838759 0.01831311 0.03202039 3.3190819e-39
0.11077738 0.0088901818 0.02584973 9.1259338e-39
0.10903364 0.012439489 0.026809961 3.8675711e-39
0.10870564 0.016430318 0.028060347 1.9339726e-39
0.10791874 0.019023389 0.029757172 8.1968561e-39
0.10648412 0.014771312 0.022608221 5.7128991e-39
0.10701907 0.017151594 0.024448484 6.911801e-39
0.10627091 0.018098682 0.020229369 6.3618642e-39
0.10745233 0.0094178319 0.02497372 7.0936811e-39
0.10670906 0.0096032917 0.023460299 6.8188949e-39
0.10519934 0.011975348 0.023597389 4.9753494e-39
0.13481468 0.11331666 0.06621328 1.1873387e-38
0.12883967 0.079908729 0.047356188 1.049085e-38
