# .PCD v0.7 - Point Cloud Data file format
VERSION 0.7
FIELDS x y z rgb
SIZE 4 4 4 4
TYPE F F F F
COUNT 1 1 1 1
WIDTH 980
HEIGHT 1
VIEWPOINT 0 0 0 0 1 0 0
POINTS 980
DATA ascii
0.12097344 0.072461948 0.0061784387 1.5652006e-38
0.12089968 0.076830178 0.0058143735 1.4731128e-38
0.1207936 0.081199512 0.0052866936 1.3902454e-38
0.12081891 0.084922388 0.0054345131 1.3348926e-38
0.1209925 0.088630587 0.0063462853 1.3348199e-38
0.12138745 0.091990948 0.0074639916 1.2982299e-38
0.12186794 0.096076593 0.0082768202 1.335109e-38
0.11769368 0.062387742 0.0088754296 1.7120681e-38
0.11757362 0.06491901 0.0082458854 1.6662211e-38
0.11757761 0.068659112 0.0082848072 1.6019355e-38
0.11727493 0.072471842 0.0066847801 1.5190316e-38
0.11734155 0.076810673 0.0070576668 1.4084346e-38
0.11730527 0.081170738 0.0068843961 1.3441848e-38
0.11733037 0.084898055 0.0070323944 1.3164915e-38
0.1173555 0.088626221 0.0071803331 1.3257802e-38
0.11739666 0.09198615 0.0083793998 1.3442197e-38
0.1169217 0.095238946 0.0094023943 1.3167412e-38
0.11404552 0.062383361 0.0097121 1.6477105e-38
0.11396852 0.064902574 0.0093004704 1.5741694e-38
0.11373436 0.06871035 0.0080267191 1.5188526e-38
0.11352047 0.072497927 0.0068621039 1.4635715e-38
0.1135256 0.076844357 0.0069072247 1.3715918e-38
0.11355081 0.081187293 0.0070616603 1.3074129e-38
0.1136942 0.084893689 0.007866323 1.2981598e-38
0.11371848 0.088621847 0.0080144405 1.2890465e-38
0.11380284 0.092347592 0.0084908605 1.3167399e-38
0.11408433 0.095318705 0.010053933 1.279932e-38
0.11039738 0.062378973 0.010548711 1.6477821e-38
0.11040029 0.064874083 0.01057452 1.5742045e-38
0.11005801 0.068717614 0.0086419582 1.4822253e-38
0.10988903 0.072493561 0.0076948404 1.4362347e-38
0.10989416 0.076839983 0.0077400208 1.343969e-38
0.10993782 0.08117944 0.0080041885 1.2705715e-38
0.11007708 0.084886253 0.0088098049 1.2613882e-38
0.11008147 0.088617474 0.0088485479 1.2522418e-38
0.11020146 0.092340469 0.0095447302 1.2706073e-38
0.11013195 0.09512683 0.010958314 1.2797539e-38
0.10735723 0.062375326 0.011245847 1.6383128e-38
0.1063101 0.064982571 0.011513829 1.5554797e-38
0.10584216 0.068703786 0.0097796321 1.4727193e-38
0.10565236 0.072488472 0.0086664557 1.4085042e-38
0.10570886 0.076823063 0.0090202689 1.3440404e-38
0.10574574 0.081165947 0.0092505813 1.2613159e-38
0.10583387 0.084881157 0.0097828507 1.2336931e-38
0.10646901 0.088580482 0.011318207 1.2154321e-38
0.1067468 0.092318982 0.011476755 1.2246888e-38
0.1080035 0.094812378 0.011443079 1.2613885e-38
0.10188869 0.065487631 0.012533247 1.53729e-38
0.10185632 0.068617284 0.01234597 1.4728987e-38
0.10157563 0.072438426 0.010626853 1.44524e-38
0.10158116 0.076791734 0.010671973 1.3899224e-38
0.10158631 0.081144825 0.010717213 1.3347846e-38
0.10159071 0.084876053 0.010755956 1.3072327e-38
0.10187006 0.088573575 0.012490153 1.2429108e-38
0.10191956 0.091686197 0.012805104 1.2337281e-38
0.097973019 0.07242474 0.01168108 1.4636784e-38
0.098020606 0.076767847 0.012001395 1.4543871e-38
0.097949311 0.081140459 0.01155138 1.4176879e-38
0.097953707 0.08487168 0.011590123 1.3716988e-38
0.098096132 0.088586412 0.012508929 1.2797198e-38
0.09827105 0.091369927 0.013638556 1.242877e-38
0.094752669 0.072496511 0.014244497 1.4822249e-38
0.09453164 0.076724753 0.013827205 1.4913739e-38
0.09431228 0.081136085 0.012385428 1.436056e-38
0.094382614 0.084856734 0.012864947 1.3901041e-38
0.094519258 0.088572726 0.013785124 1.298086e-38
0.094406679 0.09194918 0.014237821 1.2430208e-38
0.091560349 0.072336726 0.014974833 1.5005559e-38
0.09073665 0.076940231 0.014357805 1.4913012e-38
0.090738714 0.0811169 0.013660789 1.4452045e-38
0.090495057 0.084853128 0.013710916 1.4176902e-38
0.09097144 0.088554166 0.015282691 1.3532964e-38
0.090772688 0.091880724 0.015363693 1.2797552e-38
0.087158039 0.077321641 0.016037583 1.463715e-38
0.086683437 0.081068665 0.01601547 1.3901385e-38
0.086494826 0.084815897 0.015896559 1.3899601e-38
0.087670729 0.088550203 0.01603961 1.3717004e-38
0.088542283 0.091046348 0.015866339 1.3351091e-38
0.083261952 0.081891306 0.016979873 1.2887952e-38
0.083670735 0.084802747 0.016917109 1.2798266e-38
0.083674401 0.087921627 0.016949415 1.2707867e-38
0.050875608 0.11719961 0.024783552 2.0439009e-38
0.047631405 0.11324648 0.02469629 2.0436467e-38
0.047732957 0.11716401 0.024135888 1.7670987e-38
0.047590706 0.12079358 0.024455905 1.7676752e-38
0.04712737 0.1240962 0.024250925 1.9245544e-38
0.045874521 0.12834001 0.023997068 2.1734801e-38
0.045878179 0.13144936 0.024029374 2.1452407e-38
0.043479357 0.1128001 0.025064886 1.9422325e-38
0.043428928 0.11714056 0.024324775 1.5649145e-38
0.043433324 0.12087157 0.024363458 1.4362007e-38
0.043445442 0.12460586 0.024514437 1.565205e-38
0.043394536 0.12830488 0.023767412 2.0537685e-38
0.043394346 0.13140857 0.02374357 2.2747833e-38
0.040007506 0.11318365 0.026617706 1.6750428e-38
0.039792113 0.1171362 0.025158703 1.5742406e-38
0.039774392 0.1208576 0.024860442 1.5283958e-38
0.039808441 0.12460149 0.025348544 1.5653827e-38
0.039914146 0.12814678 0.024592459 1.8788844e-38
0.037090279 0.1142721 0.027914047 1.3531164e-38
0.036388297 0.11700854 0.027334571 1.4638565e-38
0.036854066 0.12090649 0.027354777 1.6480341e-38
0.03641298 0.12480642 0.027668476 1.5468715e-38
0.15979475 0.072910562 0.0024098754 6.6251135e-39
0.16040999 0.076671094 0.0023088455 8.1052799e-39
0.15612102 0.065386564 0.0031722784 5.9851559e-39
0.15612473 0.068519726 0.0032048821 6.9971401e-39
0.15720999 0.072933674 0.0024044514 7.8243728e-39
0.1573298 0.07729838 0.0029079318 7.3648548e-39
0.15613949 0.081052385 0.0033349395 8.7456354e-39
0.15283999 0.045539293 0.0037134886 7.7318254e-39
0.1534462 0.048641004 0.0033507943 7.8243686e-39
0.15352461 0.052894007 0.003036201 7.3662561e-39
0.15358934 0.057259914 0.0033242702 6.6290974e-39
0.15364632 0.061004277 0.0035791397 6.6294379e-39
0.15357174 0.064781711 0.0032944679 6.6283617e-39
0.15331134 0.068594925 0.0022548437 7.3652107e-39
0.15448791 0.072981864 0.001832068 8.099145e-39
0.15363929 0.077189617 0.0023281574 8.9317895e-39
0.15369606 0.080870405 0.0038933754 9.3909726e-39
0.14998116 0.038434029 0.0042933822 6.8120145e-39
0.14998485 0.041567195 0.0043258667 7.3623254e-39
0.14993703 0.044719167 0.0041424036 7.638548e-39
0.14963116 0.048585273 0.0028857589 7.548509e-39
0.15001851 0.051871005 0.0023758411 7.457028e-39
0.14971185 0.056895569 0.002779603 6.9960512e-39
0.14961983 0.06109643 0.0029076338 6.2570513e-39
0.1495986 0.06485188 0.0028384328 5.8893618e-39
0.14955109 0.068613127 0.002661407 7.0864658e-39
0.14997408 0.081434377 0.0037269592 1.1970662e-38
0.1493865 0.084808692 0.0047525764 1.2705025e-38
0.14631969 0.041294236 0.00516361 8.2842691e-39
0.14617226 0.04475303 0.0045502186 8.4690205e-39
0.14605425 0.0484511 0.0033769608 8.1927854e-39
0.14587674 0.051116358 0.0033176541 8.1920735e-39
0.14710201 0.057365105 0.0031032562 7.8254462e-39
0.14612812 0.061452091 0.0036633611 7.5481208e-39
0.14604419 0.064822972 0.004109323 7.3633904e-39
0.14617443 0.068546534 0.0046890974 7.91656e-39
0.14517075 0.072106332 0.0037032366 9.1129578e-39
0.14713147 0.08235421 0.0033626556 1.2338034e-38
0.1462689 0.084986091 0.0044863224 1.3627688e-38
0.14599395 0.088383883 0.0055932403 1.5103526e-38
0.14387748 0.042186487 0.005733192 9.8562696e-39
0.14253315 0.045098275 0.0054862499 1.2152526e-38
0.1415453 0.048461087 0.0047491789 1.0861785e-38
0.1403991 0.053608682 0.0046005249 1.0216434e-38
0.14264175 0.061941072 0.0041748881 8.6509007e-39
0.14198515 0.06507796 0.0048719049 8.928212e-39
0.1419111 0.068540476 0.005695343 9.4813816e-39
0.14163913 0.072351977 0.0045158863 1.0494459e-38
0.14164203 0.074850895 0.0045416355 1.1785185e-38
0.14206079 0.08568 0.004561007 1.4638245e-38
0.14180589 0.088582113 0.0053344965 1.5469437e-38
0.14185785 0.092206262 0.0063560605 1.7128232e-38
0.1406824 0.095237456 0.0070310831 1.8234239e-38
0.13853134 0.04882054 0.0062604547 1.4083582e-38
0.13755286 0.052701853 0.0067360401 1.3348183e-38
0.13769333 0.057035916 0.0062836409 1.2150384e-38
0.13748156 0.061067201 0.0059190989 1.1323501e-38
0.13696212 0.065266117 0.0055129528 1.2240776e-38
0.13744363 0.068582118 0.0057798624 1.1874159e-38
0.13859433 0.072348326 0.0052140355 1.160081e-38
0.13859728 0.074847236 0.0052399039 1.3167026e-38
0.13788334 0.089090154 0.0055553913 1.5930408e-38
0.13754302 0.092329107 0.0063519478 1.6852734e-38
0.13744301 0.096213393 0.0072143078 1.8326065e-38
0.13661574 0.099827871 0.0080125928 1.8694853e-38
0.13534018 0.054082226 0.0078178644 1.5744194e-38
0.13452996 0.057632167 0.008041501 1.4083613e-38
0.13403335 0.06100098 0.0077352524 1.3716984e-38
0.13380618 0.064820372 0.0066879988 1.3531868e-38
0.13371831 0.068594098 0.0062924027 1.353151e-38
0.13435227 0.089835584 0.006373167 1.5468348e-38
0.13415435 0.092509158 0.006740272 1.5561984e-38
0.13399535 0.09669885 0.0077251196 1.6392109e-38
0.13356243 0.10045083 0.0087194443 1.7497379e-38
0.12984733 0.057835419 0.0091176033 1.6478914e-38
0.13046184 0.060969308 0.0090100765 1.5834597e-38
0.1301506 0.064815767 0.0075263381 1.528106e-38
0.13006458 0.06858971 0.0071303248 1.5006267e-38
0.13070299 0.093579561 0.0072499514 1.4272691e-38
0.13043706 0.097186916 0.0076915026 1.5100308e-38
0.13041924 0.10107461 0.0089908838 1.6207362e-38
0.12661846 0.057562973 0.0098552704 1.9056409e-38
0.12668788 0.060999047 0.0093058348 1.8043332e-38
0.12717676 0.064576335 0.0079550743 1.6846957e-38
0.12762728 0.067337327 0.0076758862 1.629701e-38
0.12604022 0.09857177 0.0083724856 1.4457086e-38
0.12634428 0.10094588 0.0090463161 1.5010607e-38
0.12647147 0.10464931 0.010243833 1.5746359e-38
0.12190238 0.054066081 0.010899603 2.0163107e-38
0.12246935 0.057216387 0.010546565 1.9517029e-38
0.1224913 0.060618699 0.0095802546 1.8135183e-38
0.12095973 0.093567848 0.0094844103 1.2615311e-38
0.12122492 0.097138032 0.0094617009 1.3443647e-38
0.12222829 0.10117915 0.010393918 1.4273412e-38
0.12255687 0.10482381 0.0112046 1.4824782e-38
0.12440839 0.10733278 0.010892212 1.528252e-38
0.11823751 0.054061677 0.011740029 1.9331572e-38
0.11807743 0.057253838 0.010898769 1.8778397e-38
0.11852391 0.09356492 0.010043025 1.3258171e-38
0.11825138 0.097172484 0.010486007 1.3167426e-38
0.11816987 0.10106035 0.011572123 1.3902485e-38
0.11829735 0.10481891 0.012266994 1.5284681e-38
0.11457264 0.054057274 0.012580514 1.8690145e-38
0.11435789 0.057272177 0.011409938 1.7860044e-38
0.11422222 0.06044922 0.01067698 1.7213587e-38
0.11431749 0.097663805 0.011344552 1.2798632e-38
0.11450872 0.10105595 0.012411714 1.3444008e-38
0.11463249 0.10481451 0.013107419 1.5194632e-38
0.11341381 0.10731957 0.013413548 1.5010252e-38
0.11103803 0.053592004 0.013257861 1.8412852e-38
0.110699 0.057267994 0.012248993 1.7491628e-38
0.11056849 0.060444832 0.011514902 1.684589e-38
0.11080795 0.097458959 0.012110591 1.2706435e-38
0.11090538 0.10105125 0.013580024 1.3349311e-38
0.11096762 0.1048101 0.013947845 1.4364541e-38
0.11035977 0.1073159 0.014113963 1.4456734e-38
0.10724238 0.053578492 0.014256597 1.8319936e-38
0.10713477 0.057226054 0.013636053 1.7490893e-38
0.10627581 0.060911346 0.012732267 1.6662212e-38
0.10448263 0.063561156 0.012943745 1.5829946e-38
0.10451209 0.08855027 0.013203144 1.2155379e-38
0.10451651 0.092298634 0.013242066 1.2154681e-38
0.1063965 0.096672438 0.013150632 1.2705725e-38
0.10724237 0.10104685 0.014420092 1.3073805e-38
0.10730277 0.1048057 0.01478833 1.353407e-38
0.10706198 0.10781324 0.014875591 1.381209e-38
0.10418887 0.054044794 0.014961839 1.8136249e-38
0.1029436 0.057187591 0.015109777 1.7398683e-38
0.10244767 0.060871825 0.014407873 1.6478523e-38
0.10204682 0.063558236 0.013502359 1.5832799e-38
0.10207628 0.088547342 0.013761759 1.242946e-38
0.10208091 0.0924742 0.013802528 1.2245809e-38
0.10231086 0.096812099 0.014032841 1.252277e-38
0.10286132 0.1010417 0.014740825 1.2890847e-38
0.10290631 0.10479745 0.015027046 1.3075236e-38
0.10303079 0.10793372 0.01580137 1.3073086e-38
0.098870233 0.057529639 0.016218841 1.7123171e-38
0.098630711 0.060958013 0.01585418 1.6385969e-38
0.098411582 0.064796843 0.014463305 1.5649844e-38
0.097180352 0.067925468 0.014664948 1.5189239e-38
0.098427869 0.093040988 0.014646411 1.2154333e-38
0.098444916 0.096664011 0.014766634 1.2246888e-38
0.098592132 0.10103656 0.015719771 1.2614958e-38
0.098999292 0.10780355 0.016724586 1.2798654e-38
0.095031902 0.058420219 0.01710856 1.6754762e-38
0.095187739 0.061083581 0.017101169 1.6753676e-38
0.094922818 0.064730018 0.016402781 1.5833882e-38
0.094794407 0.06853044 0.015560627 1.50967e-38
0.093530312 0.071044713 0.015535295 1.5006997e-38
0.095383681 0.093537115 0.015349805 1.2245825e-38
0.09479104 0.096659623 0.015604556 1.2340176e-38
0.094982587 0.10103249 0.016889572 1.2708241e-38
0.095069967 0.1047907 0.017479658 1.3075949e-38
0.09508954 0.10729755 0.017616034 1.2985195e-38
0.092185408 0.061758824 0.017796993 1.6479257e-38
0.091527328 0.064838976 0.017980695 1.5833889e-38
0.091282479 0.068475574 0.017391503 1.5098842e-38
0.089878067 0.07228978 0.016386211 1.4730776e-38
0.089882478 0.076038152 0.016425073 1.4730423e-38
0.091526493 0.093115993 0.016229928 1.2153973e-38
0.091172628 0.096653879 0.016690969 1.2707864e-38
0.091337435 0.10102798 0.017839611 1.3076295e-38
0.091574237 0.10463014 0.018393695 1.3351447e-38
0.092646286 0.10729461 0.018176198 1.3445441e-38
0.088932663 0.065932468 0.018587351 1.5372934e-38
0.088121697 0.068855762 0.018804491 1.4544957e-38
0.087518357 0.072261773 0.017497122 1.4454905e-38
0.08605437 0.07567656 0.017299294 1.4361639e-38
0.085512757 0.088527434 0.017560303 1.3625519e-38
0.086856879 0.092277408 0.017291963 1.3258905e-38
0.087505534 0.096650049 0.017446339 1.3169212e-38
0.087675467 0.10102358 0.01867944 1.2431283e-38
0.087930955 0.10442434 0.019227147 1.187703e-38
0.083242044 0.072719052 0.019349158 1.2982289e-38
0.082605362 0.077270567 0.018335223 1.3073771e-38
0.082174495 0.080610216 0.018241644 1.233838e-38
0.081976421 0.084774822 0.018331468 1.1324247e-38
0.082242027 0.088701993 0.018312335 1.1140924e-38
0.082864277 0.092395045 0.018414199 1.1049079e-38
0.083339676 0.096638843 0.019171 1.1324944e-38
0.083476745 0.10101727 0.020212352 1.0956147e-38
0.083479695 0.10352381 0.0202384 1.0221105e-38
0.079136536 0.072824076 0.020650864 1.0125299e-38
0.079047889 0.077237271 0.019948721 9.297726e-39
0.078996107 0.081005111 0.01954478 9.0204217e-39
0.079014637 0.08475443 0.019694448 8.4658172e-39
0.079019882 0.088506609 0.019733191 8.3761158e-39
0.079079293 0.09225221 0.020215511 8.1946028e-39
0.079682425 0.09600243 0.020735919 1.0126036e-38
0.075502969 0.072809272 0.021740675 8.4639716e-39
0.075428039 0.077220269 0.021120787 8.1910183e-39
0.075432472 0.08097668 0.021159768 8.6512608e-39
0.07547652 0.084723867 0.021531522 8.006599e-39
0.075584069 0.088333867 0.021117926 7.2697599e-39
0.076746754 0.091609716 0.021655619 8.1920735e-39
0.073057525 0.070926435 0.022281468 1.2703864e-38
0.072759509 0.077192396 0.022416532 1.1602196e-38
0.071846835 0.08019913 0.022657871 8.2867957e-39
0.072584823 0.084461108 0.022534072 6.0759026e-39
0.073076725 0.087218881 0.022450566 5.6127791e-39
0.069400772 0.077814989 0.023193419 6.5361549e-39
0.068996787 0.080529906 0.023315132 3.0356301e-39
0.063941166 0.10976665 0.024785936 1.5279295e-38
0.062725462 0.11477824 0.025118113 2.0622734e-38
0.059665501 0.10976151 0.025766492 1.8227013e-38
0.059668459 0.11226803 0.025792539 1.9518818e-38
0.059323646 0.11584837 0.025909722 2.2011752e-38
0.058458645 0.12229268 0.026176691 2.3040959e-38
0.056000661 0.1097571 0.026607037 2.0994709e-38
0.055984031 0.11225984 0.026409328 2.2374369e-38
0.05596428 0.11663914 0.026175559 2.2383057e-38
0.055861413 0.12119296 0.026760697 2.3232578e-38
0.055406086 0.12354228 0.026890099 2.3138925e-38
0.052280191 0.10974449 0.026776075 2.2470208e-38
0.052199125 0.11285661 0.025801897 2.2741006e-38
0.052328225 0.117225 0.025476694 2.1176228e-38
0.052237444 0.12099282 0.026221633 2.2668256e-38
0.051833965 0.1243277 0.026349664 2.3045315e-38
0.051053822 0.12850933 0.026915073 2.3228938e-38
0.047944311 0.10972911 0.026915193 2.163429e-38
0.048514891 0.11097315 0.026284575 2.2369695e-38
0.049746059 0.12221971 0.026121974 2.1367467e-38
0.048839316 0.12549601 0.027185619 2.2473114e-38
0.048561782 0.12847915 0.026802361 2.2942692e-38
0.048564713 0.13097933 0.026828229 2.3123777e-38
0.043942597 0.10922666 0.028135478 2.0348237e-38
0.040420283 0.10901378 0.029439449 1.7764245e-38
0.039380595 0.11096217 0.028379381 1.6010359e-38
0.036729202 0.10941453 0.030510008 1.112544e-38
0.036079805 0.11234983 0.029379189 1.1317391e-38
0.035126764 0.11845378 0.029434741 1.5835323e-38
0.035129707 0.1209527 0.029460728 1.6019027e-38
0.035132661 0.12345161 0.029486716 1.5473376e-38
0.0339646 0.11785224 0.030720949 1.4912636e-38
0.033513829 0.12124836 0.03147608 1.509992e-38
0.033506375 0.12449753 0.03130728 1.473078e-38
0.14206079 0.08568 0.004561007 1.4638245e-38
0.12179415 0.082913905 0.0086942315 1.4915537e-38
0.11909811 0.071487799 0.0084336996 1.3901019e-38
0.11749178 0.076691747 0.008695364 1.3256369e-38
0.11905149 0.084447309 0.0089038014 1.4915536e-38
0.10848575 0.073218472 0.016631603 1.5746685e-38
0.13473392 0.056686789 0.011703968 1.2159711e-38
0.16099937 0.044279411 0.0069587231 1.0317633e-38
0.16100457 0.048699167 0.0070046186 9.4892653e-39
0.10967048 0.074771367 0.016062915 1.0951473e-38
0.098096937 0.080856547 0.016859949 1.2335139e-38
0.097767502 0.094113804 0.017053246 1.1233096e-38
0.1191022 0.085464224 0.012387216 1.1876316e-38
0.1053203 0.071404263 0.013408065 1.5006281e-38
0.12129068 0.082797736 0.011841834 1.1144157e-38
0.11881217 0.080028705 0.012708843 1.2522761e-38
0.15825874 0.036808789 0.0063678026 7.5506796e-39
0.15812731 0.040641848 0.0058686733 7.8269091e-39
0.15813175 0.044420693 0.0059078932 8.5644616e-39
0.15821178 0.048669901 0.0057793856 9.1158151e-39
0.15791415 0.053018153 0.0056048036 8.6559033e-39
0.15801172 0.057054121 0.005499959 8.469745e-39
0.15790719 0.060857456 0.0051085353 7.4559672e-39
0.1582849 0.064446077 0.0051577687 6.6272855e-39
0.15844682 0.06842123 0.0047231913 7.4559532e-39
0.15819906 0.080991656 0.0049139261 8.655595e-39
0.15796202 0.084750876 0.005464375 1.0773932e-38
0.1581831 0.088507816 0.0063657165 1.2066459e-38
0.15814301 0.091843665 0.0079494715 1.3351799e-38
0.15761507 0.097059824 0.0082970262 1.5560133e-38
0.15839013 0.10125932 0.0079075694 2.0079908e-38
0.15774906 0.10362379 0.0073102117 2.1833057e-38
0.15459317 0.033009328 0.0072818995 6.9996302e-39
0.1542276 0.036945887 0.0058115721 6.9971316e-39
0.15415221 0.040749975 0.0055273771 7.2733794e-39
0.15453795 0.044113122 0.0053608418 7.6407186e-39
0.15535827 0.047047284 0.0052039027 8.0998821e-39
0.1541737 0.081615359 0.005843699 8.8392674e-39
0.15425664 0.08474993 0.0062001348 1.1232759e-38
0.15442023 0.088509381 0.0068867207 1.2802233e-38
0.15471624 0.092269421 0.0081129074 1.4551777e-38
0.15501836 0.096505664 0.0088867545 1.7409833e-38
0.15614423 0.10236175 0.008690834 2.2120484e-38
0.15103102 0.033175744 0.0079724193 4.9691879e-39
0.1504449 0.036827661 0.0062218904 6.1666521e-39
0.15044805 0.039498948 0.0062496662 7.0871623e-39
0.15172672 0.084755093 0.0064383745 1.2246913e-38
0.15058406 0.088518217 0.0070825219 1.3997894e-38
0.15084761 0.092276439 0.0082021356 1.6024403e-38
0.1509542 0.09650635 0.0091660023 1.7959809e-38
0.14998674 0.099828787 0.010076106 2.0815711e-38
0.14737476 0.033799298 0.0085354447 6.0733887e-39
0.14679413 0.036969282 0.0071746707 7.5477761e-39
0.14677206 0.039494529 0.0070926547 8.0995121e-39
0.14805591 0.089150444 0.0073270798 1.5103164e-38
0.14703691 0.092280105 0.0085061789 1.7314784e-38
0.14731327 0.096676782 0.0097151995 1.8329287e-38
0.14711565 0.10066719 0.010743499 2.0172165e-38
0.1462985 0.10361271 0.010962188 2.201789e-38
0.14476231 0.034259684 0.0095499158 7.3641177e-39
0.14372775 0.037030511 0.0090837479 9.2937477e-39
0.14270402 0.04065359 0.0090640187 1.1323868e-38
0.14171815 0.043978795 0.0087100267 1.3626955e-38
0.14460865 0.093533501 0.0091903806 1.8602625e-38
0.14310253 0.097019255 0.0095729828 1.9340923e-38
0.14309005 0.10108442 0.011072755 2.0260748e-38
0.14276059 0.1043977 0.011781991 2.118559e-38
0.13761371 0.045514096 0.012335241 1.7773953e-38
0.13772511 0.047932882 0.010488629 1.6754039e-38
0.13915281 0.098147117 0.0098068714 1.9707923e-38
0.13868991 0.10123734 0.010886312 1.9615376e-38
0.13874854 0.10486349 0.011909068 2.0350782e-38
0.13838361 0.10814755 0.012620628 2.0812132e-38
0.13515189 0.045511138 0.012899756 1.9614279e-38
0.13480303 0.048376177 0.011881828 1.8782706e-38
0.13439806 0.052609086 0.010070205 1.6665435e-38
0.13372159 0.056239817 0.010264039 1.4454553e-38
0.1348049 0.10485335 0.011559486 1.8325688e-38
0.13496818 0.10848796 0.01309973 1.9247277e-38
0.13461386 0.11117539 0.013722599 1.8691608e-38
0.1302283 0.045505218 0.014028966 2.1456344e-38
0.13129357 0.048728526 0.012963951 2.0071633e-38
0.13090393 0.0532865 0.011106789 1.7860741e-38
0.13135301 0.056572188 0.010810792 1.5466914e-38
0.1309875 0.1048455 0.011750758 1.6757648e-38
0.13135327 0.1086378 0.013531327 1.7126433e-38
0.1315366 0.11117169 0.014428318 1.7309394e-38
0.12771675 0.045207735 0.014345288 2.1365243e-38
0.12747388 0.048778012 0.013156533 2.163752e-38
0.12720518 0.053290442 0.011841059 2.0162402e-38
0.12779865 0.05581367 0.011617839 1.8874521e-38
0.12846985 0.10546885 0.011992812 1.6113685e-38
0.12746796 0.10862283 0.013396263 1.6298828e-38
0.12784465 0.11179865 0.015281737 1.657255e-38
0.12345833 0.045497086 0.015581489 2.0809565e-38
0.12321115 0.048757605 0.014326334 2.0623024e-38
0.12350629 0.052665833 0.012568831 2.0347511e-38
0.12284446 0.10872237 0.013597369 1.4548536e-38
0.1234574 0.11241873 0.015867114 1.5191771e-38
0.1223093 0.11494897 0.016584754 1.6758694e-38
0.11884207 0.045175835 0.016636848 2.0530116e-38
0.11895425 0.048733968 0.015537679 1.9978012e-38
0.11860421 0.052031405 0.01368624 1.9607812e-38
0.11879395 0.1086074 0.014929414 1.4916972e-38
0.11910602 0.11240949 0.016608417 1.5284667e-38
0.11923204 0.11494526 0.017290533 1.6575747e-38
0.11543631 0.04423409 0.01729387 2.0344631e-38
0.11538668 0.048352845 0.016334534 1.9792188e-38
0.11468256 0.051523872 0.014580309 1.9058578e-38
0.115238 0.10875863 0.015575588 1.5100298e-38
0.11537766 0.11240167 0.017235398 1.528609e-38
0.11492389 0.11494009 0.01827848 1.6022955e-38
0.11172456 0.044239067 0.01803124 2.0070218e-38
0.11155568 0.048106655 0.017085075 1.9701783e-38
0.11094478 0.051079404 0.015432835 1.8967092e-38
0.11156871 0.10895561 0.016345918 1.4640398e-38
0.11165075 0.11239384 0.017862082 1.4457792e-38
0.11184662 0.1149364 0.018984199 1.5194659e-38
0.10824682 0.044576809 0.019060433 1.9794354e-38
0.10790727 0.048083823 0.018149614 1.9241878e-38
0.1075751 0.051075358 0.016205549 1.8964941e-38
0.10795034 0.10952967 0.01674211 1.4733674e-38
0.10794598 0.11238825 0.018597603 1.5192472e-38
0.10815392 0.11493196 0.019831061 1.5284348e-38
0.10561024 0.045475636 0.019674659 1.9335161e-38
0.10429321 0.04888485 0.019443035 1.868762e-38
0.10315534 0.052789088 0.017365754 1.8044415e-38
0.10335571 0.10983842 0.017799079 1.3811e-38
0.10425987 0.11238381 0.019442976 1.4733658e-38
0.10507666 0.11492825 0.02053678 1.5101739e-38
0.10029237 0.049197789 0.020335495 1.8505035e-38
0.099307559 0.053109419 0.018533766 1.7493743e-38
0.098390669 0.055778332 0.018362045 1.7124597e-38
0.098760352 0.10951863 0.018849671 1.2890846e-38
0.099877968 0.11236936 0.019906223 1.3903919e-38
0.099500239 0.11586369 0.021569192 1.4734743e-38
0.095926672 0.05027676 0.020920634 1.7767835e-38
0.0954234 0.053210773 0.019699216 1.7216803e-38
0.095328629 0.056874596 0.019076049 1.684695e-38
0.094106436 0.059544399 0.019384742 1.6847331e-38
0.09539032 0.10920031 0.019619226 1.3077364e-38
0.095526926 0.11235845 0.020533502 1.3445435e-38
0.095796622 0.11617328 0.022336423 1.3997897e-38
0.092027783 0.05053623 0.022501647 1.7676354e-38
0.091918841 0.053116724 0.021756113 1.7400132e-38
0.091700271 0.057004347 0.020251513 1.6937367e-38
0.091271967 0.060368378 0.020214736 1.6479619e-38
0.090434894 0.063311204 0.02026695 1.6016138e-38
0.090485275 0.10605174 0.020710588 1.2797919e-38
0.09157832 0.10872585 0.020616591 1.2799708e-38
0.091909245 0.11236101 0.021819293 1.2801517e-38
0.092104711 0.11553745 0.023176312 1.2984083e-38
0.088999011 0.050506823 0.023537934 1.776818e-38
0.088505834 0.05320755 0.023423314 1.7217897e-38
0.088206507 0.056909762 0.02241993 1.6939159e-38
0.088164732 0.060710929 0.022127926 1.6478543e-38
0.087849379 0.064400755 0.02099973 1.5648436e-38
0.08717227 0.067497529 0.021059752 1.4728998e-38
0.087421939 0.10604805 0.021413088 1.1600795e-38
0.088114113 0.10856939 0.021851182 1.1510783e-38
0.08833307 0.11236875 0.02343756 1.0587757e-38
0.08969038 0.11490977 0.024065375 1.1694434e-38
0.085515417 0.05387006 0.024372637 1.7126751e-38
0.084653728 0.056837704 0.024259984 1.6756546e-38
0.084614024 0.060644802 0.023967564 1.6478885e-38
0.084441826 0.064503871 0.022680223 1.564807e-38
0.08431416 0.068332143 0.021724164 1.399575e-38
0.084357888 0.10541584 0.022109151 1.0774277e-38
0.08450827 0.10857099 0.023248255 1.0588822e-38
0.085151196 0.11195546 0.024903953 9.1147851e-39
0.081621781 0.05744328 0.025303662 1.6847317e-38
0.081010036 0.060599506 0.025477588 1.6572176e-38
0.080372237 0.064587794 0.024080813 1.3625164e-38
0.080025472 0.068326995 0.022707641 1.1970657e-38
0.078711994 0.097489491 0.023319483 1.1414264e-38
0.079520255 0.10100985 0.023741603 1.169084e-38
0.080314189 0.10478397 0.023371756 1.1416412e-38
0.080925085 0.10857449 0.024868071 1.1510756e-38
0.081069596 0.11111104 0.02600199 1.1603658e-38
0.076642424 0.061255746 0.02597338 1.2887963e-38
0.076073669 0.064379275 0.024392843 1.0398697e-38
0.075736813 0.068321839 0.023691237 9.660375e-39
0.076251015 0.092499413 0.025369823 8.2835531e-39
0.076431684 0.096801877 0.026001275 1.05863e-38
0.076080315 0.10100304 0.026582658 1.2150743e-38
0.076520056 0.10490359 0.026419759 1.2332978e-38
0.076718278 0.10857712 0.026631057 1.2242214e-38
0.076369584 0.11223871 0.026886761 1.6205882e-38
0.07587263 0.11577734 0.026364207 1.5279545e-38
0.072645135 0.061566632 0.026893437 1.2517351e-38
0.072220139 0.06446477 0.02593869 1.2610269e-38
0.07218682 0.068260871 0.02564472 1.2796803e-38
0.071985371 0.072876766 0.024879873 1.2797162e-38
0.071335994 0.077116057 0.024794221 1.0864644e-38
0.072161764 0.081808321 0.025424302 6.9067157e-39
0.072852179 0.10141981 0.027783453 1.1596126e-38
0.072407827 0.10478454 0.027579188 1.2422651e-38
0.072336294 0.10856467 0.026951909 1.2699971e-38
0.072404303 0.11235693 0.027546704 1.768069e-38
0.072810702 0.11597187 0.027947843 2.090533e-38
0.069936387 0.064374566 0.028057575 1.4082886e-38
0.069605932 0.068490408 0.027920604 1.3165247e-38
0.06888485 0.072865039 0.027670979 1.0310408e-38
0.0684238 0.076611415 0.027679861 4.5982642e-39
0.068614952 0.079559922 0.027496338 2.483894e-39
0.069057494 0.10194141 0.028659225 1.1684745e-38
0.068668991 0.1047778 0.027980566 1.2330084e-38
0.068553373 0.10855055 0.026907265 1.2791068e-38
0.068545982 0.1123276 0.026835203 1.6480001e-38
0.068432093 0.1162999 0.02869904 2.2473411e-38
0.066288337 0.10225378 0.02929765 1.2054956e-38
0.065002866 0.10477441 0.029049337 1.2604527e-38
0.064806953 0.10791069 0.02713263 1.3805905e-38
0.065373361 0.11230692 0.026536465 1.6847706e-38
0.064990737 0.11690393 0.027792513 2.2749292e-38
0.064463578 0.12056199 0.02991116 2.311768e-38
0.061502285 0.10513161 0.029986322 1.2696364e-38
0.061128169 0.10790627 0.027976274 1.5097042e-38
0.061164454 0.11766358 0.028328359 2.294376e-38
0.061354496 0.12054878 0.03028208 2.3034509e-38
0.057629891 0.10539709 0.030803978 1.3252038e-38
0.057184041 0.1080002 0.029834569 1.7678528e-38
0.058297381 0.12027881 0.02892822 2.3325123e-38
0.053406917 0.10548175 0.031700134 1.5553349e-38
0.052985717 0.1078165 0.030942082 1.9980187e-38
0.049242418 0.10551134 0.032420933 1.6480001e-38
0.048891485 0.10789499 0.031124532 2.0256764e-38
0.045023236 0.10569764 0.03369832 2.0164919e-38
0.045529783 0.10757745 0.032063186 2.0624824e-38
0.041617364 0.10537568 0.03413403 2.0163114e-38
0.041495346 0.10725273 0.032301068 1.9608154e-38
0.03820245 0.10550068 0.035363138 1.6105078e-38
0.037568092 0.10757045 0.034145594 1.3064471e-38
0.035464894 0.10852037 0.035407603 1.0488381e-38
0.15001851 0.051871005 0.0023758411 7.457028e-39
0.14964342 0.060947951 0.0028418899 6.34997e-39
0.14604419 0.064822972 0.004109323 7.3633904e-39
0.14615889 0.074335694 0.0039184093 9.7583328e-39
0.12640502 0.074222028 0.00745368 1.3810626e-38
0.12550983 0.071618989 0.0069705248 1.2887949e-38
0.12450102 0.07564573 0.0077616572 1.2612079e-38
0.12071028 0.079110295 0.0071859956 1.3532961e-38
0.12523566 0.088635691 0.0053731203 1.3716635e-38
0.11582696 0.084893905 0.0092440248 1.4546749e-38
0.11529317 0.078487292 0.010287702 1.5928247e-38
0.11623912 0.072274961 0.010035932 1.3900662e-38
0.13371831 0.068594098 0.0062924027 1.353151e-38
0.10279578 0.085726 0.016986787 1.8971788e-38
0.085307598 0.091551602 0.018505991 1.8148491e-38
0.083180815 0.10494996 0.019093692 1.6757662e-38
0.0813732 0.094855547 0.020201623 1.9251244e-38
0.075611845 0.095277712 0.020210743 1.8415014e-38
0.082119144 0.10724831 0.020089328 1.4637522e-38
0.091349557 0.094884939 0.016460419 1.2430919e-38
0.1413444 0.049923953 0.0098446012 1.2337626e-38
0.13369909 0.04289075 0.013547122 1.0501297e-38
0.084357888 0.10541584 0.022109151 1.0774277e-38
0.09501645 0.10639809 0.023290575 1.6480334e-38
0.057184041 0.1080002 0.029834569 1.7678528e-38
0.15542376 0.029795006 0.010648131 5.71072e-39
0.15415102 0.09856113 0.011159539 1.9163362e-38
0.15529324 0.10093733 0.011179328 2.1841717e-38
0.15566924 0.10426704 0.012069046 2.2953818e-38
0.15145886 0.029189035 0.012235045 3.5884227e-39
0.15036805 0.031427003 0.011312068 4.41461e-39
0.1529164 0.098559648 0.011442661 1.842761e-38
0.15189795 0.1012499 0.011961341 2.174164e-38
0.15187833 0.10453616 0.013356686 2.3047471e-38
0.14858815 0.02054169 0.013656437 7.9165656e-39
0.14771429 0.031740122 0.012950063 5.7975277e-39
0.14880502 0.10193229 0.012421608 2.1742e-38
0.14831083 0.10504981 0.013337493 2.267151e-38
0.14754274 0.10785682 0.014484107 2.3233302e-38
0.14378257 0.017993964 0.013705313 8.7520856e-39
0.14382339 0.021145374 0.013900518 8.191363e-39
0.14361955 0.024581261 0.014454186 7.9133286e-39
0.14475682 0.033039741 0.01330024 7.4527204e-39
0.1426274 0.036451966 0.013482928 1.040155e-38
0.14173469 0.03901621 0.013372958 1.1968489e-38
0.14459135 0.10583257 0.013429403 2.2479919e-38
0.14372128 0.10857721 0.01468426 2.2757931e-38
0.14259639 0.1116602 0.015659034 2.2386295e-38
0.14018068 0.017926216 0.015043676 7.5524354e-39
0.13950604 0.021133572 0.014947593 6.2585128e-39
0.14091562 0.024851851 0.015461981 8.6548523e-39
0.14091861 0.027392671 0.015488327 9.9448737e-39
0.13969226 0.037554435 0.015877843 1.3347124e-38
0.13940969 0.040217675 0.0146029 1.3901736e-38
0.13942558 0.043921489 0.013954759 1.6391721e-38
0.13996565 0.10931015 0.01452738 2.1645834e-38
0.13956717 0.11249302 0.015678585 2.173481e-38
0.13895856 0.11547174 0.016875982 2.2470201e-38
0.13657257 0.020310879 0.015383661 6.5368948e-39
0.13606863 0.040855415 0.016304314 1.5651286e-38
0.13581392 0.043568835 0.014779329 1.7958726e-38
0.13687985 0.10993974 0.015241742 2.0167803e-38
0.13594455 0.11284366 0.016073525 2.02575e-38
0.13583344 0.11594629 0.017304659 2.0722067e-38
0.13216601 0.042036176 0.01713866 1.7401928e-38
0.13211125 0.044577662 0.015639305 1.9799715e-38
0.13194512 0.1131003 0.016407192 1.7679252e-38
0.13226505 0.11630161 0.017963827 1.9797225e-38
0.12881191 0.041692365 0.018160701 1.8689427e-38
0.1278505 0.043432612 0.016604245 2.0442574e-38
0.12824202 0.11372915 0.017263293 1.6387462e-38
0.12848666 0.11629004 0.018488288 1.9242991e-38
0.12781809 0.11926956 0.019471467 1.9886915e-38
0.12470952 0.041408077 0.018671155 1.9423774e-38
0.1244553 0.043428525 0.01738286 2.0629116e-38
0.12483989 0.11643383 0.018841743 1.786472e-38
0.12517643 0.11935109 0.020078182 1.9335542e-38
0.11998224 0.040271498 0.019606352 2.0162767e-38
0.1203986 0.043333177 0.018312275 2.0439721e-38
0.12027517 0.11669072 0.019805849 1.7680333e-38
0.12086003 0.1193822 0.021068513 1.8600134e-38
0.11590863 0.040199291 0.019878685 2.0531897e-38
0.11615236 0.11661983 0.020506322 1.6758378e-38
0.1162606 0.11946741 0.022124171 1.8508637e-38
0.11222094 0.040184367 0.020838261 2.0348245e-38
0.11222464 0.11688033 0.021141171 1.6390327e-38
0.1123241 0.12054273 0.022385359 1.8785582e-38
0.1086821 0.040331043 0.021736801 2.0437925e-38
0.10778724 0.042775199 0.02119863 2.0071295e-38
0.1084919 0.1168719 0.021826267 1.6482859e-38
0.10870621 0.12070815 0.023100376 1.8509735e-38
0.10476697 0.041221302 0.023285508 1.97018e-38
0.1045488 0.044829525 0.021963179 1.9425562e-38
0.10461135 0.11659583 0.022713304 1.5560918e-38
0.1049954 0.1207037 0.023951411 1.7587425e-38
0.10161926 0.042272706 0.024659872 1.9241902e-38
0.10098188 0.045066386 0.023681521 1.9057852e-38
0.10170151 0.11686374 0.023383498 1.5470499e-38
0.10125863 0.12069543 0.024637401 1.7036042e-38
0.09767729 0.045326695 0.025083542 1.8413202e-38
0.096558794 0.048334733 0.023832977 1.8044419e-38
0.097423494 0.12016942 0.025425851 1.5287911e-38
0.093192384 0.045797709 0.026117086 1.8135172e-38
0.09279649 0.048320044 0.025282025 1.8135533e-38
0.092442639 0.11748591 0.025513649 1.1507872e-38
0.093162 0.12082467 0.026957333 1.0219668e-38
0.089205481 0.046089757 0.027291 1.8136608e-38
0.088618606 0.048643228 0.026683331 1.7953286e-38
0.087426528 0.051616907 0.025962412 1.7401906e-38
0.088703342 0.11639288 0.027257204 9.6636317e-39
0.089005925 0.12052951 0.028292894 7.4552708e-39
0.085610159 0.049359448 0.028236032 1.7676343e-38
0.084568523 0.052445296 0.026797771 1.7401904e-38
0.084206887 0.11325403 0.027357399 1.0128545e-38
0.085268974 0.11624976 0.028969765 7.177965e-39
0.085302383 0.11943021 0.029223859 6.2585254e-39
0.081551999 0.052951597 0.028478205 1.7307932e-38
0.080764979 0.056168646 0.027538717 1.7032427e-38
0.08136759 0.11304518 0.028348327 1.1418904e-38
0.081600651 0.11545029 0.028183699 7.0811115e-39
0.077753767 0.053383932 0.02990967 1.7033512e-38
0.077596009 0.056648247 0.028612494 1.5836409e-38
0.077558562 0.059204616 0.028306484 1.5007347e-38
0.07885664 0.1130365 0.028582036 1.3259935e-38
0.078858875 0.1149364 0.028601766 1.1132236e-38
0.075318612 0.05399235 0.030816674 1.5559826e-38
0.073967084 0.056598477 0.0301283 1.3624803e-38
0.073546432 0.059516449 0.029229879 1.2886498e-38
0.074426644 0.096980155 0.030453026 9.8447775e-39
0.072781876 0.099726915 0.03085947 1.0949678e-38
0.070762888 0.056962125 0.031722128 1.3255287e-38
0.070093095 0.060249127 0.03092736 1.3623696e-38
0.068922229 0.064260624 0.030341029 1.3991412e-38
0.068363406 0.06866914 0.031029105 1.1600782e-38
0.067803085 0.071813919 0.031704068 9.2969343e-39
0.069861069 0.10035771 0.03119415 1.1041166e-38
0.070836112 0.11682665 0.030461848 2.2563067e-38
0.067287453 0.069227554 0.032820821 9.0225628e-39
0.066637881 0.073051699 0.032668471 6.9002515e-39
0.066675775 0.075578846 0.033028722 5.6984769e-39
0.065502003 0.10070351 0.032539546 1.168508e-38
0.061845809 0.101344 0.033531427 1.2146071e-38
0.060943507 0.10351551 0.032588899 1.2698509e-38
0.058038175 0.10161178 0.035287023 1.2146798e-38
0.057856981 0.1035118 0.033296824 1.2511968e-38
0.054536171 0.1017343 0.035681069 1.2332283e-38
0.053865902 0.10382432 0.034471869 1.2879707e-38
0.05060894 0.10223805 0.036997497 1.278714e-38
0.05052986 0.10350568 0.036003113 1.2789678e-38
0.046833687 0.1041353 0.037028491 1.6105468e-38
0.040702321 0.10222615 0.039269447 1.8045838e-38
0.042494182 0.10349602 0.037845969 1.9151115e-38
0.039464001 0.10222466 0.039553404 1.8228427e-38
0.037824906 0.10380571 0.038407087 1.7485827e-38
0.035694428 0.10538965 0.039425611 1.3442174e-38
0.035638362 0.10728488 0.038432658 1.1588612e-38
0.12976265 0.06271264 0.00531286 1.0494099e-38
0.11000744 0.083032846 0.0084069967 1.2613881e-38
0.14856009 0.069179103 0.0045477152 1.0955801e-38
0.14603442 0.048106831 0.0037481785 8.2846265e-39
0.13323304 0.069132552 0.0060282946 9.1147389e-39
0.12123711 0.080510356 0.008217752 1.3625872e-38
0.13708255 0.084878862 0.004212141 1.5283602e-38
0.1100516 0.085722744 0.008862555 1.3534038e-38
0.11193613 0.089285098 0.010686934 1.3995373e-38
0.096220657 0.10621765 0.018613279 1.8784878e-38
0.086786352 0.073969163 0.017398179 1.4362354e-38
0.086184815 0.090402424 0.017426133 1.3442212e-38
0.10167826 0.050095782 0.022278607 1.1414609e-38
0.15673009 0.025687277 0.015947998 3.9575766e-39
0.15644591 0.027608924 0.014802396 4.05194e-39
0.15572718 0.10618857 0.014983356 2.3417682e-38
0.15534422 0.10747072 0.016110837 2.341769e-38
0.15174255 0.021847203 0.017050922 6.99641e-39
0.15201297 0.024773434 0.015994012 5.432687e-39
0.15374777 0.027424909 0.016308427 3.8639236e-39
0.15261129 0.10831742 0.016575634 2.3325854e-38
0.14817129 0.018258683 0.015779734 8.0119912e-39
0.14848556 0.021444596 0.015741587 7.7357603e-39
0.14879982 0.024630524 0.015703499 6.1677451e-39
0.14903167 0.028343953 0.016715884 5.7038999e-39
0.14903446 0.030895993 0.016742349 5.7013874e-39
0.14946592 0.10916203 0.017135024 2.3325496e-38
0.14845136 0.11172621 0.018420994 2.341769e-38
0.14507444 0.025263138 0.016564608 7.7307436e-39
0.14467447 0.028252766 0.017434359 8.3764746e-39
0.1443679 0.031209886 0.017816007 8.8374387e-39
0.1427113 0.035403945 0.017727494 1.1044425e-38
0.14641637 0.11000003 0.017159283 2.3417686e-38
0.14500605 0.11271653 0.018153012 2.285985e-38
0.14390299 0.11543815 0.019076228 2.2858048e-38
0.13962603 0.024542876 0.018490553 8.9332343e-39
0.14115344 0.028334916 0.01852262 1.104726e-38
0.14116868 0.034614734 0.019611955 1.3073052e-38
0.14024812 0.036538899 0.018407106 1.3441116e-38
0.14077199 0.1168045 0.019210398 2.2844018e-38
0.13929404 0.11958829 0.020433962 2.2844374e-38
0.13761844 0.022068642 0.018240571 6.8088224e-39
0.13783035 0.023225807 0.019230247 8.6580851e-39
0.13618568 0.034608744 0.020754755 1.7126007e-38
0.13636911 0.037137516 0.019328892 1.574275e-38
0.13515538 0.039904695 0.018995404 1.4816886e-38
0.13711008 0.11763413 0.019374967 2.1918079e-38
0.13659567 0.11955856 0.020026505 2.2193967e-38
0.13307819 0.037607707 0.020619929 1.7490511e-38
0.1326713 0.039901704 0.019565046 1.5007384e-38
0.1327039 0.11982943 0.020995319 2.0262163e-38
0.12923908 0.037842683 0.021869361 1.9507709e-38
0.12901035 0.039866462 0.020746291 1.6658286e-38
0.12955374 0.12061289 0.021652758 2.0258558e-38
0.12819222 0.12278277 0.023527086 2.108654e-38
0.12532455 0.037371002 0.022633851 2.0438633e-38
0.12528363 0.039861985 0.021600962 1.8226685e-38
0.12500429 0.12112367 0.022188485 1.9523877e-38
0.12538965 0.12309892 0.0241732 2.0720619e-38
0.1215473 0.033952132 0.024104953 2.1454216e-38
0.12178461 0.036629401 0.022796571 2.0993606e-38
0.12273496 0.039889768 0.021843791 1.9237943e-38
0.12158906 0.12143812 0.022975147 1.9062534e-38
0.12187099 0.12339857 0.024470389 2.0445102e-38
0.11749785 0.03330826 0.025026858 2.0994331e-38
0.11720119 0.036027089 0.023413777 2.1085075e-38
0.11761423 0.1211785 0.023884058 1.8879215e-38
0.11735326 0.12391739 0.02555865 2.0351823e-38
0.11438346 0.033304513 0.025741041 2.1177287e-38
0.1128519 0.036021866 0.024411201 2.0901771e-38
0.11344799 0.12466185 0.026287436 2.0720266e-38
0.11064619 0.033300027 0.026598096 1.9616805e-38
0.10901101 0.036265604 0.025363207 2.007346e-38
0.10936856 0.12464955 0.02700907 2.0718481e-38
0.1050418 0.03457132 0.02789706 1.8968195e-38
0.10556458 0.037007093 0.026366651 1.9427729e-38
0.10560858 0.12463951 0.027700365 2.0535498e-38
0.10198823 0.037342958 0.027985573 1.8874197e-38
0.10137245 0.040373784 0.026748359 1.9150426e-38
0.10170215 0.12510923 0.02847302 1.8238519e-38
0.10141452 0.12786269 0.029722571 1.7314386e-38
0.098467499 0.038101599 0.029185891 1.8414648e-38
0.097945958 0.041103348 0.027883947 1.8413568e-38
0.096656583 0.043681074 0.027865112 1.7952926e-38
0.097922549 0.12477905 0.028718472 1.3999319e-38
0.098250344 0.12784593 0.030106008 1.16955e-38
0.095703155 0.038394168 0.030079544 1.8228835e-38
0.094415858 0.041231867 0.028994203 1.8135902e-38
0.0941725 0.04367809 0.028434813 1.8044048e-38
0.094317168 0.12524031 0.029612303 9.111876e-39
0.094142608 0.12814431 0.030623853 8.743832e-39
0.090288676 0.041724712 0.03077054 1.8134821e-38
0.089457542 0.044068221 0.029862285 1.8135909e-38
0.090515487 0.12499388 0.030857861 9.021851e-39
0.092071354 0.12785146 0.03186518 1.1237719e-38
0.086364135 0.041897509 0.032258689 1.8136265e-38
0.085596845 0.044865657 0.031326175 1.8136269e-38
0.084655181 0.047914036 0.030662656 1.8043698e-38
0.08681038 0.12012211 0.030937433 6.9960863e-39
0.086813383 0.12267055 0.030963838 6.8120664e-39
0.082729384 0.045040898 0.032920539 1.8041939e-38
0.081856169 0.048697896 0.032110929 1.7859683e-38
0.080519058 0.05130697 0.031647384 1.7308309e-38
0.078525603 0.049595363 0.033625364 1.7126074e-38
0.07811524 0.051253818 0.032882154 1.7310111e-38
0.074227028 0.052367218 0.033743024 1.5652718e-38
0.073234871 0.097163096 0.034832358 9.5695933e-39
0.070840798 0.052880839 0.034616709 1.3716617e-38
0.069759689 0.055541422 0.034160078 1.343967e-38
0.070747823 0.097797215 0.03540951 9.7515001e-39
0.067434691 0.056711793 0.03624481 1.2519513e-38
0.06697578 0.064614534 0.035921216 9.2933946e-39
0.066359028 0.068761662 0.036106825 7.4523771e-39
0.065777168 0.072894171 0.036626339 7.1804327e-39
0.066420011 0.076079331 0.036683857 6.1623137e-39
0.066998698 0.097794168 0.036098421 1.048867e-38
0.064598449 0.071585402 0.037566662 7.4541651e-39
0.063251078 0.097790807 0.036786795 1.1501758e-38
0.061324485 0.099704057 0.036565065 1.2053515e-38
0.059323501 0.098165907 0.038238764 1.2146423e-38
0.058219373 0.099700324 0.037277102 1.2147152e-38
0.055575605 0.09777528 0.039658487 1.2332245e-38
0.054204166 0.10001329 0.038457811 1.2423748e-38
0.051113129 0.10045344 0.040146172 1.2789648e-38
0.047410861 0.10191684 0.040549099 1.333994e-38
0.043341629 0.10223113 0.041058123 1.739869e-38
0.039328016 0.10126954 0.042396009 1.7301821e-38
0.036792178 0.10179829 0.043923736 1.5648758e-38
0.035925429 0.10349886 0.043456554 1.5464349e-38
0.034725189 0.10860939 0.04447031 1.1313459e-38
0.034750041 0.11372432 0.044861078 1.2147503e-38
0.034695815 0.11562051 0.043867648 1.2704266e-38
0.032258525 0.11372133 0.045432448 1.0950757e-38
0.032243531 0.11627053 0.045121074 1.1321365e-38
0.032089911 0.11994144 0.045152664 1.3623358e-38
0.032269072 0.12266751 0.045525312 1.4270521e-38
0.029769275 0.11563537 0.046023726 1.049268e-38
0.02977379 0.11946945 0.046063542 1.2242595e-38
0.13757676 0.068215512 0.004833281 9.2984393e-39
0.13684389 0.081011474 0.0045534968 1.0404773e-38
0.13370356 0.057300482 0.0056624413 1.1139102e-38
0.13940209 0.061320707 0.0038397312 9.297705e-39
0.12879322 0.081598714 0.0055510998 1.0679933e-38
0.12135848 0.066297725 0.008035481 1.2610283e-38
0.12331447 0.069992587 0.0063811541 1.2243652e-38
0.09681242 0.091887981 0.01397866 1.6939528e-38
0.090596914 0.10684866 0.016707838 1.8966743e-38
0.14677206 0.039494529 0.0070926547 8.0995121e-39
0.11648251 0.085840084 0.013251781 1.3536196e-38
0.11489113 0.088759311 0.014587104 1.2800804e-38
0.106163 0.072724447 0.01507628 1.5281809e-38
0.12700394 0.099035256 0.011576474 1.6299199e-38
0.088206507 0.056909762 0.02241993 1.6939159e-38
0.15641555 0.013019279 0.019989312 6.3532126e-39
0.14163281 0.035015374 0.021650195 1.0496264e-38
0.15679948 0.10814182 0.019375384 2.341769e-38
0.15390542 0.0098021477 0.020530701 7.6439388e-39
0.15390845 0.012373433 0.020557404 8.0102102e-39
0.15386149 0.016258083 0.02038157 7.3644848e-39
0.15381341 0.020063698 0.019506931 6.4418139e-39
0.15451023 0.023796163 0.01900202 5.0646164e-39
0.15405217 0.10963546 0.019850314 2.341769e-38
0.15304343 0.11238013 0.020794809 2.341769e-38
0.15277649 0.11522348 0.021912396 2.341769e-38
0.15015042 0.013654575 0.021432996 8.7535093e-39
0.1501044 0.015984766 0.020442307 7.6410787e-39
0.15007804 0.11303352 0.019771934 2.341769e-38
0.14994529 0.11632967 0.021803975 2.341769e-38
0.14764404 0.013651557 0.022007644 7.7418867e-39
0.14742216 0.01506567 0.021047592 6.9993261e-39
0.14449677 0.029398851 0.0198192 8.4733337e-39
0.14418826 0.032278314 0.019920588 9.3009252e-39
0.14709158 0.11387724 0.020123839 2.3417687e-38
0.14588675 0.11693583 0.021330476 2.3047471e-38
0.14496833 0.11958017 0.023544371 2.2768732e-38
0.14028369 0.028905459 0.021952689 1.2612418e-38
0.14086384 0.032542787 0.021198869 1.3352138e-38
0.14161624 0.12050657 0.023355663 2.248279e-38
0.13700128 0.021070302 0.021449506 5.7989766e-39
0.1375148 0.025065094 0.023198426 1.2615317e-38
0.13756746 0.029102869 0.024141192 1.5746716e-38
0.13743231 0.032746159 0.02264756 1.6944504e-38
0.13739926 0.1215843 0.023796737 2.2104664e-38
0.13649423 0.12291776 0.025728583 2.2380184e-38
0.1340567 0.029430278 0.025291979 1.8789526e-38
0.13354343 0.03308811 0.023738563 1.9338732e-38
0.132652 0.035784259 0.02260375 1.9242539e-38
0.1340007 0.12154108 0.023207784 2.1000457e-38
0.13388704 0.12354182 0.025820136 2.2194323e-38
0.13011883 0.030022435 0.026201367 2.0078477e-38
0.12988091 0.03303919 0.025033891 2.0446176e-38
0.12953298 0.035780504 0.023319066 2.0536933e-38
0.12991908 0.12414504 0.025637329 2.1915927e-38
0.12960628 0.12676641 0.027349293 2.2377977e-38
0.12635967 0.030339338 0.027067006 2.0995048e-38
0.12595806 0.033124343 0.025022566 2.1548555e-38
0.12703775 0.035777509 0.02389127 2.1272329e-38
0.12629904 0.12488769 0.025830626 2.1825882e-38
0.12614685 0.12726173 0.027737617 2.23787e-38
0.12291303 0.03001377 0.027853847 2.0629145e-38
0.12263447 0.032096453 0.026400924 2.1274134e-38
0.12215294 0.12536663 0.025965869 2.1091221e-38
0.12246545 0.12786405 0.028485596 2.1460352e-38
0.12009375 0.030331813 0.028503835 1.9800817e-38
0.11854088 0.031788878 0.027165473 2.0625907e-38
0.1196577 0.12536363 0.026538014 2.0628799e-38
0.11862877 0.12846182 0.028672397 2.1273085e-38
0.11382785 0.03032428 0.029940844 1.9246564e-38
0.11369121 0.03224434 0.027940571 1.9981623e-38
0.10881512 0.030318253 0.031090319 1.8600488e-38
0.10951901 0.032303862 0.029103339 1.9340559e-38
0.10614796 0.032345898 0.030697703 1.8874921e-38
0.10624902 0.12862597 0.031614482 2.0263228e-38
0.1058019 0.13188037 0.03286314 1.9067566e-38
0.10259669 0.033335514 0.031669259 1.8507571e-38
0.1008379 0.035746023 0.029899657 1.8507208e-38
0.10266476 0.12922519 0.031502306 1.7498453e-38
0.10232559 0.13236332 0.033049941 1.3812418e-38
0.098743245 0.034196466 0.033099532 1.795475e-38
0.098213837 0.036176227 0.03132695 1.8139132e-38
0.098554984 0.12984648 0.032109559 1.0039593e-38
0.098758832 0.13234082 0.033457398 9.9474044e-39
0.096287847 0.03416013 0.03400439 1.7678179e-38
0.094753385 0.036652453 0.033485115 1.7860758e-38
0.093356751 0.039576821 0.031656265 1.822487e-38
0.094960406 0.1299417 0.032250941 8.6559341e-39
0.095004998 0.13246469 0.034319639 1.1787349e-38
0.091696903 0.037582986 0.035093784 1.7858235e-38
0.091187313 0.039358258 0.034545481 1.81341e-38
0.092131674 0.13226214 0.035318434 1.1604396e-38
0.087388344 0.04023974 0.035084248 1.7952588e-38
0.083572626 0.041348983 0.035458028 1.7675287e-38
0.081302553 0.044682048 0.034475267 1.7489476e-38
0.080632173 0.041855164 0.037676871 1.7117093e-38
0.079104915 0.044471588 0.037484944 1.7215013e-38
0.078193322 0.047717694 0.035630941 1.7216822e-38
0.075623982 0.045706075 0.03886646 1.7032068e-38
0.074806876 0.048406705 0.037372708 1.648105e-38
0.074755967 0.092507437 0.039153636 7.5431112e-39
0.074141398 0.095225289 0.03716886 8.6476651e-39
0.072003268 0.04918164 0.039049864 1.44531e-38
0.070397854 0.050993174 0.038069308 1.3993558e-38
0.071606852 0.092948601 0.040290892 7.5441804e-39
0.071130775 0.095211655 0.038885176 8.5568917e-39
0.067346044 0.053505439 0.03948009 1.2979039e-38
0.0664123 0.055283759 0.03868717 1.2243642e-38
0.066889897 0.077622883 0.038131535 5.7042152e-39
0.066890612 0.079933867 0.040002704 6.1677255e-39
0.067534409 0.093265116 0.041228414 8.6458406e-39
0.067344397 0.095210023 0.039411604 9.4784515e-39
0.064402357 0.056287944 0.040731966 1.1872322e-38
