# .PCD v0.7 - Point Cloud Data file format
VERSION 0.7
FIELDS x y z rgb
SIZE 4 4 4 4
TYPE F F F F
COUNT 1 1 1 1
WIDTH 987
HEIGHT 1
VIEWPOINT 0 0 0 0 1 0 0
POINTS 987
DATA ascii
0.1402331 0.11167005 0.018483341 1.370979e-38
0.14236963 0.055383638 0.0059660375 1.2792154e-38
0.14210606 0.05793801 0.0061672628 1.2604158e-38
0.14225823 0.061910868 0.0062734485 1.2516996e-38
0.14237511 0.065545082 0.0063560009 1.316128e-38
0.14062279 0.069395691 0.0078831911 1.2422993e-38
0.14198691 0.072353601 0.0088799 1.0392209e-38
0.13625467 0.11278695 0.017902136 1.3337396e-38
0.13687801 0.115604 0.016301751 1.3152662e-38
0.13411832 0.11334154 0.016457975 1.3881944e-38
0.13317233 0.11618629 0.015001565 1.3892731e-38
0.13280106 0.11935934 0.014216095 1.4914468e-38
0.12984437 0.11708325 0.013454556 1.3988522e-38
0.13036978 0.12058344 0.013245195 1.4358382e-38
0.22570258 0.031261697 0.057821155 5.0653324e-39
0.21544623 0.036246747 0.047887653 8.192805e-39
0.19662106 0.044579923 0.032548368 1.3348555e-38
0.18516248 0.050049961 0.025018454 1.4176164e-38
0.16649908 0.05088082 0.013004899 1.5279628e-38
0.18704575 0.10260741 0.068680406 2.2291555e-38
0.18592143 0.10505766 0.069697261 2.2202604e-38
0.18430555 0.10674016 0.066591918 2.035799e-38
0.1834389 0.10927302 0.067374945 1.6665116e-38
0.18205938 0.11248136 0.068384022 1.3994277e-38
0.1797573 0.11359322 0.066116422 1.445959e-38
0.17643473 0.11372191 0.062709153 1.4091519e-38
0.17328665 0.11276424 0.059844196 1.077749e-38
0.17491329 0.01058735 0.026477933 1.3347493e-38
0.16553938 0.016180754 0.02028513 1.4637137e-38
0.16503853 0.019058883 0.019483 1.5006274e-38
0.16214126 0.016883552 0.018812418 1.4177948e-38
0.16275483 0.019523054 0.017745078 1.4543869e-38
0.15171975 0.11769551 0.040569365 2.341769e-38
0.1595906 0.020993859 0.017142951 1.4452038e-38
0.15913296 0.024211481 0.015687108 1.4454181e-38
0.15184838 0.11911732 0.038633943 2.341769e-38
0.1495809 0.12076721 0.039091587 2.341769e-38
0.15652442 0.024476334 0.015148699 1.4269792e-38
0.15619266 0.028201044 0.01453805 1.4819359e-38
0.14921552 0.093964964 0.029406667 9.0143218e-39
0.14795953 0.12293461 0.037472844 2.341769e-38
0.14680576 0.12550747 0.037163854 2.3417689e-38
0.15291035 0.02916877 0.013315558 1.4266554e-38
0.15262711 0.032108724 0.012613773 1.4633551e-38
0.14709169 0.095377505 0.027770758 9.6607422e-39
0.15083098 0.031656966 0.011709034 1.4358395e-38
0.15024412 0.036323652 0.010471493 1.4174341e-38
0.14333045 0.096362263 0.02582562 1.1782626e-38
0.14419794 0.098628789 0.024528682 1.3252377e-38
0.14805418 0.036465064 0.0098013878 1.3807369e-38
0.14730734 0.040485173 0.0093981624 1.4449178e-38
0.14573091 0.044323653 0.0090796947 1.4447341e-38
0.14149106 0.09658134 0.024086356 1.2427287e-38
0.14026552 0.099481881 0.023195207 1.3528233e-38
0.13995832 0.10311507 0.022877306 1.3803736e-38
0.13870591 0.10577098 0.022857755 1.4536677e-38
0.14264679 0.046442121 0.0091242194 1.3897059e-38
0.14250928 0.049707621 0.0078787506 1.3806304e-38
0.141927 0.052208975 0.0073894858 1.3529715e-38
0.13951701 0.077421844 0.013114095 7.5438581e-39
0.13710481 0.10442108 0.022288382 1.463066e-38
0.13629293 0.10709316 0.02173084 1.444629e-38
0.14058679 0.053584486 0.0065126419 1.2975102e-38
0.13874429 0.057595372 0.0069471896 1.2789636e-38
0.13781935 0.060949147 0.0071141422 1.3070537e-38
0.13800055 0.064835578 0.0075808764 1.3162345e-38
0.1371578 0.069518536 0.0093347132 1.085494e-38
0.13815236 0.073143572 0.011117339 7.7235353e-39
0.13865882 0.076916099 0.012107402 8.4650745e-39
0.13369143 0.11057082 0.019177854 1.3707619e-38
0.13651782 0.061778575 0.0058600903 1.3715139e-38
0.13628161 0.064448968 0.0068448782 1.3253805e-38
0.13104886 0.11179668 0.017259449 1.3985647e-38
0.12812006 0.11280853 0.0161421 1.3529392e-38
0.12963039 0.11446828 0.015282691 1.3711942e-38
0.20081896 0.041490257 0.035590768 1.1138734e-38
0.19253761 0.08785665 0.047041059 1.4363426e-38
0.19104165 0.085091278 0.043512046 1.4548198e-38
0.17709965 0.022252426 0.021341383 1.6012879e-38
0.16484296 0.026298136 0.016425669 1.5003407e-38
0.14709169 0.095377505 0.027770758 9.6607422e-39
0.17686033 0.11494195 0.067657083 1.8240318e-38
0.17667454 0.11724679 0.069013834 2.0355793e-38
0.17430639 0.11514646 0.065689772 1.6027983e-38
0.17333412 0.11721237 0.067075521 1.7046835e-38
0.1735208 0.11964907 0.06876111 1.9625416e-38
0.17079777 0.11429399 0.06292364 1.0405862e-38
0.17110103 0.11625668 0.065291196 1.2983752e-38
0.16856271 0.11410528 0.062103152 8.1917246e-39
0.15244275 0.11050442 0.045087755 2.3142183e-38
0.16089225 0.011476278 0.020370245 1.2704602e-38
0.16047961 0.014808208 0.019869059 1.3717683e-38
0.15294766 0.1122857 0.043278247 2.341769e-38
0.15085369 0.11568049 0.044009089 2.3417689e-38
0.14989191 0.1197384 0.044309705 2.3325847e-38
0.15815824 0.012030482 0.018612146 1.2151805e-38
0.15698963 0.015231088 0.017850578 1.2612436e-38
0.15674043 0.018925011 0.017512202 1.3623362e-38
0.14793509 0.1214484 0.041700214 2.341769e-38
0.14661825 0.12299924 0.042649865 2.3417683e-38
0.15411568 0.016450062 0.016533673 1.2152911e-38
0.1536026 0.019632459 0.01602298 1.2981944e-38
0.15328681 0.02314657 0.015350044 1.3808836e-38
0.146429 0.087296844 0.031719565 5.610282e-39
0.14697671 0.090136036 0.031910837 7.9097665e-39
0.14519095 0.12422904 0.040441394 2.3325853e-38
0.15104347 0.019883126 0.014613569 1.2335496e-38
0.15079588 0.023627251 0.013953209 1.3164532e-38
0.1509068 0.026781932 0.013816088 1.3808092e-38
0.14361876 0.090811819 0.02960366 7.8204365e-39
0.14429086 0.093133867 0.028612107 8.6476931e-39
0.14735371 0.024726138 0.012178719 1.2610281e-38
0.14807004 0.027605012 0.012111872 1.3438595e-38
0.14704549 0.031431273 0.012229651 1.4083232e-38
0.14150637 0.09095031 0.028049707 7.9140755e-39
0.14166182 0.093946129 0.026766032 9.8462223e-39
0.14347684 0.036331877 0.011731267 1.3805939e-38
0.14259183 0.040322244 0.011422336 1.4447352e-38
0.1381039 0.094563082 0.024603009 1.1782321e-38
0.13794011 0.097559899 0.023785293 1.3344598e-38
0.14075935 0.041351303 0.011389017 1.4446937e-38
0.14022845 0.044032738 0.010288596 1.4171116e-38
0.14094424 0.047050595 0.010522783 1.38985e-38
0.13482207 0.094850928 0.02256602 1.2702483e-38
0.13547647 0.098757893 0.022465646 1.352863e-38
0.13509232 0.10254726 0.022585034 1.3988871e-38
0.13760114 0.049081981 0.0086054206 1.3623338e-38
0.13604218 0.051514253 0.0085722804 1.2975444e-38
0.13550413 0.056261003 0.0081279874 1.306336e-38
0.13427413 0.072309226 0.012070835 8.8345464e-39
0.13346499 0.075589925 0.014246881 9.9398136e-39
0.13262206 0.095382392 0.020732164 1.2885804e-38
0.13178027 0.098929688 0.020723164 1.3438248e-38
0.13196063 0.10280338 0.021185189 1.371553e-38
0.13193804 0.10679711 0.021026134 1.4173269e-38
0.12746203 0.13740365 0.029148221 1.8967827e-38
0.1272248 0.13988563 0.029711753 1.611409e-38
0.13407791 0.053387761 0.0079609752 1.2973294e-38
0.13321775 0.056194246 0.0076560378 1.3346017e-38
0.13354295 0.058550537 0.0083727837 1.3346739e-38
0.13304549 0.073310226 0.012622505 9.4756166e-39
0.13206464 0.074898809 0.013606668 1.0307516e-38
0.12927699 0.10406214 0.020228177 1.3530414e-38
0.12834555 0.10671774 0.019753337 1.3530072e-38
0.12805331 0.11035797 0.018167734 1.3897057e-38
0.12522954 0.13785246 0.026136607 1.4822595e-38
0.12504941 0.14063549 0.027812243 1.491875e-38
0.12446117 0.1113835 0.017841101 1.3347145e-38
0.1238206 0.11330009 0.017826259 1.3530787e-38
0.12392545 0.12412313 0.018814325 1.2236117e-38
0.12360519 0.12720782 0.020161211 1.1501065e-38
0.12370473 0.13102701 0.02068609 1.0768867e-38
0.12316793 0.13469902 0.021656603 1.1596853e-38
0.1220848 0.13825783 0.023012936 1.1877019e-38
0.12271339 0.14083192 0.025577247 1.3810242e-38
0.12125844 0.12096645 0.017767191 1.297438e-38
0.12090915 0.12422246 0.017749429 1.2237193e-38
0.12022209 0.12748177 0.018428445 1.1591465e-38
0.12011486 0.13117018 0.018639237 1.1042955e-38
0.11985105 0.13490853 0.019420087 1.113659e-38
0.11899287 0.13749224 0.02084446 1.1414229e-38
0.11777109 0.12874301 0.016833246 1.2146797e-38
0.11747915 0.13160887 0.017106473 1.1411389e-38
0.11718267 0.13471088 0.017810762 1.085928e-38
0.21099198 0.049176872 0.04642123 9.2055262e-39
0.19991159 0.060054272 0.038440496 1.1138397e-38
0.19304538 0.070197165 0.036559552 1.2704997e-38
0.19604746 0.017888665 0.028370887 1.0032034e-38
0.17351544 0.086613417 0.028127313 1.2979425e-38
0.16111439 0.10278544 0.025716603 1.325061e-38
0.17350972 0.02867125 0.017951697 1.5832816e-38
0.16762739 0.028848827 0.016230494 1.4913375e-38
0.17104501 0.11842349 0.067370951 1.6393977e-38
0.16856337 0.11719549 0.065974355 1.2246569e-38
0.1680761 0.11989355 0.068519831 1.7223679e-38
0.16723174 0.11519161 0.062581718 7.8236763e-39
0.15869921 0.10617781 0.05561021 5.4301829e-39
0.15954262 0.10897768 0.056475461 6.7187385e-39
0.15742964 0.11175942 0.056153327 8.3761341e-39
0.15635568 0.10233308 0.050630987 1.434858e-38
0.15511477 0.10709843 0.05237931 1.0298532e-38
0.1558665 0.10886015 0.053684533 8.7362593e-39
0.15536672 0.10306704 0.049893677 1.8032476e-38
0.15343332 0.10629675 0.050107896 1.9145987e-38
0.15320134 0.1097562 0.050810635 2.0076962e-38
0.15225095 0.11299333 0.051454723 2.2219004e-38
0.15169704 0.10781735 0.047808588 2.3036619e-38
0.1521247 0.11075887 0.047529221 2.304421e-38
0.15114158 0.11474057 0.048307717 2.3325493e-38
0.14956665 0.11911424 0.049579829 2.2856243e-38
0.14894706 0.12045026 0.047240734 2.3136067e-38
0.14706689 0.12230571 0.047545612 2.3223888e-38
0.1551761 0.010913223 0.018677354 1.1413168e-38
0.14422649 0.12349536 0.045492887 2.3137505e-38
0.15154594 0.011348516 0.017836154 1.0126039e-38
0.15206921 0.014049053 0.017491072 1.1229521e-38
0.15229994 0.017445982 0.016506314 1.2339455e-38
0.14576596 0.085802346 0.032026589 4.236327e-39
0.14217752 0.12511577 0.043278068 2.3232933e-38
0.14120013 0.12632051 0.043422639 2.3231858e-38
0.14894617 0.012801453 0.016032755 9.388128e-39
0.14893001 0.015670866 0.015658915 1.0402997e-38
0.14934194 0.019641355 0.014301032 1.2152534e-38
0.14350897 0.085456848 0.029695034 5.7975039e-39
0.1432119 0.088563919 0.030400574 7.0853812e-39
0.14626139 0.016823769 0.014682889 1.0034918e-38
0.14595509 0.019347876 0.014328569 1.1688333e-38
0.14378881 0.022891074 0.013478935 1.2146798e-38
0.14486337 0.028161287 0.012630641 1.3531493e-38
0.14026582 0.085843086 0.026628554 6.8127348e-39
0.13960224 0.090047017 0.027325511 8.0073501e-39
0.14190972 0.027847081 0.012861729 1.3346723e-38
0.14179033 0.031284392 0.012912512 1.3622998e-38
0.1409784 0.035023302 0.012930542 1.398997e-38
0.14113325 0.038435131 0.012259662 1.4355901e-38
0.13755417 0.086333632 0.024118125 8.2832041e-39
0.13707036 0.090524152 0.024987638 9.4803222e-39
0.12978578 0.14000353 0.036586523 1.7766386e-38
0.13930476 0.031845406 0.012662083 1.3898131e-38
0.1379661 0.035711557 0.011866987 1.4080005e-38
0.13826871 0.039433971 0.011201203 1.4171836e-38
0.13799709 0.042494744 0.010477751 1.4171476e-38
0.13340479 0.0867351 0.022403419 1.0311483e-38
0.13429058 0.090855241 0.022359133 1.0956138e-38
0.12858635 0.1373809 0.034852207 2.0162053e-38
0.12864387 0.14037856 0.034304261 1.6572183e-38
0.1351642 0.036658198 0.010133892 1.3897784e-38
0.13486165 0.039574698 0.010412931 1.3988878e-38
0.13436711 0.043060556 0.0109258 1.3896671e-38
0.1338734 0.046781033 0.010675162 1.3622263e-38
0.13063198 0.078285277 0.017601967 1.1230184e-38
0.13027889 0.08246313 0.01931563 1.1598983e-38
0.13026261 0.086955711 0.020022511 1.2887556e-38
0.13026148 0.09080413 0.020617306 1.2241495e-38
0.13062221 0.094732493 0.019995153 1.2885082e-38
0.12725776 0.13807602 0.030602336 1.850361e-38
0.12685728 0.14123935 0.031224012 1.6020111e-38
0.12471682 0.14387748 0.033254653 1.6576135e-38
0.12860948 0.063855857 0.011698425 1.2241113e-38
0.12851387 0.067258492 0.012697041 1.131808e-38
0.129134 0.071292192 0.013019204 1.0858538e-38
0.12849766 0.075069577 0.014263928 1.141457e-38
0.12803942 0.078474462 0.01559183 1.2243254e-38
0.12755543 0.082817793 0.016630054 1.2887572e-38
0.12711573 0.08717671 0.017637014 1.2978339e-38
0.12693751 0.090972781 0.018360883 1.2793932e-38
0.1283747 0.095245942 0.017948776 1.2886858e-38
0.12801826 0.098974466 0.018795282 1.2978709e-38
0.12715596 0.10244687 0.01978153 1.3162031e-38
0.12649763 0.10529903 0.019330204 1.3163468e-38
0.12365836 0.14219081 0.028382331 1.4821168e-38
0.12164587 0.14392269 0.030556202 1.4914801e-38
0.12743193 0.059794351 0.0099555254 1.4267222e-38
0.12659663 0.068533108 0.011939645 1.2424052e-38
0.12615514 0.070745483 0.012215614 1.2423708e-38
0.12611932 0.073526651 0.013073385 1.2150361e-38
0.12482589 0.079357952 0.013673186 1.3163431e-38
0.12436193 0.083160579 0.014437944 1.3530778e-38
0.12387592 0.0873698 0.015311301 1.3437525e-38
0.12351799 0.091114968 0.01616165 1.3253111e-38
0.12397164 0.095099121 0.016448081 1.316235e-38
0.12361419 0.098838747 0.017297119 1.3254912e-38
0.12325674 0.10257837 0.018146217 1.3437509e-38
0.12326014 0.10641645 0.018742323 1.3530808e-38
0.12321252 0.10936807 0.018843651 1.3346777e-38
0.11989504 0.14181599 0.026238471 1.2611368e-38
0.11935967 0.14394522 0.028554171 1.3715205e-38
0.1223129 0.08447054 0.012842476 1.4357679e-38
0.12213391 0.086343139 0.013267696 1.4173332e-38
0.12019092 0.098989472 0.015097022 1.3714472e-38
0.12005132 0.10250528 0.016202778 1.3990333e-38
0.12002176 0.106033 0.017511904 1.3897792e-38
0.12028736 0.1105715 0.01779145 1.3530803e-38
0.11990803 0.11419311 0.018005371 1.3438228e-38
0.11892837 0.11836782 0.017806411 1.3069078e-38
0.11903626 0.12186351 0.018747151 1.2698875e-38
0.11686587 0.14157358 0.024219871 1.2337284e-38
0.11808878 0.099783808 0.013603628 1.4082539e-38
0.11659718 0.11538869 0.017146766 1.3438947e-38
0.11617714 0.11931291 0.017171204 1.2885417e-38
0.11641425 0.12333968 0.016961455 1.2514844e-38
0.11673117 0.12691568 0.017073601 1.2331184e-38
0.11531913 0.13120434 0.016650379 1.1506818e-38
0.11484629 0.13519247 0.01746574 1.0951488e-38
0.11503917 0.13849133 0.020153761 1.150606e-38
0.11358321 0.14097884 0.022110522 1.2703536e-38
0.11332768 0.12071483 0.015640259 1.2607713e-38
0.11264819 0.12381649 0.015679955 1.2607016e-38
0.11235219 0.12719519 0.015801907 1.2608837e-38
0.11187935 0.13053928 0.016410589 1.1323502e-38
0.1114738 0.1347208 0.017234266 1.1690488e-38
0.11180604 0.13809252 0.018859625 1.2705314e-38
0.10999852 0.12666515 0.01427561 1.1964911e-38
0.1097002 0.12978612 0.01498422 1.1690129e-38
0.20165339 0.072100013 0.047376841 1.3996105e-38
0.18953425 0.066144034 0.03409633 1.3717706e-38
0.18871805 0.082815588 0.042272806 1.500809e-38
0.19362098 0.082296997 0.047604203 1.6299559e-38
0.15925366 0.030342743 0.013889283 1.4819372e-38
0.14376426 0.097495526 0.025177121 1.2517321e-38
0.13354295 0.058550537 0.0083727837 1.3346739e-38
0.16527271 0.11793673 0.067292213 1.436312e-38
0.1626454 0.11687413 0.065805286 1.1878867e-38
0.16052079 0.11958486 0.068286002 1.8516559e-38
0.15861636 0.11427388 0.063165218 9.1151172e-39
0.15863466 0.11667103 0.064352512 1.2157594e-38
0.15720534 0.11984414 0.065484345 1.8512963e-38
0.15818638 0.11012872 0.057813466 7.2719151e-39
0.15696347 0.11281246 0.060110331 8.6566334e-39
0.15565854 0.11695966 0.061836958 1.4461033e-38
0.15492398 0.12020981 0.063185811 1.7870089e-38
0.15564108 0.10301584 0.053025424 5.1456759e-39
0.15573937 0.10520148 0.053823888 6.4367608e-39
0.15499574 0.10976714 0.054558277 7.0803548e-39
0.15414757 0.11323562 0.056830168 9.8451433e-39
0.15284985 0.11729419 0.059181124 1.3894575e-38
0.15206558 0.12095162 0.060383439 1.712571e-38
0.15318149 0.10267413 0.053374052 1.0747288e-38
0.15365738 0.10448812 0.051546574 1.4694062e-38
0.15305984 0.11073932 0.052965879 1.6288682e-38
0.15154999 0.11445099 0.054111362 2.0633414e-38
0.15048069 0.11768945 0.055825979 2.1557916e-38
0.14959598 0.12137464 0.057449967 2.0999342e-38
0.14800757 0.12420656 0.058075905 1.9977677e-38
0.14978552 0.11607334 0.051457226 2.3322248e-38
0.14866221 0.11845517 0.053419411 2.2385173e-38
0.14743501 0.12205108 0.053462505 2.1267674e-38
0.14649206 0.12543368 0.055251896 1.9515978e-38
0.14536464 0.12875903 0.056457818 1.8596531e-38
0.14464116 0.123262 0.050431222 2.2191728e-38
0.14345044 0.12610531 0.052108884 1.80419e-38
0.14287519 0.12965566 0.053337038 1.712356e-38
0.1420902 0.13245419 0.054902434 1.7585979e-38
0.14254373 0.12435192 0.046990752 2.2945514e-38
0.14082789 0.12649168 0.048707962 2.0624066e-38
0.13968533 0.13006678 0.050170898 1.6473139e-38
0.13919353 0.13283472 0.052174777 1.5282132e-38
0.15027595 0.0097184032 0.017790198 9.2069625e-39
0.13941586 0.12721688 0.045984626 2.304062e-38
0.13696426 0.1304225 0.047448158 2.2572739e-38
0.13576245 0.13271053 0.048759401 2.0534642e-38
0.14655614 0.010432482 0.016758353 8.56087e-39
0.1344623 0.13113989 0.046256363 2.341769e-38
0.13282937 0.1343032 0.046385169 2.3133543e-38
0.13165134 0.13693014 0.046069741 2.3122397e-38
0.14265537 0.011513859 0.015906096 7.9154936e-39
0.14351207 0.014322147 0.015492141 8.3750537e-39
0.14155978 0.018371314 0.015351295 1.1135522e-38
0.13048804 0.13578665 0.043118834 2.1725471e-38
0.13045263 0.13858464 0.043982357 2.2561314e-38
0.12944674 0.1418269 0.044609606 2.1361307e-38
0.13872331 0.019015372 0.014806062 9.9420164e-39
0.13878018 0.022080123 0.014355689 1.1782316e-38
0.13914162 0.026060313 0.013522297 1.3346328e-38
0.12897795 0.1392065 0.040332854 1.8690862e-38
0.12755036 0.14274269 0.041982502 1.8230966e-38
0.12557679 0.14552802 0.04285416 1.5835694e-38
0.136388 0.019493937 0.013022155 8.7474109e-39
0.13550907 0.02234973 0.012714446 1.0955435e-38
0.13581276 0.026307479 0.012885034 1.3531124e-38
0.13581616 0.03018558 0.013014257 1.3805927e-38
0.12622195 0.14370735 0.038826823 1.6482854e-38
0.12367004 0.14637642 0.040428251 1.5378302e-38
0.13400543 0.023943856 0.010667741 9.4853515e-39
0.13194919 0.031322598 0.011553675 1.3345325e-38
0.13306046 0.034494206 0.011398852 1.3804878e-38
0.133259 0.038319379 0.010232031 1.3897045e-38
0.13178915 0.044056475 0.010628045 1.380521e-38
0.12335199 0.1451779 0.034796417 1.5839991e-38
0.12175554 0.14721246 0.037396789 1.5102057e-38
0.11978686 0.14953318 0.038443804 1.7129666e-38
0.12925971 0.03588447 0.011271954 1.352971e-38
0.12882161 0.039562359 0.010762602 1.3804137e-38
0.12799162 0.043282211 0.010960609 1.3805221e-38
0.1285221 0.047179431 0.011006922 1.3437875e-38
0.1264832 0.070644557 0.013945132 1.1411714e-38
0.12024492 0.14554797 0.031858504 1.4915529e-38
0.11922032 0.14759967 0.034547329 1.5929308e-38
0.11825687 0.14996874 0.035639286 1.7495595e-38
0.12572557 0.043765306 0.010325432 1.3806307e-38
0.12539494 0.046825245 0.01040712 1.3713746e-38
0.1246087 0.050975636 0.010678351 1.3714093e-38
0.12517601 0.055314064 0.010135055 1.3992084e-38
0.12408119 0.059032962 0.010731816 1.4083205e-38
0.1247263 0.062929362 0.011658132 1.29776e-38
0.12432468 0.06681782 0.012031853 1.2610246e-38
0.12241757 0.070636034 0.012820721 1.2885775e-38
0.12352139 0.074586213 0.013376176 1.2518423e-38
0.12355298 0.078162432 0.013476223 1.3071597e-38
0.11667079 0.1449753 0.029117733 1.3995372e-38
0.11641502 0.14793381 0.031894624 1.408323e-38
0.11591625 0.15024754 0.033426076 1.5741014e-38
0.12177068 0.056047916 0.010378361 1.3992097e-38
0.12145436 0.058975592 0.010431647 1.3991028e-38
0.12083989 0.062768906 0.010721266 1.3621538e-38
0.12027556 0.066251799 0.011284411 1.3529349e-38
0.11985362 0.070323125 0.011636794 1.3804867e-38
0.11979926 0.075123355 0.012165248 1.435624e-38
0.12008119 0.079661876 0.012140989 1.4632818e-38
0.12037838 0.083555192 0.012084544 1.4633169e-38
0.11972958 0.087498263 0.013431966 1.4264404e-38
0.11900383 0.090932935 0.014700055 1.3895969e-38
0.11932105 0.094157755 0.014448643 1.3803785e-38
0.11784315 0.10319182 0.015895426 1.4267608e-38
0.11789334 0.10652307 0.017014444 1.4174009e-38
0.11621994 0.10940367 0.018451691 1.3897431e-38
0.1171779 0.11336511 0.01850751 1.3437872e-38
0.11367464 0.14474578 0.027055681 1.3440041e-38
0.11269528 0.14768362 0.030050635 1.2600238e-38
0.11773169 0.066786379 0.0098527074 1.4081082e-38
0.11658007 0.070591345 0.0099413693 1.4450236e-38
0.11717457 0.075023592 0.01036638 1.49087e-38
0.11634916 0.079809397 0.010335624 1.527603e-38
0.11564875 0.083356246 0.011205077 1.4358375e-38
0.11510718 0.087066367 0.012183338 1.4264753e-38
0.11474711 0.090832919 0.013038516 1.4354086e-38
0.11602646 0.095075041 0.012781084 1.4264044e-38
0.11591321 0.098824263 0.013005584 1.4266938e-38
0.11567318 0.10268842 0.014238536 1.4360919e-38
0.11458415 0.10624526 0.015588492 1.4266562e-38
0.11367768 0.10985865 0.016816139 1.3898853e-38
0.11383319 0.11363485 0.017102301 1.3439308e-38
0.11406928 0.11760819 0.01681155 1.2977631e-38
0.11159736 0.14242786 0.023068607 1.1045113e-38
0.10989696 0.14461771 0.02549088 9.8350988e-39
0.10983372 0.14698872 0.027834594 1.0846716e-38
0.11394268 0.075878739 0.0090444684 1.5092367e-38
0.11330801 0.079124808 0.0094623268 1.5184558e-38
0.11228383 0.083536237 0.0098711252 1.4357633e-38
0.11185342 0.087068796 0.010582 1.4357675e-38
0.11162984 0.090881944 0.011346549 1.4542426e-38
0.11176181 0.094986737 0.011115432 1.472609e-38
0.11195183 0.098907232 0.011601806 1.4728269e-38
0.11159229 0.10266906 0.01245594 1.4452751e-38
0.11086541 0.1063332 0.013556957 1.4173656e-38
0.1101386 0.11000156 0.014659345 1.4082517e-38
0.11042172 0.113931 0.015080273 1.353113e-38
0.11077732 0.11836606 0.015386105 1.2885777e-38
0.11092401 0.12255606 0.015305817 1.2424075e-38
0.10956168 0.13198836 0.016994148 1.1414244e-38
0.10932267 0.13448885 0.017561913 1.1876674e-38
0.10872054 0.13808626 0.019084156 1.2610616e-38
0.1084612 0.14122474 0.021755278 1.0668738e-38
0.10741752 0.14478986 0.024751514 9.0982652e-39
0.11044699 0.087236315 0.009252131 1.4541717e-38
0.11008638 0.091009229 0.010108769 1.4726814e-38
0.10806823 0.095382482 0.0093218684 1.5095224e-38
0.10759836 0.10654458 0.011210114 1.4910498e-38
0.10723823 0.11031196 0.01206547 1.4359097e-38
0.10715461 0.11414912 0.012735665 1.3439279e-38
0.10701209 0.11860916 0.013547838 1.251592e-38
0.10723919 0.12315303 0.014110863 1.1780859e-38
0.10693938 0.12720244 0.014522314 1.2057823e-38
0.10622621 0.1308066 0.015851676 1.2242926e-38
0.10597485 0.13439187 0.016795576 1.2058177e-38
0.10482746 0.13740721 0.018873543 1.2142844e-38
0.10539812 0.14005712 0.021245122 1.1034309e-38
0.10585505 0.096486494 0.0077046156 1.518814e-38
0.10514581 0.099057615 0.0078324378 1.5554057e-38
0.10492378 0.10286841 0.0085977316 1.5461498e-38
0.10454232 0.10634074 0.0095771849 1.5557294e-38
0.10448045 0.11048357 0.010126978 1.4450578e-38
0.10425919 0.11428884 0.010891259 1.316092e-38
0.10364187 0.11895128 0.011432111 1.1780126e-38
0.10360074 0.12329079 0.012014598 1.1689033e-38
0.10361266 0.12714109 0.012623072 1.2426254e-38
0.10253596 0.13054562 0.01411593 1.2700673e-38
0.10320514 0.13313916 0.015427172 1.2514446e-38
0.10034943 0.12014365 0.0098841786 1.2148537e-38
0.10010201 0.12358433 0.010025799 1.2518427e-38
0.099686146 0.12722221 0.010704875 1.3255277e-38
0.099916697 0.12952012 0.012469053 1.408539e-38
0.16120631 0.10867074 0.026257515 1.361798e-38
0.1700623 0.032336116 0.016216457 1.5832083e-38
0.12927699 0.10406214 0.020228177 1.3530414e-38
0.1085909 0.1396555 0.020419657 1.159358e-38
0.15638751 0.12055884 0.068027258 2.007884e-38
0.15457845 0.1224629 0.068297923 1.9984849e-38
0.15242904 0.12144598 0.06441772 1.7592766e-38
0.15206677 0.12376226 0.065924346 1.860011e-38
0.14951521 0.1235213 0.062936842 1.8969995e-38
0.14703345 0.12490374 0.060699373 2.0073106e-38
0.14574045 0.12726198 0.061143875 2.0350047e-38
0.14412236 0.12940922 0.059281945 1.9152582e-38
0.14289182 0.13164476 0.059172988 1.9430271e-38
0.14060086 0.13369796 0.057074487 1.8418603e-38
0.13939446 0.13569799 0.05760926 1.9522829e-38
0.1377086 0.13442209 0.054101825 1.6109739e-38
0.1369459 0.13598964 0.055293918 1.7863991e-38
0.13494772 0.13412744 0.051291108 1.638053e-38
0.13412064 0.13632615 0.052622408 1.656857e-38
0.1327334 0.13459902 0.049263954 2.2471927e-38
0.13112968 0.13734302 0.049646616 2.2010252e-38
0.13893878 0.014565796 0.016827524 9.4806613e-39
0.12988412 0.13847148 0.04770425 2.3300679e-38
0.12781078 0.14163899 0.047760814 2.1639329e-38
0.12659222 0.14434557 0.047071069 1.9613898e-38
0.13662142 0.014815092 0.015861183 8.8374667e-39
0.13634676 0.017368466 0.015177339 9.2087618e-39
0.12456489 0.14617334 0.045766383 1.6667958e-38
0.12253463 0.14844584 0.045115292 1.5747453e-38
0.13493615 0.017536461 0.013843507 8.3797186e-39
0.1220476 0.14751022 0.042896718 1.5013119e-38
0.12062091 0.14898598 0.04340601 1.565632e-38
0.11876756 0.14889452 0.041553348 1.6117619e-38
0.12796766 0.032083243 0.011658609 1.3622624e-38
0.12685192 0.03429389 0.011630356 1.3437513e-38
0.12480497 0.03703177 0.011574984 1.3620841e-38
0.11575788 0.15062758 0.038429111 1.8967477e-38
0.12408286 0.039197206 0.010840267 1.3620473e-38
0.12292016 0.042496756 0.010611951 1.371373e-38
0.12174207 0.046651617 0.010930836 1.3713753e-38
0.12123549 0.049519464 0.011353314 1.3714126e-38
0.11164409 0.15036741 0.035017937 1.5647762e-38
0.11970979 0.051375493 0.011167914 1.380556e-38
0.11941224 0.053894192 0.01082027 1.3990669e-38
0.11780626 0.057975814 0.010934681 1.4174711e-38
0.11779219 0.060728699 0.010845453 1.4356945e-38
0.11029297 0.14891028 0.031781763 1.1130151e-38
0.11616004 0.059291124 0.010217249 1.3990327e-38
0.11535424 0.062495559 0.0099136829 1.389778e-38
0.114959 0.066054061 0.0097680092 1.4173999e-38
0.10697407 0.14761838 0.028821111 1.1126513e-38
0.11315542 0.067390576 0.0089024305 1.4358747e-38
0.11204308 0.071231067 0.0091783404 1.4633551e-38
0.11067837 0.074799031 0.0090839863 1.4817575e-38
0.11046207 0.079059452 0.0095196962 1.4817941e-38
0.11022091 0.081582129 0.010092497 1.4633516e-38
0.10443372 0.14212629 0.023839056 9.8375903e-39
0.10421216 0.14479141 0.025052369 1.0851049e-38
0.10406178 0.14689969 0.026444793 1.1770822e-38
0.10893989 0.076385587 0.0086026788 1.4543872e-38
0.10846215 0.079261363 0.0087683201 1.4540283e-38
0.10790914 0.08308427 0.0090200007 1.4723925e-38
0.10763699 0.086834237 0.0094166398 1.4724644e-38
0.10702598 0.090691477 0.0098742247 1.4909404e-38
0.10631466 0.093270168 0.010002375 1.5002318e-38
0.10244447 0.1386223 0.0207569 1.1951614e-38
0.10221916 0.14067897 0.022346735 1.1586433e-38
0.10241979 0.14459766 0.024090171 1.2327929e-38
0.10514867 0.086827576 0.0082256198 1.4724989e-38
0.10431558 0.090673223 0.0086407661 1.4817556e-38
0.10404009 0.094372392 0.00811854 1.5186697e-38
0.10216731 0.10748091 0.010484993 1.5279627e-38
0.10026234 0.13389429 0.01709187 1.2605927e-38
0.10025859 0.13798663 0.019841284 1.2881837e-38
0.10126704 0.094838366 0.0067391396 1.4819349e-38
0.10118288 0.098704249 0.0074179769 1.5093802e-38
0.10068184 0.1024535 0.0083686709 1.5093802e-38
0.10004145 0.10616797 0.0094109774 1.5003037e-38
0.099639475 0.11007988 0.0097318888 1.417292e-38
0.099404037 0.11394216 0.010320753 1.2883981e-38
0.099038422 0.11702028 0.010757565 1.2147492e-38
0.098097384 0.13137561 0.015592366 1.3711954e-38
0.096960604 0.11854857 0.0096356571 1.2610253e-38
0.097079575 0.12180363 0.01007849 1.2981171e-38
0.2132175 0.023254752 0.043024331 7.457014e-39
0.18392593 0.048378557 0.021931291 1.2887212e-38
0.17376018 0.10445949 0.037485957 1.8418642e-38
0.14927363 0.12164533 0.063967764 1.842798e-38
0.14876312 0.12626465 0.06914261 1.9892665e-38
0.14818776 0.12512688 0.064305127 2.0075278e-38
0.14658672 0.12732413 0.065994024 2.1824112e-38
0.14540887 0.12963451 0.067335844 2.2847276e-38
0.14492553 0.12865624 0.06280452 2.0719571e-38
0.14291996 0.13123608 0.064322233 2.2293748e-38
0.14125544 0.13389757 0.064618409 2.2949885e-38
0.14168334 0.13295692 0.061139494 2.118342e-38
0.13991088 0.13542572 0.062347233 2.2384479e-38
0.1380493 0.13804781 0.062796712 2.2935862e-38
0.13887727 0.13717887 0.059014976 2.1735147e-38
0.13612443 0.13859111 0.061077416 2.2381239e-38
0.13518441 0.13748564 0.056199849 1.8414654e-38
0.13356167 0.13959286 0.058260947 1.9427383e-38
0.13274693 0.13790904 0.053218216 1.8326059e-38
0.13087434 0.14033413 0.055512518 2.0814241e-38
0.12915951 0.14287502 0.055600762 2.27543e-38
0.1310662 0.13842188 0.051729441 2.1545693e-38
0.12891501 0.14085957 0.052154541 2.1730818e-38
0.12718552 0.14366433 0.053624272 2.1545723e-38
0.12760001 0.14216976 0.049522638 2.1456748e-38
0.12569803 0.145119 0.050577164 2.0167804e-38
0.13544744 0.0098523796 0.017429948 7.2701298e-39
0.13608474 0.012760803 0.016318202 7.7314807e-39
0.12468189 0.14668611 0.048101962 1.7866491e-38
0.12269682 0.14917372 0.048386753 1.6667603e-38
0.12122923 0.15263991 0.049854815 1.5098463e-38
0.12078363 0.15040207 0.045459867 1.5651316e-38
0.11895651 0.15237656 0.047174424 1.5737728e-38
0.11669695 0.1502634 0.043073744 1.7955464e-38
0.1241262 0.035445929 0.011837065 1.3713404e-38
0.11312252 0.15056419 0.037974656 1.6756252e-38
0.12078029 0.034590721 0.012588084 1.3253527e-38
0.12177736 0.037950754 0.011290014 1.3621547e-38
0.12069219 0.042108089 0.010597795 1.362117e-38
0.11217934 0.15067652 0.037082911 1.7027452e-38
0.11852145 0.038628131 0.011662066 1.3619373e-38
0.11818385 0.041453063 0.011277616 1.3528979e-38
0.11831313 0.046052724 0.010962963 1.371303e-38
0.11815858 0.049503699 0.011055499 1.3529712e-38
0.11671406 0.054462954 0.010651022 1.4174357e-38
0.11653268 0.056360483 0.011081874 1.4266561e-38
0.10770553 0.14870812 0.032049358 1.1496059e-38
0.1076718 0.15049753 0.03464669 1.4266234e-38
0.1144166 0.047281817 0.010402262 1.352827e-38
0.1143257 0.050459251 0.010325551 1.3436793e-38
0.1141929 0.054669812 0.0099640489 1.3805587e-38
0.11392152 0.058291376 0.010092437 1.399034e-38
0.11321962 0.061757624 0.0095553994 1.4082908e-38
0.10581928 0.14893278 0.030265778 1.1774789e-38
0.10463291 0.15130183 0.032083422 1.3622275e-38
0.10332823 0.15348843 0.033595085 1.3348213e-38
0.11054248 0.058420241 0.010167181 1.4172929e-38
0.11037683 0.06327045 0.0088890791 1.4266551e-38
0.10983121 0.066913769 0.0088368654 1.4359103e-38
0.10954374 0.070949882 0.0088905096 1.4448081e-38
0.10277402 0.14858516 0.02763775 1.1965611e-38
0.10127103 0.15152904 0.02918312 1.0955068e-38
0.10116649 0.15405993 0.031651855 1.0866087e-38
0.10674119 0.063897476 0.0081861615 1.4266893e-38
0.10677218 0.066530079 0.008582294 1.4543122e-38
0.1068942 0.070711762 0.0083659887 1.444987e-38
0.10658759 0.074742705 0.0084334612 1.4266911e-38
0.10625488 0.078532785 0.0080895722 1.4355529e-38
0.10574704 0.081407189 0.0085129142 1.454098e-38
0.10029757 0.14166978 0.02250132 1.3060134e-38
0.099615633 0.14449474 0.023697019 1.3347097e-38
0.099494994 0.14792606 0.02557084 1.1413157e-38
0.098506629 0.15145016 0.027333647 9.8486899e-39
0.099065483 0.15399614 0.029564351 1.058806e-38
0.1042394 0.070476055 0.0078371763 1.4448435e-38
0.1035192 0.074450597 0.0079250932 1.4265475e-38
0.1023407 0.078663647 0.0075187683 1.4355884e-38
0.10300171 0.082671404 0.007497251 1.4815768e-38
0.10290551 0.086748183 0.007432282 1.481683e-38
0.10207117 0.090599447 0.0078481138 1.4818273e-38
0.097899437 0.13424319 0.017757416 1.325417e-38
0.096253157 0.13697393 0.02013272 1.3528999e-38
0.096315622 0.14071539 0.021475434 1.3897428e-38
0.095748067 0.14428374 0.022642404 1.3437495e-38
0.09609741 0.14781787 0.024660528 1.0672384e-38
0.099600196 0.079821467 0.0062736273 1.4448449e-38
0.099912047 0.082530648 0.0064910054 1.4816852e-38
0.099570394 0.087043285 0.0064046383 1.4817198e-38
0.098792672 0.090421438 0.0069638491 1.463426e-38
0.097763598 0.094418108 0.0067551732 1.4542797e-38
0.096842289 0.098065734 0.007979393 1.4726829e-38
0.096478462 0.10187194 0.0088436007 1.4817966e-38
0.097790718 0.10611686 0.0086193681 1.49087e-38
0.097427964 0.10991198 0.0094810128 1.4264041e-38
0.094275594 0.13021456 0.01649645 1.5186341e-38
0.094502568 0.13294175 0.017955124 1.3990319e-38
0.095422447 0.094136372 0.0067598522 1.4451667e-38
0.095058084 0.097948134 0.0076252818 1.4629242e-38
0.09469372 0.10175988 0.0084907413 1.4725755e-38
0.094329357 0.10557163 0.0093562603 1.500017e-38
0.09399122 0.10982779 0.0091567338 1.398851e-38
0.093961895 0.11363155 0.0093439817 1.279321e-38
0.093334913 0.11818898 0.0097307563 1.2886477e-38
0.092460215 0.12222816 0.011138618 1.3347104e-38
0.09075886 0.11353362 0.0083999634 1.3343839e-38
0.090394557 0.11734536 0.0092654824 1.31609e-38
0.21529615 0.03383854 0.046260327 6.9045661e-39
0.19745016 0.053757548 0.034413695 1.2243656e-38
0.19567013 0.068579465 0.038248718 1.4364157e-38
0.10621029 0.093434125 0.0085679293 1.4818647e-38
0.14240909 0.13154086 0.067874849 2.2760822e-38
0.14097953 0.13447195 0.068369091 2.239383e-38
0.13981694 0.13779494 0.069594204 2.2769085e-38
0.13919359 0.13570319 0.066047817 2.2577502e-38
0.13745719 0.13853534 0.066208303 2.2482427e-38
0.1355325 0.1410806 0.067050815 2.2301636e-38
0.13458198 0.13998833 0.063126683 2.2390586e-38
0.13394147 0.14178009 0.064630836 2.2480974e-38
0.13150406 0.14081831 0.060125113 2.0256445e-38
0.13122696 0.14239345 0.0617975 2.2019655e-38
0.12815589 0.14357671 0.058616281 2.2102476e-38
0.12550884 0.144933 0.055907786 2.14564e-38
0.12429088 0.14712574 0.057212472 2.0630224e-38
0.12336612 0.1501103 0.057980597 1.923725e-38
0.12229258 0.14837301 0.054387808 1.9061828e-38
0.12141097 0.15109658 0.055140287 1.6759451e-38
0.11272275 0.15061398 0.044792801 1.9514894e-38
0.11254549 0.15223709 0.046818614 1.9704686e-38
0.11055112 0.15078938 0.043192476 1.9607812e-38
0.10934502 0.15186295 0.044269353 2.02539e-38
0.11747652 0.033589989 0.013813317 1.3071255e-38
0.10770059 0.1511289 0.040497094 1.8134522e-38
0.10642368 0.15244412 0.042061627 1.9881202e-38
0.116036 0.037892193 0.012578368 1.3345301e-38
0.11297148 0.042061463 0.013060719 1.3344246e-38
0.11440402 0.044592559 0.012404561 1.3529e-38
0.10559756 0.15146263 0.03805536 1.6842711e-38
0.10383886 0.15355054 0.03864038 1.8230651e-38
0.11148125 0.0428707 0.01185444 1.3160206e-38
0.1111598 0.045348942 0.011134684 1.3711579e-38
0.10165793 0.15467155 0.036032259 1.4178729e-38
0.10798436 0.053785175 0.01047945 1.3527904e-38
0.10756296 0.057598799 0.010426134 1.4080014e-38
0.10724217 0.060562909 0.010486484 1.4357315e-38
0.098417521 0.15544671 0.033134341 1.1599689e-38
0.097750843 0.15695158 0.034976363 1.2888668e-38
0.10514152 0.054996699 0.0095107853 1.3619039e-38
0.10451406 0.058178484 0.009092778 1.3986733e-38
0.10425907 0.061441198 0.0090329051 1.4172552e-38
0.1039049 0.065999508 0.0089488029 1.4818276e-38
0.095622241 0.15265077 0.028622985 9.8537598e-39
0.09536016 0.15511388 0.030595124 1.0495884e-38
0.10161132 0.062366053 0.0084038973 1.3989234e-38
0.10090309 0.065857932 0.0078690052 1.4358042e-38
0.10110694 0.069927573 0.008177042 1.4357663e-38
0.10038489 0.07357125 0.0082767606 1.4264389e-38
0.093494833 0.14870492 0.025263011 1.0488695e-38
0.093750715 0.15158615 0.026599884 9.848718e-39
0.09245187 0.15483625 0.028261542 9.4828305e-39
0.097812355 0.070083275 0.0071443319 1.4265465e-38
0.097728193 0.074058861 0.0071045756 1.4080014e-38
0.096949756 0.07738778 0.0072019994 1.4264787e-38
0.09646529 0.08188495 0.0072099864 1.4818649e-38
0.096499503 0.084518403 0.0076093674 1.4910501e-38
0.091810048 0.13357832 0.018748432 1.4356237e-38
0.091909826 0.13646388 0.019773304 1.4080367e-38
0.091615081 0.14053027 0.020788968 1.3896688e-38
0.09143585 0.14451092 0.02189073 1.3622605e-38
0.091172099 0.148085 0.023098648 1.2149628e-38
0.090338588 0.15182528 0.024279147 1.0951802e-38
0.089940667 0.1545953 0.02605623 9.4795543e-39
0.094367623 0.079021752 0.0066253543 1.417293e-38
0.094679952 0.081745505 0.0068477392 1.4543862e-38
0.093519986 0.085670918 0.0069670677 1.4450612e-38
0.092799008 0.089656532 0.0070577264 1.4451304e-38
0.092796803 0.09377785 0.0069397092 1.4359103e-38
0.092431366 0.097600698 0.007807672 1.4815413e-38
0.092303455 0.10139526 0.008900255 1.4726461e-38
0.091700554 0.10524639 0.0095436573 1.4816852e-38
0.090530515 0.12922667 0.016572177 1.4543492e-38
0.089519203 0.13298242 0.017536968 1.4544231e-38
0.088895202 0.13694288 0.018605947 1.4727535e-38
0.088395059 0.14064564 0.019097149 1.4542779e-38
0.087747633 0.14442028 0.020151854 1.4453463e-38
0.087751985 0.14788552 0.021652639 1.3810239e-38
0.087526858 0.15058875 0.022874653 1.1966668e-38
0.09047091 0.090225026 0.0063889623 1.4176487e-38
0.090389848 0.093672961 0.0062170625 1.4082884e-38
0.090023875 0.097501665 0.0070863664 1.4635327e-38
0.089376926 0.1012568 0.0081354976 1.4359463e-38
0.088954806 0.10537162 0.0085015595 1.4358742e-38
0.089014471 0.10907055 0.0086686611 1.3895934e-38
0.088357151 0.11320329 0.0088092089 1.3711195e-38
0.0877074 0.11779954 0.010125577 1.325346e-38
0.086930335 0.12179807 0.012084126 1.3163443e-38
0.087115228 0.12512621 0.013934076 1.408325e-38
0.086085618 0.10654026 0.0073132515 1.4079298e-38
0.086123645 0.10916653 0.0077142715 1.3527175e-38
0.085422099 0.11309054 0.0080441833 1.3804488e-38
0.08502847 0.11726435 0.0090998709 1.4082869e-38
0.12765425 0.081453353 0.013770789 1.3253477e-38
0.13130432 0.14277534 0.067392707 2.2298372e-38
0.12918931 0.14461303 0.067700863 2.2201164e-38
0.12843889 0.14377189 0.064773768 2.2761176e-38
0.1276024 0.14556406 0.065725505 2.2951308e-38
0.12657112 0.14416449 0.062102735 2.2011372e-38
0.1246624 0.14642222 0.062928677 2.2840033e-38
0.1230709 0.14915401 0.063139439 2.2838591e-38
0.12301016 0.14780106 0.060726523 2.1644739e-38
0.12118113 0.15049449 0.061135054 2.0537314e-38
0.11695254 0.15369499 0.058578134 1.6482507e-38
0.1172362 0.15287888 0.055716932 1.4091138e-38
0.11631507 0.15401331 0.056614012 1.3998579e-38
0.11773938 0.026526675 0.018519819 1.2522037e-38
0.10736686 0.15335217 0.04731065 2.2282914e-38
0.10545295 0.15506467 0.047704369 2.2654956e-38
0.11602682 0.028339848 0.017129362 1.1785553e-38
0.11625361 0.03093563 0.017034531 1.3895986e-38
0.10468811 0.15367088 0.044777453 2.2007412e-38
0.10366195 0.15628928 0.045718968 2.2379413e-38
0.1137377 0.032506019 0.015063643 1.196705e-38
0.10249001 0.15425743 0.042011738 2.0715608e-38
0.10154217 0.15709603 0.042750299 2.0535886e-38
0.099887192 0.16004238 0.043347299 1.9894125e-38
0.10951167 0.039884865 0.013635039 1.3068364e-38
0.098722339 0.15737176 0.039664805 1.6853079e-38
0.097769201 0.16054595 0.04118529 1.9340217e-38
0.10692781 0.04052189 0.012376785 1.2885042e-38
0.10553944 0.045134842 0.01249212 1.3526841e-38
0.10603327 0.04806748 0.011521161 1.3343873e-38
0.095546663 0.15818742 0.037110746 1.3906056e-38
0.094851434 0.16069531 0.038794547 1.6763055e-38
0.10318667 0.049570471 0.011121958 1.3252377e-38
0.10258538 0.052768305 0.010022163 1.3342795e-38
0.1019479 0.055866882 0.009526372 1.3618309e-38
0.09233588 0.15811281 0.03449899 1.2986591e-38
0.092626393 0.16040465 0.036800027 1.593795e-38
0.1000073 0.053197712 0.0092785954 1.3343509e-38
0.098952234 0.057041287 0.0086354017 1.3343485e-38
0.098903954 0.06122151 0.0085389018 1.362081e-38
0.089525402 0.15617946 0.029514194 9.0222181e-39
0.089845955 0.15862378 0.031873792 1.0131438e-38
0.088731706 0.1615039 0.033321321 1.3163439e-38
0.096705794 0.058259085 0.0080154538 1.3159811e-38
0.096405923 0.060810208 0.007676065 1.297796e-38
0.095759273 0.065223932 0.007401824 1.3988896e-38
0.095528603 0.068668813 0.0073214769 1.4080711e-38
0.094144225 0.073268518 0.0074364543 1.3894543e-38
0.087043464 0.1554614 0.026841819 9.3877062e-39
0.087005556 0.15877318 0.029307127 8.6530839e-39
0.086060822 0.16169494 0.030754924 9.7601335e-39
0.092725098 0.070169926 0.0079236031 1.3896325e-38
0.091916978 0.073049396 0.007093817 1.3253124e-38
0.091770947 0.076883733 0.0071259141 1.3713387e-38
0.091219366 0.081101447 0.0075536966 1.426728e-38
0.090175092 0.085145086 0.0073448718 1.4265497e-38
0.086009681 0.12872225 0.017239034 1.4912999e-38
0.085642159 0.13256729 0.018112123 1.4819028e-38
0.085335851 0.13577148 0.018839598 1.5371831e-38
0.084159434 0.14896086 0.023356259 1.2613131e-38
0.08427161 0.15173909 0.024358928 1.1779058e-38
0.083728373 0.1553977 0.025821567 1.0122043e-38
0.083476841 0.15900621 0.027029514 9.2959085e-39
0.083043456 0.16154605 0.027738482 9.1115299e-39
0.088828027 0.077241957 0.0063603222 1.3344953e-38
0.088537693 0.081212848 0.0064502656 1.3621546e-38
0.088022053 0.085170031 0.0061941743 1.3622255e-38
0.087279677 0.088963985 0.006339401 1.3529682e-38
0.086573303 0.093176603 0.00638026 1.3530436e-38
0.086205781 0.097021639 0.007253319 1.3713746e-38
0.085838258 0.10086671 0.0081263185 1.3622985e-38
0.085593224 0.10343006 0.0087083578 1.4082883e-38
0.083755553 0.12265527 0.013073444 1.3440753e-38
0.083529115 0.12535423 0.014292896 1.4453847e-38
0.083904922 0.12862909 0.015960962 1.5095949e-38
0.083644032 0.1326196 0.017122597 1.5003382e-38
0.082852423 0.13638115 0.018271208 1.5556935e-38
0.082237303 0.13989279 0.019417167 1.5098098e-38
0.082011521 0.14260776 0.02064234 1.4821867e-38
0.08260119 0.14634977 0.022424042 1.4454881e-38
0.081501603 0.15537597 0.024240375 1.0765585e-38
0.080964625 0.15950631 0.025038421 9.570322e-39
0.080168545 0.16188848 0.025020033 9.3870224e-39
0.085869551 0.08242318 0.0051133335 1.2975446e-38
0.085746706 0.083708584 0.0054050982 1.2880033e-38
0.084235489 0.089606926 0.0058122873 1.2792155e-38
0.083871543 0.092994973 0.0058224797 1.2978706e-38
0.084067404 0.097001225 0.006342262 1.353223e-38
0.083699524 0.10085058 0.0072162747 1.3253852e-38
0.08294946 0.10437486 0.0081377029 1.3806306e-38
0.082909405 0.10871288 0.0082439184 1.3250961e-38
0.081382692 0.11328061 0.008448422 1.3990327e-38
0.081424415 0.11755133 0.0094290376 1.3624049e-38
0.081650376 0.1212469 0.011577964 1.2609207e-38
0.080667734 0.12478158 0.013308704 1.3441838e-38
0.080936551 0.12907529 0.015239596 1.4636047e-38
0.08084029 0.13173413 0.015998691 1.4911543e-38
0.082011759 0.093048662 0.0047296286 1.2334435e-38
0.081643164 0.096904799 0.0056051612 1.2983368e-38
0.081335962 0.10011825 0.0063347518 1.2603116e-38
0.080414474 0.1097586 0.0085236132 1.3896685e-38
0.080291569 0.11104396 0.0088154674 1.4264387e-38
0.079002976 0.11765209 0.0091899037 1.3066564e-38
0.079247296 0.1219697 0.011296153 1.1963123e-38
0.12520117 0.14704692 0.067916542 2.285911e-38
0.12448013 0.14862362 0.068313062 2.2674357e-38
0.12353945 0.14732806 0.065892398 2.2746081e-38
0.12209016 0.1497554 0.065725505 2.275072e-38
0.119744 0.15109716 0.063848138 2.1190217e-38
0.11841065 0.15279417 0.06404084 2.1554353e-38
0.11558783 0.15420878 0.060998201 1.7958008e-38
0.1129939 0.1547156 0.059328586 1.3814562e-38
0.10939097 0.15259227 0.05510211 1.8694399e-38
0.10947734 0.15417728 0.055695951 1.860475e-38
0.10690838 0.15301009 0.052074224 2.2654209e-38
0.10686147 0.15416978 0.053120047 2.2382992e-38
0.11553627 0.023599088 0.019729614 1.0035276e-38
0.10441786 0.15532318 0.050510675 2.2841498e-38
0.1145739 0.023713708 0.018819571 8.0098388e-39
0.11327666 0.026490852 0.017475605 8.4722729e-39
0.10172975 0.15745285 0.048405886 2.2746422e-38
0.10057265 0.15898442 0.047039807 2.209924e-38
0.1117174 0.028093427 0.016695976 7.6439612e-39
0.10999256 0.031417966 0.016306341 9.945217e-39
0.10957998 0.034931675 0.016069412 1.3069439e-38
0.098935783 0.15995064 0.046219349 2.1461776e-38
0.10799724 0.032792553 0.015264392 8.0091522e-39
0.10740364 0.035484076 0.015304953 1.0676688e-38
0.10638875 0.038497806 0.014074862 1.2791763e-38
0.094970942 0.16204494 0.0434708 1.9808396e-38
0.10518128 0.041190431 0.013751507 1.3160554e-38
0.10254371 0.04448989 0.01293546 1.3159853e-38
0.09235841 0.16208678 0.039954662 1.8422585e-38
0.090660453 0.16439494 0.040464282 2.0448347e-38
0.10111201 0.045098707 0.012441963 1.3067653e-38
0.10027587 0.048047751 0.011486888 1.3159836e-38
0.089742243 0.16170809 0.037259221 1.65801e-38
0.088797271 0.16397876 0.038497597 1.8605171e-38
0.097854555 0.049315393 0.010591149 1.3160564e-38
0.096926033 0.053006113 0.0094236434 1.31609e-38
0.086871386 0.16316515 0.034902632 1.3901385e-38
0.086028516 0.16486531 0.035770416 1.5748892e-38
0.094489038 0.056386143 0.0084710121 1.2885379e-38
0.092055142 0.060215965 0.0083857179 1.2238271e-38
0.083778799 0.16321489 0.031875968 1.0863597e-38
0.083663166 0.16542062 0.032710314 1.169405e-38
0.089746654 0.068306267 0.0080954432 1.2793196e-38
0.089015722 0.071152732 0.0074679554 1.2795357e-38
0.080950975 0.16289337 0.029401988 9.387035e-39
0.080272496 0.1660049 0.030144542 9.8487208e-39
0.087341666 0.069711015 0.0067971647 1.1047565e-38
0.085490882 0.076172337 0.0063313842 1.2150705e-38
0.08539319 0.079230607 0.0064978004 1.2884321e-38
0.079478741 0.1411064 0.020546705 1.518741e-38
0.079082727 0.14379978 0.021885276 1.4453798e-38
0.079674602 0.14755578 0.023673624 1.3437874e-38
0.078507781 0.15524049 0.024129689 1.1138332e-38
0.078024745 0.15880263 0.024798274 9.7547105e-39
0.07811743 0.16303417 0.026607931 9.3863091e-39
0.077313483 0.1666742 0.027745306 8.8341919e-39
0.083775699 0.077155009 0.0056790411 1.1407773e-38
0.083427012 0.080504507 0.0059317648 1.2332228e-38
0.082315862 0.084521011 0.0058884025 1.2422634e-38
0.081495881 0.088126034 0.0062391758 1.2699953e-38
0.078068018 0.12853041 0.015120775 1.4175786e-38
0.077632129 0.13269149 0.016747475 1.4635321e-38
0.077821553 0.13597798 0.018468946 1.4820452e-38
0.077793717 0.13951313 0.019456565 1.5005905e-38
0.077420831 0.14363784 0.020773977 1.4454527e-38
0.0765571 0.15267432 0.022825748 1.2336889e-38
0.075726926 0.15554288 0.022724509 1.1048298e-38
0.075261891 0.15928996 0.023195863 9.1136444e-39
0.075271904 0.16322011 0.023828119 8.0991632e-39
0.074239194 0.16685838 0.024919629 7.6399703e-39
0.072966397 0.17033112 0.024962544 7.2729969e-39
0.079716146 0.089762747 0.0057333708 1.1967428e-38
0.079381049 0.092842013 0.0056728125 1.2241879e-38
0.078363836 0.09657979 0.0053924918 1.15965e-38
0.078276455 0.10033923 0.0068494976 1.2054231e-38
0.078924775 0.10410894 0.0086017847 1.3620828e-38
0.077951014 0.1079448 0.0093551278 1.3897052e-38
0.076939881 0.11189148 0.0096276104 1.4357306e-38
0.076142013 0.11657822 0.0097479224 1.1964907e-38
0.076644957 0.12105349 0.011319935 1.1685058e-38
0.076187253 0.12473826 0.013012052 1.2240411e-38
0.076014221 0.12849057 0.014526606 1.2611348e-38
0.075767517 0.13107245 0.015112758 1.2795719e-38
0.073299587 0.15689102 0.020974845 8.7502597e-39
0.073052824 0.15947287 0.021561086 7.912621e-39
0.072682559 0.16334565 0.022440434 7.2694081e-39
0.072374165 0.16657297 0.023173153 6.9017004e-39
0.076940775 0.098079011 0.0042341053 9.0142952e-39
0.076817572 0.099368066 0.0045268238 9.1983291e-39
0.075215697 0.11612612 0.0083316565 1.030214e-38
0.11450881 0.15397389 0.063938677 1.9799422e-38
0.11332476 0.1550771 0.065046847 2.0718865e-38
0.11012989 0.15615538 0.063209355 1.7036381e-38
0.10737759 0.15442233 0.059465408 1.5840338e-38
0.10698539 0.15567301 0.059960783 1.7313305e-38
0.10548419 0.15470232 0.054814339 2.2843968e-38
0.10472023 0.15646219 0.056786299 2.2935816e-38
0.11483008 0.018340498 0.021663755 7.6439752e-39
0.10312897 0.15604943 0.052929759 2.3119522e-38
0.10140091 0.15714122 0.054746121 2.3124178e-38
0.11142063 0.015843958 0.020385921 5.1510961e-39
0.11204749 0.018973798 0.019746214 5.7021077e-39
0.112831 0.022105455 0.019466728 5.8900876e-39
0.10113674 0.15692666 0.051251352 2.2659618e-38
0.098756611 0.15851435 0.05121845 2.284041e-38
0.10842985 0.020035774 0.018213838 3.5877094e-39
0.10848039 0.022727326 0.018264353 4.7848163e-39
0.10908157 0.026391685 0.017154217 5.9830105e-39
0.097175062 0.15972322 0.049690783 2.2473407e-38
0.094781101 0.16105685 0.049202919 2.256669e-38
0.10567921 0.023276016 0.017123699 3.4965928e-39
0.10542393 0.028011322 0.016954094 5.0603494e-39
0.10583156 0.031049937 0.016171932 6.0787991e-39
0.10414422 0.03561902 0.015259504 1.0673793e-38
0.094974279 0.1615003 0.046657145 2.1371406e-38
0.091955006 0.16313982 0.044213146 2.0911136e-38
0.10215682 0.031936258 0.015719563 5.799341e-39
0.1010105 0.035809815 0.015115976 1.0858883e-38
0.10143596 0.039578721 0.014585972 1.2610248e-38
0.10165697 0.041674763 0.014756978 1.3160555e-38
0.09014833 0.16207512 0.042093813 1.9163367e-38
0.089823782 0.16386142 0.043427348 2.100404e-38
0.098620415 0.036970511 0.014576256 1.1966314e-38
0.09903717 0.04041186 0.013392955 1.2425519e-38
0.097559869 0.043801785 0.013567626 1.2885421e-38
0.08597827 0.16432171 0.041111112 1.9988448e-38
0.095215917 0.044334471 0.011672586 1.2332243e-38
