# .PCD v0.7 - Point Cloud Data file format
VERSION 0.7
FIELDS x y z rgb
SIZE 4 4 4 4
TYPE F F F F
COUNT 1 1 1 1
WIDTH 992
HEIGHT 1
VIEWPOINT 0 0 0 0 1 0 0
POINTS 992
DATA ascii
0.21329567 0.092609249 0.053114742 1.2428748e-38
0.21369806 0.097030975 0.053514212 1.1786981e-38
0.21340236 0.10085925 0.053870708 1.1784474e-38
0.21298927 0.10472392 0.054414302 1.2153966e-38
0.21290904 0.10831914 0.054137737 1.2798625e-38
0.20790857 0.068859175 0.053704411 1.9240069e-38
0.20860934 0.072355472 0.053662211 1.8046576e-38
0.20928359 0.076422013 0.052942961 1.7954382e-38
0.20984685 0.080395751 0.051931888 1.6757267e-38
0.20995629 0.083191082 0.051672786 1.6019724e-38
0.21012729 0.09441866 0.051057667 1.3072676e-38
0.21016854 0.097062059 0.051230699 1.2613509e-38
0.20973206 0.1007707 0.051485568 1.2429495e-38
0.20947725 0.10459453 0.051769525 1.2521698e-38
0.20931119 0.10840232 0.051913351 1.2888668e-38
0.20876485 0.11090695 0.051528305 1.3351806e-38
0.20474458 0.068461291 0.051863402 1.9148964e-38
0.20575622 0.072563082 0.050454587 1.7860776e-38
0.2062414 0.076535575 0.049905986 1.7584537e-38
0.20749265 0.098115362 0.049267918 1.3348206e-38
0.20668727 0.10079359 0.048788339 1.2889405e-38
0.20561019 0.10455199 0.049685031 1.2797933e-38
0.20548695 0.10834917 0.049757868 1.2798636e-38
0.20552504 0.11085179 0.049620837 1.3165619e-38
0.20087296 0.06532003 0.04978016 1.915076e-38
0.20194113 0.068209663 0.049579889 1.8873101e-38
0.20278943 0.072111487 0.048384577 1.7766413e-38
0.20285699 0.10438175 0.047038406 1.2980871e-38
0.2022472 0.10829401 0.0478504 1.3165275e-38
0.20228529 0.11079664 0.047713369 1.3260335e-38
0.19835949 0.065694235 0.048273653 1.8872747e-38
0.19851995 0.068179764 0.04795137 1.8411411e-38
0.19938278 0.072439559 0.046509296 1.7584885e-38
0.19890279 0.075935513 0.045615464 1.6754779e-38
0.19893652 0.10171125 0.043991774 1.3258189e-38
0.19992882 0.10425395 0.044673473 1.3074867e-38
0.19912958 0.10820907 0.045758516 1.3259619e-38
0.1995855 0.11075066 0.046123713 1.2986618e-38
0.1956597 0.065648265 0.046684057 1.8412498e-38
0.19515783 0.068141699 0.046229094 1.8045857e-38
0.19602746 0.072248146 0.045000225 1.7124978e-38
0.1955626 0.076265126 0.04373011 1.6202676e-38
0.19428802 0.079182774 0.042686373 1.5559446e-38
0.19576278 0.096512586 0.042451292 1.3533665e-38
0.19651681 0.10048256 0.043159693 1.3626612e-38
0.19614226 0.104329 0.043597788 1.3627323e-38
0.19591644 0.1078288 0.044145972 1.3627674e-38
0.1909031 0.064455301 0.043954402 1.8136622e-38
0.19137812 0.068077348 0.044003695 1.7491232e-38
0.19190323 0.071764171 0.043109387 1.6756548e-38
0.19190443 0.075938992 0.04220286 1.5926807e-38
0.19105807 0.079127789 0.040784687 1.5190318e-38
0.19233704 0.096799694 0.040993661 1.3352145e-38
0.19220048 0.10053944 0.041740507 1.3995732e-38
0.19193077 0.1043654 0.042015702 1.3904247e-38
0.19305831 0.10751207 0.042480141 1.3903906e-38
0.18755072 0.064884722 0.04194966 1.7677086e-38
0.18759838 0.068012998 0.041778356 1.7124251e-38
0.18815994 0.071695223 0.040841132 1.6479236e-38
0.18862104 0.076007932 0.040030748 1.5649851e-38
0.18870461 0.080085471 0.039335519 1.4728273e-38
0.18791366 0.084686585 0.0385755 1.3899964e-38
0.18823028 0.087809935 0.038563162 1.3165275e-38
0.18838647 0.092177749 0.038376778 1.362479e-38
0.18889657 0.096739985 0.038677484 1.32596e-38
0.18834549 0.10049235 0.039631158 1.3442552e-38
0.18814552 0.10394355 0.039810032 1.3627321e-38
0.18820816 0.108055 0.039584726 1.3536575e-38
0.18472493 0.068381079 0.040059894 1.6572162e-38
0.18479747 0.071657576 0.039118558 1.611191e-38
0.18548417 0.075938411 0.037991136 1.5466189e-38
0.18556646 0.080304883 0.037728935 1.4545307e-38
0.18555972 0.084059499 0.037614614 1.4176536e-38
0.18555319 0.087815814 0.037500471 1.344006e-38
0.18563253 0.091829017 0.037472337 1.3349293e-38
0.18500364 0.096217789 0.037815064 1.3258537e-38
0.18520769 0.10008098 0.038323373 1.3257828e-38
0.18221781 0.069172382 0.038530618 1.6477803e-38
0.18143231 0.071620516 0.037394375 1.6200875e-38
0.1818195 0.075949289 0.036700875 1.5373976e-38
0.18188667 0.080322228 0.036461562 1.4637134e-38
0.18194377 0.084070466 0.036256224 1.4084675e-38
0.18200085 0.087818697 0.036050886 1.3441849e-38
0.18154502 0.09166532 0.036570281 1.3258175e-38
0.18154758 0.096057214 0.036420971 1.2705723e-38
0.18267518 0.09920387 0.03688547 1.2983755e-38
0.17902568 0.072245508 0.036451846 1.5925725e-38
0.17822275 0.076234996 0.035723716 1.537434e-38
0.17806962 0.080360651 0.03537038 1.4635712e-38
0.17812681 0.084114589 0.035164744 1.4269788e-38
0.17837745 0.087833546 0.034687787 1.3809185e-38
0.17830563 0.091610171 0.034663051 1.3624786e-38
0.17829829 0.095376395 0.034547776 1.3073072e-38
0.17537934 0.080940343 0.03374657 1.4269093e-38
0.17434704 0.084050231 0.032939345 1.4453116e-38
0.17440423 0.087804168 0.032733768 1.4360203e-38
0.17478347 0.091438495 0.032725662 1.4084692e-38
0.17541534 0.095118821 0.032863706 1.3442927e-38
0.17163771 0.083378613 0.031384021 1.3716646e-38
0.17097175 0.086911745 0.03076604 1.3902094e-38
0.21159291 0.069433637 0.058941633 1.9246226e-38
0.21192843 0.075817384 0.058240145 1.777177e-38
0.2122761 0.081769176 0.057319909 1.6297729e-38
0.21117187 0.071351059 0.056729883 1.6294865e-38
0.20249313 0.10109685 0.047851533 1.2889747e-38
0.20672882 0.099112295 0.053118378 1.417905e-38
0.20953411 0.1102605 0.056286663 1.4734396e-38
0.20967078 0.061386611 0.060743421 2.1088316e-38
0.21031839 0.064951792 0.059896737 2.1086539e-38
0.21125913 0.068602934 0.058280975 1.8872763e-38
0.2114245 0.0717244 0.057921022 1.6571104e-38
0.21309072 0.11002386 0.056461722 1.289083e-38
0.2116935 0.11261112 0.056247741 1.3444733e-38
0.21086943 0.11662633 0.057443649 1.445889e-38
0.21001089 0.11923628 0.057545811 1.6207358e-38
0.20500392 0.058332201 0.058476001 2.0625918e-38
0.20630985 0.061128464 0.05809918 2.0441169e-38
0.20726067 0.064791031 0.056488484 2.0348963e-38
0.20812166 0.068172678 0.056199342 1.9425563e-38
0.20870695 0.071050733 0.05636099 1.7675998e-38
0.20838231 0.11288851 0.053630859 1.3904264e-38
0.20777777 0.11636447 0.054086357 1.4733668e-38
0.20669708 0.11998453 0.055285126 1.6482164e-38
0.2018472 0.057693232 0.056654781 2.0808143e-38
0.20283726 0.061024316 0.055346817 2.0254253e-38
0.20373696 0.064692169 0.053834945 1.9796134e-38
0.20485839 0.067220837 0.054335207 1.9794329e-38
0.20447284 0.11301411 0.051187724 1.3811702e-38
0.20416045 0.11625084 0.051572233 1.4546402e-38
0.20313731 0.12032627 0.053034395 1.5650612e-38
0.19895101 0.056625031 0.054530174 2.0627356e-38
0.19982269 0.060940985 0.053057224 1.9982335e-38
0.20084202 0.064224616 0.052157193 1.9428076e-38
0.20122322 0.1129588 0.049274415 1.3537273e-38
0.20072541 0.11624476 0.049934 1.4087567e-38
0.19987452 0.12027071 0.051113397 1.5005948e-38
0.19568855 0.056569491 0.052609354 2.0256045e-38
0.19662887 0.0608785 0.05104813 1.9611046e-38
0.19722813 0.063953966 0.050042778 1.8965307e-38
0.19781476 0.11263188 0.047284812 1.3537269e-38
0.19753215 0.11617279 0.04792586 1.4088289e-38
0.19661179 0.12021516 0.049192399 1.4730791e-38
0.19251883 0.056504153 0.050550073 1.961283e-38
0.19356 0.060802341 0.048855275 1.9059314e-38
0.19382787 0.064164951 0.048023611 1.850434e-38
0.19413459 0.10970113 0.04530099 1.3812057e-38
0.19434431 0.11231554 0.046033114 1.3903892e-38
0.19403163 0.11618281 0.046377271 1.4363072e-38
0.19363093 0.11976581 0.047185987 1.482369e-38
0.1891889 0.057087049 0.048710138 1.9426287e-38
0.18993181 0.060852408 0.046676666 1.9057867e-38
0.19145423 0.064064793 0.046629936 1.8597599e-38
0.19048172 0.10856342 0.043218881 1.3995742e-38
0.19084209 0.11232299 0.044483632 1.4364524e-38
0.1902771 0.11625812 0.045191318 1.4731498e-38
0.19021744 0.11937139 0.045629472 1.4730427e-38
0.1852113 0.057671465 0.046698183 1.8964955e-38
0.18588206 0.060584202 0.04496035 1.8597611e-38
0.18638653 0.063141987 0.043699592 1.8228466e-38
0.1870364 0.10581592 0.041361839 1.3628044e-38
0.18719211 0.10850026 0.041540831 1.3628763e-38
0.18687242 0.11230217 0.042498797 1.3903545e-38
0.18643445 0.11584121 0.043855697 1.4269453e-38
0.18770421 0.1188565 0.044412404 1.4454189e-38
0.18155184 0.057743855 0.044680268 1.8227746e-38
0.18188927 0.060708858 0.043656677 1.8044069e-38
0.18309224 0.064349219 0.041808635 1.7584156e-38
0.18247849 0.06725809 0.041132003 1.6847306e-38
0.18300092 0.10156458 0.039252549 1.3075236e-38
0.18364042 0.10453475 0.039698809 1.3259983e-38
0.18337989 0.10837662 0.03994599 1.3259962e-38
0.18261176 0.112351 0.040919095 1.3536545e-38
0.17862159 0.058198165 0.042922884 1.8413206e-38
0.17830843 0.060688868 0.042191893 1.8319933e-38
0.17932838 0.064354882 0.040621847 1.7216099e-38
0.17982596 0.067892611 0.03952691 1.6571438e-38
0.18032771 0.10083938 0.037722021 1.2981237e-38
0.18000489 0.10456585 0.038327545 1.3258184e-38
0.1794216 0.10848695 0.039025456 1.3075576e-38
0.1791352 0.11202673 0.039627463 1.3535471e-38
0.17449516 0.061069071 0.040305942 1.7952227e-38
0.17562115 0.064352535 0.039339513 1.6848762e-38
0.17639041 0.068037421 0.038137048 1.6479973e-38
0.17645925 0.071577251 0.03730616 1.5926445e-38
0.17573607 0.074881166 0.036668807 1.5558764e-38
0.17717287 0.098119244 0.036034554 1.2889743e-38
0.17721111 0.10062947 0.035897046 1.3073424e-38
0.17649293 0.10456829 0.036772698 1.3166707e-38
0.17579725 0.10835828 0.037622422 1.3260322e-38
0.17535233 0.11139836 0.037602156 1.3536556e-38
0.17181629 0.061359592 0.038707167 1.7584177e-38
0.17216653 0.064320162 0.037691504 1.6941314e-38
0.1728771 0.068015538 0.036583096 1.6203391e-38
0.17332551 0.071733184 0.035835356 1.5558722e-38
0.17358875 0.076099396 0.035324544 1.5005932e-38
0.17321473 0.079982877 0.034856349 1.4360567e-38
0.17354622 0.097011842 0.033966035 1.3902445e-38
0.17396146 0.10057416 0.033983797 1.3718404e-38
0.17323679 0.10451285 0.034855515 1.3627657e-38
0.17251241 0.10846592 0.035726577 1.3261386e-38
0.17235518 0.11103223 0.035857707 1.3629102e-38
0.16844594 0.064318448 0.036401421 1.6849842e-38
0.16942474 0.067984469 0.034936219 1.5925384e-38
0.16952398 0.071844995 0.034244746 1.5097061e-38
0.16964889 0.076056033 0.033294111 1.4176904e-38
0.16986445 0.080427758 0.032851726 1.32571e-38
0.1690734 0.084357925 0.032134563 1.3258184e-38
0.1692633 0.088364534 0.031991154 1.381098e-38
0.16989049 0.091835387 0.032139748 1.3902094e-38
0.17025399 0.095850386 0.032098144 1.390282e-38
0.1696288 0.10022791 0.032197744 1.4270518e-38
0.16978145 0.10432364 0.032790571 1.3996077e-38
0.16938072 0.10838056 0.033626348 1.3719853e-38
0.16909081 0.11097666 0.033935696 1.4088293e-38
0.16620409 0.064289227 0.035210043 1.6849122e-38
0.16548121 0.068645827 0.03392455 1.564881e-38
0.16486263 0.07166563 0.033314317 1.4361277e-38
0.16525751 0.076077625 0.031865269 1.224507e-38
0.16593981 0.080383711 0.030798048 1.1322433e-38
0.1660639 0.084139757 0.030502468 1.1415363e-38
0.16585487 0.087952241 0.03065291 1.2338006e-38
0.16551316 0.091794297 0.03098163 1.2705708e-38
0.16563767 0.095553316 0.030686051 1.2890116e-38
0.16532218 0.10003307 0.030957192 1.372058e-38
0.16548434 0.10454322 0.031637341 1.4088646e-38
0.16614428 0.10798533 0.032388538 1.4180478e-38
0.16056341 0.068920046 0.031587571 1.1596856e-38
0.16094553 0.071752444 0.031503171 1.0212142e-38
0.16164976 0.0760732 0.030415863 9.0182707e-39
0.16215283 0.08041136 0.029596061 8.0062893e-39
0.16227692 0.084172688 0.029300243 7.6421704e-39
0.16186488 0.088024631 0.029716045 8.5619644e-39
0.16145337 0.09188544 0.03013137 9.8490963e-39
0.16157815 0.095652282 0.029835612 1.0220044e-38
0.16157311 0.099504225 0.030232996 1.1418579e-38
0.16245639 0.10393097 0.030471712 1.3625519e-38
0.15735054 0.068676278 0.029707998 1.3162001e-38
0.15761426 0.071705952 0.029670388 1.2609181e-38
0.15813738 0.076053955 0.028829783 1.1504987e-38
0.15835702 0.080438659 0.028389066 9.3833986e-39
0.15868437 0.084171727 0.027827352 7.6360046e-39
0.15847206 0.087992169 0.027975231 6.7194293e-39
0.15852961 0.091768928 0.027768344 6.9038206e-39
0.15856156 0.098192446 0.028540224 8.3746963e-39
0.15538999 0.068516843 0.028561741 1.4267617e-38
0.15543798 0.071668901 0.028389066 1.4359799e-38
0.15496111 0.076072514 0.027826935 1.2615653e-38
0.15461791 0.080320835 0.027353615 9.6678832e-39
0.15495068 0.084192172 0.026527971 7.2747681e-39
0.15569526 0.087731749 0.02602163 5.9808287e-39
0.15611994 0.091667332 0.025772065 5.9833286e-39
0.15563631 0.095316462 0.025835544 7.4548518e-39
0.1558412 0.098146133 0.026938587 8.4661381e-39
0.1523656 0.084221527 0.025776297 5.6152972e-39
0.1126616 0.12009989 6.917119e-05 1.3441123e-38
0.11268082 0.1213607 0 1.3073781e-38
0.18860334 0.10220271 0.043614596 1.307522e-38
0.19476658 0.093141325 0.047762662 1.5653457e-38
0.19267026 0.071742326 0.046775669 1.6018283e-38
0.1907472 0.10539854 0.04238227 1.390317e-38
0.19618785 0.094778679 0.049950629 1.6206273e-38
0.20720863 0.05338195 0.064743191 2.0353281e-38
0.20850003 0.056954049 0.063048452 2.0905371e-38
0.2096836 0.060129654 0.063447207 2.0905373e-38
0.20945144 0.12124354 0.059911638 1.6115887e-38
0.20795038 0.12364724 0.060700208 1.7220054e-38
0.20440918 0.05317669 0.062523574 2.0629847e-38
0.20537317 0.056516241 0.061135143 2.1086892e-38
0.20626163 0.12202191 0.057482272 1.7766775e-38
0.2050398 0.1243877 0.058548599 1.8326753e-38
0.20057255 0.052707069 0.059825271 2.0535858e-38
0.20166308 0.055477764 0.059013039 2.0994318e-38
0.20194092 0.12464625 0.055929035 1.7403037e-38
0.2019875 0.12735003 0.056946844 1.8137723e-38
0.19533569 0.049882758 0.057962984 1.9062188e-38
0.19725895 0.052364863 0.057259649 2.0074537e-38
0.19823635 0.12454563 0.053491861 1.6112289e-38
0.19760871 0.12727547 0.054368764 1.6571464e-38
0.19259897 0.049836162 0.056351691 1.9153677e-38
0.19416586 0.052292526 0.055052191 1.9984849e-38
0.19501904 0.12447196 0.051469594 1.5468355e-38
0.19432467 0.12721956 0.052435249 1.5745659e-38
0.18986225 0.04978957 0.054740399 1.8969959e-38
0.19089055 0.052236766 0.053123802 1.9429517e-38
0.19148281 0.12437239 0.050213724 1.5191756e-38
0.19213527 0.12718229 0.051146179 1.5379374e-38
0.18749011 0.052191921 0.051379234 1.9060375e-38
0.18777829 0.054699536 0.050872654 1.9334453e-38
0.18852139 0.12140379 0.04705748 1.4730791e-38
0.1881488 0.1237509 0.04854849 1.4917345e-38
0.18371034 0.052180611 0.050184041 1.869195e-38
0.18451369 0.055276103 0.04891023 1.9057157e-38
0.18492132 0.1178657 0.045159608 1.41769e-38
0.18508911 0.12063706 0.045663208 1.4455627e-38
0.18453479 0.1237226 0.046651155 1.4825124e-38
0.18061617 0.052281156 0.048255652 1.8323882e-38
0.18051508 0.055418737 0.046542495 1.8412136e-38
0.18157065 0.11656021 0.043382734 1.3903903e-38
0.18134481 0.12058656 0.044685215 1.4364521e-38
0.17651537 0.052701801 0.046100646 1.8504673e-38
0.17677817 0.056029409 0.044299334 1.8505026e-38
0.17722368 0.11394176 0.040869325 1.3811705e-38
0.17774022 0.11668465 0.041580409 1.4180132e-38
0.17735624 0.12056343 0.042656988 1.4547465e-38
0.17240506 0.053296655 0.044219643 1.8596888e-38
0.17323017 0.056391086 0.042958647 1.8597237e-38
0.17440099 0.059950404 0.042647213 1.8505026e-38
0.17470571 0.11339318 0.039419085 1.381172e-38
0.17421088 0.11650671 0.039574653 1.40883e-38
0.17353356 0.11973215 0.040416449 1.4180113e-38
0.16980535 0.056533881 0.041422695 1.8504328e-38
0.17012471 0.059772238 0.040136129 1.7861131e-38
0.17121124 0.11320725 0.037369758 1.3904614e-38
0.17054269 0.11654889 0.038183361 1.3995733e-38
0.17012545 0.11919896 0.038672715 1.4180853e-38
0.16631067 0.057329863 0.039869457 1.7859664e-38
0.16693032 0.060057625 0.038621336 1.7125351e-38
0.16773963 0.11319909 0.035710126 1.418049e-38
0.16725945 0.1161655 0.036981851 1.4272677e-38
0.16371512 0.057587057 0.038820237 1.7583074e-38
0.16347924 0.060828738 0.037166268 1.7400496e-38
0.16337562 0.064398445 0.035860211 1.7123901e-38
0.16342378 0.067560002 0.035687 1.6296665e-38
0.16388059 0.10950027 0.033282191 1.436489e-38
0.16426551 0.11243183 0.034339577 1.4455635e-38
0.16459405 0.11530051 0.035658628 1.4824767e-38
0.15989649 0.061264571 0.03536436 1.6112622e-38
0.16058034 0.064359389 0.034343034 1.4453474e-38
0.1606952 0.067513555 0.034080535 1.3993919e-38
0.16011417 0.10100751 0.031601995 1.1329256e-38
0.16071767 0.10481068 0.031715482 1.2798272e-38
0.16085339 0.10871924 0.032450587 1.3535114e-38
0.16109338 0.11180963 0.033428699 1.3995009e-38
0.15662444 0.064309105 0.032271236 1.3620833e-38
0.15697864 0.067070991 0.031916469 1.2977275e-38
0.15681195 0.10019433 0.029996723 8.9260582e-39
0.15776742 0.10354245 0.030443698 1.0213948e-38
0.15739167 0.1074981 0.031326383 1.1415325e-38
0.15355909 0.061429799 0.032584697 1.3714093e-38
0.15266138 0.064729899 0.030875713 1.196492e-38
0.15248668 0.067861497 0.029714853 9.8487404e-39
0.1521982 0.072118863 0.029705077 1.0314375e-38
0.15167904 0.075641207 0.029019147 7.4584741e-39
0.1521565 0.080011137 0.028247029 5.2439896e-39
0.15402657 0.099771485 0.029252738 9.2022612e-39
0.15455824 0.10308271 0.030518085 1.0210692e-38
0.1500822 0.076327585 0.029002458 6.8001455e-39
0.15091091 0.08001484 0.027802736 5.7027943e-39
0.12133425 0.11329591 0.010269552 1.758307e-38
0.12228668 0.11576108 0.010028094 1.6012539e-38
0.122271 0.1195804 0.0099045932 1.5651338e-38
0.12194079 0.12291017 0.0097817481 1.842044e-38
0.1188181 0.11320212 0.0084038079 1.6846597e-38
0.1195204 0.11559238 0.0075028241 1.528107e-38
0.11920989 0.1194744 0.007718116 1.4639315e-38
0.11859012 0.12303168 0.008030206 1.6113004e-38
0.11770564 0.12654918 0.007284075 1.9061492e-38
0.11639848 0.11257783 0.0074039996 1.5093813e-38
0.11599219 0.1157817 0.006087929 1.5833894e-38
0.11559522 0.11913054 0.0061800778 1.6384898e-38
0.1160621 0.12320178 0.0054945052 1.6576132e-38
0.11624283 0.12631291 0.0064363778 1.9887993e-38
0.11262017 0.11600077 0.0049570501 1.5097398e-38
0.11205626 0.11945139 0.0042106211 1.4453828e-38
0.11258385 0.12302012 0.0035836399 1.5287181e-38
0.16548121 0.068645827 0.03392455 1.564881e-38
0.19631934 0.075210497 0.048501819 1.5743846e-38
0.19954711 0.092048533 0.048005491 1.2705713e-38
0.18309224 0.064349219 0.041808635 1.7584156e-38
0.19638488 0.049519397 0.06186071 1.3813507e-38
0.20732021 0.12570095 0.06318745 1.7773212e-38
0.20644599 0.12910776 0.063451201 1.8695558e-38
0.20539826 0.13192257 0.063318104 2.0169253e-38
0.20205277 0.045101069 0.066493481 1.4643226e-38
0.20270604 0.048877433 0.065346032 1.8051986e-38
0.20304203 0.051397599 0.064737529 1.9525307e-38
0.20491067 0.12604761 0.061079711 1.8787723e-38
0.20357257 0.12920558 0.061510175 1.8879944e-38
0.20319578 0.13188508 0.062021285 1.9896617e-38
0.1986503 0.045402851 0.064356595 1.713181e-38
0.19952923 0.048811354 0.063218027 1.8511167e-38
0.20029706 0.051350869 0.063121349 1.9249083e-38
0.20066339 0.12918964 0.058955461 1.8323906e-38
0.20007142 0.1317727 0.059798092 1.9245492e-38
0.19356632 0.041784044 0.062086672 1.4826944e-38
0.19508058 0.044966437 0.062001914 1.7127878e-38
0.1958158 0.048634086 0.061074227 1.8419691e-38
0.19703466 0.12938333 0.056737989 1.7307946e-38
0.19603759 0.13176322 0.05780682 1.7679947e-38
0.19081315 0.041737173 0.060465664 1.5470876e-38
0.19147503 0.044883862 0.059363633 1.6850583e-38
0.1920962 0.048311491 0.058644027 1.8418242e-38
0.19307047 0.12950829 0.054262668 1.6021174e-38
0.19273379 0.13170695 0.055861682 1.6481076e-38
0.18778956 0.042004623 0.058665186 1.6206628e-38
0.18805283 0.04483632 0.057606429 1.7312617e-38
0.18862683 0.047981113 0.056646377 1.869445e-38
0.18881345 0.12619752 0.051575154 1.5099175e-38
0.1894682 0.12902099 0.052507967 1.528503e-38
0.18421531 0.042262696 0.056540459 1.6479957e-38
0.18462861 0.044788331 0.055848151 1.7957259e-38
0.1852484 0.048568223 0.054809958 1.8694818e-38
0.18633819 0.1258374 0.050138026 1.4639298e-38
0.18608785 0.12855491 0.051312119 1.454819e-38
0.18124336 0.045376278 0.05400762 1.8139863e-38
0.18189007 0.048517045 0.052961498 1.8140923e-38
0.18317714 0.12582606 0.048564881 1.473292e-38
0.18278033 0.12811756 0.049521953 1.4549262e-38
0.17784679 0.04532681 0.052201122 1.8414287e-38
0.17859358 0.048460919 0.051020592 1.8415001e-38
0.17778856 0.05096766 0.04986909 1.8047299e-38
0.17966181 0.12499252 0.046689898 1.4915869e-38
0.17881152 0.12811872 0.047645897 1.4822976e-38
0.17436227 0.04592206 0.050495297 1.8781641e-38
0.17491302 0.048434239 0.049626499 1.8596887e-38
0.17559257 0.050930277 0.048576206 1.8596514e-38
0.17652476 0.12477305 0.044805139 1.463823e-38
0.175834 0.12810241 0.046123177 1.4917685e-38
0.17120367 0.049048234 0.048239142 1.8596171e-38
0.17148727 0.051655322 0.046108514 1.841249e-38
0.17228082 0.12178236 0.04210487 1.3812048e-38
0.17243791 0.12477382 0.042878896 1.4547464e-38
0.16726238 0.049628291 0.046071082 1.8411763e-38
0.16786063 0.052076966 0.044071585 1.8411767e-38
0.1668669 0.054597422 0.043195516 1.8411778e-38
0.16860843 0.12102708 0.040713519 1.4088289e-38
0.16804361 0.12421487 0.041388363 1.4272315e-38
0.16450921 0.049581423 0.044450134 1.8042263e-38
0.16403913 0.052064732 0.042851776 1.7858597e-38
0.16445905 0.055065192 0.041745454 1.8135893e-38
0.16490126 0.11773504 0.038010031 1.4547824e-38
0.16508698 0.12086873 0.039082497 1.4363781e-38
0.16481525 0.12389635 0.039891928 1.4456327e-38
0.16061592 0.052481517 0.041775018 1.8229895e-38
0.16094321 0.056175817 0.040065914 1.7954019e-38
0.16035652 0.059574187 0.039037973 1.7494846e-38
0.16118965 0.11428012 0.036041111 1.4270515e-38
0.16211683 0.11701851 0.036558777 1.4546736e-38
0.16185051 0.12046977 0.037780255 1.4731128e-38
0.15755749 0.056591373 0.038845688 1.66651e-38
0.15816057 0.059536804 0.037745088 1.6481767e-38
0.15861475 0.11338834 0.034579247 1.2796473e-38
0.15858245 0.11657248 0.035519749 1.3073058e-38
0.15897048 0.1196508 0.03671506 1.3717361e-38
0.15403631 0.057392184 0.037276417 1.4543502e-38
0.15486664 0.059480727 0.035805792 1.4359114e-38
0.15507329 0.10908838 0.032764405 1.1230569e-38
0.15507734 0.11256497 0.03349641 1.11384e-38
0.15461755 0.11636166 0.034163505 1.1783402e-38
0.15126008 0.057837486 0.035721153 1.3624037e-38
0.15100068 0.060475834 0.034159571 1.297869e-38
0.15053284 0.063222647 0.033010811 1.1692645e-38
0.15105021 0.10152228 0.032036513 9.4784963e-39
0.15188348 0.10402866 0.031903058 1.0862861e-38
0.15162903 0.1079173 0.032099456 1.1691546e-38
0.1515854 0.11163735 0.032288581 1.1784103e-38
0.15163609 0.11518855 0.032673389 1.1969592e-38
0.14818466 0.062060528 0.034025282 1.0392597e-38
0.14882919 0.063907325 0.033125013 9.3780975e-39
0.14797109 0.071876511 0.032401413 7.9097427e-39
0.1470843 0.075659335 0.03134647 7.0832106e-39
0.14748108 0.07906945 0.030200273 5.8886429e-39
0.13802713 0.11801853 0.02446565 1.6482856e-38
0.13695014 0.11959483 0.023729831 1.9059625e-38
0.1296899 0.11277379 0.019882411 1.54651e-38
0.12941003 0.11608586 0.019506127 1.7397647e-38
0.12930447 0.12361071 0.018963963 1.9604844e-38
0.12577721 0.10888007 0.017822772 1.8782688e-38
0.12699315 0.11206049 0.017562181 1.8872029e-38
0.12742528 0.11622908 0.017744988 1.9515985e-38
0.12716132 0.12048354 0.017463356 2.2473788e-38
0.12348714 0.10796641 0.016336471 1.9702154e-38
0.12415063 0.11203023 0.015167564 1.9517404e-38
0.12417459 0.11625947 0.014566034 1.8870256e-38
0.12401539 0.12012848 0.014613003 1.9891614e-38
0.12411237 0.12649676 0.014264077 2.1539184e-38
0.12021261 0.10495822 0.014790505 2.0534755e-38
0.12027159 0.10753471 0.013921291 2.053298e-38
0.12054628 0.11124907 0.013035923 1.9701067e-38
0.12100366 0.12440711 0.01169154 2.0356545e-38
0.12075824 0.12631078 0.011425346 2.2467966e-38
0.11651027 0.10755183 0.012005359 1.7952234e-38
0.11701056 0.11103321 0.010576695 1.794899e-38
0.11799389 0.12499181 0.0098789632 1.7769331e-38
0.11783674 0.12668501 0.009678334 1.8785942e-38
0.11311275 0.10866445 0.010366291 1.2239361e-38
0.11352354 0.11135051 0.0084608495 1.3896712e-38
0.11289799 0.11472984 0.0075275004 1.5648426e-38
0.11409286 0.1211097 0.007825464 1.5833525e-38
0.11063349 0.11255402 0.0066628158 1.41758e-38
0.11027834 0.11570277 0.0059203207 1.463463e-38
0.11050507 0.11977673 0.0057941973 1.3993577e-38
0.17810541 0.083913177 0.035126239 1.4268731e-38
0.18370417 0.083980463 0.038718492 1.3902101e-38
0.19828206 0.095334277 0.047597378 1.3165963e-38
0.2000829 0.092778243 0.049912959 1.4823693e-38
0.17439663 0.054231681 0.047042459 1.5742058e-38
0.20056653 0.041363414 0.06895563 9.8548276e-39
0.20206892 0.13417143 0.06373021 2.0997222e-38
0.19625273 0.034945652 0.068758518 9.1155068e-39
0.19635171 0.037509643 0.068524092 1.0957226e-38
0.19725126 0.041306976 0.067003757 1.3535847e-38
0.19856215 0.043829028 0.066065997 1.5380121e-38
0.19857532 0.13417241 0.062057048 2.007309e-38
0.19264746 0.034563437 0.066656202 1.0776428e-38
0.19315016 0.037446525 0.066381365 1.2523836e-38
0.19419679 0.041076154 0.065327615 1.4459947e-38
0.19498676 0.13420071 0.060519844 1.8233127e-38
0.19071364 0.034851342 0.06549713 1.1509318e-38
0.18934375 0.037504256 0.064308614 1.2983027e-38
0.18968123 0.039926335 0.063401848 1.4275917e-38
0.19123378 0.13382354 0.057684213 1.6665107e-38
0.18948844 0.13621183 0.058311194 1.6575064e-38
0.18634099 0.038626824 0.062677234 1.3626976e-38
0.18581921 0.040355362 0.060631305 1.5563412e-38
0.18748128 0.13335353 0.055630058 1.5745654e-38
0.18671882 0.13616467 0.05668059 1.6202331e-38
0.18290621 0.04069452 0.058526009 1.6297715e-38
0.18444493 0.13046578 0.052214414 1.4916246e-38
0.18410254 0.13331616 0.053768665 1.5469406e-38
0.18339536 0.1361081 0.054723889 1.6479976e-38
0.17959821 0.041382596 0.056863159 1.7125704e-38
0.18036425 0.04351921 0.055351704 1.7587408e-38
0.18040866 0.13337205 0.052361399 1.5468349e-38
0.18007189 0.13605151 0.052767128 1.7035298e-38
0.17569244 0.041624472 0.055429727 1.7859693e-38
0.17667347 0.043487281 0.05395177 1.8043719e-38
0.17836505 0.13013071 0.049230963 1.5010964e-38
0.17712998 0.13318539 0.050633043 1.5838924e-38
0.17785627 0.13601379 0.051462561 1.6574338e-38
0.17226997 0.041916363 0.054167658 1.9057132e-38
0.17298746 0.044094872 0.052514046 1.9057136e-38
0.17421436 0.13014786 0.047362894 1.4916972e-38
0.17336628 0.13208744 0.049064606 1.5468714e-38
0.16978228 0.042194836 0.052682489 1.969926e-38
0.16929436 0.044704031 0.051071912 1.9333728e-38
0.17049652 0.047184028 0.049297541 1.8873129e-38
0.17135584 0.12908244 0.045357138 1.4732926e-38
0.17033786 0.13226792 0.046685249 1.5929692e-38
0.16575083 0.04483442 0.04970023 1.9148993e-38
0.16661137 0.047808748 0.048128635 1.8689078e-38
0.16725695 0.12651029 0.043491036 1.4641098e-38
0.16739416 0.12920718 0.044304341 1.5102793e-38
0.16662216 0.13245043 0.044830769 1.6024382e-38
0.16208607 0.045913741 0.047905833 1.8686929e-38
0.16281697 0.048230231 0.046008915 1.8226664e-38
0.16394472 0.12590888 0.041343242 1.4641101e-38
0.1638805 0.12920508 0.042619377 1.5286829e-38
0.16339588 0.13191769 0.043194383 1.583892e-38
0.15855116 0.048713297 0.045060843 1.7952583e-38
0.16005462 0.12174611 0.038383812 1.4546386e-38
0.15961495 0.12513763 0.040127844 1.4823337e-38
0.16034701 0.12911582 0.041574627 1.5745275e-38
0.15438998 0.049632635 0.043129176 1.6199795e-38
0.15529919 0.052126843 0.041826874 1.6203751e-38
0.15517271 0.054588765 0.039786547 1.5837147e-38
0.15661195 0.12004638 0.037125975 1.2429105e-38
0.15608418 0.12406989 0.039215893 1.3077028e-38
0.15217435 0.049594909 0.041824609 1.592177e-38
0.15162599 0.052274596 0.040603548 1.5280717e-38
0.15226755 0.055101126 0.038970441 1.4635353e-38
0.15301675 0.11996115 0.036155015 1.0217862e-38
0.15328863 0.12276244 0.037816256 9.9391241e-39
0.14873731 0.052938022 0.039196461 1.4726079e-38
0.14863288 0.056232676 0.037817448 1.3622605e-38
0.14863318 0.059587844 0.035610348 1.2426953e-38
0.14932406 0.10495456 0.033125132 1.1413872e-38
0.14945054 0.11326114 0.032669991 1.1971736e-38
0.15005064 0.11646537 0.032819659 1.2798642e-38
0.1494118 0.11985027 0.034843177 1.1229478e-38
0.14570332 0.061034516 0.037278205 1.0945394e-38
0.14470854 0.065060072 0.03550449 9.842272e-39
0.14477634 0.068632923 0.035084158 7.9054211e-39
0.14551902 0.07231088 0.032962292 7.5406126e-39
0.14570856 0.10475843 0.033911735 1.07671e-38
0.14627588 0.10830349 0.032792956 1.178197e-38
0.14653987 0.11209957 0.032319039 1.1693715e-38
0.14625639 0.11602049 0.032547802 1.2704285e-38
0.14517543 0.11987438 0.033214897 1.2243288e-38
0.14250696 0.069321603 0.034864336 9.7508064e-39
0.14203304 0.072666526 0.03387323 9.7522302e-39
0.14203024 0.076150909 0.033420891 8.7434746e-39
0.14328331 0.079500735 0.033510476 7.5427833e-39
0.14195624 0.1058865 0.032207996 1.0765672e-38
0.14220196 0.10840911 0.031804472 1.1412823e-38
0.14267486 0.11216625 0.031068593 1.1783042e-38
0.14266467 0.11602769 0.030945569 1.2611016e-38
0.14237875 0.11995661 0.031172425 1.344109e-38
0.14221039 0.12257384 0.03129378 1.0952194e-38
0.13918668 0.10583935 0.030577332 1.1044381e-38
0.13888031 0.10835256 0.029848784 1.1502849e-38
0.13928682 0.11212491 0.029201895 1.1780868e-38
0.13941491 0.11595497 0.02890411 1.2979442e-38
0.14056629 0.11937786 0.027330071 1.6298781e-38
0.13420147 0.10575448 0.02764222 1.1961667e-38
0.13569903 0.10826632 0.027719408 1.1871262e-38
0.13603777 0.11205325 0.027160913 1.1688315e-38
0.13649964 0.11582386 0.025713056 1.3071285e-38
0.1368762 0.12020167 0.024810344 1.7033499e-38
0.13581997 0.12324993 0.023993045 1.5548286e-38
0.13309363 0.10573562 0.026989967 1.1961678e-38
0.13208681 0.10829682 0.025387079 1.2239347e-38
0.13259184 0.11189524 0.02436313 1.2607049e-38
0.1329104 0.11546814 0.023238093 1.3436479e-38
0.13260818 0.11974707 0.023252159 1.906181e-38
0.13162851 0.1232419 0.023459107 1.776347e-38
0.12866235 0.10566018 0.024380952 1.2605233e-38
0.12846246 0.10811149 0.02320233 1.3530443e-38
0.12973085 0.1112828 0.021164507 1.454279e-38
0.1302951 0.11523472 0.021245271 1.4907991e-38
0.12969157 0.12015498 0.020786852 2.182658e-38
0.13031521 0.12379501 0.020711273 1.7118053e-38
0.12457851 0.10530608 0.021762103 1.4633208e-38
0.12557065 0.10768195 0.020748883 1.5833874e-38
0.12736335 0.11096871 0.019787997 1.7304354e-38
0.12748986 0.11927529 0.019332975 2.2198644e-38
0.12140465 0.10427491 0.019025475 1.6476379e-38
0.12282404 0.10693996 0.018142551 1.7677812e-38
0.11863327 0.1016395 0.01872167 1.8963893e-38
0.11887687 0.10377389 0.016403645 2.0347872e-38
0.11364809 0.10155462 0.015786558 1.8317783e-38
0.1151233 0.1039618 0.014952868 1.8872409e-38
0.11516333 0.10628938 0.01289019 1.7859333e-38
0.11122483 0.10420576 0.013897449 1.1216623e-38
0.11181065 0.10694135 0.012498885 1.2239356e-38
0.11078089 0.10813119 0.010187775 1.2051726e-38
0.17719001 0.087193534 0.036450654 1.4546757e-38
0.17794994 0.078138672 0.035872132 1.4821907e-38
0.18834549 0.10049235 0.039631158 1.3442552e-38
0.18564278 0.10783497 0.040850312 1.3626963e-38
0.19944137 0.13760704 0.06777516 2.2284722e-38
0.19737709 0.13984802 0.068546206 2.1736576e-38
0.19673032 0.13734613 0.064836055 2.0444031e-38
0.19515491 0.14045659 0.067196578 2.0902157e-38
0.19257432 0.032859746 0.067884535 9.7640781e-39
0.19339699 0.13728938 0.062873513 1.8509021e-38
0.19207835 0.14031067 0.064809948 2.0076315e-38
0.18673551 0.027192021 0.069452792 8.745606e-39
0.18726414 0.029762961 0.068567008 9.5739303e-39
0.18848097 0.033422954 0.066306204 1.0957588e-38
0.19017792 0.13740012 0.061200112 1.7589206e-38
0.18873274 0.14025372 0.062840074 1.9061799e-38
0.18410295 0.030239012 0.067240566 1.0311144e-38
0.18441099 0.033563532 0.065737456 1.1416779e-38
0.18479237 0.037202097 0.06330803 1.3075576e-38
0.18655473 0.13787723 0.059187621 1.7404097e-38
0.18551129 0.14048928 0.061007947 1.8507905e-38
0.18065643 0.030966967 0.065626353 1.2150746e-38
0.18025291 0.03365555 0.064519197 1.2795401e-38
0.18104297 0.037193123 0.061852843 1.4362708e-38
0.18313187 0.13766465 0.056213349 1.7309741e-38
0.18212408 0.13946363 0.058798581 1.8321722e-38
0.17646819 0.034250364 0.062713891 1.4822616e-38
0.17667669 0.037300576 0.060937077 1.6112284e-38
0.17748427 0.039800011 0.05854103 1.7034948e-38
0.17952693 0.13751069 0.053515345 1.730867e-38
0.17812884 0.1394268 0.056638032 1.7766759e-38
0.17346132 0.034722909 0.061142772 1.5836407e-38
0.17282918 0.037268259 0.059703141 1.7218983e-38
0.17394733 0.039794005 0.058005482 1.7585632e-38
0.1750499 0.13486405 0.051043361 1.65747e-38
0.17539835 0.13711149 0.052268296 1.721791e-38
0.17465064 0.13964354 0.054281861 1.8229895e-38
0.16936612 0.03759712 0.058211833 1.9240802e-38
0.16978341 0.040282097 0.056758553 1.9333002e-38
0.17309368 0.13386685 0.049953014 1.6114086e-38
0.17113417 0.13674885 0.05181095 1.7310819e-38
0.17115039 0.13940151 0.053104788 1.8324959e-38
0.1657033 0.038146071 0.056348413 2.0070539e-38
0.16662395 0.040833063 0.054685384 1.9978714e-38
0.16949475 0.13425538 0.047805399 1.6943112e-38
0.16760069 0.13727969 0.05037114 1.7587406e-38
0.16347611 0.038431354 0.055016547 2.0439313e-38
0.16337675 0.040941816 0.052859873 1.9793272e-38
0.16367471 0.043420531 0.05016461 1.9147213e-38
0.16616765 0.13428444 0.045841008 1.6577907e-38
0.16444403 0.13673456 0.04815641 1.7220422e-38
0.15955406 0.04129418 0.05185619 1.9423768e-38
0.1608732 0.044062436 0.04963389 1.8872033e-38
0.16283599 0.1340135 0.043893129 1.620771e-38
0.15599707 0.041859265 0.050386399 1.8874182e-38
0.15682146 0.044694629 0.048624724 1.8414267e-38
0.1576314 0.047173269 0.046360642 1.8047292e-38
0.15833938 0.13008133 0.041491598 1.5379359e-38
0.15869528 0.13289642 0.043072253 1.5838919e-38
0.15796578 0.13563438 0.044405371 1.5841448e-38
0.15274787 0.044685118 0.047643632 1.7951893e-38
0.15371174 0.047801211 0.045171231 1.6751175e-38
0.15419632 0.12508416 0.039366394 1.1786648e-38
0.15533781 0.12864283 0.0409756 1.2704276e-38
0.15435183 0.13247475 0.042475075 1.1419634e-38
0.15379283 0.13522756 0.043132573 1.0403327e-38
0.14935946 0.044804145 0.045992643 1.7952964e-38
0.1501618 0.04799033 0.043840557 1.6571781e-38
0.14936912 0.050888237 0.041250259 1.5742749e-38
0.15145823 0.12434139 0.037798733 7.5456377e-39
0.15128583 0.12845412 0.040277034 6.9917352e-39
0.15060675 0.13252914 0.041037649 6.6265513e-39
0.1468538 0.045905244 0.044735283 1.7492678e-38
0.14645278 0.048597708 0.043309659 1.6662177e-38
0.14589456 0.051413443 0.042267829 1.5283916e-38
0.14733839 0.12456247 0.037389308 6.7155085e-39
0.14808112 0.12836117 0.038134247 6.8113111e-39
0.14812219 0.13239774 0.03899917 6.7212734e-39
0.14348364 0.05261974 0.042028397 1.4638195e-38
0.14277861 0.056893513 0.040584296 1.3254909e-38
0.14224663 0.061031051 0.039060026 1.1872363e-38
0.1429081 0.063630328 0.036626667 1.2236476e-38
0.14132732 0.081906557 0.038017064 6.5318473e-39
0.14134699 0.083197802 0.037946373 6.5318431e-39
0.14366329 0.10122933 0.037465125 8.3739564e-39
0.14351499 0.10348216 0.034443468 9.7529574e-39
0.1453841 0.12102664 0.035589963 1.1410979e-38
0.14465213 0.12347191 0.036455601 7.6385228e-39
0.13915089 0.057584234 0.039280802 1.6386678e-38
0.13836873 0.061250221 0.038364083 1.445024e-38
0.13904953 0.065059252 0.037360221 1.2608829e-38
0.14009184 0.068586752 0.035313815 1.1783e-38
0.13970694 0.071929693 0.034209281 1.1138403e-38
0.13979506 0.077714637 0.033892304 9.8501571e-39
0.13858545 0.080782652 0.036803693 9.0207524e-39
0.13863248 0.084011517 0.037223428 8.1006065e-39
0.13914728 0.10147647 0.036209971 9.0164476e-39
0.14068475 0.10421229 0.033890158 1.0212134e-38
0.13533247 0.058637235 0.037127465 1.7586684e-38
0.13481385 0.06121403 0.036657244 1.5925356e-38
0.13501203 0.065077946 0.036269337 1.4084669e-38
0.13576716 0.068874627 0.035180718 1.2705329e-38
0.13652152 0.072657995 0.034092516 1.2058901e-38
0.13630205 0.076562181 0.034230918 1.1598613e-38
0.13545734 0.080561653 0.035157114 1.0586587e-38
0.13514858 0.083197571 0.035452932 1.0033116e-38
0.13563299 0.1012606 0.034199268 1.0303917e-38
0.13701755 0.10446459 0.032043248 1.0857469e-38
0.13153464 0.065683052 0.034438103 1.4268729e-38
0.13172391 0.068899341 0.034086198 1.3531172e-38
0.13199332 0.072751507 0.033611864 1.28876e-38
0.13191205 0.076646462 0.033573955 1.2337274e-38
0.13219965 0.080044605 0.033914536 1.1695465e-38
0.13292634 0.08380615 0.034103423 1.0769625e-38
0.13256249 0.10091466 0.032100111 1.1225174e-38
0.13408637 0.10459983 0.030118734 1.1593608e-38
0.12874454 0.065635554 0.032795399 1.4632849e-38
0.12936169 0.069524504 0.03291139 1.3805969e-38
0.12903231 0.072319999 0.032538921 1.3164185e-38
0.12898311 0.10049015 0.030229062 1.1870566e-38
0.13071179 0.10449053 0.027699262 1.196349e-38
0.12552226 0.10110334 0.028374583 1.2422657e-38
0.12703112 0.10404771 0.026428431 1.260453e-38
0.12197286 0.09719421 0.026788682 1.3530431e-38
0.12223727 0.10038629 0.026353449 1.3529342e-38
0.12391061 0.10394934 0.02420643 1.3987826e-38
0.11918193 0.10068685 0.024222046 1.4633868e-38
0.12188041 0.10311383 0.021705776 1.4264415e-38
0.11590716 0.10069187 0.021970302 1.8874194e-38
0.11249697 0.10017943 0.019740433 1.9515238e-38
0.10870847 0.09813308 0.017742127 1.5000908e-38
0.10966417 0.1005486 0.016552955 1.3896705e-38
0.1091215 0.10289662 0.014193803 1.0485471e-38
0.10639772 0.10005146 0.016450554 1.2605242e-38
0.10601097 0.10389626 0.015783519 1.1224471e-38
0.17568177 0.094313718 0.035010129 1.3902805e-38
0.18298438 0.093563229 0.037014097 1.3533673e-38
0.19148281 0.12437239 0.050213724 1.5191756e-38
0.18113405 0.045356661 0.054267317 1.6481058e-38
0.18200684 0.048642725 0.053102404 1.7126783e-38
0.19703466 0.12938333 0.056737989 1.7307946e-38
0.13738385 0.11256617 0.027486175 1.4084307e-38
0.14936912 0.050888237 0.041250259 1.5742749e-38
0.19392923 0.1428203 0.069036096 2.1823752e-38
0.19246873 0.14422116 0.068860441 2.1912341e-38
0.19075012 0.14270255 0.066780776 2.0995045e-38
0.19022685 0.14418301 0.067540497 2.1453885e-38
0.1873922 0.14264537 0.064803749 1.9062885e-38
0.18686309 0.14435399 0.064964086 1.9891573e-38
0.18213463 0.026848597 0.069958478 9.3902622e-39
0.18174636 0.029095303 0.068714112 1.0218955e-38
0.1834746 0.14257866 0.062497169 1.8324616e-38
0.18368483 0.14400738 0.063305348 1.9338067e-38
0.1786778 0.029716823 0.068027288 1.1784473e-38
0.18029428 0.14200315 0.061433107 1.8415357e-38
0.18069872 0.14402077 0.061930627 1.9154723e-38
0.17522287 0.032557249 0.064936191 1.4454178e-38
0.1766324 0.14183614 0.059438914 1.8692647e-38
0.17565441 0.14393491 0.058960706 1.9617873e-38
0.17174143 0.033689301 0.062907368 1.6296644e-38
0.17323148 0.14187586 0.056666225 1.8599398e-38
0.16852194 0.034080468 0.061467856 1.8506465e-38
0.16730392 0.035980813 0.05975607 1.9517754e-38
0.16927499 0.14131972 0.054589421 1.8602628e-38
0.17117059 0.14385858 0.056320816 1.8970343e-38
0.1641646 0.036466986 0.05857107 2.0070913e-38
0.16589212 0.13974845 0.052694172 1.8969262e-38
0.16071653 0.037698671 0.056226164 2.0436816e-38
0.16382736 0.13835433 0.051177591 1.7772872e-38
0.16326457 0.13982841 0.051914364 1.841824e-38
0.1576606 0.038114309 0.054803997 1.9885455e-38
0.15699285 0.039715447 0.054017395 1.9607073e-38
0.15823078 0.13825905 0.047882527 1.731766e-38
0.15410671 0.040538132 0.052456349 1.9150405e-38
0.15555847 0.1379357 0.046617597 1.409191e-38
0.15114695 0.041886427 0.050430745 1.8688725e-38
0.15260696 0.1374594 0.045081407 9.5710913e-39
0.14741009 0.042154849 0.048403174 1.8688374e-38
0.14888704 0.13671 0.042905897 7.3637758e-39
0.14929605 0.13940355 0.042539388 7.6356893e-39
0.14432117 0.044679917 0.045977384 1.8044795e-38
0.14280397 0.047285318 0.045746714 1.739401e-38
0.14700806 0.13612305 0.041398913 7.0875322e-39
0.14116675 0.048970498 0.044285983 1.6569282e-38
0.14045775 0.052132003 0.043123633 1.555836e-38
0.14017701 0.054968227 0.042544574 1.4452018e-38
0.14084852 0.099064618 0.040128857 7.7289079e-39
0.1383597 0.049806692 0.042964488 1.6754038e-38
0.1377095 0.052737549 0.041895837 1.6848379e-38
0.13737804 0.055711243 0.041078776 1.7215361e-38
0.13896221 0.085418031 0.039886326 6.9042242e-39
0.13765901 0.088280134 0.039710373 7.2737255e-39
0.13802224 0.09961202 0.039124459 8.0955661e-39
0.13392532 0.052977491 0.040146679 1.7216814e-38
0.13439167 0.05618751 0.039441913 1.7585231e-38
0.13504457 0.085351333 0.037579864 9.1122403e-39
0.13499713 0.088472806 0.037788838 8.4693821e-39
0.13404727 0.097778432 0.03736189 9.4795165e-39
0.13525197 0.098969333 0.036833733 9.3851867e-39
0.13168341 0.052939326 0.038826734 1.7493744e-38
0.1308316 0.056797631 0.037690729 1.7400841e-38
0.13064569 0.061029717 0.036536008 1.6295568e-38
0.13080114 0.063884914 0.036445528 1.5738815e-38
0.1305081 0.081384249 0.035156816 1.1507141e-38
0.13139153 0.085091226 0.035635501 1.0400825e-38
0.13119066 0.088253319 0.03611818 9.8494298e-39
0.13125068 0.096767239 0.035444528 1.0951073e-38
0.13189405 0.098912165 0.034856707 1.085781e-38
0.12754908 0.057413746 0.036102682 1.6658975e-38
0.12782192 0.061256766 0.035114378 1.5829922e-38
0.12689337 0.0644667 0.034103543 1.4908707e-38
0.12663984 0.068815306 0.033676773 1.3806695e-38
0.12665188 0.073106699 0.033410221 1.3071627e-38
0.12722093 0.076790139 0.033510953 1.2335857e-38
0.12774503 0.080711678 0.033828467 1.1598285e-38
0.12782502 0.08466392 0.034269482 1.122985e-38
0.12773365 0.087932065 0.034265608 1.1321694e-38
0.12724242 0.092468508 0.033686608 1.1688319e-38
0.1276727 0.096298561 0.033017963 1.1595766e-38
0.12965542 0.098874055 0.033538729 1.1409938e-38
0.1241079 0.061413027 0.033817977 1.536896e-38
0.12311721 0.065102957 0.032610685 1.4724317e-38
0.12352353 0.069031872 0.032987446 1.3805605e-38
0.12358284 0.072928436 0.032774001 1.3161672e-38
0.12364468 0.076987348 0.032551616 1.2610288e-38
0.12398177 0.080726333 0.032512039 1.2149661e-38
0.1246388 0.08444757 0.032662302 1.1966342e-38
0.12470376 0.08871524 0.032428533 1.2058184e-38
0.12387955 0.092411257 0.031706661 1.224221e-38
0.1237343 0.096235059 0.030731171 1.2424817e-38
0.12405887 0.098778769 0.030243665 1.2423737e-38
0.12066174 0.065087594 0.031550914 1.4814355e-38
0.12070131 0.067685306 0.031408578 1.4170789e-38
0.12053645 0.093652852 0.029655546 1.2979404e-38
0.12041652 0.096007831 0.028707892 1.3438234e-38
0.11736929 0.096664883 0.027130216 1.4633869e-38
0.11678332 0.098654903 0.025959998 1.5095196e-38
0.11318836 0.097067125 0.024812788 1.8503961e-38
0.11398506 0.098607264 0.024312407 1.887384e-38
0.110111 0.09677577 0.022609264 1.9060002e-38
0.11174643 0.098569155 0.022994488 1.9979444e-38
0.10735831 0.096904755 0.020803005 1.6293079e-38
0.10838848 0.098511986 0.021017462 1.8588593e-38
0.10434192 0.097272702 0.019872397 1.3801269e-38
0.1028592 0.10780393 0.017938644 1.1594687e-38
0.20283383 0.074245632 0.046879202 1.7490904e-38
0.20340928 0.076746002 0.047059208 1.7122833e-38
0.18161255 0.086438634 0.036598951 1.4453472e-38
0.13679221 0.079290092 0.034087867 1.3713014e-38
0.18228745 0.14320673 0.064082354 2.0911138e-38
0.18889895 0.14659864 0.069510072 2.2105015e-38
0.18580538 0.14665636 0.067565411 2.081569e-38
0.18260875 0.14632773 0.064848155 2.0262517e-38
0.17858142 0.14605311 0.063846618 1.9706465e-38
0.17731541 0.14285553 0.061172038 1.8508629e-38
0.17554861 0.14521757 0.06183973 1.9615708e-38
0.17057994 0.032205246 0.064254731 1.5740944e-38
0.17204887 0.14521843 0.059243828 1.9338415e-38
0.16706517 0.032492455 0.063035339 1.7308313e-38
0.16868737 0.14539978 0.058013588 1.906182e-38
0.16376334 0.03380486 0.061793178 1.8416471e-38
0.16513264 0.14212513 0.054807752 1.8693767e-38
0.16437662 0.14451393 0.056922585 1.8692684e-38
0.15960526 0.034048826 0.060570687 1.9335176e-38
0.16106391 0.1417903 0.05364731 1.8602278e-38
0.16212159 0.14447555 0.055594891 1.8786309e-38
0.15565336 0.034324609 0.058803469 1.9610686e-38
0.15591648 0.036404997 0.056267947 1.9795057e-38
0.15791479 0.141562 0.051878184 1.8329275e-38
0.15368521 0.034617625 0.057623833 1.9798283e-38
0.15223205 0.037540365 0.055417627 1.9611379e-38
0.15273726 0.039703991 0.053252071 1.9335514e-38
0.15393323 0.1408526 0.049639434 1.3260651e-38
0.14830714 0.038431518 0.053820819 1.9613535e-38
0.14923251 0.040197026 0.052083641 1.9149692e-38
0.15031368 0.13849455 0.045523077 9.1137173e-39
0.15038496 0.14065534 0.04752025 9.7568769e-39
0.14416099 0.038373843 0.051766425 1.9519555e-38
0.14596671 0.040279597 0.050384611 1.9241895e-38
0.14919108 0.13847545 0.044862121 8.4708828e-39
0.14921093 0.1397762 0.044790894 8.6588586e-39
0.1419059 0.03833545 0.050438732 1.9330144e-38
0.14228833 0.041062839 0.04903689 1.9058222e-38
0.14213201 0.043424692 0.046759278 1.8690869e-38
0.13858303 0.04219725 0.048232466 1.8873447e-38
0.13920218 0.044903435 0.046535641 1.841104e-38
0.13920447 0.047709577 0.044759244 1.7119944e-38
0.13861305 0.089974746 0.044040948 5.7057034e-39
0.13946348 0.092913799 0.043192357 4.6032809e-39
0.13977957 0.096750788 0.042436451 6.9013109e-39
0.14073864 0.099318981 0.04237321 7.7296422e-39
0.1349968 0.045376413 0.045333117 1.8315279e-38
0.13645548 0.048367172 0.043095797 1.7306849e-38
0.13607663 0.051124111 0.042696506 1.7218602e-38
0.13797396 0.089735515 0.041353613 6.5358144e-39
0.13727182 0.092757858 0.040746659 6.8127208e-39
0.13733122 0.09666013 0.040532976 7.1771901e-39
0.13190317 0.045650277 0.043490797 1.8227024e-38
0.13295209 0.048493218 0.04153803 1.758417e-38
0.13327014 0.05107633 0.041044146 1.7033514e-38
0.13274181 0.090079896 0.03824541 8.6516181e-39
0.13390404 0.092700526 0.038763911 8.097696e-39
0.13411814 0.096233882 0.038664907 8.281353e-39
0.12909147 0.048468839 0.040166765 1.749125e-38
0.12959853 0.052128471 0.038811415 1.7400481e-38
0.13049662 0.090041675 0.036923558 1.003202e-38
0.1305362 0.092643194 0.036781043 1.0309305e-38
0.13113713 0.095254257 0.036969036 1.0767028e-38
0.12515303 0.048450183 0.038878471 1.6936626e-38
0.12627161 0.052283272 0.03735587 1.6935922e-38
0.1260426 0.055504747 0.036498576 1.6567508e-38
0.12712878 0.089984335 0.03494069 1.1964543e-38
0.12761748 0.092593499 0.035062581 1.1413883e-38
0.12166247 0.049405411 0.037501484 1.6661119e-38
0.12176347 0.052313045 0.036762089 1.7119229e-38
0.12314892 0.05676648 0.034905046 1.6291612e-38
0.12218282 0.059990503 0.033935934 1.5645546e-38
0.12251961 0.082103349 0.03272441 1.233441e-38
0.12256908 0.085355245 0.032546371 1.2242936e-38
0.12260872 0.087956756 0.032403857 1.2243293e-38
0.11902058 0.052966237 0.036006838 1.7305766e-38
0.11903787 0.057176001 0.03400436 1.6659323e-38
0.11981371 0.061266385 0.03271547 1.555443e-38
0.11889428 0.065136194 0.031668037 1.5182414e-38
0.1200788 0.069220163 0.032106251 1.3897787e-38
0.12013572 0.07295984 0.031901389 1.3345692e-38
0.12005234 0.076697126 0.031613916 1.3069118e-38
0.12011424 0.080761984 0.031391233 1.3071644e-38
0.120314 0.084666647 0.031260103 1.2703921e-38
0.12037346 0.088568911 0.031046301 1.2428396e-38
0.11986166 0.091811247 0.030537695 1.2704257e-38
0.11504835 0.057598956 0.032787055 1.6844441e-38
0.11557826 0.061291158 0.031765908 1.6566412e-38
0.11664906 0.065097965 0.030346125 1.5737019e-38
0.11614722 0.068990678 0.029801875 1.5001616e-38
0.11620665 0.072892949 0.029588073 1.4357295e-38
0.11626607 0.076795213 0.029374331 1.3806673e-38
0.1163255 0.080697484 0.029160529 1.3531535e-38
0.11638492 0.084599756 0.028946787 1.3254937e-38
0.11671633 0.088557258 0.029406697 1.2520229e-38
0.11692044 0.092437744 0.029021174 1.2796087e-38
0.11543068 0.095637068 0.027680129 1.5000837e-38
0.1119346 0.058052793 0.031212121 1.6661854e-38
0.1116935 0.061282419 0.030379444 1.6477462e-38
0.11197174 0.065175712 0.029907793 1.5923933e-38
0.1119048 0.069030344 0.028847426 1.5647695e-38
0.11227757 0.072826058 0.027274758 1.4912625e-38
0.11233699 0.076728329 0.027061015 1.4175091e-38
0.11239642 0.080630593 0.026847214 1.380775e-38
0.1123994 0.084408469 0.027272433 1.362228e-38
0.11232936 0.088657781 0.028621346 1.3346394e-38
0.11238897 0.09257146 0.028406948 1.2886118e-38
0.11284679 0.09546303 0.026167065 1.6016469e-38
0.10783494 0.058653355 0.029046267 1.6203035e-38
0.10801813 0.061431982 0.028977185 1.6019364e-38
0.10865372 0.069031879 0.027704626 1.5739188e-38
0.10859007 0.072882764 0.026646405 1.5003394e-38
0.10953051 0.076680541 0.025408596 1.4452024e-38
0.10870966 0.080704436 0.026218325 1.3991784e-38
0.10875389 0.084847271 0.026755303 1.3805234e-38
0.10865837 0.088645883 0.026973575 1.3070904e-38
0.10893825 0.092525043 0.026503712 1.2791449e-38
0.10953212 0.095211536 0.024227947 1.6294516e-38
0.10471863 0.065504089 0.026771337 1.5830657e-38
0.1047588 0.069031216 0.026311845 1.5371843e-38
0.10526162 0.0728966 0.025586694 1.4728977e-38
