# .PCD v0.7 - Point Cloud Data file format
VERSION 0.7
FIELDS x y z rgb
SIZE 4 4 4 4
TYPE F F F F
COUNT 1 1 1 1
WIDTH 986
HEIGHT 1
VIEWPOINT 0 0 0 0 1 0 0
POINTS 986
DATA ascii
0.1691612 0.10144202 0.020933628 1.4272663e-38
0.16883767 0.10551377 0.021327674 1.4180485e-38
0.16337922 0.048072793 0.032880425 1.9334109e-38
0.16364604 0.050424688 0.031826913 1.8966747e-38
0.16429022 0.053795122 0.029583693 1.8230963e-38
0.1641001 0.05790057 0.027712166 1.7215743e-38
0.16515771 0.09040644 0.020494461 1.3169563e-38
0.16539674 0.092754565 0.020026863 1.3259966e-38
0.16565683 0.096805714 0.020124555 1.3628394e-38
0.16541952 0.10141962 0.02018249 1.3812417e-38
0.16543922 0.1052819 0.020370603 1.36284e-38
0.16034837 0.047975846 0.032001734 1.8874193e-38
0.15930015 0.050351493 0.030878305 1.8597599e-38
0.15970567 0.053874575 0.02930069 1.8136251e-38
0.15986872 0.057746284 0.02707094 1.7031702e-38
0.15879102 0.060779698 0.02539748 1.62974e-38
0.15960988 0.086551093 0.019729614 1.2617102e-38
0.16035797 0.089359336 0.019918263 1.2616752e-38
0.1608434 0.093178801 0.019858003 1.2800428e-38
0.16110286 0.096929245 0.01975131 1.3075578e-38
0.16098973 0.10144135 0.019461513 1.3627298e-38
0.16033174 0.1046259 0.019002795 1.3719141e-38
0.15515555 0.050624661 0.029850602 1.8228821e-38
0.15528378 0.053848706 0.02855581 1.7308299e-38
0.15637711 0.061954103 0.024529219 1.5927158e-38
0.15719619 0.086473875 0.019029796 1.2156124e-38
0.15692437 0.089192145 0.019393682 1.2339796e-38
0.15669183 0.093146317 0.019485772 1.2616047e-38
0.1564597 0.097112827 0.019575059 1.2982666e-38
0.1565576 0.10019483 0.018897355 1.3442918e-38
0.15153082 0.053802185 0.027806938 1.7307939e-38
0.15194559 0.057948701 0.026148438 1.6572524e-38
0.15247834 0.062010162 0.024188221 1.6203026e-38
0.15245998 0.065373771 0.022766948 1.5466554e-38
0.15211484 0.06884139 0.021563768 1.4637857e-38
0.15285523 0.082657151 0.018614948 1.3257758e-38
0.15317611 0.085962944 0.01837939 1.2797553e-38
0.15321958 0.089134283 0.018543065 1.2614242e-38
0.15294233 0.093119912 0.018733323 1.2891191e-38
0.15282267 0.096996479 0.018520653 1.3076648e-38
0.15290102 0.099462055 0.01797837 1.335181e-38
0.14783427 0.054348998 0.026820064 1.7122833e-38
0.1482535 0.057867877 0.025247514 1.6385995e-38
0.14865234 0.062017165 0.023642719 1.5834977e-38
0.14909151 0.065505363 0.022023618 1.4913732e-38
0.14924902 0.06916488 0.021112382 1.4270157e-38
0.14952615 0.072742961 0.019899368 1.4270166e-38
0.14913702 0.07675869 0.018862665 1.4270161e-38
0.14965314 0.081481986 0.017932594 1.3352153e-38
0.14975505 0.085129313 0.017601073 1.3350737e-38
0.14975223 0.088901065 0.017091215 1.32596e-38
0.14946884 0.092884414 0.017280102 1.3168505e-38
0.14926559 0.096819811 0.017266452 1.3168491e-38
0.14987019 0.099365123 0.017099679 1.3261423e-38
0.144823 0.054868437 0.025805771 1.6757275e-38
0.14437589 0.057894774 0.024800658 1.6201947e-38
0.14502347 0.061901085 0.022590578 1.5282889e-38
0.14538565 0.065439843 0.02117455 1.4270522e-38
0.1457476 0.068971314 0.019759953 1.3444345e-38
0.14578262 0.072706454 0.019151092 1.3811346e-38
0.14598067 0.076963089 0.018055379 1.4085764e-38
0.14601541 0.081329547 0.017360985 1.3902459e-38
0.14592907 0.085155748 0.017051101 1.3994311e-38
0.14604622 0.088842951 0.01624018 1.3995017e-38
0.14575636 0.09282776 0.016426921 1.3535107e-38
0.14552905 0.09614744 0.016547382 1.3627309e-38
0.14081073 0.058188386 0.023851573 1.6022218e-38
0.14118791 0.061908446 0.022042274 1.4636429e-38
0.14167815 0.065374665 0.020324767 1.2707486e-38
0.14146084 0.069096021 0.01911521 1.1693342e-38
0.14150664 0.072713219 0.018493414 1.2062496e-38
0.14151439 0.07698562 0.017412543 1.2707141e-38
0.14164367 0.08129146 0.016485631 1.2797561e-38
0.14169866 0.085020445 0.015824676 1.3534047e-38
0.14202584 0.088701628 0.015504718 1.3995735e-38
0.141918 0.092860572 0.015871763 1.3996779e-38
0.14187247 0.095414691 0.015628397 1.4090077e-38
0.13693911 0.058310844 0.022672534 1.2245077e-38
0.13672951 0.061901085 0.021341801 1.0491232e-38
0.13706845 0.065465726 0.020001888 9.6639834e-39
0.13681871 0.069023781 0.019111395 8.3746921e-39
0.13693997 0.07283967 0.018272221 8.3768515e-39
0.13689771 0.077099182 0.017104685 8.9300099e-39
0.1372664 0.081253342 0.01560849 9.6665113e-39
0.13746768 0.084885292 0.014597952 1.0773904e-38
0.13764971 0.088960283 0.014785588 1.1971364e-38
0.138611 0.09239056 0.015174687 1.3628739e-38
0.13346249 0.059431158 0.021382153 1.1870922e-38
0.13268045 0.06204515 0.020550132 1.1689752e-38
0.13257393 0.065480925 0.019374371 1.1138355e-38
0.13269141 0.069177426 0.018561363 9.6596632e-39
0.13285166 0.072847359 0.017648578 7.6378249e-39
0.13313872 0.077064328 0.016351342 7.0878713e-39
0.13334012 0.081332259 0.0152542 7.5460048e-39
0.13354284 0.084968977 0.014242768 8.1881176e-39
0.13358128 0.088581301 0.014731228 9.0157315e-39
0.13006049 0.066711567 0.018700957 1.1520094e-38
0.12927845 0.069325544 0.017868936 8.1023918e-39
0.12920043 0.072995655 0.017003894 6.3510672e-39
0.12934366 0.077049263 0.015671611 5.1535862e-39
0.12970859 0.081216089 0.014201343 6.074116e-39
0.13007939 0.084462695 0.013388872 7.8208037e-39
0.12654099 0.070293583 0.016833127 5.6095225e-39
0.12663889 0.073375545 0.016155303 5.8000682e-39
0.12669766 0.07522472 0.01574862 5.8875821e-39
0.19290717 0.0875962 0.026895404 1.2061412e-38
0.17751732 0.077513896 0.022853017 1.408612e-38
0.19873083 0.053763054 0.046356559 1.7220398e-38
0.18439484 0.062148549 0.036394358 1.4639281e-38
0.20329989 0.086756997 0.03325218 7.27012e-39
0.13708207 0.079176269 0.016356587 9.2980805e-39
0.19636804 0.052995883 0.045473993 1.9892281e-38
0.19692582 0.055125751 0.043371022 1.8137707e-38
0.19808596 0.10636889 0.033030272 1.4180493e-38
0.1968649 0.11007624 0.032885134 1.5749956e-38
0.19255559 0.052400313 0.044432819 2.1826249e-38
0.19318041 0.055078648 0.042624533 2.0258569e-38
0.19487625 0.10635615 0.031129539 1.5654543e-38
0.19458623 0.11111709 0.031523824 1.6485729e-38
0.18885539 0.049730264 0.044345975 2.1643299e-38
0.18919989 0.052027635 0.042971969 2.2010988e-38
0.1902182 0.054293565 0.041567981 2.2193226e-38
0.19163311 0.108381 0.029582381 1.6116227e-38
0.19095749 0.11161145 0.030302167 1.7680317e-38
0.1850858 0.048472919 0.043246746 2.1546085e-38
0.1859549 0.051585399 0.041188955 2.1546793e-38
0.18890694 0.10860261 0.028721213 1.6390677e-38
0.18753576 0.11126617 0.028533459 1.8142398e-38
0.18663579 0.11408543 0.028924823 1.8697722e-38
0.18141925 0.045775495 0.04304266 2.1363835e-38
0.18191099 0.047989957 0.041256607 2.1270937e-38
0.18219635 0.050331227 0.040092349 2.0990408e-38
0.1839878 0.11168606 0.027085721 1.7587417e-38
0.18335849 0.11447617 0.027860999 1.7771093e-38
0.17715046 0.045638941 0.041805029 2.1456018e-38
0.1774925 0.047952898 0.040485799 2.1362034e-38
0.17794037 0.05019509 0.038858414 2.0807065e-38
0.17960641 0.11125521 0.025585353 1.5561627e-38
0.1795166 0.11458125 0.026338816 1.6850547e-38
0.17277206 0.044555597 0.040446758 2.0901771e-38
0.17331959 0.047761537 0.038992524 2.0806356e-38
0.17429239 0.050078399 0.037800789 2.0531919e-38
0.17564663 0.11091786 0.024648905 1.4919479e-38
0.17512237 0.1142854 0.025278449 1.5471567e-38
0.16940221 0.044016041 0.039161861 2.0441516e-38
0.17024094 0.047135524 0.037627578 2.0439348e-38
0.1718446 0.11079624 0.023546576 1.5101344e-38
0.17139015 0.11359776 0.024504781 1.4735793e-38
0.16632926 0.046736173 0.036841154 1.9890136e-38
0.16823499 0.10794138 0.022727966 1.4363808e-38
0.16809323 0.11061089 0.022785604 1.4732934e-38
0.16205473 0.044434063 0.037060022 1.9519552e-38
0.16247264 0.046715654 0.035592616 1.9242995e-38
0.16457391 0.10741251 0.021760941 1.3904987e-38
0.16435358 0.11014616 0.022017896 1.4458502e-38
0.15824586 0.045034237 0.036324143 1.8690162e-38
0.15868123 0.046844266 0.034359872 1.8688725e-38
0.16099018 0.10609945 0.021424055 1.3720228e-38
0.16046803 0.1094014 0.02127111 1.4182637e-38
0.1548115 0.047295056 0.033609688 1.8505419e-38
0.15362045 0.049417146 0.031807542 1.8320663e-38
0.15591788 0.10260638 0.020290315 1.362947e-38
0.15661402 0.10526424 0.020480931 1.3813143e-38
0.15690482 0.10954498 0.02070111 1.4273396e-38
0.15025379 0.047727577 0.033025444 1.8688727e-38
0.1504606 0.050646164 0.031060994 1.8136623e-38
0.15219083 0.10191827 0.019518256 1.3810634e-38
0.15243998 0.10537451 0.01968962 1.3903916e-38
0.15256211 0.10913869 0.019833565 1.3904961e-38
0.14677738 0.048384286 0.032146633 1.8506128e-38
0.14658484 0.050903045 0.030977607 1.7861111e-38
0.14705035 0.052912749 0.029052794 1.7401212e-38
0.14831725 0.10156446 0.018575072 1.362877e-38
0.14806016 0.10535228 0.019223511 1.3995382e-38
0.1480788 0.1085157 0.018740952 1.3812429e-38
0.14273015 0.051280148 0.02992326 1.7401935e-38
0.14309898 0.053762116 0.028141141 1.7034226e-38
0.14485607 0.098546796 0.017933249 1.3812075e-38
0.14460936 0.10126864 0.018185079 1.381313e-38
0.14472133 0.10510441 0.018525362 1.3997167e-38
0.14561981 0.10781755 0.018170118 1.399716e-38
0.13896786 0.051851369 0.029029906 1.7586303e-38
0.13946107 0.05409988 0.027473927 1.7034591e-38
0.13926426 0.056369416 0.025945306 1.6575752e-38
0.14106435 0.097903468 0.017309666 1.4182999e-38
0.14083049 0.10120619 0.01786232 1.4182261e-38
0.13530892 0.051734336 0.027969122 1.5927496e-38
0.13585109 0.053959973 0.026314259 1.4823665e-38
0.13583201 0.056671403 0.024855852 1.3532209e-38
0.13661847 0.094165795 0.016489387 1.243021e-38
0.13701791 0.097441532 0.017280936 1.2983005e-38
0.13768515 0.10095594 0.017385423 1.325779e-38
0.1318565 0.054028086 0.0260607 1.3530788e-38
0.13234776 0.057720296 0.024006724 1.2701376e-38
0.13246042 0.090738766 0.016039431 9.7536203e-39
0.13342339 0.093434624 0.017042518 1.0679207e-38
0.13389486 0.096704818 0.017233729 1.141713e-38
0.12880945 0.054252155 0.025459588 1.3901751e-38
0.12853572 0.058376916 0.023849487 1.3165589e-38
0.12854528 0.062306516 0.021871984 1.2614951e-38
0.12777144 0.065788768 0.020635486 1.0218951e-38
0.12690884 0.068944328 0.019388199 7.1689112e-39
0.12700707 0.072035588 0.018708408 5.057806e-39
0.12991053 0.086951457 0.016150117 8.6487707e-39
0.1252965 0.062564738 0.022508681 8.9350504e-39
0.12506813 0.066114716 0.020914435 7.457042e-39
0.12569284 0.068905436 0.019035697 6.5321878e-39
0.12579107 0.071996696 0.018355846 4.8788168e-39
0.10167289 0.10517284 0.0057131052 2.163437e-38
0.097708791 0.10024505 0.0056651235 1.9514527e-38
0.098119557 0.10372088 0.0046337843 1.8411424e-38
0.098092765 0.10753625 0.0041068196 1.9888345e-38
0.09350872 0.097477905 0.0050512552 2.0624388e-38
0.094491988 0.099793188 0.0041003227 1.8685473e-38
0.095129132 0.10328018 0.0025997162 1.5552628e-38
0.094577521 0.10771028 0.0024392009 1.6114446e-38
0.090459585 0.097380362 0.0041673183 1.785715e-38
0.091034025 0.099553637 0.0026526451 1.7578045e-38
0.091632843 0.10349645 0.0010738969 1.4730066e-38
0.090951771 0.10811799 0.0012096763 1.5101014e-38
0.08741045 0.097282834 0.0032832623 1.3989635e-38
0.087079793 0.099620663 0.0021740794 1.5092733e-38
0.087696522 0.10355862 0.00056922436 1.6294143e-38
0.087518662 0.10782152 0.00036412477 1.6019336e-38
0.084361315 0.097185306 0.0023993254 1.2972609e-38
0.083640158 0.10005315 0.001527071 1.4451671e-38
0.083338708 0.10334741 0.00068187714 1.4637138e-38
0.083437234 0.10644796 0 1.3716984e-38
0.19651863 0.094646893 0.026589096 1.2061424e-38
0.19180076 0.066786282 0.031695843 1.7675994e-38
0.19210723 0.077873878 0.02920413 1.3164166e-38
0.17763358 0.081173204 0.022048235 1.3625509e-38
0.17742914 0.085090466 0.022157013 1.3073762e-38
0.16801283 0.10084524 0.02391088 1.3535481e-38
0.19499962 0.046961792 0.05072403 1.8507589e-38
0.19539854 0.04923331 0.049134672 1.8784888e-38
0.19563715 0.051611133 0.048066795 1.9524589e-38
0.19784909 0.1115514 0.035128236 1.5658843e-38
0.19151561 0.046713628 0.049033165 2.1180153e-38
0.19179034 0.049071692 0.047861814 2.1273427e-38
0.19319053 0.051532872 0.04735744 2.1367454e-38
0.19406171 0.11614113 0.033197641 1.77754e-38
0.19350162 0.11864992 0.03419131 1.9804789e-38
0.18755168 0.045755439 0.048379898 2.155075e-38
0.18814895 0.048299395 0.046778619 2.1915937e-38
0.19018501 0.11558928 0.0323053 1.8143469e-38
0.18965393 0.11879394 0.033014596 1.9523536e-38
0.18374138 0.042930834 0.048657954 2.1363116e-38
0.18426093 0.045145907 0.046761513 2.1366346e-38
0.1857321 0.047566257 0.046050191 2.2010283e-38
0.18669692 0.11647699 0.031141162 1.8787752e-38
0.18607882 0.12008717 0.031521678 2.0260014e-38
0.17993292 0.041911595 0.047403693 1.9983406e-38
0.18068835 0.044331782 0.045470893 2.1181254e-38
0.18327205 0.11684471 0.029695332 1.7955845e-38
0.1827572 0.11993212 0.029872656 1.9335884e-38
0.18259768 0.12266352 0.030029476 1.9983037e-38
0.17657134 0.041782714 0.046637475 2.0353252e-38
0.17707008 0.044182502 0.044251561 2.1180514e-38
0.17938237 0.11695322 0.028247118 1.7220403e-38
0.17918396 0.11971294 0.02850461 1.8046926e-38
0.17135277 0.038795367 0.045923889 1.841684e-38
0.1719906 0.041724019 0.045441806 1.9799741e-38
0.17369613 0.043763883 0.043344557 2.0626983e-38
0.17510077 0.11681625 0.027005851 1.565418e-38
0.17496073 0.11887222 0.027160227 1.5931854e-38
0.16767186 0.038677625 0.044856787 1.9156158e-38
0.16768506 0.04127676 0.043997586 1.9430246e-38
0.17074497 0.11610743 0.0260517 1.4918052e-38
0.17039129 0.1190007 0.026707113 1.5194649e-38
0.16444741 0.041309677 0.042684257 1.9245849e-38
0.16359395 0.043130063 0.040486991 1.934019e-38
0.1670346 0.11474573 0.025261045 1.4548529e-38
0.16675892 0.11818369 0.0260818 1.4548903e-38
0.16057888 0.041466989 0.041574419 1.9060379e-38
0.16114733 0.043051817 0.039777696 1.9338024e-38
0.16309284 0.11443429 0.024440527 1.4917306e-38
0.16282746 0.11766874 0.025298238 1.473366e-38
0.15755287 0.041677661 0.041160703 1.8875277e-38
0.15720922 0.043715276 0.039344907 1.8690873e-38
0.15965131 0.11135133 0.023666799 1.4366663e-38
0.15976042 0.11411145 0.023466825 1.4549622e-38
0.15912674 0.11692714 0.024368286 1.473367e-38
0.1534967 0.044251733 0.038296402 1.8964935e-38
0.15560892 0.11413293 0.022761822 1.4365949e-38
0.14982127 0.044134177 0.037230849 1.9330849e-38
0.1502561 0.046431474 0.035764992 1.8964239e-38
0.15258282 0.11335965 0.021959484 1.4273396e-38
0.14586848 0.044152819 0.036158442 1.9056064e-38
0.14549488 0.047081716 0.034334064 1.8688379e-38
0.14425814 0.049967639 0.033170938 1.8045514e-38
0.14802986 0.11097959 0.020297527 1.3537999e-38
0.14769077 0.11381315 0.020792961 1.4181558e-38
0.14685705 0.11653467 0.020811021 1.501023e-38
0.14163679 0.044824623 0.035707653 1.841321e-38
0.14140461 0.047575973 0.033820808 1.8136986e-38
0.14181152 0.049889378 0.032461584 1.7769286e-38
0.14278781 0.10625543 0.019822896 1.4181198e-38
0.14351487 0.10978576 0.019362807 1.3906031e-38
0.14334038 0.11372521 0.019698024 1.4367366e-38
0.14378965 0.11643656 0.01992166 1.5102774e-38
0.13760799 0.047983043 0.033480465 1.7952938e-38
0.13809875 0.05042737 0.031412601 1.786146e-38
0.1386179 0.10322245 0.019279003 1.3629444e-38
0.13992023 0.10574948 0.019086599 1.4181552e-38
0.13970852 0.1097393 0.019057989 1.445635e-38
0.14014423 0.11357787 0.019493759 1.4457079e-38
0.13428709 0.048827283 0.032604814 1.7494494e-38
0.13417542 0.050443538 0.030954659 1.7034582e-38
0.13573056 0.10209452 0.0186795 1.261172e-38
0.13587314 0.10591694 0.018913329 1.2429143e-38
0.13620979 0.10933892 0.019296527 1.2981204e-38
0.1318846 0.098498397 0.018539131 1.1139813e-38
0.13199446 0.10212339 0.01886785 1.0771774e-38
0.12689355 0.051701687 0.029106855 1.3163799e-38
0.12626457 0.05410663 0.027139843 1.1781623e-38
0.12614566 0.056844346 0.026209474 1.1503911e-38
0.12699753 0.09171056 0.020245552 1.0403327e-38
0.12812233 0.094498567 0.019347012 1.1413545e-38
0.12811261 0.098327272 0.018822014 1.1783388e-38
0.12799668 0.10159784 0.018630683 1.1784826e-38
0.12377089 0.054538973 0.027278543 1.0299645e-38
0.12417236 0.05875846 0.025717974 7.72535e-39
0.12308663 0.063077278 0.024404526 7.7336541e-39
0.12252745 0.066828422 0.023555934 7.9169524e-39
0.12289074 0.069788359 0.022272944 7.2690522e-39
0.12546346 0.099024005 0.018468022 1.2059248e-38
0.12554273 0.10151934 0.017919183 1.2151816e-38
0.11642009 0.11016002 0.013225555 1.4269784e-38
0.11689517 0.11225253 0.012886763 1.2705712e-38
0.11372828 0.10259555 0.014160454 1.1872012e-38
0.11337221 0.10424601 0.013675988 1.3624098e-38
0.11318827 0.10961726 0.012122333 1.6388825e-38
0.11320204 0.11156628 0.011412323 1.4082499e-38
0.10758024 0.10198344 0.012473285 1.3986015e-38
0.10789046 0.10531706 0.011800885 1.6850934e-38
0.10852629 0.10919445 0.010967016 1.9704612e-38
0.11034378 0.11132214 0.010084629 1.6103533e-38
0.10430837 0.10187875 0.011524677 1.7396151e-38
0.10496441 0.10512476 0.010619104 1.9242615e-38
0.10508329 0.10886591 0.009796381 2.2930774e-38
0.10461971 0.11129176 0.008924067 1.933189e-38
0.10033044 0.098843269 0.011038542 2.1730814e-38
0.10146388 0.10112842 0.0093826056 2.1083281e-38
0.10203913 0.10445621 0.0083898306 2.0993273e-38
0.10197431 0.10836426 0.0075630546 2.3118794e-38
0.10299298 0.11108702 0.0079534054 2.1364156e-38
0.097513229 0.097316392 0.0098392367 2.1546758e-38
0.099116743 0.10040555 0.0081830621 2.126801e-38
0.099551022 0.10445815 0.0073826313 2.0345749e-38
0.099669605 0.10818999 0.0065619349 2.2379814e-38
0.097611606 0.11216141 0.0053952932 2.256596e-38
0.093463212 0.094884418 0.0099052787 2.1452072e-38
0.093870431 0.096685447 0.0079042315 2.1545325e-38
0.094633251 0.11261111 0.0044958591 2.1645451e-38
0.089669347 0.094068207 0.0083543658 1.8780914e-38
0.08950761 0.096059494 0.0063236356 1.7489819e-38
0.09030968 0.11278269 0.0035273433 1.8418587e-38
0.086920142 0.093911313 0.0076494217 1.3526141e-38
0.086115211 0.096666656 0.0055319071 1.3343549e-38
0.085029423 0.10896436 0.0020323992 1.5652358e-38
0.085835248 0.11247589 0.0020598769 1.8231702e-38
0.082582772 0.10888609 0.0013229847 1.4547839e-38
0.082825303 0.11102418 0.0009047389 1.5377617e-38
0.080017626 0.10507601 0.0014344454 1.279684e-38
0.080096662 0.10756391 0.00088727474 1.2708238e-38
0.19654125 0.089576162 0.027640224 1.0957589e-38
0.17753249 0.090647914 0.02115047 1.2983015e-38
0.17428905 0.07227651 0.025231063 1.6020077e-38
0.17309487 0.065504454 0.025717199 1.638635e-38
0.17518356 0.098748513 0.023163497 1.4272317e-38
0.17899939 0.058510907 0.03263706 1.8781285e-38
0.1897769 0.039157331 0.055590332 1.2708931e-38
0.1903781 0.042356633 0.053254902 1.8513668e-38
0.19086903 0.045230709 0.051317513 2.0906088e-38
0.19221522 0.12322515 0.036765158 2.1829471e-38
0.18607745 0.039146475 0.054493248 1.492126e-38
0.1866844 0.042238466 0.052183986 1.9434912e-38
0.18777719 0.04450769 0.050564229 2.1089776e-38
0.19019906 0.12072854 0.033801079 2.0720632e-38
0.18909916 0.1234725 0.0343135 2.1555778e-38
0.18246195 0.038975425 0.053152502 1.6947431e-38
0.18324012 0.041807897 0.050368845 1.9799753e-38
0.18623 0.1233535 0.032873631 2.0999373e-38
0.1788221 0.038519196 0.051412165 1.8514383e-38
0.18009372 0.040933244 0.04910022 1.8973913e-38
0.18176486 0.12427988 0.032402039 2.0167794e-38
0.18021771 0.12636852 0.032744825 1.9523511e-38
0.17537862 0.038188085 0.050108552 1.8051991e-38
0.17537013 0.040366061 0.047826111 1.9247997e-38
0.17831299 0.12378917 0.030633926 1.823385e-38
0.17774913 0.12628958 0.032029212 1.8327503e-38
0.1705578 0.03578414 0.050650954 1.6759091e-38
0.17204645 0.037797861 0.048495293 1.731407e-38
0.17291254 0.040287443 0.047113597 1.9245859e-38
0.17449549 0.12314845 0.030002117 1.6299914e-38
0.17404628 0.12617114 0.030955613 1.767709e-38
0.16695829 0.034971476 0.049366891 1.6578281e-38
0.16797021 0.037519343 0.046279311 1.8328223e-38
0.16922614 0.04016953 0.046044886 1.9613919e-38
0.17010504 0.12308805 0.028977811 1.5655256e-38
0.17034344 0.12605268 0.029882133 1.7400853e-38
0.16257045 0.034870334 0.048308194 1.7217545e-38
0.16361716 0.037493594 0.044991314 1.8879582e-38
0.16308218 0.039972991 0.044263542 1.9061108e-38
0.16500875 0.11992275 0.0264979 1.4274474e-38
0.16569304 0.12304398 0.028002918 1.5744201e-38
0.15944926 0.0354288 0.047430396 1.8508632e-38
0.15955299 0.037575752 0.044951141 1.8691588e-38
0.16001016 0.039874747 0.043373048 1.8783073e-38
0.16255113 0.11984415 0.025785446 1.4549284e-38
0.16177273 0.12312999 0.027530074 1.5836416e-38
0.15551496 0.037639074 0.044804513 1.878271e-38
0.15594065 0.040576719 0.042002201 1.8690167e-38
0.15873057 0.1192027 0.025152802 1.5009185e-38
0.15807271 0.12301164 0.02645731 1.6020455e-38
0.15170142 0.038218573 0.0439533 1.9240446e-38
0.15244347 0.041011445 0.041575015 1.887383e-38
0.15475306 0.11869524 0.024917603 1.4734019e-38
0.15440209 0.12209287 0.025410771 1.5653108e-38
0.14814498 0.038288377 0.043200612 1.9517745e-38
0.14863417 0.040955268 0.040811658 1.887274e-38
0.15073866 0.11509741 0.023362756 1.4457788e-38
0.15098271 0.11864414 0.024045944 1.5008435e-38
0.15039971 0.12271079 0.024586618 1.6481775e-38
0.14475752 0.038720332 0.042308152 1.896314e-38
0.1447022 0.04096166 0.040353358 1.887274e-38
0.14756727 0.1185868 0.022687733 1.5101365e-38
0.14750469 0.12212304 0.023353517 1.6482854e-38
0.14090562 0.041137286 0.039941251 1.8317043e-38
0.1414001 0.04333625 0.037046969 1.8318145e-38
0.14343296 0.1191841 0.022211969 1.5469414e-38
0.13695821 0.041538931 0.038987279 1.7952207e-38
0.13747525 0.044236384 0.036148429 1.8321373e-38
0.13628688 0.046605386 0.034777164 1.8138058e-38
0.13822603 0.11407306 0.019878328 1.4364519e-38
0.13976136 0.11840447 0.021172285 1.5194624e-38
0.14096783 0.12103502 0.021232724 1.5656328e-38
0.13438576 0.042150043 0.03843838 1.7771417e-38
0.13280332 0.044504903 0.036893785 1.7310089e-38
0.1329588 0.047449671 0.033899367 1.6665805e-38
0.13476411 0.11071684 0.019618988 1.1877732e-38
0.13504416 0.11455821 0.020423234 1.2338724e-38
0.13506493 0.11771553 0.02095145 1.1050495e-38
0.12833399 0.045717947 0.03582108 1.5462932e-38
0.12914023 0.047855757 0.033552706 1.5004835e-38
0.12841883 0.050098471 0.031637073 1.417473e-38
0.13096493 0.10743641 0.019776165 1.1138409e-38
0.13074702 0.11072608 0.020677745 8.65519e-39
0.13080609 0.113817 0.020935774 7.9179767e-39
0.12533021 0.048442416 0.033769071 1.380667e-38
0.12546796 0.050422393 0.031219602 1.3069088e-38
0.12766844 0.10374933 0.019107938 1.1694091e-38
0.12740305 0.10650172 0.019347131 1.2521693e-38
0.12687713 0.11073675 0.019999623 8.2821097e-39
0.12638655 0.11378013 0.019630492 6.7198273e-39
0.12288699 0.051525168 0.031445682 1.1868721e-38
0.12030494 0.060430579 0.029703557 8.0933829e-39
0.12106603 0.063200973 0.0275141 7.9173111e-39
0.12351456 0.092608012 0.022920966 1.0030954e-38
0.12327129 0.095446192 0.021307528 1.1412461e-38
0.1233536 0.098520838 0.019329667 1.1966687e-38
0.12359697 0.10254916 0.01817286 1.1876674e-38
0.12353751 0.10650969 0.018671036 1.2430204e-38
0.12339491 0.11045717 0.01843524 9.8508648e-39
0.11919087 0.064154558 0.0285182 8.3746809e-39
0.11935723 0.067388974 0.026846647 8.6509189e-39
0.11965576 0.070274614 0.026540518 8.0030243e-39
0.11951604 0.098937906 0.019449592 1.1872353e-38
0.12025601 0.10226393 0.017245173 1.2058201e-38
0.12028697 0.10607591 0.016617358 1.3350009e-38
0.1202299 0.10995372 0.016185641 1.1691905e-38
0.11515772 0.096703283 0.02020967 1.1501414e-38
0.11550704 0.099031501 0.019067287 1.1595764e-38
0.11656964 0.10214602 0.016176343 1.168942e-38
0.11668873 0.10589459 0.015351951 1.4641447e-38
0.11720419 0.10923975 0.014737964 1.5559763e-38
0.11811602 0.11218151 0.014334261 1.1601867e-38
0.11143893 0.096082784 0.019246519 1.1686532e-38
0.11189896 0.098853163 0.017798185 1.196381e-38
0.11266518 0.10160505 0.015139878 1.1871269e-38
0.11300731 0.10593285 0.014248848 1.5934002e-38
0.11268538 0.10867914 0.01352334 1.9429468e-38
0.10798293 0.095972233 0.018244505 1.2143916e-38
0.10829261 0.098674111 0.016530037 1.2700663e-38
0.10905591 0.10176698 0.014029801 1.279215e-38
0.10993034 0.10567842 0.013392627 1.6114824e-38
0.11000973 0.10817746 0.012843072 2.0813109e-38
0.10404921 0.09634795 0.016989052 1.3897048e-38
0.10402855 0.098735236 0.015561223 1.5005551e-38
0.10447985 0.10155127 0.012719035 1.6567828e-38
0.09981522 0.095434628 0.015024364 1.6292712e-38
0.1006563 0.097601049 0.013156056 1.9334072e-38
0.10178435 0.10042482 0.012176156 2.0162395e-38
0.095817566 0.094601773 0.013473988 1.8503977e-38
0.090352476 0.092148326 0.013880789 2.2371528e-38
0.09237808 0.093629174 0.012363017 2.1358817e-38
0.088243186 0.09119343 0.011977434 1.8870963e-38
0.089258164 0.092534639 0.010262549 1.9241179e-38
0.085140109 0.091471784 0.012130558 1.3149398e-38
0.085150421 0.093618788 0.0098608732 1.2139606e-38
0.19957273 0.068060182 0.032801509 1.3163785e-38
0.19933361 0.07783132 0.030129969 1.003382e-38
0.19933206 0.089675151 0.028684556 1.0311505e-38
0.19724518 0.07601089 0.031198382 1.4731118e-38
0.19607529 0.074043892 0.031301796 1.279573e-38
0.19633338 0.084100924 0.028952956 1.0772115e-38
0.15007332 0.083376311 0.021643937 1.6480699e-38
0.14848852 0.079978995 0.02126956 1.5743489e-38
0.17124498 0.081413768 0.025155723 1.5099919e-38
0.17969675 0.066182204 0.031450748 1.7126425e-38
0.14549488 0.047081716 0.034334064 1.8688379e-38
0.11337221 0.10424601 0.013675988 1.3624098e-38
0.19359845 0.12840697 0.041595578 2.2953827e-38
0.18819922 0.028291479 0.062004924 6.4453928e-39
0.1917091 0.12613136 0.04006058 2.238735e-38
0.19111159 0.12832743 0.0408746 2.2770149e-38
0.18430743 0.028264828 0.06144768 5.2472294e-39
0.18486087 0.031808905 0.059256434 6.7205658e-39
0.18511423 0.035513543 0.058007181 8.6555376e-39
0.1857267 0.037713386 0.055785775 1.215576e-38
0.18917155 0.12636182 0.038612485 2.2484567e-38
0.18787402 0.1276871 0.038278937 2.3030193e-38
0.18095562 0.028608195 0.06055063 6.8095272e-39
0.18083473 0.031861216 0.059115708 9.2991245e-39
0.18119256 0.035512224 0.057553887 1.1692615e-38
0.18201837 0.037594773 0.054710686 1.5104623e-38
0.18419608 0.12556219 0.035180628 2.0999382e-38
0.18365866 0.12833661 0.037802577 2.1552566e-38
0.17652233 0.028832734 0.059359312 9.2055178e-39
0.17704025 0.031779639 0.05824393 1.1880975e-38
0.17740202 0.035432406 0.056682765 1.5471928e-38
0.17954616 0.037515692 0.05399394 1.7501324e-38
0.18041357 0.12855378 0.036040485 2.1086161e-38
0.17328942 0.028729327 0.058422029 1.123451e-38
0.17331262 0.0316604 0.057163119 1.3721304e-38
0.17388973 0.035194494 0.054981172 1.6486097e-38
0.17713407 0.12885562 0.033572078 2.0073828e-38
0.17584603 0.1314646 0.035083055 2.0625195e-38
0.16955915 0.028609999 0.057340562 1.1696236e-38
0.16958581 0.031541191 0.056082666 1.4274449e-38
0.17015235 0.03482195 0.054566026 1.6112648e-38
0.1734719 0.12868416 0.032344818 1.9060006e-38
0.17253837 0.13183129 0.033908904 1.9522091e-38
0.16559628 0.028988488 0.056075752 1.243021e-38
0.16596763 0.031364739 0.054691494 1.3997527e-38
0.16663037 0.033581667 0.052481055 1.6666865e-38
0.16954239 0.12877446 0.0318681 1.8232762e-38
0.16903183 0.13187823 0.03296268 1.8784165e-38
0.16310942 0.028908931 0.055354774 1.233586e-38
0.16250074 0.03111168 0.052888274 1.5284666e-38
0.16273884 0.033211023 0.04998523 1.6849829e-38
0.16555011 0.12826958 0.031627893 1.7493776e-38
0.16545054 0.13173565 0.032251298 1.8598679e-38
0.15869096 0.031942047 0.052704811 1.6481768e-38
0.15782155 0.034441389 0.050199509 1.7586684e-38
0.16121736 0.1281223 0.030344009 1.7495207e-38
0.16150109 0.13106039 0.031089783 1.8879927e-38
0.15422194 0.034886435 0.050140023 1.8045158e-38
0.15705568 0.12781873 0.028612792 1.7589543e-38
0.15828137 0.13106659 0.030487239 1.8235638e-38
0.14988622 0.035307527 0.049244285 1.9151127e-38
0.15111564 0.03660626 0.045751274 1.924117e-38
0.1539014 0.12427921 0.026469469 1.6482506e-38
0.15329869 0.12773478 0.027634084 1.8232042e-38
0.14629874 0.035761558 0.04771775 1.9704648e-38
0.14692926 0.03688138 0.044977844 1.9701784e-38
0.15143916 0.12451439 0.025683641 1.6941334e-38
0.14965719 0.1275467 0.026357412 1.8141294e-38
0.14221227 0.035819158 0.047557831 1.9607432e-38
0.14567703 0.12386235 0.024654448 1.6664026e-38
0.14571917 0.12696925 0.025912642 1.7682474e-38
0.13921428 0.037907004 0.044288754 1.8871675e-38
0.13887435 0.039981738 0.041338205 1.8871282e-38
0.14222464 0.1237204 0.025129437 1.6207354e-38
0.14261806 0.12677622 0.026815236 1.7863981e-38
0.13512141 0.037968151 0.044126272 1.868909e-38
0.13615263 0.04002519 0.041231275 1.8780898e-38
0.13772213 0.12030857 0.022570789 1.5287523e-38
0.13796464 0.12336189 0.024434984 1.5289339e-38
0.13153684 0.038902752 0.043410063 1.7860049e-38
0.13186437 0.041225396 0.040971875 1.7306145e-38
0.13554895 0.11992512 0.02201283 1.2249019e-38
0.13467062 0.12320488 0.024025798 1.1233426e-38
0.12793952 0.0416869 0.041168034 1.638379e-38
0.12833717 0.044195898 0.038734734 1.6108299e-38
0.1299749 0.1158204 0.021831512 6.995345e-39
0.13097107 0.11930715 0.021861851 6.6272715e-39
0.13013259 0.12353446 0.023313344 5.434157e-39
0.1289404 0.12633872 0.022849858 6.9950045e-39
0.12419951 0.042456008 0.040414035 1.6479584e-38
0.12435362 0.044864006 0.038438797 1.4820444e-38
0.12368262 0.047657721 0.035061657 1.3530093e-38
0.12676045 0.11576524 0.021778643 6.9964282e-39
0.12710857 0.11926904 0.021553218 7.2729885e-39
0.12803379 0.12276863 0.020835638 6.3539441e-39
0.12131512 0.04272937 0.039760947 1.6202299e-38
0.12110126 0.045078509 0.038268387 1.491047e-38
0.12065563 0.048710369 0.036590815 1.3251312e-38
0.11994079 0.052359171 0.035007358 1.1593222e-38
0.11908609 0.055964611 0.033214092 1.1131528e-38
0.11969572 0.058203496 0.031457543 9.381249e-39
0.12143615 0.092241965 0.02817297 9.2004829e-39
0.12043849 0.094289862 0.024469256 1.021498e-38
0.11740398 0.053286679 0.035909712 1.2977962e-38
0.11610085 0.056394093 0.034008384 1.2609178e-38
0.1167146 0.06031128 0.031601191 1.1229448e-38
0.11680514 0.06438946 0.029179454 1.0858173e-38
0.11632752 0.068680026 0.029335082 9.6611065e-39
0.11677778 0.07281252 0.030443728 8.1899113e-39
0.11773586 0.076525159 0.030114233 7.0879036e-39
0.11834884 0.0796858 0.030402422 6.7169757e-39
0.11757886 0.092530809 0.026515126 9.3855762e-39
0.11789608 0.094254456 0.023899674 1.0396493e-38
0.11419606 0.053238116 0.035234272 1.555477e-38
0.11233157 0.056466408 0.033806086 1.3810246e-38
0.1123223 0.060548596 0.032021284 1.2796432e-38
0.11263162 0.064877056 0.030675411 1.2057791e-38
0.11270702 0.068688087 0.029942274 1.1230562e-38
0.11278749 0.072776131 0.029799998 1.0309682e-38
0.11331484 0.076324873 0.029676795 9.1140186e-39
0.11348051 0.092164151 0.025635242 1.039506e-38
0.11431375 0.094691567 0.022437811 1.1132267e-38
0.10874128 0.05748453 0.032638788 1.4174738e-38
0.10884172 0.060645513 0.03194356 1.3349276e-38
0.10845166 0.065002166 0.030590951 1.2796816e-38
0.10884213 0.069036208 0.030019104 1.2336946e-38
0.10900968 0.072435401 0.029136598 1.1601513e-38
0.10952437 0.075614192 0.028713107 1.0495172e-38
0.10938683 0.091487728 0.024556518 1.1225889e-38
0.11060208 0.094204925 0.021412253 1.1593599e-38
0.10537359 0.088323049 0.024564207 1.1869825e-38
0.10593632 0.091196053 0.022885621 1.1869804e-38
0.10659325 0.094155975 0.020537019 1.2237177e-38
0.10181069 0.087458514 0.023228586 1.2793205e-38
0.10230535 0.091019474 0.021609366 1.2790702e-38
0.10298699 0.094452567 0.019600332 1.3344239e-38
0.098391652 0.087844498 0.022420526 1.3989589e-38
0.098629594 0.090871684 0.020431995 1.3805581e-38
0.099639565 0.093854241 0.018233955 1.5094538e-38
0.094824582 0.088617168 0.021360934 1.4816135e-38
0.094666958 0.090896003 0.01984185 1.5277486e-38
0.09583652 0.093432449 0.017566383 1.5738817e-38
0.089229167 0.088438176 0.019738734 1.9794365e-38
0.090893537 0.090805314 0.018859684 1.942809e-38
0.092383474 0.092488937 0.015474558 1.9978056e-38
0.086890697 0.088273995 0.018725216 2.0343924e-38
0.087637573 0.090347491 0.017225444 2.0804194e-38
0.08321631 0.08748021 0.017637074 1.7578775e-38
0.083929777 0.089813001 0.015406728 1.5919918e-38
0.082102388 0.094321124 0.013066351 1.0209977e-38
0.080756277 0.090602122 0.016367733 1.2324319e-38
0.080009997 0.094004326 0.015187383 1.0763849e-38
0.078986764 0.098413788 0.013795614 1.214607e-38
0.078151345 0.10140077 0.011336207 1.3347856e-38
0.077156514 0.099420004 0.013630986 1.2332611e-38
0.075912118 0.10176166 0.012189984 1.3163461e-38
0.17354402 0.071073763 0.023877382 1.4912296e-38
0.18187141 0.1015873 0.026577413 1.3904264e-38
0.18004185 0.10433241 0.023801565 1.3996102e-38
0.17641518 0.035234936 0.054318249 1.1323488e-38
0.18009372 0.040933244 0.04910022 1.8973913e-38
0.12668931 0.10895053 0.020957232 1.6572899e-38
0.12803379 0.12276863 0.020835638 6.3539441e-39
0.19054446 0.13090801 0.042428553 2.2770884e-38
0.19027868 0.13414225 0.04236424 2.2771962e-38
0.18325645 0.025615998 0.065125406 5.1575336e-39
0.18685119 0.13073558 0.041192293 2.2665371e-38
0.18705976 0.13381594 0.041615784 2.2396355e-38
0.18029934 0.025761455 0.064391077 5.2450377e-39
0.17900807 0.027660519 0.062503457 7.2708487e-39
0.1834318 0.13094288 0.040128112 2.2655675e-38
0.18289 0.1334711 0.040455341 2.2659617e-38
0.17448455 0.025998347 0.062608182 8.5612148e-39
0.17640662 0.027471736 0.061773479 8.6530587e-39
0.1800124 0.13115022 0.039064169 2.1733324e-38
0.17901748 0.13357228 0.039128482 2.173297e-38
0.17323565 0.025958396 0.062246084 9.2062184e-39
0.17204183 0.02733212 0.060508013 1.0956862e-38
0.17578438 0.13405263 0.037599504 2.0995768e-38
0.16813874 0.027294464 0.059890389 1.1326372e-38
0.17217097 0.13454884 0.036487699 2.0351114e-38
0.16471747 0.027501278 0.058826029 1.1695156e-38
0.16796362 0.13489667 0.035691381 1.9802958e-38
0.16101338 0.028651014 0.057461262 1.261136e-38
0.16397703 0.13436961 0.03436017 1.9247615e-38
0.16550615 0.13608673 0.034687877 2.0445075e-38
0.15711272 0.030699827 0.055564761 1.5654522e-38
0.16122007 0.13324752 0.033530951 1.9155431e-38
0.15356266 0.031400472 0.054793835 1.7125343e-38
0.152632 0.033995502 0.053209841 1.7859692e-38
0.15573463 0.13164046 0.031734943 1.8416791e-38
0.14998057 0.032704778 0.053073704 1.8411071e-38
0.1495143 0.033895776 0.052305937 1.8965669e-38
0.15279317 0.13199669 0.031419754 1.8785575e-38
0.1466262 0.032719336 0.052785397 2.006949e-38
0.1449915 0.034476824 0.051362336 2.0346061e-38
0.14939663 0.13196984 0.03013134 1.8784151e-38
0.14171126 0.035099499 0.050778449 1.9883297e-38
0.14571768 0.13005322 0.029121399 1.8510074e-38
0.13774762 0.036053039 0.048313439 1.9147189e-38
0.14027801 0.12823522 0.028348625 1.7961565e-38
0.13300925 0.036089823 0.047964573 1.8688372e-38
0.13686723 0.12596962 0.027427137 1.5198944e-38
0.13674349 0.12802789 0.027452409 1.4369186e-38
0.12992051 0.037652314 0.046047151 1.8229531e-38
0.13228118 0.12540066 0.026194394 8.7484366e-39
0.1332075 0.12782013 0.026555777 9.2054939e-39
0.12652019 0.038726702 0.045125663 1.7583087e-38
0.12543797 0.040726595 0.043582261 1.6476358e-38
0.13063183 0.12577015 0.025619388 7.6363858e-39
0.12967014 0.12732831 0.02604419 8.0977381e-39
0.12281671 0.039252661 0.044209301 1.7584143e-38
0.12263238 0.041182749 0.042857289 1.6755464e-38
0.12001678 0.039480276 0.043324769 1.7677421e-38
0.11918783 0.041924946 0.042161584 1.6571083e-38
0.11798465 0.04562261 0.040599704 1.5279606e-38
0.11819726 0.048095934 0.03973949 1.4173985e-38
0.11926505 0.081701033 0.032348812 5.6120462e-39
0.11895147 0.08448451 0.03268528 5.5202219e-39
0.11941501 0.089256905 0.031728446 7.4502205e-39
0.11979786 0.091489352 0.031330168 8.3718082e-39
0.11639109 0.043170355 0.041400552 1.6849071e-38
0.1152229 0.045670353 0.040479898 1.6939493e-38
0.11561003 0.04934942 0.039039016 1.6110457e-38
0.11534929 0.052565448 0.037867844 1.4637115e-38
0.11628184 0.081437312 0.031700552 7.1790076e-39
0.11667442 0.084855057 0.031789899 6.7191084e-39
0.11675605 0.089013256 0.030993879 7.6360299e-39
0.11729598 0.091523476 0.029777527 8.6487328e-39
0.11175019 0.046320476 0.039298415 1.7678147e-38
0.111642 0.049338453 0.038455367 1.7401925e-38
0.11170286 0.05280491 0.036881566 1.6571084e-38
0.11095655 0.055465288 0.035896778 1.5465454e-38
0.11168182 0.078291379 0.030876696 9.2969805e-39
0.11278516 0.08100275 0.031176269 8.1924406e-39
0.11353281 0.084099732 0.031162798 7.8225735e-39
0.11284816 0.088729672 0.029897273 9.1079145e-39
0.11333185 0.091012441 0.028449297 9.6596492e-39
0.10901868 0.046740569 0.03839016 1.8135168e-38
0.10801166 0.049404331 0.037479818 1.7584171e-38
0.10829037 0.052893601 0.035931587 1.7124241e-38
0.10822907 0.055884801 0.034989893 1.5007359e-38
0.1088658 0.077884607 0.030132949 9.9412835e-39
0.10894999 0.080936573 0.030288696 9.6636149e-39
0.10898039 0.084799893 0.0296489 1.0215341e-38
0.10919243 0.088553138 0.028613746 1.0766346e-38
0.11083767 0.09093266 0.027726173 1.0580168e-38
0.1041441 0.050390713 0.036103845 1.6844453e-38
0.1043168 0.052885763 0.035345554 1.6474222e-38
0.10466886 0.056579463 0.034009635 1.5003766e-38
0.10486767 0.060990386 0.032908678 1.3624427e-38
0.10407311 0.065574147 0.032422066 1.2796831e-38
0.10479549 0.069163762 0.031457484 1.224439e-38
0.10503024 0.073230945 0.03032732 1.1506783e-38
0.10508326 0.077007867 0.030040383 1.0862514e-38
0.10510755 0.080711372 0.029435515 1.1321334e-38
0.10529068 0.084807642 0.028416932 1.1594684e-38
0.10616902 0.087795846 0.027271628 1.150248e-38
0.10164627 0.050310813 0.035379708 1.6384898e-38
0.10069168 0.052949212 0.034357309 1.5738821e-38
0.10073888 0.056551896 0.033322394 1.4908692e-38
0.1008451 0.061012648 0.03241992 1.3897394e-38
0.10088164 0.065510564 0.031665981 1.2886863e-38
0.10100269 0.069320492 0.030828118 1.2516664e-38
0.10112375 0.073130421 0.029990196 1.2334759e-38
0.10139588 0.0767866 0.029232442 1.2150722e-38
0.10199028 0.080770247 0.028495431 1.2148941e-38
0.10140938 0.08457955 0.027021706 1.2425158e-38
0.098000437 0.053365909 0.033595204 1.5738828e-38
0.098101348 0.056540839 0.032896936 1.5000173e-38
0.097481132 0.060580797 0.031785965 1.4173272e-38
0.098424166 0.066700645 0.030662537 1.307054e-38
0.097417086 0.069364391 0.029752195 1.3438968e-38
0.096752554 0.072990589 0.028722823 1.3349623e-38
0.09698236 0.076296531 0.028032899 1.2888646e-38
0.09656015 0.080959044 0.026837945 1.2887574e-38
0.097019196 0.084254198 0.026024401 1.3438229e-38
0.096180946 0.087085627 0.024251759 1.4265839e-38
0.09365046 0.073525719 0.027678013 1.3808813e-38
0.093550086 0.080183096 0.02612114 1.2979405e-38
0.093260258 0.084804527 0.024974942 1.4727529e-38
0.0929842 0.087541826 0.023502171 1.5464031e-38
0.089038193 0.085430689 0.02357626 1.6201259e-38
0.089379162 0.087753318 0.022877932 1.8042644e-38
0.085291445 0.085310839 0.022490025 1.6298118e-38
0.085647821 0.087048016 0.021485507 1.9335178e-38
0.082169175 0.085210972 0.021584809 1.3720961e-38
0.082033932 0.08621081 0.020247042 1.5649888e-38
0.079167962 0.088921003 0.019841671 1.3524359e-38
0.077602327 0.091272347 0.018302917 1.2784974e-38
0.077175736 0.095015101 0.017139494 1.1225889e-38
0.074739575 0.095828123 0.016727388 1.0678462e-38
0.074505746 0.098656632 0.015822232 1.1689033e-38
0.073787898 0.10114899 0.014369488 1.2518814e-38
0.07191664 0.096301161 0.015993357 1.1137604e-38
0.071997315 0.098841123 0.015434682 1.1505362e-38
0.072098225 0.10201605 0.014736414 1.261208e-38
0.204322 0.093377821 0.029318511 1.012964e-38
0.17381656 0.081111111 0.021501422 1.3441479e-38
0.17404836 0.092267267 0.0203318 1.3259966e-38
0.16976359 0.058468513 0.027052999 1.7492323e-38
0.08741045 0.097282834 0.0032832623 1.3989635e-38
0.1627672 0.087945305 0.018211961 1.2801118e-38
0.16121636 0.079139359 0.024414897 1.5929322e-38
0.14818725 0.079695456 0.022657037 1.353259e-38
0.18661395 0.025871448 0.063038349 6.5379724e-39
0.17537862 0.038188085 0.050108552 1.8051991e-38
0.18284604 0.023896351 0.066644073 5.895477e-39
0.18516044 0.13579649 0.04308939 2.248639e-38
0.18585286 0.1377373 0.043562055 2.2958503e-38
0.17864259 0.019161172 0.069685161 7.6403515e-39
0.17833307 0.021574758 0.068208694 6.719086e-39
0.17860137 0.024663568 0.065562308 5.9847636e-39
0.18265007 0.13569784 0.040941417 2.2753617e-38
0.18211159 0.1383374 0.041701913 2.2952392e-38
0.17453448 0.02147191 0.06722188 6.7219615e-39
0.17545599 0.024813659 0.064503849 7.4570238e-39
0.17952323 0.1355978 0.04003489 2.2195392e-38
0.17863931 0.13848418 0.040296972 2.2392727e-38
0.17782086 0.14130315 0.040356576 2.295238e-38
0.17110525 0.018920071 0.067499936 7.1818396e-39
0.17076948 0.021351486 0.06613028 7.3662589e-39
0.17146841 0.024644136 0.063090503 8.6552223e-39
0.17522646 0.13800144 0.038206339 2.2107163e-38
0.17655802 0.14058512 0.038009524 2.3040985e-38
0.16724613 0.021483727 0.065459549 8.2860544e-39
0.16744813 0.024899475 0.063261032 9.851962e-39
0.17108643 0.1382792 0.038217604 2.1274882e-38
0.16350934 0.025110371 0.063154399 1.0495903e-38
0.16729087 0.13800609 0.037830055 2.0812798e-38
0.16004278 0.026222907 0.062536418 1.1507893e-38
0.15981758 0.02746249 0.060048938 1.2336562e-38
0.16313058 0.13781512 0.037323833 1.9985172e-38
0.15664238 0.028653108 0.058679283 1.4176866e-38
0.15947971 0.1349704 0.03528893 1.9523849e-38
0.15958428 0.13746598 0.036616862 1.9985881e-38
0.15215066 0.029072143 0.059002876 1.6294489e-38
0.15182006 0.03052716 0.055900335 1.7400852e-38
0.15596932 0.13459572 0.03450942 1.9246914e-38
0.15415233 0.1370565 0.035363078 1.9064336e-38
0.14853433 0.029364094 0.058394909 1.8506477e-38
0.14922178 0.031139001 0.055343747 1.8411781e-38
0.15244091 0.13426191 0.032824993 1.8786305e-38
0.14508985 0.029572949 0.057323158 1.9705032e-38
0.14501071 0.031422041 0.054891706 1.9978747e-38
0.14821437 0.13332576 0.031249285 1.8876694e-38
0.14132456 0.032187089 0.054536104 2.0346077e-38
0.14038207 0.034290545 0.051637113 1.9977296e-38
0.14313059 0.13062206 0.030358195 1.8235285e-38
0.14429665 0.13327792 0.032410085 1.8695182e-38
0.13767427 0.033164077 0.054295063 2.0345032e-38
0.13691369 0.034772016 0.051350236 1.9516339e-38
0.14000373 0.13052204 0.029451668 1.8053762e-38
0.14062357 0.13317478 0.031804681 1.8788456e-38
0.13336644 0.035147652 0.0513134 1.9239749e-38
0.13625151 0.130402 0.028363764 1.261822e-38
0.13668829 0.13245109 0.030516088 1.4827683e-38
0.12896052 0.036253408 0.050195038 1.8689076e-38
0.1319887 0.13011095 0.027697504 8.93037e-39
0.13225475 0.1327174 0.029635549 9.3917195e-39
0.1252338 0.036594488 0.049810171 1.9145724e-38
0.12517166 0.037298001 0.046425819 1.8685825e-38
0.1289739 0.12985975 0.027393043 8.7502751e-39
0.12802908 0.13206488 0.027674496 6.8156243e-39
0.12165445 0.037769794 0.045699418 1.8318485e-38
0.11768103 0.038861118 0.045620978 1.8227729e-38
0.11678708 0.041672491 0.043998301 1.6660768e-38
0.11861792 0.086639516 0.033160031 6.0716006e-39
0.11342144 0.040044978 0.045507371 1.804263e-38
0.11419079 0.042041399 0.043008208 1.7492667e-38
0.11486572 0.086519487 0.032072246 7.3608779e-39
0.1149061 0.087791316 0.031792462 7.6363886e-39
0.11027429 0.042231165 0.04264617 1.7952937e-38
0.11072809 0.044776879 0.040416956 1.7861463e-38
0.11192039 0.08557824 0.031412542 8.3703621e-39
0.10721853 0.042415373 0.04183805 1.7859319e-38
0.10705435 0.045503773 0.039425075 1.8227013e-38
0.10614893 0.04812438 0.038287878 1.7584174e-38
0.10857162 0.08504761 0.030538857 1.012386e-38
0.10286531 0.043535657 0.041568756 1.7400868e-38
0.10282609 0.045837231 0.039723635 1.7213948e-38
0.10352838 0.048744805 0.037722588 1.7028489e-38
0.10473856 0.082383923 0.030010402 1.150393e-38
0.10477898 0.083655752 0.029730678 1.1502856e-38
0.099414259 0.046828233 0.03978765 1.711886e-38
0.099299431 0.049250253 0.037195206 1.6659335e-38
0.098765731 0.05169984 0.035273075 1.6107598e-38
0.099614382 0.078408383 0.029399037 1.279465e-38
0.10044563 0.080976062 0.029057264 1.2425884e-38
0.09528178 0.049487047 0.03700006 1.693377e-38
0.095819056 0.052755348 0.034460187 1.6106176e-38
0.095800519 0.056687169 0.03324765 1.518528e-38
0.096218646 0.061419703 0.032286465 1.417507e-38
0.096547395 0.065446027 0.031460583 1.3438602e-38
0.095538884 0.068113677 0.030548871 1.3805961e-38
0.097088665 0.07756526 0.028841615 1.2887924e-38
0.097798884 0.080256127 0.028435528 1.2887571e-38
0.091409743 0.050315462 0.036608398 1.7211436e-38
0.091686845 0.053171836 0.034967482 1.6660773e-38
0.092096508 0.0568619 0.033530712 1.5923917e-38
0.092815161 0.061038576 0.031362116 1.5095235e-38
0.092956573 0.065489985 0.03038311 1.4175446e-38
0.093077809 0.069305502 0.029543996 1.4176177e-38
0.092250884 0.072773032 0.028502762 1.3900654e-38
0.093163967 0.076931499 0.027820408 1.3164882e-38
0.093038082 0.081162624 0.026812434 1.2794641e-38
0.092291802 0.083891593 0.025964677 1.3623686e-38
0.088439554 0.053602152 0.034971654 1.6937352e-38
0.087705791 0.057039149 0.033727884 1.6475664e-38
0.088437557 0.060898535 0.030092955 1.6016472e-38
0.088578999 0.065349959 0.029113948 1.5371116e-38
0.088700205 0.069165461 0.028274834 1.4542081e-38
0.088821471 0.072980963 0.02743566 1.3990686e-38
0.088942677 0.076796465 0.026596546 1.3440403e-38
0.089063913 0.080611996 0.025757432 1.2794657e-38
0.089102209 0.084001325 0.024991333 1.3623372e-38
0.084168524 0.057051189 0.03251034 1.6385264e-38
0.084362805 0.065373905 0.027855158 1.5004494e-38
0.084679991 0.069036879 0.027109325 1.4359838e-38
0.08448419 0.072744884 0.026467502 1.3808104e-38
0.084599257 0.076990418 0.026685238 1.3717346e-38
0.084573448 0.080894344 0.026138127 1.297762e-38
0.084714174 0.084245346 0.024343133 1.3618357e-38
0.080091953 0.057482518 0.031600237 1.5743852e-38
0.080402613 0.060839318 0.029854357 1.5467249e-38
0.08031109 0.065435849 0.029078066 1.4821168e-38
0.080712408 0.06941653 0.02811259 1.3991417e-38
0.080758125 0.073359154 0.026935756 1.3439691e-38
0.08098951 0.077228598 0.027070761 1.2889377e-38
0.081259578 0.080909513 0.026421249 1.2518071e-38
0.081070632 0.084089659 0.024007916 1.2055685e-38
0.077599794 0.05804085 0.030731261 1.537399e-38
0.077050865 0.061272271 0.029674411 1.5005554e-38
0.076739043 0.065510504 0.028762162 1.4542795e-38
0.076708853 0.069497399 0.027838707 1.3899572e-38
0.07705754 0.072571225 0.027237236 1.3255653e-38
0.077545792 0.085040234 0.024308741 1.3438249e-38
0.077294558 0.087934338 0.020884454 1.5001629e-38
0.073642373 0.065145575 0.027925253 1.4542458e-38
0.074237049 0.070694439 0.026829302 1.3254927e-38
0.07427761 0.071971856 0.026548326 1.3162724e-38
0.073383212 0.08536502 0.022783279 1.5097752e-38
0.073511422 0.088164799 0.021843314 1.5371827e-38
0.073383629 0.091786601 0.019482613 1.3163079e-38
0.073571682 0.094410025 0.017987251 1.1229827e-38
0.073007435 0.10614448 0.015127957 1.3808106e-38
0.068949312 0.082010336 0.022661924 1.4453452e-38
0.069490701 0.084944479 0.022149801 1.4728252e-38
0.069571793 0.088256769 0.021307349 1.4174368e-38
0.069214731 0.092148833 0.019480586 1.2335116e-38
0.069768071 0.09522029 0.017204881 1.1231254e-38
0.069658309 0.099049382 0.015759826 1.1230571e-38
0.06984666 0.10321344 0.016142607 1.2796463e-38
0.070550799 0.10643276 0.015666783 1.3626565e-38
0.06579861 0.081590526 0.021821558 1.2885793e-38
0.065889895 0.084464721 0.021189511 1.2795031e-38
0.065918326 0.088420413 0.020157158 1.2426237e-38
0.06600219 0.092079364 0.019298255 1.16919e-38
0.066017568 0.095721953 0.01775527 1.104799e-38
0.066217065 0.099344246 0.016195238 1.150715e-38
0.066570342 0.10336771 0.01687789 1.2612429e-38
0.067836165 0.10622089 0.016777754 1.426977e-38
0.063499242 0.08821658 0.019618213 1.150498e-38
0.063621014 0.092048816 0.018775403 1.0862144e-38
0.063114643 0.095860951 0.017750502 1.05852e-38
0.062817693 0.099679805 0.016786277 1.1782999e-38
0.06394574 0.10226812 0.016527891 1.2151084e-38
0.20334591 0.067875169 0.033428311 1.0219656e-38
0.20527957 0.086531721 0.030995369 7.2719347e-39
0.14662412 0.078825407 0.019849181 1.4913732e-38
0.15456684 0.08281263 0.020954609 1.4824774e-38
0.13857955 0.10339548 0.022020102 1.2889753e-38
0.12614566 0.056844346 0.026209474 1.1503911e-38
0.11473155 0.078850679 0.030468106 9.3873783e-39
0.18358022 0.13947174 0.046227276 2.2957428e-38
0.18223129 0.14151776 0.045891047 2.3417663e-38
0.17314172 0.14280978 0.04182446 2.3218874e-38
0.16470286 0.021037154 0.067781568 8.3771766e-39
0.16992253 0.14291838 0.041910827 2.2750019e-38
0.16941993 0.14529553 0.042284429 2.2845449e-38
0.16289195 0.019299291 0.069244146 8.1020373e-39
0.16224086 0.021820344 0.067270637 9.0222027e-39
0.16118708 0.024043098 0.065512836 1.0220396e-38
0.16584329 0.14142141 0.041041613 2.0995038e-38
0.15826598 0.022681065 0.067093372 1.0311865e-38
