# .PCD v0.7 - Point Cloud Data file format
VERSION 0.7
FIELDS x y z rgb
SIZE 4 4 4 4
TYPE F F F F
COUNT 1 1 1 1
WIDTH 981
HEIGHT 1
VIEWPOINT 0 0 0 0 1 0 0
POINTS 981
DATA ascii
0.17824468 0.0030519962 0.044101238 7.8240183e-39
0.17921716 0.0059626102 0.042868197 7.3640855e-39
0.17985789 0.10853001 0.037437141 2.2484589e-38
0.17916068 0.11090402 0.038407326 2.2581088e-38
0.17549105 0 0.043644667 7.6464611e-39
0.17668211 0.002134759 0.042693555 7.8240477e-39
0.17577371 0.11159487 0.037004292 2.2755413e-38
0.1704322 0.012284126 0.041129172 9.0236208e-39
0.17167488 0.015458506 0.041308641 9.2962673e-39
0.17133848 0.019730069 0.04098469 1.0771399e-38
0.17236067 0.11251354 0.036136031 2.2476651e-38
0.17124255 0.1141765 0.036878824 2.2379433e-38
0.16770175 0.012550641 0.04184562 1.0403325e-38
0.16900526 0.016024623 0.041703343 1.1323848e-38
0.16765739 0.019804664 0.041837156 1.3535101e-38
0.16961995 0.11278186 0.035185218 2.2564529e-38
0.16793057 0.11463365 0.035827696 2.2841127e-38
0.16347478 0.020715132 0.041581154 1.5835997e-38
0.16398992 0.022372514 0.04055202 1.5467548e-38
0.16431037 0.11605846 0.035686374 2.2657438e-38
0.15958068 0.02059136 0.040979624 1.7863233e-38
0.15957445 0.022923723 0.039395511 1.6848008e-38
0.16037747 0.1160463 0.033986092 2.1274164e-38
0.15885754 0.11830634 0.035210669 2.1275242e-38
0.1549523 0.020995952 0.040232778 1.9520631e-38
0.15510511 0.023275763 0.038531601 1.8963869e-38
0.15641706 0.11653924 0.032903969 2.1273444e-38
0.15555762 0.11854148 0.033836484 2.1181951e-38
0.15084678 0.020658575 0.039610505 1.9616427e-38
0.15132558 0.023258839 0.037941873 1.9795066e-38
0.15184377 0.11849736 0.032920659 2.1275608e-38
0.14737552 0.020962019 0.039050341 1.9337669e-38
0.14754605 0.023241907 0.037352026 1.9706446e-38
0.1481868 0.11929133 0.032471895 2.035653e-38
0.14656085 0.12176019 0.033088684 1.8510826e-38
0.14358711 0.020945057 0.038459182 1.8417884e-38
0.14396919 0.023595095 0.03667599 1.9246921e-38
0.14531064 0.11988195 0.030974448 1.759065e-38
0.14391413 0.12248074 0.03128159 1.3351425e-38
0.13987982 0.023378622 0.036725044 1.8507584e-38
0.13901854 0.0261373 0.03541702 1.9609242e-38
0.14073554 0.12368517 0.031053007 1.0681749e-38
0.13628116 0.023527905 0.036041379 1.8046579e-38
0.13524142 0.026120387 0.03482759 1.8319215e-38
0.13669972 0.12332721 0.030442715 1.2063935e-38
0.13267243 0.024433244 0.036044419 1.7397986e-38
0.13193078 0.027340405 0.034949183 1.795368e-38
0.13148126 0.029920049 0.034019947 1.786149e-38
0.12805741 0.027786002 0.035230279 1.7032809e-38
0.12380749 0.031394951 0.034509182 1.6939497e-38
0.12268499 0.033697166 0.032426357 1.6938079e-38
0.11959404 0.033958837 0.032941759 1.6661865e-38
0.11608234 0.035654895 0.032497466 1.6571459e-38
0.11546674 0.038435474 0.031023741 1.6662959e-38
0.11261128 0.038871631 0.032000482 1.6203043e-38
0.11209218 0.042039722 0.030490458 1.6386681e-38
0.11118761 0.087769121 0.029020071 7.8182799e-39
0.10895091 0.041205492 0.031872451 1.6019339e-38
0.10857466 0.043779604 0.030763626 1.6020059e-38
0.10826264 0.046354264 0.02943939 1.5931474e-38
0.10840686 0.078795232 0.027584195 5.6109616e-39
0.10987744 0.087131724 0.029021084 7.3587199e-39
0.10860462 0.09092398 0.027926743 9.290159e-39
0.10580809 0.044381347 0.031197369 1.592539e-38
0.10431999 0.047420189 0.029051006 1.4083621e-38
0.10496785 0.076467901 0.028195024 4.8773594e-39
0.10623695 0.078172982 0.028294683 5.4276381e-39
0.10493943 0.090921015 0.02769196 1.0028783e-38
0.10490464 0.093409494 0.026190817 1.1039354e-38
0.10484603 0.11818984 0.025963843 2.2579652e-38
0.10119651 0.047818311 0.029669464 1.3530452e-38
0.10002764 0.051084399 0.028131723 1.3070899e-38
0.098569483 0.055205368 0.028425574 1.0950021e-38
0.098683134 0.05902911 0.027884126 8.5547323e-39
0.099398136 0.063107207 0.027084112 6.4374909e-39
0.099299163 0.066926219 0.027252972 6.8062986e-39
0.099657983 0.071133085 0.027420342 7.1740049e-39
0.10216151 0.076264322 0.028781891 5.892205e-39
0.10077032 0.091635495 0.027095497 1.1501768e-38
0.10028815 0.093388811 0.025470316 1.1960581e-38
0.10234869 0.11837225 0.026373923 2.2675805e-38
0.098259643 0.050727401 0.029650152 1.2885434e-38
0.097016692 0.055187739 0.029197693 1.0765987e-38
0.097033724 0.059015736 0.028978765 9.2004493e-39
0.096661195 0.062586874 0.028308332 8.462171e-39
0.097062081 0.06539572 0.028613925 7.9983356e-39
0.09834756 0.070505366 0.028519094 7.7307674e-39
0.096621275 0.091859058 0.026759923 1.2332606e-38
0.096412614 0.093386918 0.025202632 1.2607391e-38
0.092130005 0.092169054 0.026293278 1.334603e-38
0.092587218 0.094013602 0.024737358 1.3067657e-38
0.088911042 0.094912365 0.024617553 1.3249891e-38
0.084776551 0.095930591 0.024250329 1.2791799e-38
0.08480531 0.097467043 0.023067534 1.2513384e-38
0.081109211 0.098444313 0.023193657 1.2693124e-38
0.077458173 0.099170938 0.022175312 1.3252052e-38
0.075226247 0.11999213 0.020013094 1.5104939e-38
0.07448484 0.099745862 0.023096621 1.2794273e-38
0.072618961 0.10247189 0.021430552 1.2146035e-38
0.073036358 0.10754921 0.0219841 1.1317388e-38
0.073278174 0.11102775 0.021748126 1.0948989e-38
0.072648749 0.11490044 0.020017564 1.150573e-38
0.072702497 0.11870866 0.019692898 1.2610993e-38
0.072729617 0.12253286 0.020858228 1.4088978e-38
0.072072715 0.12525451 0.021243036 1.4550678e-38
0.069804654 0.11216563 0.021646142 9.6603989e-39
0.06838727 0.11499483 0.020810366 1.0674184e-38
0.068552852 0.11878386 0.020166337 1.1503937e-38
0.068858743 0.12221843 0.020409584 1.298049e-38
0.070809901 0.12524885 0.021046042 1.4365565e-38
0.065716162 0.11565625 0.020805061 1.0858225e-38
0.065727517 0.11820824 0.020659029 1.0953287e-38
0.16803661 0.053194799 0.020426989 1.3255286e-38
0.16234639 0.05819064 0.020119131 1.3808469e-38
0.15940261 0.054982182 0.019750774 1.1597927e-38
0.12360562 0.075982474 0.019928455 2.0355071e-38
0.091076404 0.12856537 0.0052666664 2.2564172e-38
0.16886151 0.060004685 0.019828439 1.0771039e-38
0.16992664 0.025400832 0.040580571 1.1232719e-38
0.093608737 0.098106608 0.020731568 1.2790687e-38
0.083198309 0.10254163 0.021159768 1.3067645e-38
0.18122362 0.1145668 0.042978406 2.341769e-38
0.17851442 0.0001815632 0.047148287 8.5655265e-39
0.17974254 0.0043169335 0.047438741 6.6265485e-39
0.17998074 0.0076283664 0.045932591 5.6163356e-39
0.17941585 0.11276841 0.040265441 2.2678684e-38
0.17860109 0.11499169 0.041530073 2.267797e-38
0.17499423 0.11532328 0.040223002 2.2573185e-38
0.17155913 0.11603919 0.039644659 2.2383376e-38
0.16980779 0.11836641 0.040974081 2.2200078e-38
0.16673851 0.015875205 0.043385327 1.2064283e-38
0.16794929 0.11659383 0.038758576 2.2565971e-38
0.16699798 0.11865409 0.040264726 2.2291902e-38
0.1628571 0.012186233 0.045743942 1.2523463e-38
0.16317087 0.015712053 0.044977248 1.4824014e-38
0.16384339 0.018929161 0.042755961 1.5653422e-38
0.1636968 0.11952073 0.038712978 2.2383372e-38
0.16283812 0.12218593 0.039663553 2.229479e-38
0.16044758 0.013071027 0.045605719 1.4084683e-38
0.15934248 0.015686952 0.04449302 1.6484645e-38
0.15969655 0.018685989 0.042628765 1.7681374e-38
0.16036938 0.11974427 0.036667287 2.2015314e-38
0.15968302 0.1229999 0.038109601 2.247954e-38
0.15481073 0.015635513 0.044238269 1.6852003e-38
0.155166 0.018952258 0.042412102 1.9244043e-38
0.15582222 0.12061201 0.035616577 2.0999723e-38
0.15540875 0.1232629 0.037794769 2.1462513e-38
0.15033412 0.016245972 0.043672144 1.7499171e-38
0.15102838 0.018819097 0.041570187 1.9156546e-38
0.15139584 0.12059218 0.034925938 2.1551476e-38
0.15086906 0.12337649 0.037273228 2.1001183e-38
0.1464911 0.016859256 0.043204904 1.6946729e-38
0.14700559 0.018937655 0.040799499 1.8418244e-38
0.14742097 0.12343796 0.035787225 1.8516209e-38
0.14634383 0.12660459 0.036829591 1.5746761e-38
0.14268011 0.016842183 0.042610228 1.6302783e-38
0.14310306 0.019163195 0.04065913 1.7865789e-38
0.144666 0.12396972 0.033678532 1.3534067e-38
0.14344235 0.12711754 0.035107255 1.1876683e-38
0.14247924 0.13979566 0.033096492 2.2949512e-38
0.13935348 0.019640639 0.040534198 1.7036031e-38
0.13970272 0.1267828 0.035057008 1.1968159e-38
0.13877037 0.13748109 0.035016179 2.0261489e-38
0.13964345 0.13993669 0.033996761 2.2761179e-38
0.13536941 0.12444604 0.033211529 1.2434151e-38
0.13646905 0.12631513 0.034964859 1.298302e-38
0.13634419 0.13464636 0.034801066 1.7864346e-38
0.13151272 0.022626489 0.039515972 1.6940241e-38
0.13211812 0.12353458 0.034175336 9.7615572e-39
0.12771167 0.023891468 0.038848579 1.6479983e-38
0.12720534 0.026310861 0.037277699 1.6755141e-38
0.12397562 0.024139002 0.039264083 1.6018645e-38
0.12385555 0.02693779 0.037689269 1.6571091e-38
0.12258337 0.030553523 0.036309659 1.6847667e-38
0.12062323 0.027268749 0.0385589 1.6295219e-38
0.11893685 0.030740909 0.037790179 1.62016e-38
0.11516352 0.031938534 0.037435293 1.6293442e-38
0.11560413 0.034814321 0.034296215 1.6572166e-38
0.11131836 0.03535936 0.03545332 1.5924657e-38
0.11055963 0.037986413 0.033324063 1.5552636e-38
0.10813831 0.036809325 0.035717189 1.5553333e-38
0.10750207 0.039479457 0.03406322 1.5556948e-38
0.10703684 0.080834143 0.032320976 4.599318e-39
0.10691023 0.083412193 0.032658756 4.96776e-39
0.10743284 0.087193877 0.030663013 7.2672487e-39
0.10699566 0.089724362 0.029772282 8.6473007e-39
0.10782774 0.11608382 0.03040427 2.2847589e-38
0.10706481 0.11804415 0.030678332 2.3214192e-38
0.10258016 0.076969154 0.031848013 5.7074578e-39
0.10370171 0.079698451 0.031865358 6.0733453e-39
0.10362765 0.083409719 0.032540143 6.6261631e-39
0.1042053 0.087187611 0.030384064 7.9104419e-39
0.10249758 0.12191569 0.030247271 2.3035176e-38
0.10055432 0.044473037 0.034088254 1.3988887e-38
0.099158853 0.046627525 0.032731473 1.3714488e-38
0.099262238 0.0763238 0.031873584 7.1797208e-39
0.10021195 0.079356715 0.032063782 7.362289e-39
0.099817291 0.083392657 0.031945527 8.191328e-39
0.10034266 0.087178506 0.030006111 9.4777789e-39
0.10067223 0.089696042 0.028785586 1.086035e-38
0.10122153 0.1206264 0.030122519 2.2677945e-38
0.10122725 0.12191001 0.030049086 2.3035944e-38
0.097052366 0.048326991 0.03230387 1.3529727e-38
0.095732018 0.050979946 0.032535255 1.2422664e-38
0.095281348 0.058998339 0.030395627 9.8465376e-39
0.095499903 0.064115398 0.029457688 9.849783e-39
0.095837772 0.067315012 0.029663324 9.9401919e-39
0.096073166 0.071671948 0.031137466 9.0200419e-39
0.096364886 0.075893328 0.03195262 8.7431117e-39
0.096115708 0.079368569 0.031712472 9.3891986e-39
0.096007377 0.083375596 0.03135097 9.9394787e-39
0.096347928 0.087186038 0.030057073 1.1044052e-38
0.096510142 0.090204813 0.028510988 1.1964199e-38
0.092844039 0.060262211 0.031800032 1.0307172e-38
0.092342824 0.062985763 0.031690836 1.086036e-38
0.092190951 0.067314968 0.031458795 1.1228415e-38
0.092112392 0.071809612 0.03152436 1.1413877e-38
0.092129529 0.075660422 0.031304061 1.1598975e-38
0.092183322 0.079348013 0.030972302 1.1138344e-38
0.092196584 0.083358526 0.030756295 1.150426e-38
0.092478186 0.087177329 0.029678106 1.214751e-38
0.092471242 0.090424381 0.028330386 1.2699591e-38
0.089133099 0.06837339 0.031257451 1.2333317e-38
0.089152113 0.072652072 0.031012774 1.2702097e-38
0.088953733 0.075646199 0.030808389 1.2058144e-38
0.088335663 0.079494171 0.030489147 1.1780834e-38
0.088193998 0.083344273 0.030244112 1.2241481e-38
0.088013396 0.087160237 0.029065549 1.2517012e-38
0.087918103 0.090838566 0.02794224 1.2976184e-38
0.087201238 0.093895294 0.026436925 1.3158055e-38
0.085159838 0.079479948 0.029993534 1.2148949e-38
0.084905565 0.083512917 0.029720366 1.2241862e-38
0.084026635 0.087163731 0.029033601 1.2333702e-38
0.084067568 0.091155082 0.027843475 1.2606308e-38
0.084043056 0.094125673 0.026605725 1.2883618e-38
0.082006872 0.084600136 0.029204249 1.2609922e-38
0.081388801 0.088448107 0.028884947 1.2333699e-38
0.081272066 0.090758026 0.028733015 1.2424439e-38
0.080281973 0.094979905 0.027030468 1.2605948e-38
0.076976925 0.09612982 0.027750671 1.3159129e-38
0.075532019 0.12408604 0.022865236 1.685164e-38
0.074896619 0.12683249 0.0246346 1.5466896e-38
0.072129667 0.099493735 0.026122391 1.2515546e-38
0.074267328 0.12408038 0.022667944 1.5654526e-38
0.072846144 0.12688674 0.023297071 1.4547818e-38
0.071408793 0.12947793 0.024950087 1.4918009e-38
0.068960726 0.10424571 0.025013983 1.2147833e-38
0.068838 0.10750267 0.023679852 1.1315222e-38
0.068895429 0.11051086 0.022613645 1.0302877e-38
0.067943931 0.12405206 0.02168113 1.3631939e-38
0.068770215 0.12685627 0.022535086 1.37202e-38
0.069034547 0.12941748 0.024075508 1.3442195e-38
0.064313561 0.10505816 0.025254548 1.2241113e-38
0.064626157 0.10756668 0.024256885 1.1689035e-38
0.065282106 0.1112772 0.022229731 1.0766702e-38
0.064424872 0.11477172 0.021668255 1.0674907e-38
0.064444751 0.11924436 0.021412492 1.1046922e-38
0.064996719 0.12298925 0.022042274 1.1968141e-38
0.064695105 0.1266848 0.023682058 1.2704982e-38
0.060502589 0.10504109 0.024659872 1.2334394e-38
0.060781732 0.10755674 0.0237692 1.1781966e-38
0.060951397 0.11137135 0.023124397 1.0585934e-38
0.061273575 0.1151466 0.02205503 1.0307535e-38
0.061214566 0.11900507 0.022047937 1.0862148e-38
0.061176106 0.12254225 0.023245096 1.1874833e-38
0.057657182 0.1079164 0.024048567 1.1411744e-38
0.057413295 0.11143298 0.02363801 1.1135495e-38
0.057546377 0.11525713 0.023099422 1.1687957e-38
0.057585016 0.11887418 0.023200274 1.2519133e-38
0.058036134 0.12171657 0.023308992 1.2243983e-38
0.15978558 0.066990703 0.018866181 1.1506451e-38
0.15753111 0.069240972 0.018576562 1.2336571e-38
0.14292783 0.090365022 0.016315043 1.2889403e-38
0.15696359 0.077033214 0.02366513 1.6298833e-38
0.14922637 0.066714898 0.022712588 1.5744219e-38
0.17211851 0.01755213 0.04127562 1.1141967e-38
0.078933761 0.1034399 0.019396305 1.3711969e-38
0.082427561 0.095172606 0.023679256 1.095255e-38
0.096364886 0.075893328 0.03195262 8.7431117e-39
0.084055319 0.09264037 0.027224541 1.2698865e-38
0.17854822 0.11702131 0.04520607 2.3049629e-38
0.17706019 0.11921495 0.046789706 2.3142182e-38
0.17534471 0.11718824 0.042921543 2.2489631e-38
0.17419615 0.12000833 0.045620263 2.2675452e-38
0.17072536 0.12005936 0.043934166 2.2390935e-38
0.17025401 0.1226308 0.045528054 2.2491427e-38
0.16719654 0.12056305 0.042263687 2.2295506e-38
0.1666123 0.12373123 0.044726074 2.2303429e-38
0.16306102 0.12412372 0.042772472 2.239347e-38
0.16189221 0.12650201 0.044334888 2.2305236e-38
0.15725562 0.0078603178 0.050223887 6.54228e-39
0.15836833 0.01137073 0.048673928 1.1879209e-38
0.15981933 0.12496961 0.041565061 2.2484565e-38
0.15852329 0.12673976 0.043034196 2.2392385e-38
0.15303355 0.0049121827 0.049987972 7.1829424e-39
0.15439269 0.0075308159 0.04971087 6.3546657e-39
0.15481734 0.011559464 0.047516584 1.0773604e-38
0.15438755 0.12480727 0.039204776 2.1923149e-38
0.15522105 0.12759657 0.04142642 2.248205e-38
0.15396614 0.13129067 0.042565346 2.2583616e-38
0.15053192 0.0075047165 0.049221456 5.7082019e-39
0.15071218 0.011442535 0.04823333 1.0403006e-38
0.15071554 0.01423949 0.045030594 1.4924873e-38
0.15116386 0.12735249 0.039659441 2.211363e-38
0.15124908 0.13144015 0.042131901 2.3042787e-38
0.14792898 0.0081220344 0.049004316 6.1669856e-39
0.14680696 0.011399306 0.047963262 9.8505481e-39
0.14638199 0.014689267 0.045485914 1.4919856e-38
0.14747453 0.12805516 0.038612068 1.8237838e-38
0.14677159 0.13086 0.040705323 1.73159e-38
0.14248633 0.011603676 0.047749221 1.0403716e-38
0.14207789 0.014724977 0.045341969 1.4367753e-38
0.14284676 0.13148639 0.038737595 1.4641131e-38
0.14294027 0.1353703 0.039929867 1.9436724e-38
0.14127545 0.1378254 0.03842926 2.0913302e-38
0.1373927 0.012923926 0.047079444 1.2429108e-38
0.13836724 0.015498862 0.044928432 1.4643244e-38
0.13737451 0.018036187 0.042725503 1.4734743e-38
0.13850208 0.12859255 0.03650254 1.3623365e-38
0.13904771 0.13121065 0.03688693 1.6025118e-38
0.13916676 0.13502294 0.03623426 1.7771804e-38
0.1404504 0.13759965 0.036285758 2.0262208e-38
0.13387123 0.016143054 0.045618474 1.3537272e-38
0.13439243 0.018999331 0.043014705 1.5561631e-38
0.13473769 0.12778386 0.036636829 1.270859e-38
0.13499534 0.13129404 0.03726244 1.3809557e-38
0.13360241 0.13392317 0.037455738 1.6862477e-38
0.13051811 0.016891126 0.045606256 1.3352872e-38
0.13046245 0.019785896 0.043909371 1.5286814e-38
0.13021272 0.12405625 0.035469353 6.9946485e-39
0.13107361 0.12744564 0.037210107 8.7470536e-39
0.13131993 0.13148667 0.038760602 1.2710787e-38
0.13133141 0.13407099 0.038612783 1.7322709e-38
0.12621656 0.017722934 0.045054674 1.2797176e-38
0.12621917 0.019983429 0.044200122 1.4361268e-38
0.12785007 0.021849971 0.041015983 1.565453e-38
0.12626183 0.11656463 0.038326859 6.5390135e-39
0.12678201 0.11976552 0.037884951 5.8003849e-39
0.12733126 0.12365834 0.037938535 6.6269534e-39
0.12822452 0.12690291 0.038035214 7.2708403e-39
0.12275183 0.020706251 0.043616235 1.3993211e-38
0.12201209 0.022934675 0.043082058 1.5191397e-38
0.12285848 0.11661561 0.038636684 5.8929267e-39
0.12368274 0.11943442 0.038771331 6.1684177e-39
0.11919525 0.021570757 0.043734431 1.445203e-38
0.11928079 0.023741812 0.04179734 1.5095973e-38
0.11864799 0.026629306 0.039300919 1.5923215e-38
0.11473756 0.024529673 0.041599154 1.5466193e-38
0.11540759 0.027450353 0.038746893 1.6109052e-38
0.11421525 0.031108636 0.038348794 1.6109062e-38
0.11384459 0.11335596 0.037585378 1.4159199e-38
0.11385322 0.11529563 0.037474513 1.3424514e-38
0.11210099 0.0250604 0.041071892 1.5742072e-38
0.1108063 0.02786503 0.04104507 1.6201257e-38
0.11090928 0.031981513 0.039471149 1.6109415e-38
0.11256486 0.11335023 0.037385702 1.8230115e-38
0.11108792 0.11580329 0.035390675 2.0075122e-38
0.11066824 0.11851408 0.036790371 1.9432299e-38
0.10835199 0.029280711 0.041593254 1.6016832e-38
0.10781498 0.032417264 0.040516794 1.5648803e-38
0.10657717 0.035522234 0.038166583 1.5464035e-38
0.10855088 0.11624636 0.032535434 2.2663169e-38
0.10748625 0.11975798 0.034080744 2.1548558e-38
0.10648328 0.12260918 0.034885406 2.2007391e-38
0.1031774 0.036130257 0.039374173 1.5556225e-38
0.102367 0.03926342 0.037207484 1.4636429e-38
0.10475424 0.12072853 0.031682611 2.3393555e-38
0.10343233 0.12352028 0.033848763 2.209957e-38
0.099851057 0.036139105 0.03986752 1.5095964e-38
0.098499253 0.039762892 0.038812697 1.4451314e-38
0.098657012 0.043119159 0.036066592 1.4173651e-38
0.097611517 0.074454948 0.035272062 7.2694194e-39
0.098213181 0.080206603 0.033005536 8.2806552e-39
0.09845297 0.12022829 0.032754123 2.2863069e-38
0.098995179 0.12382222 0.033531964 2.2196447e-38
0.09486331 0.043884229 0.038301528 1.4632458e-38
0.09426713 0.046915896 0.037188113 1.4080013e-38
0.093830183 0.051884685 0.035480499 1.1595037e-38
0.093398124 0.053794965 0.036823153 1.0859248e-38
0.094798714 0.075263634 0.032758057 9.3895601e-39
0.094399422 0.080832265 0.03237325 1.0311138e-38
0.096167266 0.12356205 0.033555627 2.2769047e-38
0.091816008 0.051835679 0.037702978 1.2977564e-38
0.091030329 0.055928394 0.037174284 1.1779751e-38
0.091096729 0.058741651 0.034656286 1.1134782e-38
0.090497047 0.061532579 0.032880366 1.168724e-38
0.091832131 0.07567884 0.032270312 1.160077e-38
0.09185499 0.080820873 0.031976223 1.1226951e-38
0.086720049 0.056985199 0.036608338 1.5188877e-38
0.087102771 0.059792351 0.035266638 1.3897407e-38
0.087877229 0.063835606 0.033047199 1.2792126e-38
0.087556213 0.067732558 0.032061815 1.2609545e-38
0.087572396 0.071374834 0.031853557 1.2610267e-38
0.087506622 0.075659469 0.03159523 1.2150359e-38
0.089322001 0.083380483 0.031432152 1.2332587e-38
0.083101064 0.060203128 0.035180509 1.5188519e-38
0.083529949 0.064077616 0.033671618 1.4266205e-38
0.083701134 0.07180699 0.032800376 1.3253124e-38
0.084060848 0.075652398 0.031507671 1.2516301e-38
0.082943812 0.079495475 0.030659974 1.2425179e-38
0.082958102 0.082709245 0.030476213 1.2426264e-38
0.07925576 0.060346268 0.035120308 1.527819e-38
0.079317361 0.064062178 0.03425312 1.4817219e-38
0.079404444 0.067935117 0.033817172 1.4173622e-38
0.079491526 0.071806364 0.033381462 1.389527e-38
0.079578787 0.075673811 0.032945991 1.3436095e-38
0.079909667 0.079521067 0.031761289 1.2976546e-38
0.080178246 0.083186164 0.030267596 1.2885061e-38
0.080250323 0.086829014 0.029814482 1.2517724e-38
0.079178616 0.091047943 0.029402733 1.2701382e-38
0.078302979 0.13123295 0.030319273 1.749273e-38
0.076499403 0.060818687 0.034788907 1.4818284e-38
0.075873926 0.064048603 0.034504175 1.4817589e-38
0.075451747 0.068086326 0.034077704 1.4447355e-38
0.075374573 0.071800202 0.033639431 1.4540269e-38
0.07567662 0.075660512 0.032562077 1.4172221e-38
0.075942904 0.07951504 0.03159219 1.3621189e-38
0.076025397 0.083480269 0.030361772 1.343752e-38
0.075805634 0.087332778 0.030196548 1.3437867e-38
0.076251626 0.091180027 0.029343188 1.3253838e-38
0.075759649 0.09463197 0.028660893 1.2885073e-38
0.076224729 0.12789717 0.027821958 1.6391366e-38
0.075959519 0.13115457 0.029281557 1.5744929e-38
0.075355127 0.13436913 0.030149937 1.5471564e-38
0.071943507 0.072306752 0.033411801 1.5277104e-38
0.071699604 0.075651057 0.032391548 1.5092713e-38
0.072114974 0.079497896 0.030994833 1.4265482e-38
0.071971968 0.083203942 0.030757904 1.4081465e-38
0.071783975 0.087047935 0.030506074 1.4358025e-38
0.072006345 0.090939805 0.030315518 1.3437876e-38
0.07165423 0.094950512 0.029690504 1.2792874e-38
0.071321785 0.097954348 0.02777493 1.2607023e-38
0.072355151 0.13120598 0.026822805 1.5194956e-38
0.072072804 0.13503286 0.028674781 1.3906365e-38
0.071082652 0.1377331 0.029490232 1.2797543e-38
0.068235725 0.073066004 0.032788277 1.546186e-38
0.067754388 0.075640395 0.032113373 1.5368947e-38
0.068139419 0.079490982 0.030824304 1.4817938e-38
0.068156421 0.083361864 0.030602872 1.4267661e-38
0.068100035 0.087240189 0.030594826 1.3988535e-38
0.068154067 0.091107145 0.030266881 1.334534e-38
0.068318829 0.094957449 0.029619217 1.288508e-38
0.067392617 0.098766752 0.028240144 1.2702108e-38
0.067415863 0.10238095 0.0269081 1.2425152e-38
0.067344934 0.13132977 0.026380122 1.3257445e-38
0.068239421 0.13501611 0.02807653 1.3347092e-38
0.067883283 0.13771877 0.028990924 1.3350709e-38
0.064581275 0.076918066 0.031487107 1.5645541e-38
0.064155921 0.079658642 0.031135201 1.5095603e-38
0.063951731 0.083377451 0.031071186 1.4451314e-38
0.064006388 0.087250739 0.030742824 1.3988182e-38
0.064061046 0.091122136 0.030414641 1.3530445e-38
0.064153537 0.094987065 0.029980063 1.3438239e-38
0.063682377 0.098975047 0.028404474 1.3254197e-38
0.063587725 0.10261249 0.027422845 1.2701369e-38
0.062805653 0.12825355 0.024689972 1.2979418e-38
0.063825026 0.13079624 0.025969386 1.3625502e-38
0.064318031 0.13491549 0.028215706 1.3898869e-38
0.061248899 0.084672488 0.031024337 1.4543504e-38
0.059997931 0.09113232 0.030454874 1.4174013e-38
0.059999853 0.095106348 0.029515564 1.3807013e-38
0.059654996 0.098702706 0.028672755 1.3163076e-38
0.059687912 0.10260829 0.027038693 1.2518783e-38
0.059394017 0.12395333 0.024405539 1.3348132e-38
0.059909955 0.12705156 0.025320709 1.3347812e-38
0.059921935 0.13110393 0.026988864 1.2053499e-38
0.060827509 0.1338079 0.028114438 9.9366242e-39
0.0574442 0.092413977 0.029981494 1.3990689e-38
0.056015283 0.094832107 0.029618144 1.3253147e-38
0.055263385 0.098815657 0.028256297 1.1964915e-38
0.055749819 0.10325424 0.026723683 1.1873065e-38
0.055588678 0.10739644 0.024769127 1.1688329e-38
0.055098087 0.11150778 0.024454474 1.1871282e-38
0.055115238 0.1153643 0.024233878 1.3164525e-38
0.055276021 0.11958599 0.024521649 1.2244299e-38
0.055920988 0.1232098 0.025354028 1.1133353e-38
0.056028277 0.12722579 0.026731431 1.0212475e-38
0.056973904 0.13055792 0.027700186 9.4745685e-39
0.052497417 0.095139623 0.029050469 1.2333684e-38
0.051390097 0.098804101 0.027764142 1.1593946e-38
0.051597565 0.10329257 0.027001739 1.2242549e-38
0.051627368 0.10780776 0.026716888 1.2611355e-38
0.051643953 0.11167906 0.026495397 1.1965256e-38
0.052222013 0.11532484 0.025811613 1.2241117e-38
0.052087426 0.11922798 0.025999069 9.6517318e-39
0.052872956 0.12372881 0.027200997 9.1872112e-39
0.05375734 0.12666425 0.027422726 9.4651686e-39
0.047874898 0.098836556 0.028113961 1.2794284e-38
0.04825528 0.10330342 0.026901066 1.2334039e-38
0.048323482 0.10755055 0.027426302 1.2054593e-38
0.1666187 0.060556922 0.020035505 1.3809191e-38
0.1624071 0.082106493 0.020457387 1.3534395e-38
0.18566871 0.083064616 0.026685119 1.8877814e-38
0.14183582 0.086782679 0.02159965 1.5744576e-38
0.13239512 0.084923826 0.018614054 1.3533666e-38
0.10905039 0.090841681 0.023225129 1.2705708e-38
0.17317128 0.12375934 0.04879123 2.2957075e-38
0.16973267 0.12470476 0.048300326 2.2769808e-38
0.16470999 0.12540558 0.046866417 2.2397438e-38
0.16558683 0.12707806 0.047413528 2.2492142e-38
0.16203953 0.12804526 0.046904445 2.2679043e-38
0.15691838 0.0053244606 0.053612709 5.8918295e-39
0.15776782 0.0073574781 0.052614093 5.2458014e-39
0.15848564 0.12878871 0.04610312 2.2584688e-38
0.15811826 0.13066322 0.046545506 2.26776e-38
0.1532525 0.0021497011 0.052209735 3.774588e-39
0.15407792 0.0039343536 0.052640915 6.5411407e-39
0.15469635 0.13194668 0.045936286 2.2493576e-38
0.14997333 0.0021054596 0.052037597 4.6033117e-39
0.15004952 0.0034322366 0.051634789 5.1571777e-39
0.14934257 0.13311809 0.044017851 2.2936599e-38
0.14999297 0.13506633 0.044006765 2.285051e-38
0.14726359 0.002034232 0.052294016 3.5923687e-39
0.14629762 0.0050462335 0.051389515 5.1568078e-39
0.14557743 0.0079513341 0.0506742 6.7187525e-39
0.14670417 0.13314074 0.043942034 1.8511559e-38
0.14678687 0.13561873 0.044233978 1.961757e-38
0.14342476 0.0059134141 0.051469505 5.9833272e-39
0.14222351 0.0083152205 0.050804794 7.085391e-39
0.13837534 0.0098129213 0.050116539 9.2984141e-39
0.13777676 0.011120953 0.049778342 1.0865696e-38
0.13265054 0.013693683 0.048828065 1.1970316e-38
0.12932017 0.013643011 0.048817337 1.0680683e-38
0.12871166 0.015440986 0.047604382 1.1421811e-38
0.12880078 0.13172919 0.040887296 1.2253063e-38
0.12857467 0.13507669 0.041671991 1.8149595e-38
0.12674943 0.0136315 0.048416138 9.8505593e-39
0.12571776 0.015643734 0.047124743 1.1052292e-38
0.12490417 0.12133662 0.040879786 5.2450644e-39
0.12490994 0.12263354 0.040805638 6.0752076e-39
0.12641664 0.12820046 0.041225791 7.8254728e-39
0.12692335 0.13092324 0.04131645 1.2523182e-38
0.12270932 0.016569063 0.047107756 1.1874869e-38
0.12111364 0.018833365 0.04672724 1.2888308e-38
0.12136099 0.11313146 0.041138887 3.8675123e-39
0.12230834 0.11484055 0.040849984 5.0649513e-39
0.12197429 0.12006076 0.040901244 6.6286854e-39
0.12337829 0.12271489 0.041575313 6.7173162e-39
0.11765343 0.020455442 0.045839012 1.4266196e-38
0.11676499 0.022736534 0.04531467 1.4912646e-38
0.11836393 0.11290189 0.040683687 6.1648655e-39
0.11840656 0.11613788 0.040390432 6.8109523e-39
0.11803992 0.11972232 0.040914059 7.8229631e-39
0.11515869 0.11253253 0.04067713 9.9315375e-39
0.11490622 0.1163126 0.039897621 9.2026129e-39
0.11436558 0.11929767 0.040364325 1.0859997e-38
0.11205186 0.1173884 0.039099395 1.6396707e-38
0.1108126 0.12039621 0.039310932 1.8054451e-38
0.10988177 0.12265445 0.039469123 1.9797222e-38
0.10653734 0.031768955 0.043193221 1.5648823e-38
0.10821864 0.12126189 0.038275957 2.0164201e-38
0.10752907 0.12350977 0.03905189 1.9978731e-38
0.10305645 0.033007257 0.043591201 1.5556954e-38
0.10191625 0.034321487 0.04282999 1.5739546e-38
0.10438545 0.12513541 0.037452579 2.1082919e-38
0.10268639 0.12700054 0.037687361 1.8689822e-38
0.097575873 0.03691639 0.041494489 1.5097038e-38
0.0990991 0.12739 0.037075162 1.7576964e-38
0.094482943 0.039795402 0.041604638 1.5278908e-38
0.09374845 0.042086795 0.040596962 1.5186338e-38
0.094114572 0.12444096 0.035887301 2.304891e-38
0.095216274 0.12710324 0.036581337 2.0993878e-38
0.091944933 0.043365717 0.040578961 1.546149e-38
0.090774626 0.048286822 0.040381491 1.4356236e-38
0.08994405 0.052444883 0.039402723 1.380447e-38
0.089955598 0.055038713 0.039254367 1.224072e-38
0.092549294 0.12712258 0.036501288 2.34176e-38
0.087341815 0.052854091 0.039817154 1.5186725e-38
0.086748272 0.055348568 0.038735092 1.5097025e-38
0.083225384 0.053699099 0.039293647 1.6754384e-38
0.082536325 0.055558253 0.038354397 1.6203365e-38
0.078199804 0.05627669 0.038021028 1.5465798e-38
0.077137887 0.058871977 0.037028968 1.5276743e-38
0.079069987 0.13197261 0.033437729 1.9335932e-38
0.077881008 0.13482332 0.033509195 1.8690896e-38
0.074870408 0.053661689 0.037989914 1.5184551e-38
0.075524643 0.056262203 0.037941635 1.5185621e-38
0.07444708 0.059895836 0.036954641 1.4818235e-38
0.073203132 0.064042166 0.036452591 1.5093817e-38
0.073321968 0.066636235 0.035983086 1.4811861e-38
0.075156823 0.13637957 0.032486439 1.5745655e-38
0.073960319 0.13807908 0.032961428 1.4824764e-38
0.071383238 0.064361103 0.036825478 1.555407e-38
0.070758581 0.068087928 0.036005318 1.5277127e-38
0.070051506 0.071163736 0.035463274 1.5277116e-38
0.070858508 0.13889404 0.032091498 1.3625513e-38
0.066904619 0.068886817 0.035863519 1.5277123e-38
0.06659998 0.071428627 0.035089493 1.5370036e-38
0.067380384 0.13864349 0.03139329 1.3254937e-38
0.063712537 0.07265535 0.034808457 1.5279976e-38
0.063215122 0.07541734 0.034300506 1.5371098e-38
0.061822355 0.078256741 0.03351289 1.5189235e-38
0.061743438 0.13672557 0.031130135 1.2331548e-38
0.063677296 0.138033 0.031356692 1.3713751e-38
0.059549749 0.076971322 0.034245908 1.5003747e-38
0.05916515 0.079722933 0.033773065 1.4819351e-38
0.058902472 0.083288357 0.033398986 1.4817942e-38
0.058653951 0.087320782 0.032493114 1.4267274e-38
0.059334159 0.13471296 0.030363142 1.0574788e-38
0.056347862 0.079554573 0.03359586 1.472822e-38
0.055852145 0.08370848 0.033277988 1.4542429e-38
0.055301785 0.087500371 0.032845736 1.3990682e-38
0.055170566 0.091049224 0.032112956 1.3898493e-38
0.055146426 0.13145056 0.029897332 8.826332e-39
0.052529231 0.087979607 0.032511294 1.3805563e-38
0.05141528 0.09120205 0.031700194 1.3437868e-38
0.050340042 0.093768001 0.03082031 1.2979018e-38
0.050354183 0.12362657 0.029432118 9.7393284e-39
0.05132322 0.12755543 0.0296942 1.0480446e-38
0.052719742 0.1308406 0.030060232 1.0479393e-38
0.047587365 0.091575541 0.031530738 1.29758e-38
0.047658563 0.095068552 0.030663848 1.2608835e-38
0.046555847 0.10866529 0.029366553 1.1687615e-38
0.046802297 0.11225156 0.029450893 1.1774403e-38
0.04784517 0.1158561 0.029827654 1.0205299e-38
0.048386067 0.11978145 0.030022919 9.7443352e-39
0.048407212 0.12454379 0.029750586 1.1495317e-38
0.0475609 0.1269211 0.029480755 1.2516245e-38
0.044851571 0.095737979 0.030862153 1.2795014e-38
0.044423312 0.098712102 0.030420423 1.3532572e-38
0.045158505 0.10348734 0.029701233 1.2701753e-38
0.044903532 0.10742734 0.030193627 1.2699248e-38
0.044923738 0.1119732 0.029933691 1.2883986e-38
0.18212114 0.074399903 0.023816049 1.6296679e-38
0.13865066 0.051808327 0.0196805 1.5926428e-38
0.098218918 0.098173529 0.022600234 1.0768177e-38
0.13473769 0.12778386 0.036636829 1.270859e-38
0.16948324 0.12561098 0.049628198 2.295635e-38
0.1686894 0.12810197 0.050981998 2.2680848e-38
0.16559671 0.12913172 0.050438941 2.2956702e-38
0.16573304 0.13109581 0.051765919 2.3233643e-38
0.16111898 0.00066714734 0.056003332 6.0766285e-39
0.15977055 0.0040647909 0.057679772 5.7056894e-39
0.15956043 0.0076936446 0.056930065 6.9056941e-39
0.16242063 0.12948142 0.048300207 2.323365e-38
0.16128683 0.13155861 0.050638676 2.323366e-38
0.15747114 0.0010363758 0.055250883 5.2450573e-39
0.15759102 0.0040748417 0.055817962 5.5223491e-39
0.15866181 0.0078497678 0.054752886 6.7234525e-39
0.15698482 0.13188557 0.048832119 2.2677605e-38
0.15625277 0.13486722 0.04905206 2.3232552e-38
0.15370326 0.00095365942 0.054883897 4.3252492e-39
0.15515409 0.13280404 0.047985911 2.2586842e-38
0.15496175 0.13486144 0.048850536 2.31393e-38
0.14947827 0.00059447438 0.054413378 4.6001027e-39
0.14532964 0.0011069439 0.055086911 3.5001675e-39
0.14512528 0.0032367185 0.05290401 4.0533217e-39
0.14188568 0.001655601 0.055530608 4.6021823e-39
0.14158481 0.0042943954 0.053049684 4.7880197e-39
0.1406372 0.0071187094 0.051977813 6.533655e-39
0.13762261 0.0046465248 0.054401398 5.3397725e-39
0.13791406 0.0077028349 0.052194238 6.9967953e-39
0.13384748 0.0050497875 0.053672135 6.3517552e-39
0.13387059 0.0082741454 0.0523175 8.0073207e-39
0.13392961 0.011832751 0.050994337 1.1326009e-38
0.12976386 0.008176636 0.052695096 8.1009681e-39
0.12992461 0.011694536 0.050328135 9.7572566e-39
0.1266996 0.0090162531 0.05239284 8.3775466e-39
0.12541601 0.011960953 0.050766587 9.022567e-39
0.12442897 0.1254092 0.042597353 7.2697949e-39
0.12444055 0.12801063 0.04244858 8.7423886e-39
0.12574659 0.13224374 0.042407751 1.6118787e-38
0.12640035 0.13452289 0.042378008 1.9525337e-38
0.12265614 0.011832047 0.050921977 8.6541419e-39
0.12039313 0.015817814 0.049120963 1.1232375e-38
0.12054983 0.12148974 0.04221791 7.457014e-39
0.12125118 0.12441645 0.043932199 7.8250664e-39
0.12180381 0.1282703 0.04489392 9.9413032e-39
0.12278262 0.13190834 0.044599712 1.6672309e-38
0.11777256 0.016261049 0.050662577 1.1231302e-38
0.11790577 0.018659212 0.048770487 1.2979058e-38
0.11861894 0.12148109 0.041916609 8.2828524e-39
0.11759041 0.1242191 0.043174326 9.3917139e-39
0.11790831 0.12799817 0.044368446 1.2710031e-38
0.11983472 0.13089025 0.044603348 1.6861724e-38
0.11404988 0.021247137 0.048017979 1.4824407e-38
0.11405569 0.022549748 0.047943473 1.5005571e-38
0.11411205 0.12113574 0.041232049 1.1410303e-38
0.11395088 0.12412291 0.041709781 1.206035e-38
0.11341661 0.12822786 0.043529093 1.4361999e-38
0.11207725 0.1308555 0.043392777 1.777183e-38
0.11037305 0.12444347 0.040745914 1.9068983e-38
0.10959888 0.12818944 0.042709112 1.9805824e-38
0.10884498 0.13084103 0.042888403 2.127485e-38
0.10529293 0.028297707 0.047761679 1.6109375e-38
0.10494548 0.030773696 0.045705497 1.5649149e-38
0.10640725 0.12532848 0.039785087 2.0530085e-38
0.10593465 0.12809852 0.041353166 1.9979824e-38
0.10529093 0.13115171 0.042314827 1.9983065e-38
0.10257387 0.028913908 0.047807872 1.6016832e-38
0.10166308 0.031364132 0.046172023 1.5739184e-38
0.10288319 0.12888959 0.039028049 1.8784169e-38
0.10198665 0.13202754 0.040846527 1.9059664e-38
0.10175139 0.13472846 0.04155457 1.9612498e-38
0.097515792 0.033260234 0.046427727 1.5740615e-38
0.09790276 0.034620635 0.045057893 1.5463312e-38
0.098701015 0.12919605 0.038356662 1.6384542e-38
0.098460704 0.13188787 0.039064407 1.6755497e-38
0.097875565 0.13536429 0.040911913 1.7127166e-38
0.09459734 0.037045356 0.044265628 1.5647696e-38
0.09315297 0.039423376 0.042685568 1.5648406e-38
0.09483923 0.12917876 0.03775394 1.6289411e-38
0.094593048 0.13187054 0.038460791 1.5003387e-38
0.094093025 0.13531226 0.039985776 1.5469075e-38
0.089990854 0.040428981 0.044160783 1.6111166e-38
0.089706704 0.043819174 0.042298019 1.5740591e-38
0.089328781 0.047860749 0.041599393 1.4636413e-38
0.090717673 0.12864003 0.037140846 2.3412952e-38
0.090529487 0.13191961 0.0384987 1.9055264e-38
0.090435132 0.13517928 0.039556921 1.3348227e-38
0.087117016 0.041908655 0.044639647 1.638525e-38
0.086518168 0.04497581 0.043523788 1.6200504e-38
0.086421907 0.048474383 0.042235911 1.601647e-38
0.08634153 0.051532671 0.04091996 1.5558026e-38
0.087009147 0.12938797 0.039052486 2.3322241e-38
0.086258054 0.1320352 0.039176166 2.256308e-38
0.084943548 0.13465318 0.038931668 2.15432e-38
0.08206512 0.045813218 0.043286026 1.6476032e-38
0.082622871 0.048461862 0.041417599 1.6568928e-38
0.082909793 0.051734079 0.040371954 1.684479e-38
0.08303754 0.13267165 0.037329197 2.2930443e-38
0.082667977 0.13519055 0.037531197 2.2932217e-38
0.078730538 0.045790289 0.043104053 1.6384189e-38
0.07858178 0.048432335 0.041350901 1.6109029e-38
0.079050884 0.052367147 0.039732099 1.6110814e-38
0.080053017 0.13301462 0.035220742 2.1275229e-38
0.079522923 0.13589299 0.035840213 2.0995403e-38
0.0777881 0.13956325 0.037326276 1.9981978e-38
0.07486169 0.04883372 0.041647375 1.5371831e-38
0.075027466 0.052186538 0.039113641 1.5093442e-38
0.073595926 0.055919625 0.038673759 1.5277085e-38
0.07264927 0.060142636 0.038281441 1.518521e-38
0.076852217 0.13690236 0.034495354 1.8046241e-38
0.074617922 0.13951793 0.035877466 1.6207348e-38
0.070785448 0.05207862 0.040822387 1.5553711e-38
0.070751756 0.056644961 0.040721774 1.5736987e-38
0.070338964 0.060127128 0.039103925 1.5920288e-38
0.069448441 0.064030379 0.037555993 1.5737379e-38
0.068816364 0.06662894 0.037306845 1.5737382e-38
0.071153745 0.14065471 0.035161555 1.3624084e-38
0.070109934 0.14242515 0.036163151 1.3904241e-38
0.067164019 0.061415266 0.040391684 1.6199415e-38
0.066583052 0.063835166 0.03885746 1.6106516e-38
0.066244721 0.067267768 0.036867857 1.583064e-38
0.066885605 0.14054945 0.033740163 1.3439692e-38
0.066877633 0.14241067 0.035658777 1.3530068e-38
0.063034773 0.064443089 0.039064109 1.628983e-38
0.062920988 0.067725308 0.037480474 1.6012514e-38
0.061972201 0.071367495 0.035962641 1.5187784e-38
0.061130375 0.07504902 0.035618067 1.518814e-38
0.063408464 0.1402939 0.033971727 1.3341353e-38
0.05916962 0.0682794 0.03816551 1.5094884e-38
0.058615297 0.0718088 0.037102222 1.4725733e-38
0.058078483 0.075329915 0.035993814 1.4817215e-38
0.057283044 0.078283519 0.034829497 1.4725671e-38
0.058256999 0.13613257 0.03332299 1.1411005e-38
0.060079426 0.13885948 0.034463763 1.2609909e-38
0.056209117 0.069204591 0.038228452 1.4448808e-38
0.055898979 0.072142601 0.038009882 1.4633575e-38
0.054775923 0.075970173 0.0365991 1.4544206e-38
0.054378361 0.079583451 0.034807026 1.4543484e-38
0.053764731 0.083145365 0.033998013 1.4450228e-38
0.053455919 0.086070538 0.033780515 1.4266893e-38
0.054307759 0.13289931 0.031203091 1.0115978e-38
0.054909453 0.13506654 0.03319931 1.1682613e-38
0.052365229 0.077025764 0.037174881 1.4356926e-38
0.050638303 0.079886638 0.036536634 1.4265124e-38
0.050983384 0.083503872 0.035063267 1.4173278e-38
0.050315872 0.087191343 0.033804178 1.3530743e-38
0.049784973 0.12897697 0.030723155 1.250946e-38
0.050615281 0.13179743 0.030979395 1.2237888e-38
0.051472366 0.135245 0.033259988 1.2790398e-38
0.048088461 0.084409535 0.03607899 1.389631e-38
0.046737969 0.08754839 0.033912122 1.3062579e-38
0.046393335 0.089940988 0.032452524 1.214853e-38
0.045868218 0.11660285 0.030827224 1.3060825e-38
0.046398729 0.1201171 0.030706704 1.2604177e-38
0.046756268 0.12332708 0.030576766 1.2788915e-38
0.047210425 0.12896544 0.03032136 1.1226594e-38
0.046782434 0.13169047 0.031335771 1.0214611e-38
0.048095614 0.13448817 0.033181489 1.0677032e-38
0.042902261 0.088721588 0.034511924 1.2793185e-38
0.04297705 0.091431066 0.032846093 1.2793201e-38
0.042829633 0.094941989 0.031606019 1.270209e-38
0.042068183 0.099379584 0.03173697 1.3348195e-38
0.041951418 0.10328598 0.033351243 1.3164158e-38
0.042758316 0.108611 0.033084631 1.3715168e-38
0.042878881 0.11215839 0.03230685 1.3527198e-38
0.042825699 0.11630595 0.032686055 1.3527551e-38
0.042334616 0.12006384 0.032777905 1.3070157e-38
0.042595178 0.12392138 0.031919658 1.2425496e-38
0.043261349 0.12766877 0.030004442 9.5706863e-39
0.042876676 0.1313664 0.032039464 8.6508726e-39
0.039511621 0.093951374 0.034186006 1.2505487e-38
0.039529055 0.097870648 0.033961952 1.2796461e-38
0.03962779 0.12007985 0.032691836 1.2793911e-38
0.039323419 0.12432429 0.032398582 1.1596099e-38
0.039218009 0.12763634 0.031987727 9.8468893e-39
0.17972116 0.0049529225 0.03996408 7.462032e-39
0.16331796 0.063927621 0.020370722 1.537471e-38
0.10560536 0.091887824 0.023830414 1.3163812e-38
0.068100035 0.087240189 0.030594826 1.3988535e-38
0.085035145 0.062714316 0.036548436 1.4542443e-38
0.16730213 0.12999187 0.054102659 2.2773041e-38
0.16730796 0.1313021 0.054027796 2.3049259e-38
0.16401391 0.13269944 0.054445744 2.3324729e-38
0.15999147 0.13333806 0.053780138 2.3325854e-38
0.15823707 0.13257168 0.052536368 2.3048187e-38
0.1404693 0.00048933178 0.05740428 4.786928e-39
0.13667789 0.00070999563 0.057812631 4.6021851e-39
0.13603799 0.0026756078 0.057598889 5.1546414e-39
0.13281503 0.0015232265 0.058175564 5.7974926e-39
0.13279453 0.0033171251 0.057054758 6.0744411e-39
0.12865829 0.0025558136 0.05746609 6.259547e-39
0.12902351 0.0046538115 0.055880964 6.7201762e-39
0.12509379 0.0051678568 0.056757748 6.9035025e-39
0.12481137 0.0076271445 0.055354595 7.7325401e-39
0.12217364 0.0064687803 0.056225955 6.9957051e-39
0.12255292 0.008558277 0.054643512 7.8243882e-39
0.11984687 0.011787802 0.054540575 8.9332301e-39
0.12090296 0.13334689 0.047331691 1.9441031e-38
0.12299231 0.13513957 0.047892451 2.1006179e-38
0.11745346 0.013053417 0.05460006 9.4849773e-39
0.11622508 0.015775621 0.052729785 1.0771406e-38
0.11738017 0.1297683 0.046312273 1.6120186e-38
0.11772044 0.13261864 0.046834111 1.8977886e-38
0.11440605 0.014318023 0.054557502 9.4828389e-39
0.11311588 0.016817138 0.053577483 1.1878825e-38
0.11356056 0.019236881 0.052450895 1.4178678e-38
0.11397721 0.13244241 0.046301425 1.7219011e-38
0.11364305 0.13520302 0.047441125 1.7956927e-38
0.10975687 0.021324955 0.053087354 1.500848e-38
0.10794476 0.023487121 0.053016722 1.5742069e-38
0.11003461 0.13281879 0.045856416 2.0353639e-38
0.10974172 0.13518555 0.046832442 2.0169592e-38
0.10548638 0.025035668 0.052035928 1.5925023e-38
0.10331075 0.027509585 0.0500319 1.6203381e-38
0.10522558 0.13536492 0.045507789 2.1735136e-38
0.10224202 0.026115842 0.051466286 1.6296681e-38
0.10065205 0.028467685 0.049814343 1.6017916e-38
0.10171464 0.13695857 0.043954253 2.1088345e-38
0.10118431 0.13949022 0.04490757 2.274821e-38
0.097659469 0.028931983 0.050755918 1.6200505e-38
0.096751943 0.031832583 0.049094439 1.5925007e-38
0.097316667 0.13753965 0.042726278 1.8046252e-38
0.098249078 0.14031544 0.044063091 2.0813186e-38
0.094969571 0.029999033 0.050611675 1.6385621e-38
0.093825936 0.032971911 0.049753845 1.6292355e-38
0.09203583 0.035937157 0.048795581 1.6200152e-38
0.09342663 0.13752222 0.042119145 1.6849497e-38
0.093811586 0.14004043 0.043452978 1.8967839e-38
0.08936815 0.036571231 0.048595369 1.6569302e-38
0.089210987 0.1371758 0.041480303 1.4362752e-38
0.089588284 0.14027664 0.042711556 1.712752e-38
0.085897177 0.03685692 0.048796594 1.6845513e-38
0.084788546 0.040336519 0.047281444 1.6660746e-38
0.084364712 0.043583885 0.046140075 1.6476736e-38
0.085803568 0.13634166 0.040996015 1.9335521e-38
0.085391343 0.14020765 0.04160893 2.0443304e-38
0.085168689 0.14292061 0.042205632 2.0626982e-38
0.08106643 0.040632077 0.047189295 1.6936626e-38
0.081032455 0.04376018 0.046622813 1.6660421e-38
0.081756577 0.13746996 0.040298104 2.2101384e-38
0.081666082 0.14012824 0.040467978 2.1639326e-38
0.081374586 0.1435214 0.041239858 2.1271967e-38
0.078116447 0.041749597 0.04729718 1.6936634e-38
0.07731007 0.044385981 0.04651159 1.6476383e-38
0.078852177 0.14040491 0.039674163 2.0718458e-38
0.07753019 0.14369604 0.039856434 1.9430952e-38
0.075982884 0.14686039 0.040879667 1.7584857e-38
0.07228376 0.048333853 0.043976724 1.6015045e-38
0.07464233 0.1413687 0.038960397 1.71225e-38
0.073806375 0.1438967 0.039317012 1.6207693e-38
0.070670873 0.04961855 0.044664085 1.5739183e-38
0.068248332 0.052238196 0.043626845 1.5830651e-38
0.068425775 0.055522684 0.042957544 1.6107569e-38
0.070440665 0.14404224 0.038757265 1.3628739e-38
0.066462159 0.052866433 0.044832051 1.6107973e-38
0.065503672 0.056315545 0.043975651 1.6752595e-38
0.065524131 0.05971919 0.042695761 1.6476711e-38
0.065895379 0.14406857 0.038450718 1.2883228e-38
0.06158103 0.060236521 0.043262243 1.6291247e-38
0.061431825 0.063134447 0.041761756 1.6196904e-38
0.061027259 0.14130773 0.03683573 1.4170764e-38
0.057719231 0.060711302 0.043011308 1.5094873e-38
0.05774948 0.063992545 0.041812301 1.5645901e-38
0.057453528 0.066610247 0.040600717 1.5462238e-38
0.057119727 0.13735962 0.036453485 1.2425524e-38
0.057713583 0.14051481 0.037208498 1.5371123e-38
0.054796189 0.061355215 0.042517126 1.4634969e-38
0.053842768 0.064352706 0.041760087 1.4727526e-38
0.053707778 0.067747772 0.040963233 1.481829e-38
0.053247035 0.071578607 0.040263951 1.4541361e-38
0.052601904 0.074467584 0.040401459 1.4450588e-38
0.054526389 0.13734801 0.03604871 1.4914084e-38
0.054384515 0.14001861 0.036322653 1.7306484e-38
0.053973809 0.1427809 0.037337601 1.8967449e-38
0.05060041 0.068234943 0.041463137 1.4175783e-38
0.049757838 0.071840003 0.040784776 1.4082528e-38
0.049935356 0.075598083 0.039665759 1.407926e-38
0.04907757 0.078364551 0.038611114 1.4173281e-38
0.050633445 0.13667548 0.035479128 1.3621584e-38
0.05041343 0.14002612 0.035926819 1.5006292e-38
0.050606802 0.14280474 0.03714782 1.6024763e-38
0.046311677 0.07620205 0.039993584 1.3622256e-38
0.04629077 0.079676203 0.038662791 1.4173651e-38
0.046073362 0.08315517 0.037864268 1.3988846e-38
0.046352535 0.13643762 0.035403132 1.0306825e-38
0.046281725 0.14008269 0.035953522 1.1418233e-38
0.042727262 0.079954557 0.039351285 1.3625133e-38
0.042521834 0.083803236 0.038575172 1.3805192e-38
0.04215315 0.086740188 0.037652194 1.3342798e-38
0.041542172 0.13335925 0.034250021 8.5604903e-39
0.042648911 0.13604482 0.034830868 9.205515e-39
0.042320788 0.1394271 0.035541236 1.0406585e-38
0.03941077 0.091423273 0.03634423 1.3252745e-38
0.037763804 0.096050829 0.03683275 1.2152883e-38
0.037502408 0.099614307 0.036991119 1.3164882e-38
0.038687617 0.10419941 0.036360741 1.3716602e-38
0.039050072 0.10848284 0.035734951 1.3990669e-38
0.038508266 0.11241871 0.035494745 1.3987452e-38
0.038617641 0.11616921 0.035041392 1.3527906e-38
0.037593901 0.12023956 0.034392297 1.3070471e-38
0.037608474 0.12351513 0.03420496 1.2703503e-38
0.037634671 0.12941115 0.033867776 9.5710142e-39
0.038642973 0.13223839 0.034241974 8.6516153e-39
0.038468719 0.13610929 0.034962177 7.8258119e-39
0.039104015 0.13924921 0.035555661 9.1176283e-39
0.035459012 0.099374741 0.037293911 1.3625128e-38
0.035520345 0.11317206 0.036504865 1.4449139e-38
0.034483433 0.11639997 0.035480022 1.4449851e-38
0.034709036 0.12029208 0.034726918 1.3716588e-38
0.03472656 0.1242272 0.034501851 1.2981531e-38
0.034744024 0.12816274 0.034276843 1.0032367e-38
0.034606278 0.13201919 0.03489089 8.743434e-39
0.034966499 0.13485065 0.035163462 8.0058704e-39
0.031639487 0.1177537 0.035633087 1.4634968e-38
0.031327516 0.12070881 0.035413206 1.4175792e-38
0.031018466 0.12432094 0.035155952 1.2429466e-38
0.03103596 0.12826303 0.034930468 1.0770673e-38
0.031697899 0.13089401 0.034881592 9.4774271e-39
0.16051781 0.066207662 0.020969748 1.6481767e-38
0.15645842 0.13391665 0.056911528 2.295635e-38
0.15601186 0.13726068 0.057619691 2.2946572e-38
0.13143477 0.00041805953 0.060051322 6.0737306e-39
0.1280175 0.0010025688 0.060159266 5.9833286e-39
0.12423103 0.001902014 0.060360253 5.8921924e-39
0.12340876 0.0041159093 0.058582783 6.2595652e-39
0.12072803 0.0012922771 0.060354769 5.7099717e-39
0.12077567 0.0055605248 0.059101343 6.6272827e-39
0.12013531 0.0081961341 0.058848679 7.6392809e-39
0.12051404 0.13704903 0.051576495 2.1093369e-38
0.11684588 0.13683027 0.05066371 2.0077409e-38
0.11523914 0.1395963 0.051491499 1.9800821e-38
0.11171381 0.013610139 0.057894826 9.0229384e-39
0.11298311 0.13716739 0.049831212 1.8970346e-38
0.11229768 0.13991353 0.05101341 2.0073441e-38
0.1086818 0.017118797 0.056252241 1.1508972e-38
0.10782865 0.019859828 0.055236101 1.3351133e-38
0.10886684 0.13751385 0.049940228 2.1642543e-38
0.10870224 0.14022782 0.050433278 2.2196802e-38
0.10481423 0.020835556 0.056011915 1.2983413e-38
0.10401241 0.023328729 0.054945707 1.5468719e-38
0.10540769 0.13755037 0.048653841 2.2654937e-38
0.10468495 0.14067768 0.049525738 2.274857e-38
0.10392301 0.14395098 0.049470603 2.2745692e-38
0.10061672 0.024384171 0.054860711 1.5744942e-38
0.10166338 0.14114675 0.047927976 2.2929721e-38
0.10095254 0.14440781 0.048690319 2.2930784e-38
0.096737728 0.025336757 0.055010259 1.5286113e-38
0.096057832 0.027224079 0.053983688 1.638669e-38
0.097371027 0.14396586 0.046924889 2.2560191e-38
0.092945173 0.028774306 0.05381304 1.6571086e-38
0.092134222 0.03163483 0.052439332 1.6569665e-38
0.093590572 0.14191289 0.045945883 2.0442618e-38
0.093314767 0.14466718 0.046757162 2.145604e-38
0.091731012 0.14742067 0.047364056 2.1275957e-38
0.089900106 0.029789113 0.053886533 1.6750462e-38
0.089061335 0.032635596 0.05257684 1.6754046e-38
0.089396507 0.14464962 0.046145737 2.0444747e-38
0.090423018 0.1474148 0.04715997 2.0720256e-38
