# .PCD v0.7 - Point Cloud Data file format
VERSION 0.7
FIELDS x y z rgb
SIZE 4 4 4 4
TYPE F F F F
COUNT 1 1 1 1
WIDTH 976
HEIGHT 1
VIEWPOINT 0 0 0 0 1 0 0
POINTS 976
DATA ascii
0.09488672 0.076046906 0.02636534 1.1875235e-38
0.094993472 0.079885527 0.025643051 1.1875597e-38
0.095028907 0.083748378 0.025132179 1.1968145e-38
0.094957814 0.087653704 0.024938107 1.1965636e-38
0.095028907 0.090854429 0.024389446 1.2056025e-38
0.091125727 0.05611743 0.028330386 1.6380951e-38
0.090808824 0.059287757 0.027328193 1.5370036e-38
0.090942055 0.063078411 0.0273422 1.4265489e-38
0.090869725 0.067628346 0.027080536 1.3528987e-38
0.09086971 0.07215701 0.026607215 1.3254567e-38
0.090869725 0.076038718 0.026201487 1.3347488e-38
0.091013581 0.079866506 0.025373459 1.2795401e-38
0.090941429 0.083774328 0.025178909 1.279431e-38
0.090869695 0.087683856 0.0249843 1.2609916e-38
0.090782464 0.090886906 0.023757815 1.30698e-38
0.088309556 0.055934951 0.027835965 1.6934485e-38
0.087029472 0.059361227 0.027244449 1.6288755e-38
0.086563975 0.063136145 0.026765108 1.5555132e-38
0.086389437 0.072072551 0.025799155 1.4358419e-38
0.086445093 0.075935021 0.025235295 1.4267647e-38
0.086389437 0.083717681 0.024581969 1.2795377e-38
0.086389437 0.087599389 0.02417624 1.288687e-38
0.086352065 0.090639047 0.023121953 1.4173289e-38
0.082677215 0.062945239 0.026076317 1.6109024e-38
0.08190918 0.067459427 0.025464475 1.5467608e-38
0.08190918 0.071988091 0.024991095 1.472828e-38
0.082058638 0.075818934 0.024163842 1.4175087e-38
0.081909165 0.079751514 0.024179637 1.3714839e-38
0.08233586 0.083209962 0.023895979 1.3437886e-38
0.082069188 0.087679684 0.02338016 1.3252786e-38
0.082096785 0.091319807 0.022437036 1.6106138e-38
0.077428907 0.064140208 0.024994552 1.6018622e-38
0.078068942 0.067387037 0.024771869 1.5466526e-38
0.078068942 0.071915694 0.024298489 1.4635727e-38
0.078068942 0.075797409 0.02389276 1.4267277e-38
0.078836977 0.07943482 0.023652613 1.3807054e-38
0.078240618 0.091901727 0.021729887 1.8413209e-38
0.074868768 0.064091943 0.024532795 1.5834944e-38
0.074868754 0.067326702 0.024194658 1.5372904e-38
0.074996769 0.071598999 0.023771465 1.4634637e-38
0.075508803 0.075102195 0.023498654 1.426654e-38
0.074344724 0.091852523 0.021194994 1.6109773e-38
0.071028531 0.092485435 0.020864844 1.4812903e-38
0.070225373 0.094787724 0.019893944 1.398422e-38
0.066588074 0.098853827 0.019276083 1.1965623e-38
0.066658407 0.10247187 0.018257916 1.123058e-38
0.062964052 0.099320494 0.018680096 1.1598617e-38
0.062748492 0.10266253 0.018177927 1.1414584e-38
0.062744692 0.10565362 0.017160714 1.1781592e-38
0.061427951 0.1130069 0.016969442 1.3257438e-38
0.060147882 0.1032785 0.017752886 1.1874464e-38
0.059569448 0.10647433 0.01714313 1.2243994e-38
0.059294492 0.11037889 0.01685518 1.3716637e-38
0.18095317 0.080866344 0.016575336 1.5188865e-38
0.14250016 0.077909552 0.0098733902 1.4545297e-38
0.16927868 0.10441367 0.011985481 1.3168457e-38
0.16386726 0.098189265 0.015304506 1.3535478e-38
0.16473903 0.062251829 0.022279203 1.82317e-38
0.12792212 0.054797333 0.021212161 1.7588117e-38
0.10245317 0.081235044 0.026038826 1.5283597e-38
0.1693795 0.13661131 0.033673644 2.1822317e-38
0.17617035 0.1376528 0.037698209 2.257139e-38
0.17635365 0.14164574 0.039017379 2.2858045e-38
0.17212172 0.02219243 0.049198568 6.9956715e-39
0.17233351 0.025085814 0.047401965 6.6279666e-39
0.17260069 0.13833627 0.036839783 2.2564173e-38
0.17068833 0.14049773 0.038104415 2.2567044e-38
0.1682999 0.021982707 0.049148083 7.2736849e-39
0.16874404 0.025795627 0.046673357 8.0119968e-39
0.16832346 0.13894184 0.036814034 2.164259e-38
0.16811317 0.1404492 0.037639976 2.2380499e-38
0.16457336 0.022080109 0.048600376 8.0087444e-39
0.16475424 0.025749177 0.046632051 9.2084002e-39
0.16553918 0.13846965 0.03431201 2.0905016e-38
0.16421035 0.1406841 0.035882056 2.1273803e-38
0.16114181 0.022513088 0.048184991 8.9285553e-39
0.16080537 0.02569516 0.046371818 1.0035986e-38
0.16079596 0.028755713 0.044914782 1.1141276e-38
0.16030782 0.14065288 0.035378158 2.0262886e-38
0.15743311 0.025950018 0.047047377 1.0679545e-38
0.15682758 0.029130548 0.045028031 1.1965644e-38
0.15720651 0.13831258 0.032809198 1.9797955e-38
0.15667614 0.14074287 0.034842849 2.0169249e-38
0.15302624 0.029655993 0.045575559 1.3163456e-38
0.15336064 0.13824008 0.032115579 2.0443668e-38
0.15289508 0.13995059 0.033895612 2.044438e-38
0.1491044 0.030235302 0.045489728 1.4729342e-38
0.14823285 0.03188796 0.042296827 1.5653451e-38
0.14977118 0.13765408 0.031522334 1.9709327e-38
0.14944337 0.14009725 0.03427279 2.0262133e-38
0.14566895 0.031839628 0.041834414 1.7216109e-38
0.14538394 0.13768663 0.031911254 1.9431659e-38
0.14107415 0.030615039 0.044190228 1.8879547e-38
0.1414661 0.03230051 0.041428745 1.9793964e-38
0.14144863 0.13768239 0.031534731 1.9245835e-38
0.13746509 0.032681156 0.041564524 2.0254596e-38
0.13797724 0.13665427 0.029476523 1.8971779e-38
0.13403755 0.033461515 0.041587949 2.0253897e-38
0.13271806 0.036160871 0.039532423 1.9795427e-38
0.13325712 0.13613014 0.029079437 1.9066863e-38
0.13077357 0.034325298 0.041924357 2.0070216e-38
0.12958264 0.036832441 0.040253043 1.9425922e-38
0.12970933 0.13622965 0.029239774 1.5935797e-38
0.12571368 0.037462294 0.040333331 1.9147887e-38
0.12479101 0.039765503 0.037608147 1.8505751e-38
0.12541144 0.1361798 0.02971673 1.0219665e-38
0.12143865 0.037728399 0.039866686 1.8966006e-38
0.12093842 0.039884575 0.037847102 1.8412833e-38
0.12045726 0.13330048 0.026632726 8.0991772e-39
0.12125613 0.13588378 0.029062927 8.928603e-39
0.11677092 0.040328402 0.037594318 1.8503233e-38
0.11682507 0.042958066 0.035413325 1.7401198e-38
0.11326312 0.040795125 0.036887765 1.8135899e-38
0.11362019 0.043545544 0.034767568 1.7124974e-38
0.11233824 0.09276171 0.02938962 6.8091433e-39
0.11233824 0.09470541 0.029186487 7.7286038e-39
0.11017242 0.041745834 0.037392616 1.8595781e-38
0.10932818 0.044383965 0.035430193 1.73994e-38
0.10883498 0.04677207 0.034579754 1.7030972e-38
0.11041532 0.089485966 0.029381394 5.984388e-39
0.11054352 0.091820821 0.029160738 6.534699e-39
0.1110563 0.094681241 0.028955281 7.7282339e-39
0.1050221 0.045032591 0.036110044 1.7951861e-38
0.10557601 0.047371402 0.034093201 1.7677065e-38
0.1014169 0.04496463 0.035459816 1.8226293e-38
0.1017749 0.047772799 0.033187807 1.7951864e-38
0.097554207 0.044891812 0.034763157 1.7491248e-38
0.097992867 0.047846317 0.032263517 1.7491611e-38
0.097595826 0.050370358 0.031132579 1.7123904e-38
0.094164729 0.048185237 0.032049239 1.7395463e-38
0.093963623 0.051165752 0.030387163 1.702884e-38
0.093108997 0.054173172 0.029917002 1.6475663e-38
0.089787334 0.048465997 0.032292306 1.7858242e-38
0.090400815 0.051567379 0.030149817 1.7303277e-38
0.090224609 0.054442745 0.029362917 1.6751532e-38
0.085928053 0.04904367 0.031528234 1.8503245e-38
0.086222023 0.051572777 0.030409098 1.7764604e-38
0.086332962 0.055156123 0.028578877 1.7305419e-38
0.086058259 0.057927653 0.028239071 1.6844797e-38
0.08248958 0.049032863 0.031583667 1.8133028e-38
0.082309365 0.051793586 0.030970335 1.7765679e-38
0.082553595 0.055350009 0.028777838 1.7582372e-38
0.082778335 0.059182562 0.027736902 1.6752239e-38
0.082853407 0.062402532 0.02718699 1.6199431e-38
0.08157146 0.08505483 0.024585605 1.3622269e-38
0.078186482 0.055610534 0.029983938 1.7123551e-38
0.078409299 0.059303872 0.027722418 1.6846954e-38
0.078622967 0.062711522 0.0263834 1.6201947e-38
0.076764137 0.080104962 0.024226487 1.3624079e-38
0.07858023 0.083702639 0.024181545 1.3438609e-38
0.07815291 0.087581985 0.023698151 1.2699964e-38
0.077725589 0.090165526 0.023350179 1.3894934e-38
0.074442267 0.056364682 0.029350102 1.6569676e-38
0.07434994 0.059019905 0.02790612 1.6293077e-38
0.073879734 0.062665299 0.025523424 1.5650919e-38
0.072597802 0.067392386 0.024795592 1.5188867e-38
0.072918281 0.072257675 0.024345458 1.4359118e-38
0.073513448 0.076017462 0.024061084 1.3898836e-38
0.074404389 0.079779319 0.024170876 1.3255287e-38
0.074219495 0.084080525 0.02564621 1.2612067e-38
0.074199289 0.087557591 0.024731636 1.1961678e-38
0.073879734 0.090093024 0.02265656 1.2151829e-38
0.071545228 0.056635439 0.028793573 1.6477824e-38
0.070414215 0.059173699 0.027867854 1.5927153e-38
0.070410326 0.062890828 0.025633633 1.5375407e-38
0.070085943 0.067188583 0.024544775 1.472861e-38
0.070438445 0.071964361 0.024605334 1.4176879e-38
0.070438445 0.075854912 0.024198651 1.3438982e-38
0.070492804 0.079958566 0.025482655 1.2703555e-38
0.070625544 0.083763286 0.025790393 1.2150714e-38
0.070335597 0.087817349 0.02508682 1.1780507e-38
0.070148438 0.091115974 0.02227813 1.2795741e-38
0.067038715 0.060454927 0.027572691 1.5098854e-38
0.066548496 0.063004456 0.026778996 1.4820797e-38
0.066204846 0.067742147 0.025977731 1.4544926e-38
0.066779152 0.071928963 0.025687397 1.3900295e-38
0.066513747 0.07602255 0.025509298 1.2886144e-38
0.066668928 0.079515591 0.025342703 1.2334784e-38
0.066394925 0.082567975 0.025143981 1.1599744e-38
0.066555873 0.08793962 0.02461189 1.3346055e-38
0.066682398 0.091340467 0.023002148 1.4913348e-38
0.066188052 0.095131218 0.020727575 1.3993188e-38
0.063819796 0.064298689 0.026584029 1.4542395e-38
0.063304782 0.066891946 0.02621907 1.4177214e-38
0.063819796 0.070806101 0.025903881 1.3807729e-38
0.062371284 0.079889163 0.02469039 1.2702478e-38
0.062532216 0.08770109 0.023903251 1.4176173e-38
0.062528938 0.091539368 0.022200882 1.4817926e-38
0.062342197 0.095058717 0.020033956 1.2977258e-38
0.062021732 0.098292172 0.019637525 1.1966331e-38
0.061701238 0.11448361 0.017886758 1.2979073e-38
0.058669478 0.079819381 0.024022818 1.233369e-38
0.059313267 0.083735958 0.023730755 1.2794655e-38
0.059037358 0.087449282 0.023292303 1.3347836e-38
0.058140904 0.091394104 0.021808267 1.2702832e-38
0.058496356 0.094986215 0.019340336 1.1691903e-38
0.058496356 0.098873615 0.018934011 1.1323122e-38
0.058130056 0.102569 0.018481016 1.150822e-38
0.057214379 0.10662424 0.017890155 1.1693342e-38
0.057855368 0.11052372 0.017599463 1.2980497e-38
0.058733106 0.11385797 0.019114077 1.2888301e-38
0.055235952 0.080188483 0.023358166 1.2056715e-38
0.055235952 0.083225273 0.023040712 1.2242196e-38
0.054967701 0.087558486 0.0225389 1.1966698e-38
0.054398447 0.091361776 0.021398902 1.1138381e-38
0.054146469 0.095103182 0.019897521 1.1414232e-38
0.054585278 0.098791271 0.019397438 1.0401886e-38
0.054914385 0.10285408 0.018886745 1.0955438e-38
0.054600745 0.10688044 0.019260287 1.1508248e-38
0.05223164 0.082300983 0.022589564 1.1963472e-38
0.05223164 0.088808388 0.021909416 1.2513698e-38
0.05094406 0.091603994 0.021382451 1.1968119e-38
0.050187856 0.095213056 0.020429492 1.1967396e-38
0.05094406 0.099195972 0.020588875 1.2152136e-38
0.050686538 0.10309556 0.020134389 1.2335113e-38
0.051716596 0.10675913 0.019939244 1.3439678e-38
0.1894947 0.073720247 0.018879592 1.4543868e-38
0.1890412 0.07796447 0.018182993 1.3070829e-38
0.15006098 0.077666245 0.011277378 1.537399e-38
0.15653665 0.080038548 0.011699259 1.4085418e-38
0.16962332 0.08011812 0.018031597 1.5375799e-38
0.12397106 0.054782551 0.02117449 1.5097059e-38
0.1669084 0.042702846 0.034632862 1.8328208e-38
0.16622968 0.046849973 0.031752169 2.0628412e-38
0.10633785 0.089950047 0.025609195 1.3073418e-38
0.14273757 0.034846351 0.04439187 1.031039e-38
0.17414922 0.1416391 0.040659845 2.2483852e-38
0.17394829 0.14446233 0.041349947 2.31364e-38
0.17182483 0.14172581 0.040226996 2.2754315e-38
0.17122605 0.14487426 0.040682852 2.3132449e-38
0.16734672 0.018354483 0.053199708 7.3651995e-39
0.16764003 0.14189611 0.039701581 2.2932235e-38
0.16740298 0.1449109 0.040492892 2.2942309e-38
0.16597694 0.14780118 0.040569425 2.3396415e-38
0.16349477 0.018794276 0.053090096 7.4563077e-39
0.16252732 0.020682503 0.051183581 8.0069774e-39
0.16510996 0.14212133 0.038961351 2.2560244e-38
0.16381854 0.14405282 0.040056765 2.2108245e-38
0.16025898 0.019387808 0.05243808 8.0076934e-39
0.159566 0.021615464 0.050801516 8.7438137e-39
0.161236 0.1420483 0.038262606 2.0266481e-38
0.1595016 0.14375193 0.039812028 2.0906101e-38
0.15596589 0.022711713 0.051410139 9.4810187e-39
0.15504497 0.025446992 0.049576759 1.0862517e-38
0.15648921 0.14347963 0.03826946 2.0444743e-38
0.1518603 0.025766909 0.050183237 1.1969216e-38
0.15090543 0.028295036 0.048268914 1.3442192e-38
0.15219675 0.1418779 0.036632359 2.0536933e-38
0.15182355 0.14404462 0.037972808 2.0445456e-38
0.14791383 0.026078761 0.049706817 1.3625136e-38
0.14788027 0.028588746 0.048197627 1.454317e-38
0.14776108 0.14168161 0.036866009 2.0258908e-38
0.14914104 0.14421116 0.037874997 2.0445093e-38
0.1446083 0.026964903 0.049303472 1.4913008e-38
0.1442048 0.029523451 0.047940671 1.6205916e-38
0.14410718 0.14124019 0.036654711 1.9982686e-38
0.14047429 0.029460546 0.047413111 1.7403004e-38
0.1406485 0.14089347 0.035651565 1.9063591e-38
0.1366532 0.030176412 0.046699882 1.8785952e-38
0.13663009 0.14011826 0.035000026 1.9249062e-38
0.13360021 0.030684564 0.046907663 1.9796909e-38
0.13192037 0.032560099 0.045383513 2.0529758e-38
0.13282318 0.13968824 0.035031974 1.9434915e-38
0.12858772 0.033640072 0.044049859 2.0069505e-38
0.12766166 0.035688486 0.04325819 1.9701072e-38
0.12864891 0.13999778 0.033703387 1.4273049e-38
0.12480655 0.033733785 0.04396379 2.0068769e-38
0.12507901 0.035639796 0.04279238 1.9699985e-38
0.12471583 0.13968365 0.033213735 1.0587735e-38
0.12076855 0.03340983 0.043845356 2.025244e-38
0.12089692 0.036451206 0.042285681 1.9334432e-38
0.12055939 0.13736568 0.031335652 9.2970436e-39
0.12104227 0.13937455 0.033001959 1.068318e-38
0.1171363 0.033754438 0.043176234 1.997659e-38
0.11702774 0.036660463 0.041728675 1.9517051e-38
0.11352664 0.034233332 0.04287678 2.0066251e-38
0.11320001 0.036775265 0.041416228 1.9608877e-38
0.11216581 0.039312176 0.040054142 1.9241515e-38
0.1093888 0.037102051 0.041092694 1.9515944e-38
0.10905388 0.040145971 0.039740205 1.8963846e-38
0.10829183 0.043154962 0.038946152 1.7951135e-38
0.10543245 0.037680659 0.041040659 1.9794325e-38
0.10537535 0.04056453 0.039820552 1.8964579e-38
0.10474759 0.04354709 0.038599551 1.8227379e-38
0.10122347 0.037928589 0.040247381 1.9424128e-38
0.10139319 0.040511623 0.039440632 1.8963497e-38
0.10096014 0.043396737 0.038350582 1.8411038e-38
0.097616956 0.040616225 0.038925707 1.8595434e-38
0.096803248 0.043228064 0.037252545 1.7858588e-38
0.094100595 0.041721482 0.038552225 1.7858945e-38
0.092678726 0.044392388 0.036864281 1.7027416e-38
0.092150331 0.046766482 0.035625637 1.7672058e-38
0.088693723 0.04406929 0.0368101 1.7855714e-38
0.088704973 0.046753034 0.035680175 1.8041557e-38
0.084497347 0.044787984 0.036140144 1.8778766e-38
0.084827572 0.04733257 0.034912586 1.8502176e-38
0.081149906 0.045404524 0.035806 1.8046222e-38
0.080701724 0.04754921 0.034332395 1.7949004e-38
0.079882771 0.05110367 0.032935619 1.7673843e-38
0.077007145 0.048226785 0.033587933 1.7306504e-38
0.077223822 0.051724829 0.032612979 1.7860011e-38
0.076008812 0.054293819 0.031895816 1.7216461e-38
0.073129416 0.048624475 0.033598423 1.7308316e-38
0.073117197 0.051703528 0.032547712 1.7309742e-38
0.07316789 0.054762378 0.031328976 1.6567525e-38
0.070141822 0.049124185 0.033410132 1.7032057e-38
0.069395393 0.052136 0.032618642 1.6661847e-38
0.069213957 0.055352379 0.031057239 1.61094e-38
0.068260878 0.084821612 0.027292311 1.1783374e-38
0.066256598 0.052978121 0.032298982 1.5373973e-38
0.065199792 0.05551536 0.031159878 1.5096319e-38
0.065442294 0.058956247 0.029627979 1.5001274e-38
0.064386934 0.061906353 0.028981209 1.4637521e-38
0.064386934 0.073653787 0.027753294 1.3347836e-38
0.065247789 0.081066541 0.027135491 1.2242964e-38
0.065678239 0.084283456 0.026877761 1.2150749e-38
0.064386934 0.086706489 0.026389003 1.3254935e-38
0.061555982 0.059513576 0.029864728 1.4355526e-38
0.061505914 0.063031882 0.028721452 1.4541334e-38
0.061250806 0.068187125 0.027752995 1.4083597e-38
0.061642826 0.072459951 0.027377844 1.3530775e-38
0.061804295 0.076215647 0.027014732 1.2885772e-38
0.063095599 0.08015579 0.026838243 1.270213e-38
0.061804265 0.084047273 0.026196122 1.3162363e-38
0.061158597 0.11666685 0.022668839 1.251701e-38
0.060147107 0.11813448 0.023352921 1.3168447e-38
0.058486164 0.060685992 0.030076563 1.4082084e-38
0.057718992 0.06343247 0.0292117 1.4543122e-38
0.057713896 0.067717031 0.027753353 1.4174002e-38
0.057930291 0.072226807 0.026725292 1.3806639e-38
0.057930291 0.076142617 0.026316047 1.306907e-38
0.056638986 0.083949886 0.025264502 1.2425164e-38
0.056638986 0.088518336 0.024786949 1.2702843e-38
0.057607502 0.11627359 0.02206248 1.2521664e-38
0.057375908 0.11882749 0.023286104 1.2430515e-38
0.053735405 0.068101242 0.027617812 1.4264741e-38
0.053764105 0.072237596 0.026759326 1.362334e-38
0.054056346 0.076069593 0.025617301 1.2610634e-38
0.053195477 0.079098985 0.025143683 1.2147851e-38
0.053195477 0.084755152 0.024552464 1.2243646e-38
0.052765042 0.087792672 0.024156511 1.2148917e-38
0.05372259 0.11537952 0.022355974 1.2887219e-38
0.053425878 0.11919762 0.022271752 1.2243278e-38
0.052846909 0.12201191 0.022127509 1.2702099e-38
0.050715744 0.068393879 0.027854204 1.4081042e-38
0.049724698 0.072422825 0.026869237 1.3528972e-38
0.049759001 0.076122597 0.025963604 1.3253479e-38
0.050055027 0.079951718 0.024822652 1.1594671e-38
0.049925297 0.084019773 0.024288595 1.1502131e-38
0.04997313 0.087593883 0.023796022 1.2427291e-38
0.049536735 0.090342358 0.023301423 1.2431972e-38
0.048891068 0.10077235 0.022093475 1.1238108e-38
0.049213886 0.1076311 0.02143544 1.2617464e-38
0.049631864 0.1114777 0.02258563 1.2977249e-38
0.049258798 0.1153289 0.022682726 1.2051013e-38
0.04982388 0.11895213 0.021823168 1.2240055e-38
0.046247125 0.07614354 0.026059151 1.2793229e-38
0.0463112 0.080049895 0.025492132 1.1499984e-38
0.046795219 0.084256813 0.024714947 9.2869374e-39
0.046375304 0.08787901 0.024515212 8.9106271e-39
0.046696424 0.091689467 0.023324013 9.5577762e-39
0.046200961 0.095406741 0.02301544 9.3744681e-39
0.046007007 0.099533409 0.022491992 9.0060205e-39
0.045855969 0.1034466 0.022027075 8.8230782e-39
0.046227813 0.10718949 0.021575868 9.7464596e-39
0.04618302 0.11019832 0.022658229 9.2840213e-39
0.045967162 0.11455779 0.022163272 1.0394033e-38
0.19412024 0.084087655 0.018332779 8.5594225e-39
0.19517633 0.090566635 0.018154621 8.006606e-39
0.170533 0.081013009 0.01736933 1.5006645e-38
0.16864425 0.0948449 0.016457736 1.3257435e-38
0.10140979 0.08085233 0.024810076 1.307089e-38
0.092880741 0.05707914 0.032655656 1.3437518e-38
0.17044088 0.015116602 0.058828413 7.6428682e-39
0.17074789 0.017048731 0.057149589 8.4715499e-39
0.166536 0.015042979 0.058124125 7.3652373e-39
0.16815026 0.016999766 0.056681037 9.2037297e-39
0.16664116 0.1471626 0.043822765 2.3132456e-38
0.16664116 0.14847733 0.043685317 2.3395685e-38
0.16346288 0.015209466 0.057716668 6.9978799e-39
0.16281043 0.016920287 0.056397021 6.9971471e-39
0.16252248 0.14651597 0.042935133 2.2572439e-38
0.1620457 0.14935766 0.043572962 2.155397e-38
0.15887329 0.017946664 0.055742204 7.4566707e-39
0.15753631 0.020775679 0.055373013 8.4679541e-39
0.15890002 0.14601572 0.042239308 2.1736212e-38
0.15863988 0.14983979 0.042992473 2.2210847e-38
0.15470776 0.018784862 0.056087375 7.9169524e-39
0.15455249 0.021057475 0.055055082 8.7456284e-39
0.15484646 0.14590825 0.041365504 2.0812107e-38
0.15498368 0.149848 0.041927636 2.3046389e-38
0.15417007 0.15229991 0.04152292 2.341769e-38
0.15210263 0.01873574 0.055617452 9.2955722e-39
0.15103284 0.021966554 0.054062843 1.0491589e-38
0.15097514 0.14659388 0.041281343 2.0719515e-38
0.15078051 0.14974411 0.040953219 2.249249e-38
0.15103285 0.15212734 0.040458024 2.341769e-38
0.1471806 0.022293057 0.053910315 1.150715e-38
0.14736918 0.024485104 0.052109718 1.2799316e-38
0.1469297 0.14550908 0.039671898 2.0721338e-38
0.14709979 0.14928751 0.040165603 2.1009811e-38
0.14298466 0.023172092 0.053491294 1.215575e-38
0.14314747 0.025368188 0.051831603 1.3351056e-38
0.14347273 0.14256798 0.039056957 2.0165283e-38
0.14325538 0.14538327 0.039631426 2.0998641e-38
0.14335681 0.14938818 0.040366769 2.0270086e-38
0.13939512 0.025873419 0.051915824 1.3995005e-38
0.13827746 0.028252263 0.050058305 1.5927883e-38
0.13892686 0.1424823 0.038237095 1.8603339e-38
0.13955584 0.14527397 0.039665818 2.0816053e-38
0.13542977 0.026452929 0.051770985 1.3350028e-38
0.13509938 0.028569378 0.050467551 1.6664746e-38
0.1350304 0.14240883 0.037534356 1.9435602e-38
0.13521212 0.14477858 0.039193273 2.0444017e-38
0.13256413 0.026925553 0.051199079 1.3809204e-38
0.13148493 0.029494211 0.049857974 1.8598332e-38
0.13048454 0.032043897 0.048241198 2.0805621e-38
0.13152373 0.14150311 0.03715992 1.9617509e-38
0.13134885 0.14466982 0.038329899 2.0078843e-38
0.129959 0.14866538 0.037999511 1.8420063e-38
0.12748712 0.030095149 0.049431264 2.0073439e-38
0.12788691 0.031994928 0.047772646 2.0532987e-38
0.12788691 0.14227417 0.036246002 1.3809204e-38
0.12768024 0.14506571 0.036711276 1.3813176e-38
0.12744333 0.14854389 0.037212908 1.4828431e-38
0.12353626 0.030687749 0.048819184 2.016348e-38
0.1238084 0.031954382 0.047714531 2.0438267e-38
0.12399045 0.14220072 0.035543263 1.0496271e-38
0.12374857 0.14501531 0.036113203 1.2062496e-38
0.12371831 0.14898293 0.035806596 1.0867559e-38
0.11953847 0.030629918 0.04843694 2.0072013e-38
0.11981624 0.031897288 0.047333181 2.0620149e-38
0.11983424 0.14159723 0.034848511 1.3717707e-38
0.11693335 0.030580807 0.047967136 1.9888004e-38
0.11544776 0.032170404 0.047019184 2.0068427e-38
0.11489874 0.13809079 0.034315169 8.6493985e-39
0.11597691 0.14090191 0.035012722 1.1787417e-38
0.11569352 0.14505696 0.035548627 1.8604737e-38
0.11233774 0.033070106 0.045847058 2.0067313e-38
0.11237437 0.14175069 0.035516083 2.0819652e-38
0.11302564 0.14439625 0.03535831 2.2843924e-38
0.10801147 0.033665359 0.045336843 1.9517743e-38
0.10775524 0.035553969 0.04373014 1.9426264e-38
0.10390767 0.034285165 0.045204997 2.0345707e-38
0.10412794 0.036034793 0.043427289 2.0071633e-38
0.099999994 0.034211501 0.044500232 2.0254245e-38
0.10035652 0.0361217 0.043173373 1.9701439e-38
0.096527174 0.036888398 0.042693198 1.9331939e-38
0.095416456 0.039259911 0.041093111 1.887454e-38
0.092237115 0.037346102 0.042586923 1.9702178e-38
0.092497364 0.040170856 0.040903628 1.8596874e-38
0.088437796 0.037582301 0.041528821 1.9515259e-38
0.088742658 0.04048375 0.040316105 1.8043356e-38
0.085671753 0.03789131 0.041503191 1.9053919e-38
0.084695488 0.040636167 0.040527344 1.8501461e-38
0.084047213 0.043055683 0.039645255 1.8688348e-38
0.081764042 0.041109234 0.040454388 1.8597257e-38
0.080535322 0.043514617 0.038957059 1.8044785e-38
0.07685259 0.044577874 0.037736475 1.647496e-38
0.077233016 0.046794217 0.036990285 1.6659358e-38
0.072875917 0.044841692 0.037762523 1.6203396e-38
0.073105782 0.046767905 0.036921799 1.6937734e-38
0.069389671 0.044825874 0.03780973 1.6017562e-38
0.069003403 0.047632262 0.036132157 1.6478531e-38
0.068141282 0.050561372 0.034938872 1.6757254e-38
0.065260872 0.048144158 0.035943687 1.4726094e-38
0.065306917 0.051457524 0.034474373 1.5094528e-38
0.061255515 0.048737913 0.035713375 1.3162729e-38
0.061204433 0.05184669 0.034788728 1.4359841e-38
0.060504198 0.055683568 0.033181369 1.4541369e-38
0.059049547 0.058267068 0.032475829 1.4174727e-38
0.05962041 0.12034834 0.028134704 1.3627983e-38
0.057796836 0.052112177 0.034934521 1.4173286e-38
0.057128251 0.055553466 0.033686519 1.3620847e-38
0.05660677 0.059549589 0.032066703 1.389812e-38
0.055153102 0.062788583 0.031292796 1.4453095e-38
0.057344615 0.12106279 0.026010215 1.2888251e-38
0.056364 0.12292023 0.027272165 1.2427296e-38
0.053944647 0.056996569 0.033210635 1.3254214e-38
0.053084314 0.05945918 0.032924116 1.3530079e-38
0.052955359 0.063470855 0.031502008 1.463642e-38
0.053854287 0.12118584 0.024952114 1.178477e-38
0.050068259 0.060480729 0.03265065 1.3531144e-38
0.049325794 0.06350451 0.031858623 1.4911912e-38
0.048679262 0.067793444 0.029972494 1.3988517e-38
0.047360182 0.071175188 0.028995335 1.334639e-38
0.049957842 0.11717384 0.024661064 1.2703191e-38
0.045943469 0.064791761 0.031448007 1.5370373e-38
0.045339733 0.067721285 0.03021425 1.3712992e-38
0.045347542 0.072468974 0.028663456 1.3162377e-38
0.044762552 0.083598278 0.027223229 1.1035029e-38
0.043463737 0.092763737 0.026028395 9.5570699e-39
0.043463737 0.096702278 0.025616765 8.9142172e-39
0.043463737 0.10917433 0.024313152 9.6556765e-39
0.045411974 0.11249318 0.024321437 9.0125225e-39
0.046061397 0.11644396 0.02402693 1.0025612e-38
0.046061397 0.11841324 0.023821056 1.2426956e-38
0.042243719 0.06891299 0.030138254 1.3623305e-38
0.041692942 0.072732873 0.029459834 1.3622272e-38
0.04222995 0.076511085 0.029035091 1.3069458e-38
0.042652696 0.080763653 0.028412163 1.2609544e-38
0.041867614 0.084614538 0.028340936 1.2698855e-38
0.041600645 0.088332564 0.027627945 1.2238953e-38
0.041458815 0.092004463 0.026618242 1.1772605e-38
0.041450173 0.099971943 0.025078237 1.0758468e-38
0.041384816 0.1039376 0.024822056 1.1221964e-38
0.041332483 0.10769214 0.024897039 1.195735e-38
0.042652667 0.11232884 0.025112867 1.1038979e-38
0.04222998 0.11466609 0.025046945 1.2512351e-38
0.037476778 0.089648254 0.027306199 1.2701389e-38
0.037520558 0.092266202 0.026927054 1.2792494e-38
0.037652105 0.096168421 0.0262025 1.2239298e-38
0.037608147 0.10013218 0.025893688 1.1593235e-38
0.037787378 0.10391232 0.025488794 1.1134813e-38
0.038226604 0.10739589 0.025332391 1.1595428e-38
0.034871668 0.089599147 0.026836395 1.2701395e-38
0.034546018 0.091897123 0.026536822 1.2606671e-38
0.034220338 0.09617006 0.026030898 9.755093e-39
0.034546018 0.099796943 0.025711119 8.8335011e-39
0.034871668 0.10276552 0.025460184 8.7423914e-39
0.19356883 0.073130704 0.019011319 1.1875587e-38
0.19355235 0.078535751 0.017838836 9.7558049e-39
0.1693611 0.064034201 0.021396637 1.7402653e-38
0.16601029 0.013125211 0.060783267 6.6261869e-39
0.16201937 0.01437974 0.060265064 6.9038822e-39
0.15809855 0.014966037 0.059488952 7.2708249e-39
0.15686607 0.016914118 0.058719993 8.0083969e-39
0.15435335 0.015245624 0.059458137 8.562319e-39
0.15425345 0.016864862 0.058248758 8.6537943e-39
0.15294714 0.14888282 0.044211745 2.220907e-38
0.15164082 0.015495189 0.057915568 9.8505411e-39
0.150078 0.01811187 0.057527483 9.4810327e-39
0.15098767 0.14950611 0.043789327 2.1846399e-38
0.14720698 0.018944591 0.057087302 9.8523193e-39
0.14564228 0.020682536 0.05679059 1.0588807e-38
0.1435608 0.021984346 0.056786001 1.2150365e-38
0.14119031 0.15064184 0.041884303 1.7324181e-38
0.13849509 0.023183674 0.055055797 1.1510771e-38
0.13727136 0.024467286 0.054357886 1.3072338e-38
0.13727136 0.14660667 0.041591525 2.1089426e-38
0.13864689 0.14985229 0.04188627 1.8513353e-38
0.13832803 0.15279542 0.0421592 1.6326547e-38
0.13571166 0.023158699 0.055232167 1.0318659e-38
0.13433215 0.024741985 0.053793252 1.1970302e-38
0.13457364 0.14728914 0.041368961 2.0723534e-38
0.1338802 0.149538 0.04168874 1.8694112e-38
0.13051105 0.025505997 0.053272188 1.2705329e-38
0.12943347 0.02828081 0.052530229 1.6942752e-38
0.13073978 0.14714377 0.040344536 2.0172877e-38
0.13136818 0.14966623 0.040808558 1.9252658e-38
0.12673202 0.025603406 0.052658141 1.3165594e-38
0.12682085 0.028231554 0.052059054 1.7498074e-38
0.12271985 0.026865099 0.052135348 1.4547838e-38
0.12285654 0.028825175 0.05144453 1.850829e-38
0.11976126 0.028995659 0.051032662 1.8689808e-38
0.11463273 0.029880822 0.050277531 1.9978389e-38
0.11095208 0.029947184 0.049667716 2.0253167e-38
0.1102742 0.032321051 0.048614681 2.0067669e-38
0.10693149 0.030550085 0.049212277 1.9424846e-38
0.10712729 0.031839754 0.048431873 1.9701061e-38
0.10431513 0.030500758 0.048740327 1.8964592e-38
0.10332826 0.032586586 0.048137963 1.9976933e-38
0.099954486 0.032622427 0.047723591 1.9978015e-38
0.095718473 0.033931356 0.046047986 2.0066639e-38
0.094162971 0.035538472 0.045340896 1.9792916e-38
0.091339573 0.034203675 0.045646846 1.9608147e-38
0.09155035 0.035489216 0.044869721 1.9700728e-38
0.087416261 0.034129716 0.04493922 1.9423761e-38
0.087566495 0.03595433 0.044299126 1.9699284e-38
0.083426043 0.036514007 0.043664515 1.887131e-38
0.082406148 0.039278116 0.042806447 1.8592589e-38
0.079693854 0.037016883 0.043424129 1.7951885e-38
0.079420269 0.04035363 0.042149723 1.8230994e-38
0.075761378 0.040495235 0.041808367 1.749089e-38
0.076527745 0.04312858 0.041332185 1.7119251e-38
0.071895391 0.040826336 0.04145813 1.6110835e-38
0.071955621 0.043042392 0.040507615 1.6200881e-38
0.068994015 0.041735794 0.041126072 1.5926805e-38
0.067443624 0.043763898 0.039813936 1.5647665e-38
0.064058021 0.044886388 0.039045274 1.5001597e-38
0.062811434 0.046831287 0.03844434 1.4361252e-38
0.060490817 0.045542456 0.039177835 1.4360898e-38
0.059690714 0.047141179 0.03835386 1.4083596e-38
0.056906223 0.04897406 0.037824869 1.4913711e-38
0.055207729 0.051660273 0.036808729 1.3530418e-38
0.055585086 0.12478919 0.030000329 1.298012e-38
0.051854283 0.055567212 0.036409378 1.3068742e-38
0.048905641 0.057178743 0.035338342 1.2699235e-38
0.047943056 0.059330828 0.034597337 1.3160195e-38
0.04507643 0.060023017 0.034445047 1.3900636e-38
0.044225961 0.063298039 0.033626616 1.537289e-38
0.040867984 0.065007344 0.033565581 1.4173283e-38
0.03998822 0.067542955 0.032264233 1.3531493e-38
0.03929776 0.071476117 0.031581283 1.3991391e-38
0.03929776 0.076757818 0.031029224 1.3621905e-38
0.039663434 0.080512129 0.031112254 1.2886132e-38
0.03929776 0.08402016 0.0302701 1.2791784e-38
0.03929776 0.10976847 0.027578831 1.3797287e-38
0.039741874 0.112188 0.027611315 1.315443e-38
0.037597477 0.069573812 0.032491982 1.3348552e-38
0.037597477 0.072218455 0.032215536 1.380593e-38
0.036465049 0.084699772 0.030250251 1.343605e-38
0.036685109 0.087932192 0.029384851 1.2792154e-38
0.035378814 0.10573331 0.027286053 1.0120284e-38
0.036083072 0.10894924 0.027282715 1.0490514e-38
0.036725342 0.11209202 0.027888894 1.1319546e-38
0.032528281 0.084850229 0.029971004 1.3989604e-38
0.032502323 0.08838249 0.028830647 1.3346395e-38
0.031901747 0.092756681 0.028212845 1.2701006e-38
0.031459868 0.096416458 0.027545393 9.7536553e-39
0.031982392 0.10065167 0.027197957 8.8363499e-39
0.032451898 0.10458346 0.027255833 8.7445242e-39
0.033445776 0.10813232 0.027449191 9.204443e-39
0.02974835 0.089260653 0.029003143 1.3347462e-38
0.02974835 0.091905296 0.028726697 1.2704588e-38
0.0294213 0.096857831 0.028149426 9.4767055e-39
0.02974835 0.10050038 0.027828395 8.56153e-39
0.19643162 0.089015126 0.018417954 7.7325345e-39
0.19163503 0.070214994 0.022190809 1.3992851e-38
0.073990971 0.1170368 0.0019783378 1.6207352e-38
0.11096987 0.047323488 0.037137508 1.3253131e-38
0.161236 0.1420483 0.038262606 2.0266481e-38
0.096527174 0.036888398 0.042693198 1.9331939e-38
0.1623988 0.01229227 0.064980507 6.2577954e-39
0.15816075 0.013133761 0.065482199 6.9024459e-39
0.1594757 0.013743345 0.062592745 6.9038836e-39
0.15488392 0.013656784 0.061764598 8.0055523e-39
0.15087052 0.01469617 0.061264873 9.7551126e-39
0.14674944 0.016232245 0.062566936 8.8378269e-39
0.14635631 0.017474353 0.059810758 9.2069639e-39
0.14181232 0.020131715 0.06125921 9.5750332e-39
0.14110857 0.022016808 0.058379173 1.1602224e-38
0.13856316 0.02006422 0.060503483 8.6530446e-39
0.1384847 0.021967348 0.057905972 9.7633509e-39
0.13651679 0.15255201 0.043898106 1.5398831e-38
0.13444467 0.02067744 0.06036967 8.2853425e-39
0.13475019 0.022248141 0.057706594 9.0225432e-39
0.13454889 0.15052573 0.043751061 1.7101643e-38
0.13435836 0.15268104 0.044257462 1.5406744e-38
0.13083704 0.022552133 0.05815357 8.8399835e-39
0.12671448 0.023167808 0.058018804 1.0406233e-38
0.12254009 0.023614813 0.057074726 1.0954351e-38
0.12260538 0.025668837 0.055134773 1.2886505e-38
0.11956674 0.024349213 0.056251466 1.0401553e-38
0.11870117 0.026510295 0.055016279 1.3715908e-38
0.11496279 0.026256315 0.055212677 1.5004144e-38
0.11585379 0.0285028 0.053096652 1.8138811e-38
0.11101574 0.02618191 0.054500818 1.914935e-38
0.11158998 0.028090894 0.052362323 1.9978398e-38
0.10692279 0.026382901 0.053587615 1.9520264e-38
0.10765417 0.028679755 0.051583171 1.9518119e-38
0.10302216 0.026711501 0.053328633 1.9517051e-38
0.10331532 0.029605221 0.050950825 1.8779129e-38
0.099254906 0.027452584 0.052836895 1.942521e-38
0.099376589 0.029918391 0.051306963 1.9424497e-38
0.099782556 0.031846635 0.049816966 1.9975864e-38
0.095165581 0.030548476 0.051358938 1.9239738e-38
0.095584333 0.032563157 0.0489766 1.9791844e-38
0.091280431 0.031129479 0.050385475 1.9332992e-38
0.090938777 0.033062428 0.049099267 1.9517013e-38
0.087333381 0.031055059 0.049673557 1.8782333e-38
0.087654233 0.033000514 0.048506975 1.9058183e-38
0.08316803 0.031012878 0.049599767 1.7401219e-38
0.08358103 0.033431612 0.047310412 1.8689779e-38
0.079107165 0.031620383 0.04913646 1.7027769e-38
0.079770267 0.033647932 0.047001779 1.7861815e-38
0.078791559 0.035429258 0.045615256 1.7860041e-38
0.075603545 0.0350268 0.046779215 1.7676724e-38
0.075837374 0.036977317 0.045119226 1.7859679e-38
0.071201801 0.035466745 0.047293067 1.6294151e-38
0.071715891 0.037378792 0.045654237 1.6202312e-38
0.070919931 0.039259195 0.043779731 1.5743144e-38
0.067736447 0.038389049 0.045479953 1.5556596e-38
0.067421436 0.040961388 0.042963982 1.5555133e-38
0.063296437 0.039313089 0.045449674 1.5462956e-38
0.063768595 0.041227445 0.043973327 1.5462562e-38
0.063704267 0.043101501 0.042062521 1.5369292e-38
0.060141921 0.042290218 0.043541491 1.5004828e-38
0.05899179 0.044805288 0.041365862 1.4451653e-38
0.056708664 0.04318428 0.043843925 1.4634596e-38
0.055420995 0.045496203 0.042550087 1.3988892e-38
0.055832654 0.047594488 0.040157735 1.417472e-38
0.052097201 0.047092728 0.042594612 1.3529701e-38
0.052099228 0.049192004 0.040040016 1.3252011e-38
0.05202803 0.052429371 0.038958669 1.2517335e-38
0.048183769 0.04980335 0.040722013 1.233293e-38
0.047889233 0.053156145 0.039587975 1.2334041e-38
0.048179686 0.055627897 0.03792274 1.3343537e-38
0.043984771 0.053698789 0.039658666 1.3713387e-38
0.044425726 0.056722865 0.037805021 1.3529015e-38
0.043369234 0.058631469 0.03673172 1.3622629e-38
0.039839268 0.057453137 0.038595557 1.3069088e-38
0.040615618 0.060600795 0.036364555 1.3621921e-38
0.040089428 0.063211024 0.035655022 1.3897797e-38
0.036945254 0.061456814 0.038330615 1.3346052e-38
0.03621769 0.064617574 0.036334872 1.2794659e-38
0.03594324 0.067530155 0.034652054 1.3070525e-38
0.035365671 0.071780056 0.034238756 1.334675e-38
0.036054641 0.076425545 0.033793688 1.3712305e-38
0.036153585 0.080376245 0.033143282 1.3803425e-38
0.036153585 0.082365409 0.032935381 1.3619754e-38
0.035573423 0.11582431 0.031171739 1.3807026e-38
0.032992572 0.065377675 0.037200153 1.2336897e-38
0.032783687 0.06821689 0.036047876 1.1873063e-38
0.032731473 0.071918488 0.035447061 1.2796452e-38
0.032028973 0.07590773 0.035015523 1.3529715e-38
0.032518357 0.079755209 0.033453763 1.4265137e-38
0.03287375 0.082303584 0.032343805 1.4540984e-38
0.031561822 0.10880104 0.029335022 9.2973491e-39
0.032384187 0.11227539 0.029413879 1.0309719e-38
0.032046735 0.11599217 0.029949188 1.3438619e-38
0.031637281 0.11933026 0.030291975 1.4175455e-38
0.02903989 0.077289298 0.035234451 1.3716609e-38
0.028189987 0.080008946 0.034028888 1.3714826e-38
0.028520226 0.083462812 0.032067597 1.3715555e-38
0.028063297 0.08773835 0.03089869 1.3255639e-38
0.027625978 0.092150472 0.030357778 1.2334735e-38
0.027953982 0.095140405 0.030105114 1.0768165e-38
0.027625978 0.10010713 0.029526174 8.2853285e-39
0.027852207 0.10379834 0.029437065 7.4545015e-39
0.028468907 0.10770638 0.02965188 8.3778997e-39
0.028560251 0.11152279 0.030401051 1.0770297e-38
0.028784454 0.11506577 0.030217528 1.3163782e-38
0.025087208 0.083207846 0.033895135 1.3255296e-38
0.025087208 0.088535018 0.033338308 1.2705328e-38
0.024754703 0.092112675 0.031541348 1.1231627e-38
0.024590433 0.095555231 0.030470431 9.5703458e-39
0.024545014 0.09955664 0.030157328 8.0058858e-39
0.024241507 0.10355015 0.030848384 6.7172979e-39
0.025087208 0.10718012 0.031389475 7.3623395e-39
0.02014637 0.096765578 0.03157717 8.8327654e-39
0.020343989 0.099233121 0.031355321 8.0022858e-39
0.021134526 0.10244434 0.031163812 7.0846273e-39
0.19670382 0.07605473 0.01824683 9.296633e-39
0.19658612 0.082980819 0.018182695 8.1009793e-39
0.17287517 0.073706754 0.018219173 1.36255e-38
0.19266956 0.067277201 0.023129225 1.3716624e-38
0.17917727 0.10350859 0.018547118 1.3536197e-38
0.15345228 0.10420082 0.013493478 1.3076281e-38
0.14924023 0.055097695 0.018595874 1.8321009e-38
0.1184172 0.099102154 0.015682936 1.464001e-38
0.11362666 0.1131638 0.021443486 1.325962e-38
0.071028531 0.092485435 0.020864844 1.4812903e-38
0.17287517 0.073706754 0.018219173 1.36255e-38
0.16146204 0.010899276 0.06785053 5.7978934e-39
0.15316994 0.011632539 0.068688869 7.6396382e-39
0.14973435 0.012189735 0.068302274 8.7459816e-39
0.14800672 0.01438605 0.067587435 9.5732185e-39
0.14512008 0.012683034 0.068260908 8.1023946e-39
0.14508495 0.014657874 0.066770732 8.5623092e-39
0.14166835 0.015756533 0.0657776 8.1013422e-39
0.14231618 0.018546164 0.063560486 8.8389185e-39
0.13752261 0.016349711 0.066083729 7.2744262e-39
0.1379018 0.018146362 0.063308358 7.8251015e-39
0.13409363 0.016802516 0.064798117 6.535436e-39
0.1338093 0.018753827 0.06300962 7.4570252e-39
0.12853345 0.00063429028 0.066496134 5.7071706e-39
0.12820171 0.003645882 0.066120863 8.9397321e-39
0.12786998 0.005986847 0.065815687 1.0501597e-38
0.12951669 0.019528683 0.062784612 7.1782873e-39
0.1253037 0.00057038665 0.065573335 3.3165694e-39
0.1248844 0.0022420734 0.065662742 9.0359088e-39
0.12388918 0.0072530657 0.064957619 1.0314386e-38
0.12550972 0.019314017 0.062857091 6.5368626e-39
0.12618582 0.021906011 0.060098052 9.4781586e-39
0.12168574 0.0004901439 0.063559592 3.6993439e-40
0.12129578 0.0031777471 0.064683616 1.0971996e-38
0.12123531 0.0072030425 0.064478934 1.1425409e-38
0.12155437 0.020077702 0.06298703 8.1927882e-39
0.12186468 0.021877006 0.060675621 1.058843e-38
0.11759132 0.0030952767 0.062994838 1.1253621e-38
0.11737692 0.0071227103 0.063329637 1.3368331e-38
0.11758626 0.020211574 0.062453866 7.8265378e-39
0.11726202 0.022810631 0.061393261 1.0493383e-38
0.11355525 0.00034289807 0.062773824 4.6217065e-40
0.11349249 0.0030237213 0.062709212 1.2179918e-38
0.11332035 0.0063804165 0.062951446 1.5677548e-38
0.11327374 0.020465605 0.061641097 8.8363793e-39
0.11358696 0.023106724 0.060286701 1.1782304e-38
0.10958007 0.00026796013 0.062056899 1.4719786e-39
0.10938823 0.0029520467 0.062422633 1.4013028e-38
0.10929295 0.0061731488 0.062409163 1.5574538e-38
0.1055067 0.00019418448 0.061662495 6.0781209e-39
0.1057328 0.00307706 0.061937749 1.6033028e-38
0.10569125 0.0067184046 0.061695516 1.2340898e-38
0.1026583 0.00014650822 0.061829388 1.0407326e-38
0.10186213 0.0030822903 0.061377347 1.3726327e-38
0.10177585 0.023277622 0.058374882 1.6577571e-38
0.097676396 0.023650229 0.058260024 1.5469434e-38
0.097930819 0.025740232 0.055226803 1.8230628e-38
0.094696701 0.024139188 0.05787003 1.4824816e-38
0.093953788 0.026717391 0.055534899 1.7677474e-38
0.093948528 0.029287294 0.053108215 1.8687645e-38
0.088725507 0.024026625 0.056793094 9.5703682e-39
0.089739665 0.026674669 0.055565834 1.5930778e-38
0.090439156 0.029254947 0.053152978 1.8595449e-38
0.085934341 0.026769742 0.054847836 1.5009909e-38
0.086584687 0.029165387 0.052118957 1.8872391e-38
0.082129732 0.026892669 0.053685188 1.2705751e-38
0.082733333 0.029075876 0.051085532 1.6665109e-38
0.078524381 0.026839964 0.054383636 1.0493059e-38
0.078347236 0.030011572 0.051501811 1.564989e-38
0.078775033 0.033002317 0.049953341 1.7769255e-38
0.0740529 0.030556355 0.052158058 1.4913752e-38
0.074417382 0.033476207 0.049518049 1.69424e-38
0.070369631 0.031281102 0.052688122 1.4362e-38
0.070171744 0.033620715 0.050363719 1.5834982e-38
0.06815809 0.031686492 0.052242458 1.2885819e-38
0.066323012 0.034390897 0.04970932 1.3715943e-38
0.0662404 0.036767084 0.04727447 1.4915177e-38
0.062599972 0.034641117 0.049728096 1.3252436e-38
0.06282331 0.037390206 0.046926916 1.4175486e-38
0.058989018 0.035070281 0.049876392 1.4178702e-38
0.058382511 0.038254824 0.047857642 1.4267305e-38
0.05798322 0.04107964 0.045658827 1.4728626e-38
0.054789245 0.038118832 0.048792005 1.4914078e-38
0.054879904 0.041956067 0.045682609 1.4819379e-38
0.053705812 0.04453291 0.044177353 1.3894908e-38
0.052234918 0.039433908 0.048529446 1.4639976e-38
0.051204592 0.041841101 0.046812713 1.3531864e-38
0.050771773 0.045451492 0.043838382 1.3161992e-38
0.047936261 0.042905726 0.047042191 1.2701735e-38
0.047148347 0.046159647 0.044855356 1.2793889e-38
0.045789182 0.049051579 0.04226166 1.2702101e-38
0.044652313 0.047261316 0.045306981 1.3343881e-38
0.043123662 0.049875155 0.042200446 1.2884335e-38
0.041830897 0.052311178 0.041199267 1.4813254e-38
0.039197087 0.049869634 0.044448495 1.251807e-38
0.039366782 0.053038061 0.041951239 1.371302e-38
0.035396576 0.057938427 0.041072786 1.2425154e-38
0.034442037 0.061540082 0.039228082 1.2703544e-38
0.036032259 0.11778939 0.034660518 1.4083986e-38
0.034349203 0.12026201 0.035031796 1.4268729e-38
0.033657908 0.12492464 0.036206663 1.2792864e-38
0.033657908 0.12760718 0.035926282 9.1126047e-39
0.032152534 0.058664985 0.042176604 1.1874501e-38
0.031336397 0.061595313 0.039848149 1.1599353e-38
0.030771017 0.064700834 0.038500845 1.1598979e-38
0.030185461 0.067788884 0.037713647 1.122913e-38
0.029955983 0.07209263 0.036966622 1.2148938e-38
0.03259486 0.11748773 0.032702863 1.4268708e-38
0.032197148 0.11966124 0.033424973 1.4269071e-38
0.03233099 0.12624089 0.03582716 1.0397272e-38
0.027631998 0.061906919 0.041110933 1.03079e-38
0.026764035 0.0650056 0.040190816 1.0120993e-38
0.027437478 0.068186857 0.038278043 1.0766354e-38
0.027127504 0.072305083 0.0373227 1.1503567e-38
0.027050406 0.075901695 0.036294103 1.2518435e-38
0.025997669 0.078686446 0.035555661 1.3069091e-38
0.025794148 0.11277666 0.032466233 1.2245796e-38
0.025997669 0.114696 0.031791806 1.3810964e-38
0.024369359 0.063051373 0.040980279 9.2941037e-39
0.023807675 0.065026745 0.040416002 9.4817137e-39
0.023360103 0.068313546 0.03945148 9.8504906e-39
0.023189664 0.072080523 0.03850764 1.0674887e-38
0.023608655 0.076092944 0.036412954 1.1690121e-38
0.023500741 0.080235057 0.035522461 1.2703544e-38
0.022628903 0.084259875 0.03523469 1.2888301e-38
0.023111939 0.088049427 0.034663975 1.251701e-38
0.022341609 0.091111854 0.033930957 1.1322049e-38
0.022039354 0.10528557 0.032053709 5.3365313e-39
0.023001313 0.10802555 0.032283366 7.0871749e-39
0.023836732 0.11186798 0.032970667 1.0405154e-38
0.020388603 0.069012024 0.039631486 8.7434438e-39
0.019558936 0.072508268 0.038822889 9.387737e-39
0.019429922 0.076265 0.037790358 1.0676686e-38
0.019310594 0.080100432 0.037254155 1.1598644e-38
0.018813699 0.084276594 0.036727011 1.2241862e-38
0.019310594 0.088136651 0.036414146 1.2053532e-38
0.019030154 0.092017658 0.033800066 1.095219e-38
0.019136608 0.095094822 0.032589674 9.7557937e-39
0.018740773 0.10055548 0.031946719 7.726415e-39
0.018924296 0.10407506 0.032780111 6.4399852e-39
0.019037902 0.1086054 0.034370959 6.8069979e-39
0.020388603 0.11126186 0.035215378 8.6448162e-39
0.015877038 0.07657218 0.038018703 1.0031643e-38
0.015403599 0.080272079 0.037162483 1.0952538e-38
0.015266955 0.084281914 0.036647558 1.2242912e-38
0.015454173 0.088246271 0.035813153 1.2331163e-38
0.014978588 0.09219268 0.034859717 1.0952917e-38
0.01534313 0.096082076 0.03243345 9.5717513e-39
0.015160203 0.099923134 0.032041132 8.3710585e-39
0.015155077 0.10418057 0.033213079 8.0037054e-39
0.01522094 0.10842775 0.034228861 7.73071e-39
0.011904866 0.088254787 0.035732746 1.0674129e-38
0.16629928 0.096772693 0.017254412 1.5651652e-38
0.12265965 0.047320683 0.02954942 1.6110834e-38
0.1080972 0.045054883 0.036271036 1.3716261e-38
0.092666209 0.028768711 0.053950429 1.4637154e-38
0.13932429 0.014306322 0.069078267 7.3648464e-39
0.13614351 0.014604073 0.069233537 6.1648528e-39
0.13134022 0.00070527196 0.069044173 8.2939941e-39
0.13117005 0.0034007132 0.069412649 7.8323013e-39
0.13108495 0.0060972944 0.069455862 5.1575379e-39
0.13241749 0.01600004 0.068663836 5.5223757e-39
0.13000953 0.00068018585 0.068804204 7.6436123e-39
0.12947726 0.0030912533 0.06845516 7.9259445e-39
0.128463 0.0071675628 0.068695724 4.7887343e-39
0.12850651 0.016140193 0.067595422 4.5093028e-39
0.13000953 0.018165883 0.066976547 6.3517734e-39
0.12468868 0.0040909871 0.068499386 1.2344133e-38
0.12508845 0.0073311999 0.068233669 8.6544684e-39
0.12308961 0.011334367 0.067450762 1.3782513e-39
0.12456921 0.015385866 0.066729307 2.6689831e-39
0.12085319 0.010470651 0.066520154 2.6635895e-39
0.12084359 0.015520748 0.066457629 1.3804107e-39
0.12029409 0.018327415 0.065443695 5.1542812e-39
0.11673546 0.010820165 0.065908015 2.4799185e-39
0.11632587 0.018459421 0.064859688 4.4124464e-39
0.11271071 0.0084244087 0.064840734 1.1976389e-38
0.11242919 0.0097864568 0.065668881 5.9696674e-39
0.11286461 0.018663175 0.064207315 5.2443427e-39
0.10871868 0.0080128796 0.064155877 1.1049044e-38
0.10843153 0.0097110942 0.064947903 5.1431479e-39
0.10857448 0.019797478 0.063408673 1.002881e-38
0.10339595 0.0021960661 0.063793421 1.6314259e-38
0.10339595 0.0075762793 0.063231051 4.1505998e-39
0.10481712 0.010172807 0.063831866 1.4697295e-39
0.10470039 0.019877553 0.063204944 1.0765327e-38
0.10457933 0.021741319 0.062477112 1.5199302e-38
0.10006925 0.00011577457 0.063404322 1.0779673e-38
0.10206527 0.0014984533 0.063623726 1.3277597e-38
0.10120165 0.0068753585 0.063585401 6.0751585e-39
0.1011025 0.0095729306 0.063625991 1.2864158e-39
0.1011025 0.020348512 0.062499702 1.021931e-38
0.10006925 0.021636628 0.061154902 1.1510061e-38
0.097104847 6.8925321e-05 0.063890517 1.0315467e-38
0.099103674 0.002127029 0.064039826 1.1418915e-38
0.098770529 0.0071718097 0.063451827 2.5757211e-39
0.097504601 0.019741904 0.061907113 9.0175238e-39
0.096409887 0.021903917 0.060459733 1.0949001e-38
0.095106006 3.1247735e-05 0.063530028 9.8436985e-39
0.094039962 0.019676592 0.061282277 8.4618333e-39
0.09322089 0.022591446 0.060010791 1.0766416e-38
0.090428263 0.023037545 0.059591234 1.0029542e-38
0.085111856 0.02408791 0.059193373 8.828504e-39
0.082105085 0.025333147 0.05749315 1.0950787e-38
0.077558786 0.025710799 0.056965351 8.9260596e-39
0.074285746 0.02756352 0.056345224 1.0950831e-38
0.069625109 0.029494658 0.05529362 1.2700683e-38
0.065731585 0.030963767 0.054328024 1.1595794e-38
0.061909139 0.031714026 0.05382514 1.1132267e-38
0.061479568 0.033014651 0.052929699 1.2242577e-38
0.057743013 0.033504795 0.052605927 1.3253523e-38
0.054805934 0.035170086 0.052168846 1.261318e-38
0.05283016 0.036886759 0.050947964 1.2245454e-38
0.050213158 0.038489882 0.050916374 1.2334408e-38
0.04513526 0.042865045 0.049941957 1.2518413e-38
0.044846058 0.04480657 0.048664451 1.2611318e-38
0.041994274 0.04635939 0.048493087 1.2886841e-38
0.039138794 0.047466327 0.048367679 1.288503e-38
0.036862016 0.050036274 0.046662152 1.1964899e-38
0.036917835 0.12060864 0.040317774 1.3344972e-38
0.034842581 0.054336689 0.046253204 1.224112e-38
0.032869965 0.05668629 0.04523921 1.159829e-38
0.034513474 0.12178931 0.039074719 1.4820812e-38
0.029144615 0.058726981 0.045368493 1.1506795e-38
0.024683297 0.061287731 0.043776453 9.1093789e-39
0.022019565 0.062583998 0.043155313 8.1917064e-39
0.020688444 0.065250427 0.042633891 8.3757417e-39
0.01825422 0.065567218 0.04241246 7.4559392e-39
0.017614573 0.068373218 0.041820109 7.8218364e-39
0.016901791 0.071853384 0.040742517 8.3735921e-39
0.014619768 0.068824671 0.041664779 6.8073188e-39
0.014696002 0.072540313 0.040779352 7.6374564e-39
0.013242453 0.076155826 0.039625585 8.6512328e-39
0.01290977 0.08052098 0.039108694 1.0678458e-38
0.01336503 0.11154988 0.036459327 8.284995e-39
0.012154579 0.072886385 0.040790796 6.4400034e-39
0.011155128 0.076571666 0.04022342 7.6381865e-39
0.011579096 0.080495894 0.038868666 1.0123508e-38
0.011579096 0.083186001 0.038587511 1.1872382e-38
0.011367142 0.11218569 0.036028564 8.3782654e-39
0.19676267 0.074452505 0.018084466 9.6664973e-39
0.19658612 0.071156666 0.019418597 1.0953631e-38
0.17808349 0.081759147 0.018495858 1.1506446e-38
