# .PCD v0.7 - Point Cloud Data file format
VERSION 0.7
FIELDS x y z rgb
SIZE 4 4 4 4
TYPE F F F F
COUNT 1 1 1 1
WIDTH 979
HEIGHT 1
VIEWPOINT 0 0 0 0 1 0 0
POINTS 979
DATA ascii
0.042600974 0.090653874 0.027202606 1.1690101e-38
0.042617068 0.094576813 0.026514649 1.1318086e-38
0.042651907 0.10307653 0.025023818 1.2047762e-38
0.044116154 0.10623989 0.025147259 1.1033996e-38
0.040411577 0.067563213 0.032170117 1.3624061e-38
0.040293813 0.071229361 0.031520963 1.3531867e-38
0.040441662 0.074896552 0.030883908 1.3806652e-38
0.040042207 0.079272427 0.030096889 1.2978682e-38
0.039756939 0.08294066 0.029100478 1.2426231e-38
0.039799929 0.086842425 0.028304517 1.1967047e-38
0.039842919 0.090743966 0.027508557 1.2151423e-38
0.039964035 0.094402649 0.026420176 1.2058508e-38
0.039760649 0.098706089 0.025654972 1.1229145e-38
0.04016611 0.10224921 0.025458574 1.141496e-38
0.041097432 0.10527966 0.025580108 1.3072318e-38
0.035693854 0.082996272 0.029238045 1.3712657e-38
0.035709947 0.086924858 0.028548956 1.2885029e-38
0.035807192 0.090777777 0.027538359 1.2243631e-38
0.03598617 0.094550021 0.026206851 1.0583413e-38
0.036280498 0.098196961 0.026257932 9.0171763e-39
0.037097096 0.10133498 0.026084185 7.9147846e-39
0.032408535 0.091494776 0.02759105 1.2887906e-38
0.031986773 0.094872035 0.0267241 1.0308249e-38
0.032738402 0.097746454 0.026170135 8.836703e-39
0.029101744 0.094755165 0.026862681 1.0217493e-38
0.14606188 0.075824402 0.017366052 1.6573268e-38
0.14494634 0.071688987 0.017060697 1.5837129e-38
0.097255923 0.10722122 0.008800149 2.2576776e-38
0.096916929 0.1137676 0.0058845282 2.1732949e-38
0.12375214 0.091876067 0.017599404 9.1140172e-39
0.11320554 0.096472777 0.016012907 1.2427676e-38
0.13540451 0.093139209 0.012709975 1.6021155e-38
0.14500766 0.079259731 0.015395582 1.5282899e-38
0.12127796 0.096991099 0.01537478 1.3079522e-38
0.11234359 0.10944321 0.015647113 1.4272672e-38
0.12193076 0.055190526 0.027004063 1.4636411e-38
0.10033527 0.06926357 0.026475966 1.5926088e-38
0.080732718 0.081086569 0.026622534 1.5191032e-38
0.05966188 0.068269022 0.025386989 1.546582e-38
0.14166771 0.039978057 0.044526219 1.574924e-38
0.13269746 0.043812171 0.041706085 1.6943833e-38
0.16404085 0.037242897 0.048147976 1.6947419e-38
0.16354989 0.039294519 0.044969618 1.8604427e-38
0.16399421 0.1307829 0.0293625 1.9152238e-38
0.16448236 0.13376981 0.030458152 2.0256774e-38
0.16047907 0.03683129 0.047967732 1.7406965e-38
0.15954883 0.037965097 0.045014501 1.8420749e-38
0.15992841 0.1305511 0.02877593 1.7956198e-38
0.16047527 0.13375366 0.030272186 1.9612465e-38
0.15606862 0.036275439 0.047179997 1.8603731e-38
0.15621911 0.037951641 0.044860005 1.9249075e-38
0.15646818 0.13373744 0.03008616 1.9428436e-38
0.15264532 0.034431815 0.048358679 1.8878848e-38
0.15203653 0.036308661 0.047322869 1.9153645e-38
0.14955968 0.037924729 0.044550836 2.0259617e-38
0.15393761 0.13118351 0.02838254 1.8695914e-38
0.15183148 0.13335612 0.029426396 1.9798289e-38
0.14830524 0.03640566 0.046994507 2.0902131e-38
0.14756183 0.037916653 0.044458091 2.1638614e-38
0.1440219 0.036935709 0.046835124 2.2097783e-38
0.145564 0.037908576 0.044365346 2.2097783e-38
0.14435856 0.13393185 0.02859199 2.053619e-38
0.13979211 0.036311835 0.046203256 2.2095287e-38
0.13890456 0.037881665 0.044056237 2.1632504e-38
0.14050488 0.13414076 0.028585374 2.0627338e-38
0.13620278 0.036607005 0.044491529 2.1911248e-38
0.13624078 0.037870906 0.043932617 2.172684e-38
0.13668878 0.13390085 0.028235972 1.9431324e-38
0.1320627 0.036788344 0.045619726 2.1266597e-38
0.1319809 0.038378991 0.04364264 2.089925e-38
0.13230944 0.13379207 0.027921736 1.9802992e-38
0.1279106 0.036969624 0.046747327 2.0807428e-38
0.1275862 0.038492553 0.043415606 2.0715945e-38
0.12347004 0.037969708 0.044329822 2.1270899e-38
0.12292998 0.039786987 0.042968869 2.0901035e-38
0.12330058 0.1301842 0.027114153 8.3786508e-39
0.12434947 0.13417885 0.027605712 9.3935146e-39
0.12430875 0.13719016 0.028980672 1.0134287e-38
0.11980076 0.037626095 0.04421711 2.1638599e-38
0.11960024 0.039773531 0.042814314 2.1453835e-38
0.11904176 0.12699926 0.029505432 9.2058401e-39
0.12061261 0.13029909 0.029000163 9.6632281e-39
0.12108662 0.13427559 0.029340625 1.0583367e-38
0.11564169 0.036891021 0.044489086 2.1545698e-38
0.11645964 0.039479442 0.042717993 2.1359141e-38
0.11494672 0.041724607 0.042252421 2.052975e-38
0.11199071 0.036097296 0.045133889 2.2005941e-38
0.11227217 0.039087288 0.042589486 2.1174758e-38
0.10798363 0.036081113 0.044947982 2.2097434e-38
0.10827652 0.039071135 0.042403936 2.0715217e-38
0.10380794 0.03632509 0.044563115 2.1268391e-38
0.10444799 0.039219834 0.042197466 2.043864e-38
0.10362566 0.041678853 0.041726947 1.9701435e-38
0.10012598 0.037217811 0.043361664 2.0899943e-38
0.10023718 0.039746039 0.042245328 1.9612457e-38
0.10029593 0.041665398 0.041572332 1.8689444e-38
0.096124612 0.037201643 0.043175995 2.0625869e-38
0.096292198 0.039679341 0.04173243 1.9336585e-38
0.092389457 0.037055023 0.043025672 2.0163115e-38
0.092293844 0.039006554 0.041662097 1.9609226e-38
0.088064626 0.036779575 0.043208957 1.9882952e-38
0.088299066 0.039209284 0.041438282 1.9701065e-38
0.08697705 0.041611575 0.040954113 1.9793978e-38
0.084120482 0.037153125 0.042618752 1.942448e-38
0.084275894 0.039656468 0.041339517 1.9147901e-38
0.08398167 0.041927777 0.040757477 1.8136262e-38
0.079998717 0.037235491 0.043087602 1.8503587e-38
0.080129907 0.039767265 0.041971743 1.8502885e-38
0.079838187 0.042776577 0.040413141 1.7764607e-38
0.076639667 0.037641667 0.044213116 1.73065e-38
0.075885639 0.040075436 0.042007983 1.758022e-38
0.075881585 0.042442232 0.040285349 1.7674575e-38
0.071959615 0.040527605 0.042356551 1.6934123e-38
0.07189934 0.043659441 0.040174425 1.7029565e-38
0.071010545 0.045486808 0.039521217 1.7123185e-38
0.067714065 0.040926069 0.042344749 1.6843372e-38
0.067953736 0.043468006 0.040341496 1.5831022e-38
0.067680821 0.045473352 0.039366663 1.4819388e-38
0.064235881 0.041273005 0.041771352 1.5924996e-38
0.064008757 0.043883644 0.040198743 1.5190308e-38
0.06408903 0.046509445 0.039015532 1.4453816e-38
0.061052397 0.041974954 0.042717695 1.50956e-38
0.060095549 0.04484763 0.041297078 1.5281427e-38
0.060024917 0.047811605 0.039321363 1.5468312e-38
0.060641199 0.05017262 0.038209856 1.4455602e-38
0.060173512 0.12082974 0.026543915 1.4641091e-38
0.057055831 0.045915447 0.041837454 1.5189207e-38
0.056162789 0.048507221 0.040069938 1.3898861e-38
0.056312412 0.051393442 0.038130224 1.389564e-38
0.055726126 0.053304568 0.03742826 1.4263341e-38
0.05599533 0.11896839 0.02591151 1.2242597e-38
0.056466088 0.12140206 0.027742505 1.2609943e-38
0.052496567 0.049111523 0.040553272 1.3346744e-38
0.052131265 0.051518172 0.038758337 1.4450974e-38
0.051988855 0.05443982 0.037198007 1.4910124e-38
0.051080674 0.057225563 0.036520898 1.5187787e-38
0.052377582 0.11813007 0.026323915 1.2151449e-38
0.052071705 0.12195564 0.027234852 1.21511e-38
0.049054578 0.05181808 0.040423989 1.5185639e-38
0.04807955 0.054838382 0.038266778 1.4908688e-38
0.047976375 0.058389671 0.036460578 1.6018622e-38
0.047990873 0.06159059 0.035608888 1.6935921e-38
0.048068151 0.11483572 0.027686477 1.0579125e-38
0.048521623 0.11815424 0.027099907 1.1414596e-38
0.048674509 0.12166793 0.027125359 1.2794661e-38
0.044620916 0.056239583 0.038422346 1.5188519e-38
0.044067219 0.058789693 0.037496805 1.5556949e-38
0.043487713 0.06259761 0.035321355 1.527929e-38
0.041962057 0.10709239 0.027335465 1.2324357e-38
0.043283775 0.1097937 0.028956175 1.140529e-38
0.045750573 0.11261807 0.027560115 9.6585982e-39
0.040117547 0.059392653 0.0369789 1.5467254e-38
0.039926082 0.062932663 0.035331964 1.4175453e-38
0.039131358 0.066370048 0.034352124 1.3532227e-38
0.039174423 0.07687626 0.032509506 1.3529706e-38
0.039287493 0.10445506 0.02767247 1.105122e-38
0.03966102 0.10672861 0.027629614 1.1785546e-38
0.040086225 0.10964487 0.029170394 1.2608476e-38
0.036382541 0.060339607 0.038330495 1.3807392e-38
0.036372513 0.063145705 0.036369264 1.3163456e-38
0.036149651 0.066641741 0.034799159 1.2703206e-38
0.03640236 0.070364572 0.033860981 1.316347e-38
0.036461905 0.074929081 0.032892942 1.3439646e-38
0.036518708 0.07883542 0.032040358 1.3714801e-38
0.035860866 0.080802642 0.031663895 1.3898117e-38
0.035275683 0.10049909 0.028178036 8.0058774e-39
0.036429599 0.10350547 0.027704537 8.2835685e-39
0.03647013 0.10657983 0.02784431 8.6537901e-39
0.03564845 0.10966285 0.029635608 9.3009686e-39
0.032607123 0.063841365 0.037537754 1.1966341e-38
0.031957388 0.067032613 0.036692739 1.1964554e-38
0.032240108 0.070479296 0.034322321 1.2519189e-38
0.032439947 0.074647374 0.033396602 1.3440759e-38
0.032198906 0.078455605 0.032538652 1.3992868e-38
0.032155216 0.081913315 0.031294346 1.4543868e-38
0.031886742 0.086039595 0.030557096 1.3900984e-38
0.031900197 0.089322783 0.029981315 1.3532908e-38
0.032609761 0.099963017 0.028146446 8.4661268e-39
0.032454491 0.10262009 0.028350234 8.2828398e-39
0.032274753 0.1060986 0.028521478 9.0218286e-39
0.032569841 0.10912286 0.029585361 9.4821215e-39
0.027720645 0.068217911 0.036539018 1.1689399e-38
0.028260306 0.07057289 0.035812199 1.1967082e-38
0.028500363 0.074747197 0.035090566 1.2795401e-38
0.027988046 0.078584217 0.03382808 1.3440753e-38
0.0280606 0.082488574 0.032920182 1.4085786e-38
0.028359368 0.086196519 0.031153858 1.3809889e-38
0.028459847 0.090065502 0.030140519 1.3165594e-38
0.028397515 0.093529828 0.02907759 1.1601843e-38
0.028464615 0.09870211 0.02826494 8.3746711e-39
0.028370857 0.10268436 0.028485298 7.8211162e-39
0.028215393 0.10613812 0.028549135 8.7448787e-39
0.024754271 0.078756981 0.034548759 1.3165615e-38
0.024770513 0.082713686 0.033854842 1.4087209e-38
0.024487659 0.086669184 0.032130599 1.3626226e-38
0.023971319 0.090473451 0.031777143 1.2338723e-38
0.024217546 0.094221734 0.030227184 9.6625569e-39
0.02416946 0.098492034 0.02973491 8.0995303e-39
0.024173066 0.10235738 0.029107153 6.9924541e-39
0.023864642 0.10644992 0.029644489 8.190256e-39
0.019091114 0.084009625 0.033359647 1.4365228e-38
0.019604236 0.086814322 0.032891333 1.3530806e-38
0.019786969 0.090606846 0.032234073 1.2519516e-38
0.019803166 0.094563551 0.031540036 1.0031324e-38
0.020055726 0.098310418 0.029990733 8.7438053e-39
0.020129949 0.10221017 0.02908361 7.5434797e-39
0.020018369 0.10626952 0.029494882 7.9126196e-39
0.015763357 0.087952815 0.0325104 1.2243243e-38
0.015834749 0.090540372 0.031833708 1.1877001e-38
0.016211823 0.094188742 0.029855728 1.0769235e-38
0.016228423 0.098137952 0.029163003 9.3870083e-39
0.016043976 0.10202203 0.030053318 8.649079e-39
0.013088167 0.087942012 0.032386243 1.0402972e-38
0.011761397 0.090574421 0.031861544 1.0308267e-38
0.012268886 0.094121866 0.029455721 1.0124928e-38
0.012162268 0.098174952 0.029190779 9.3898712e-39
0.013142243 0.10113106 0.030072987 9.112927e-39
0.0080870539 0.091548719 0.031517267 7.8257937e-39
0.0079520196 0.094361193 0.030339599 7.640308e-39
0.0084118545 0.097877361 0.02974391 7.4577062e-39
0.0050896257 0.094504096 0.030857146 5.4233277e-39
0.15124467 0.0821371 0.01608777 1.5190315e-38
0.14883475 0.075533248 0.016606629 1.574386e-38
0.14889438 0.086968474 0.014451146 1.500665e-38
0.092577375 0.10015336 0.010030627 2.3207754e-38
0.093497418 0.10665051 0.006520927 2.2848323e-38
0.09329845 0.11335144 0.0042624474 2.3309988e-38
0.12672964 0.072607331 0.020397127 1.9151508e-38
0.12621027 0.092131995 0.017110109 1.5836052e-38
0.1226218 0.083452843 0.018031299 1.3161647e-38
0.13583177 0.099145718 0.015791297 1.3534757e-38
0.11632206 0.086614974 0.018850625 1.316523e-38
0.13767761 0.061039738 0.023161829 1.6569655e-38
0.098304376 0.057703063 0.028498709 1.3714119e-38
0.10217533 0.079488747 0.024807572 1.0678135e-38
0.085263327 0.09042529 0.024461865 1.5100273e-38
0.084292367 0.087109156 0.025624037 1.574313e-38
0.082572199 0.067036919 0.028508842 1.5650216e-38
0.12715441 0.040152334 0.041071057 2.0532265e-38
0.067246526 0.049278155 0.035883009 1.6384168e-38
0.16388279 0.033458613 0.05120492 1.4088665e-38
0.1639605 0.035943113 0.04964304 1.5751361e-38
0.16433319 0.13651517 0.032679558 2.1272374e-38
0.16100532 0.031204797 0.054401219 1.2983749e-38
0.15983632 0.033489697 0.051347554 1.5100993e-38
0.15860251 0.035921462 0.04939431 1.7038221e-38
0.16033189 0.13640255 0.032171905 2.0535827e-38
0.16016422 0.13849959 0.034506083 2.1086504e-38
0.15581 0.033473417 0.051160634 1.6670125e-38
0.15633503 0.13628998 0.03166461 2.0169198e-38
0.15577552 0.13888669 0.03448534 2.0812444e-38
0.15156937 0.033116758 0.051297724 1.8140923e-38
0.15263145 0.13601714 0.031791985 2.0256397e-38
0.1519396 0.13959172 0.033799767 2.1181944e-38
0.1477467 0.033456512 0.050896525 2.0626608e-38
0.146547 0.035872735 0.048834682 2.2007036e-38
0.14829803 0.1362575 0.031291544 2.0898877e-38
0.14827152 0.13946751 0.033267558 2.0996138e-38
0.14362158 0.033598632 0.05180639 2.1455312e-38
0.143868 0.035861917 0.048710465 2.2189623e-38
0.14561903 0.13624665 0.03116715 2.081241e-38
0.1441122 0.13880679 0.032679319 2.0812444e-38
0.13964096 0.033502944 0.051070988 2.2005593e-38
0.14118901 0.035851084 0.048586011 2.228469e-38
0.14003555 0.13893682 0.032972574 2.0535502e-38
0.13562128 0.033471443 0.050774157 2.2190339e-38
0.135831 0.03582944 0.0483374 2.2095297e-38
0.13490304 0.13620335 0.030669689 2.0169983e-38
0.13595384 0.13935053 0.033215761 2.0627343e-38
0.13162589 0.03340786 0.050258279 2.1820482e-38
0.13181251 0.035813205 0.048150897 2.154247e-38
0.1328938 0.13619524 0.030576408 2.0447292e-38
0.13190074 0.13909802 0.033238471 2.1000091e-38
0.12759787 0.03339158 0.050071239 2.2097436e-38
0.12779401 0.035796963 0.047964334 2.1542834e-38
0.12799317 0.13874227 0.031930923 1.5839651e-38
0.1264379 0.14263922 0.033206224 1.3447925e-38
0.12346575 0.033501513 0.050760746 2.2097779e-38
0.1237198 0.0365142 0.048154473 2.1454572e-38
0.12390812 0.13970062 0.032078326 1.0772846e-38
0.12374368 0.14262834 0.033081234 1.0865378e-38
0.11946013 0.033453964 0.050354362 2.2008083e-38
0.12000296 0.036323093 0.047707915 2.173044e-38
0.11881009 0.13151568 0.03073436 1.1143006e-38
0.11903597 0.13543746 0.031072795 1.2525575e-38
0.12023906 0.13927194 0.032658339 1.2153609e-38
0.11552832 0.0333267 0.049400806 2.1910893e-38
0.11640827 0.035750933 0.04743576 2.1729038e-38
0.11605896 0.12801728 0.034703732 8.1027533e-39
0.11643782 0.13164464 0.033479631 1.0500168e-38
0.11670567 0.13548329 0.033495784 1.252628e-38
0.10981514 0.030997925 0.052025139 2.1355933e-38
0.1115607 0.033247165 0.04877615 2.191232e-38
0.10716686 0.030940838 0.051571608 2.1448127e-38
0.10753502 0.033230893 0.048589289 2.2002366e-38
0.10375314 0.03097342 0.051743686 2.1173714e-38
0.10351019 0.033214629 0.048402488 2.1359157e-38
0.099401802 0.033277623 0.0487625 2.1266603e-38
0.099664524 0.035683282 0.046658635 2.1266945e-38
0.095373794 0.033261351 0.048575461 2.1083296e-38
0.095646031 0.035667039 0.046472132 2.1085425e-38
0.091273114 0.03330829 0.048825741 2.0622335e-38
0.091627531 0.035650797 0.04628551 2.0532278e-38
0.087179318 0.034010522 0.048904777 2.0070588e-38
0.086939283 0.035631843 0.046067834 1.9789332e-38
0.082955569 0.0335133 0.048920095 1.914934e-38
0.08359053 0.035618313 0.045912504 1.9147906e-38
0.079082057 0.033337824 0.04881078 1.8414288e-38
0.079572037 0.03560207 0.045725942 1.8502882e-38
0.075131729 0.033554085 0.049052358 1.7216438e-38
0.075080067 0.036488868 0.045527875 1.7122465e-38
0.071147189 0.034208253 0.049029291 1.6387087e-38
0.071497783 0.03692279 0.045339346 1.6660775e-38
0.066788927 0.034760542 0.048997879 1.4451297e-38
0.067281231 0.037052833 0.046134174 1.6201605e-38
0.068202525 0.039518394 0.044502437 1.739225e-38
0.063356176 0.034794949 0.049168944 1.5650209e-38
0.063265875 0.037318639 0.046688735 1.5646988e-38
0.063078567 0.039904498 0.044701397 1.6108315e-38
0.060004741 0.038766198 0.048313737 1.6658252e-38
0.058837727 0.041000962 0.04621464 1.5280348e-38
0.058738217 0.043521397 0.043861806 1.5095586e-38
0.059477136 0.12382656 0.031066775 1.6119446e-38
0.057669953 0.12642211 0.032812834 1.4279849e-38
0.055028185 0.042105936 0.046882927 1.4820445e-38
0.055223659 0.044663079 0.043495595 1.4451308e-38
0.054170281 0.047386236 0.042459667 1.3994999e-38
0.055380449 0.12380115 0.029607773 1.3072697e-38
0.05560559 0.12707075 0.031754673 1.3995361e-38
0.05200915 0.042223915 0.04699105 1.4449858e-38
0.051089481 0.045014903 0.044537783 1.4265458e-38
0.050958738 0.048165716 0.042171478 1.4173264e-38
0.052927658 0.1242576 0.02992022 1.2794679e-38
0.052957773 0.12706721 0.032477498 1.3253861e-38
0.04924418 0.042707495 0.047114491 1.4726442e-38
0.047516823 0.045819543 0.045216262 1.5093784e-38
0.047326967 0.048789002 0.042568564 1.4542064e-38
0.046821982 0.051979199 0.041306973 1.5462942e-38
0.046420276 0.11735515 0.029809117 1.1039777e-38
0.045219198 0.046676017 0.046228111 1.4909356e-38
0.043151647 0.049347185 0.04464525 1.5648783e-38
0.043087065 0.052247643 0.042777717 1.5739886e-38
0.043227613 0.054938622 0.040908337 1.5186723e-38
0.043049872 0.11205848 0.030580282 1.1868411e-38
0.04336077 0.11509388 0.030951202 1.2423027e-38
0.044301152 0.11879977 0.029963851 1.2887954e-38
0.039173543 0.050636373 0.045247793 1.4633899e-38
0.039358258 0.052501686 0.044166625 1.4726467e-38
0.039399758 0.055590294 0.041339397 1.5371838e-38
0.039479107 0.057892941 0.039922595 1.6202302e-38
0.039701119 0.11204497 0.030424893 1.3254921e-38
0.039525256 0.1149107 0.031437933 1.4823328e-38
0.03561388 0.055620171 0.043478966 1.5099914e-38
0.035343945 0.059066452 0.040029883 1.4636062e-38
0.034137353 0.061833628 0.038978875 1.306946e-38
0.036016136 0.11169987 0.030311823 1.0959024e-38
0.035792127 0.11504679 0.031181693 1.4367377e-38
0.036204502 0.11823431 0.032730579 1.6391372e-38
0.031857833 0.056248888 0.043627203 1.3899948e-38
0.031654373 0.059518747 0.041173995 1.28865e-38
0.030973822 0.062732048 0.038841426 1.1782663e-38
0.03013511 0.065779723 0.038097441 1.2056377e-38
0.031362191 0.11117708 0.03061986 1.0675286e-38
0.031790242 0.11523918 0.031777978 1.3534385e-38
0.032205388 0.11817432 0.032383323 1.5102451e-38
0.027686581 0.059653632 0.042742014 1.1506797e-38
0.02724795 0.063270845 0.039192379 1.1320247e-38
0.027459964 0.066712327 0.037807643 1.1964886e-38
0.026586592 0.071488686 0.036927879 1.1783407e-38
0.026154503 0.075008966 0.036289394 1.2518818e-38
0.027733609 0.11077861 0.031244814 1.1600791e-38
0.02801086 0.11564801 0.032544494 1.3995358e-38
0.028171837 0.11882154 0.032079756 1.418155e-38
0.024655461 0.061021499 0.041723728 1.0125309e-38
0.02357927 0.063482605 0.040224552 9.6657714e-39
0.02367799 0.067372881 0.038094103 1.0310423e-38
0.023314551 0.071144603 0.037398577 1.1047282e-38
0.023417667 0.075042583 0.036380291 1.2153271e-38
0.022688076 0.078957222 0.035432756 1.3074504e-38
0.022704303 0.082919575 0.034737825 1.4362365e-38
0.022629425 0.086441301 0.03411597 1.3993951e-38
0.023856297 0.11131015 0.032404542 1.2983728e-38
0.024957612 0.11533178 0.033218443 1.4823322e-38
0.025306642 0.11832178 0.032709956 1.4089019e-38
0.019840524 0.063737296 0.04147166 8.3739789e-39
0.019739345 0.06751544 0.040605903 9.3877552e-39
0.019581303 0.071414761 0.03864336 1.0493755e-38
0.01919198 0.075183757 0.036946833 1.1324233e-38
0.01947327 0.078944229 0.035283446 1.2797563e-38
0.019679308 0.082529999 0.034663618 1.4177964e-38
0.02083984 0.085553549 0.034187376 1.4911602e-38
0.018252864 0.10799599 0.030125022 8.3736201e-39
0.019954026 0.11160434 0.032747746 1.390679e-38
0.021248952 0.11432057 0.033221185 1.6026195e-38
0.015902072 0.068161629 0.040928841 8.3718153e-39
0.01592505 0.071619026 0.03956461 9.3888244e-39
0.01526843 0.075383492 0.036980927 1.0217876e-38
0.01518403 0.079135455 0.036064088 1.2243302e-38
0.015320376 0.083008088 0.034938812 1.3071978e-38
0.015484527 0.086192302 0.033823013 1.270177e-38
0.01510933 0.10358078 0.030752122 8.6491042e-39
0.015388101 0.10682959 0.030872345 8.9271316e-39
0.015814647 0.11134995 0.032978415 1.1604038e-38
0.015186965 0.11429607 0.032939851 1.2798926e-38
0.012981161 0.069126211 0.040766895 6.0705385e-39
0.011827961 0.071645908 0.039592624 7.3608947e-39
0.011629134 0.075311102 0.038310468 9.3891593e-39
0.011462554 0.079399176 0.037197709 1.0956803e-38
0.011754617 0.083160289 0.03553462 1.0860324e-38
0.011161953 0.086779542 0.034024179 9.2926743e-39
0.011228338 0.10297129 0.031184375 8.5586854e-39
0.011616439 0.10674366 0.031193614 8.8363625e-39
0.011899754 0.11154237 0.032929599 1.0405489e-38
0.013166294 0.11428791 0.032846034 1.1697283e-38
0.0089398175 0.069109865 0.040579319 8.6404904e-39
0.0084129274 0.072029926 0.040041745 6.5217762e-39
0.0082049519 0.075793006 0.038645327 6.5286173e-39
0.0077913105 0.079615466 0.038115919 6.714068e-39
0.0079014748 0.083525963 0.037095726 7.1753978e-39
0.0072309524 0.08728572 0.034639359 7.0796359e-39
0.0071953237 0.089988984 0.032765627 6.8102166e-39
0.0065149367 0.099663295 0.031373739 6.1633899e-39
0.0075291693 0.10323637 0.03282696 6.9935233e-39
0.0078280121 0.10757405 0.032883883 7.9154908e-39
0.0087759346 0.11128157 0.033167064 9.3924033e-39
0.0039262027 0.090918235 0.033125997 5.4280025e-39
0.0038273484 0.094868757 0.032359838 5.0556228e-39
0.0044388622 0.099012367 0.032406569 5.2439587e-39
0.0044614822 0.10354648 0.033983111 5.2454119e-39
0.0045164824 0.10734598 0.033657253 7.1772153e-39
0.15273711 0.081274398 0.015744865 1.4730777e-38
0.088148564 0.097017385 0.010275662 2.3387814e-38
0.13086355 0.090945415 0.017762005 1.7771425e-38
0.10071678 0.093095653 0.01747489 1.2151823e-38
0.11401619 0.10334253 0.020209193 1.1684757e-38
0.075671628 0.069778718 0.025311828 1.436092e-38
0.10490533 0.09008301 0.022729158 1.1783744e-38
0.086676031 0.085847326 0.02635932 1.7124271e-38
0.085361913 0.059691243 0.030400574 1.7677446e-38
0.12343946 0.045736454 0.037028193 1.9886184e-38
0.15921436 0.030759074 0.057037711 1.2893344e-38
0.15997495 0.14070424 0.037159324 2.1273427e-38
0.15547439 0.031460792 0.056128442 1.6115536e-38
0.15659766 0.14069062 0.037002504 2.0812118e-38
0.15450424 0.14230904 0.037636042 2.1455665e-38
0.15139601 0.031490691 0.056269705 1.7402658e-38
0.15322584 0.14200899 0.036612093 2.1823356e-38
0.15112767 0.14362928 0.037245154 2.17369e-38
0.14732572 0.031163968 0.056304693 1.8971049e-38
0.14647126 0.14198169 0.036298633 2.1273801e-38
0.14909844 0.14362109 0.037150979 2.1367775e-38
0.14322779 0.031550474 0.056551993 1.9523172e-38
0.14444488 0.1419735 0.036204576 2.0996489e-38
0.14232889 0.14225984 0.03707093 2.0904995e-38
0.1391826 0.030843988 0.056316018 1.9250881e-38
0.13962325 0.1422489 0.036945403 2.0627701e-38
0.13515803 0.030781321 0.055798411 2.0172113e-38
0.13556808 0.14303285 0.036616564 2.0351118e-38
0.13110244 0.030764922 0.05561018 2.0724195e-38
0.13026027 0.14191619 0.035546124 2.071774e-38
0.13180153 0.14295828 0.036248863 2.0811722e-38
0.1270283 0.030771658 0.055586457 2.0719182e-38
0.12755844 0.14190525 0.035420716 1.5563063e-38
0.12818408 0.14338815 0.035697997 1.6852011e-38
0.12299124 0.030732147 0.055233657 2.1456727e-38
0.12340036 0.14485112 0.035723925 1.0592076e-38
0.12205301 0.14617956 0.035427094 1.1507254e-38
0.11895639 0.030692957 0.054881036 2.2095639e-38
0.11877476 0.14120376 0.035129905 1.2985519e-38
0.12007289 0.1433554 0.035321534 1.2336914e-38
0.11508103 0.030404665 0.05484581 2.218891e-38
0.11453049 0.1261408 0.038591087 6.9967897e-39
0.11392711 0.12800109 0.037727833 5.6192587e-39
0.11401106 0.1325264 0.036429048 7.5560592e-39
0.11447592 0.13608032 0.035826981 1.0684207e-38
0.11674019 0.1391975 0.035386324 1.3903147e-38
0.11108068 0.030564539 0.054803431 2.1081501e-38
0.11182485 0.12612987 0.03846544 5.6181797e-39
0.11137874 0.12885854 0.037584245 5.5245393e-39
0.11189603 0.13270602 0.036975503 5.5259855e-39
0.11253954 0.13546997 0.036859214 7.5507076e-39
0.10674345 0.030023359 0.054761887 2.1172255e-38
0.10272505 0.029970132 0.054310799 2.0989304e-38
0.098486714 0.030133136 0.05418402 2.0896746e-38
0.094625458 0.029927991 0.053868651 2.0438281e-38
0.090726368 0.030326135 0.053857088 1.9980536e-38
0.087085836 0.03132356 0.053945899 1.9609252e-38
0.086527705 0.032561168 0.05302465 2.0443306e-38
0.082350984 0.031304426 0.053726196 1.8604039e-38
0.083881333 0.032503478 0.052571356 1.9705737e-38
0.079645336 0.031293511 0.053600609 1.8139851e-38
0.071723089 0.032454334 0.05200696 1.6569668e-38
0.06760779 0.03315071 0.05202955 1.4448412e-38
0.063419715 0.03322877 0.052496135 1.6384874e-38
0.063783392 0.12193402 0.036938131 1.6670882e-38
0.062981546 0.12433178 0.036479294 1.943278e-38
0.060045883 0.035215966 0.051988184 1.5650584e-38
0.059065178 0.037336431 0.050892055 1.6477472e-38
0.060905278 0.12472079 0.035550892 1.8784895e-38
0.059125066 0.12784913 0.035425842 1.7681035e-38
0.055907294 0.03837049 0.051036 1.5099189e-38
0.054869413 0.04037831 0.049821436 1.5097744e-38
0.057046652 0.12857625 0.035454392 1.464361e-38
0.051945388 0.039184898 0.05090946 1.3622631e-38
0.051180214 0.040926658 0.0497545 1.4174718e-38
0.04758209 0.042039789 0.049796104 1.4450953e-38
0.046780303 0.044341668 0.048744321 1.5188888e-38
0.043256357 0.045987971 0.048966706 1.5003055e-38
0.040479228 0.047141917 0.04897207 1.4453103e-38
0.039498866 0.049206376 0.048156798 1.4544213e-38
0.038863465 0.11903401 0.035764754 1.6298095e-38
0.035880059 0.051041342 0.04756242 1.2520603e-38
0.034965739 0.052886494 0.047093749 1.3808451e-38
0.035608783 0.1202214 0.034894705 1.6666879e-38
0.031713277 0.053775944 0.047394097 1.3809187e-38
0.03128846 0.054935187 0.046154201 1.3810994e-38
0.027327791 0.056706414 0.046092153 1.2059255e-38
0.0232732 0.057410039 0.046358228 8.9318007e-39
0.022973195 0.059874572 0.04504025 9.3906223e-39
0.022572905 0.1164913 0.035138488 1.5380446e-38
0.018877879 0.057725735 0.046095669 7.2615342e-39
0.019091308 0.060538329 0.045484841 7.546009e-39
0.020735085 0.11683125 0.034788966 1.5108907e-38
0.014965653 0.064296491 0.044305921 6.4392915e-39
0.014451161 0.066855274 0.043267727 7.6338845e-39
0.016668677 0.11348478 0.03518492 1.4462111e-38
0.014653221 0.11614067 0.034623563 1.0677697e-38
0.010793775 0.065696426 0.044315279 7.6316746e-39
0.010806829 0.068077259 0.043262601 6.1594733e-39
0.0076353997 0.065239035 0.044246733 1.3253827e-38
0.007398054 0.068006642 0.043342948 1.2054589e-38
0.005950585 0.071391903 0.042748153 1.2511186e-38
0.0057084262 0.076144047 0.041224778 7.171093e-39
0.0063409656 0.11242852 0.03508693 9.0221817e-39
0.0055848807 0.11502936 0.035407782 8.8381674e-39
0.0037208498 0.077159949 0.041630268 1.1407364e-38
0.0030202717 0.079463221 0.040515304 1.0673441e-38
0.0031431317 0.10943408 0.03525871 7.9122552e-39
0.0037345588 0.11218565 0.035142183 9.0203852e-39
0.0034247488 0.11608774 0.03512007 8.0109473e-39
0.15280119 0.070421882 0.018330932 1.6848762e-38
0.1527136 0.075541951 0.016750276 1.5744569e-38
0.086187214 0.097237028 0.0089064837 2.1915211e-38
0.081730463 0.093089081 0.010324061 1.8044094e-38
0.12587878 0.090625457 0.017348886 1.8694112e-38
0.058049336 0.096176051 0.016797245 1.0400423e-38
0.12603308 0.096875183 0.021293104 1.2425903e-38
0.076474831 0.077666454 0.024529338 1.3347843e-38
0.097851001 0.089899309 0.023023903 1.3163092e-38
0.094064981 0.062041365 0.027674437 1.2607758e-38
0.064601511 0.11688716 0.021600723 1.5746748e-38
0.087964617 0.093102552 0.024148643 1.4915525e-38
0.11852811 0.086667649 0.029751897 1.5468711e-38
0.090726368 0.030326135 0.053857088 1.9980536e-38
0.11908057 0.1378001 0.036871374 2.0456256e-38
0.15969771 0.027122974 0.061154783 1.1417142e-38
0.15931958 0.029218547 0.059752584 1.2247639e-38
0.15992782 0.14413029 0.040476024 2.2010981e-38
0.15521681 0.029938497 0.059940934 1.5471198e-38
0.15588489 0.14436978 0.039807796 2.1459262e-38
0.15144663 0.030326791 0.060203254 1.6850903e-38
0.15161511 0.14504293 0.039560914 2.1551443e-38
0.1466904 0.02997268 0.060041308 1.7680658e-38
0.14720419 0.14502507 0.039356172 2.1459622e-38
0.1415877 0.027942784 0.060157299 1.5290435e-38
0.14295445 0.0299576 0.059868038 1.7588473e-38
0.14320713 0.14484531 0.039097786 2.0998638e-38
0.13861594 0.027368262 0.059914827 1.4548206e-38
0.1389395 0.029181324 0.059137344 1.6568268e-38
0.13941377 0.1449438 0.038833857 2.0630582e-38
0.13463984 0.026900671 0.059577227 1.5009525e-38
0.13490035 0.029119864 0.058619082 1.7586722e-38
0.13534379 0.14559621 0.038527548 1.9799403e-38
0.13528383 0.14713457 0.038932204 2.1540347e-38
0.13138227 0.023882978 0.060389102 1.2524898e-38
0.13074917 0.026514955 0.059558392 1.4918407e-38
0.13083047 0.029103421 0.058430195 1.8235325e-38
0.1313076 0.14548036 0.038018942 1.9799076e-38
0.13120824 0.14711812 0.038743079 2.1564823e-38
0.12666 0.027190425 0.059416413 1.4638939e-38
0.1267606 0.029086962 0.058241189 1.7772185e-38
0.12723772 0.14546391 0.037830055 1.5935493e-38
0.12717015 0.14700162 0.038234353 1.8884341e-38
0.12290658 0.027532406 0.059348941 1.5003075e-38
0.12269073 0.029070519 0.058052301 1.8325733e-38
0.12310012 0.14810142 0.037849426 1.3455554e-38
0.12171504 0.15109828 0.037596762 1.8520501e-38
0.11849274 0.027849458 0.05908531 1.9526758e-38
0.11853912 0.029144011 0.05852133 2.0810678e-38
0.11855899 0.14428964 0.038304687 1.289012e-38
0.11966078 0.14707142 0.038207054 1.3996159e-38
0.12035652 0.1510928 0.03753376 1.8339009e-38
0.11441717 0.027832992 0.058896184 2.1452807e-38
0.11374339 0.029169776 0.058629572 2.1727238e-38
0.11358923 0.1253441 0.04071939 6.906036e-39
0.11456408 0.14037853 0.038561225 1.2524195e-38
0.11624798 0.14303908 0.038754225 1.4454188e-38
0.11034158 0.027816512 0.058706939 2.1174413e-38
0.11048113 0.029021174 0.05748564 2.1082217e-38
0.11060379 0.12510386 0.041201651 5.1575449e-39
0.10953031 0.12800297 0.040061355 5.8922274e-39
0.10954951 0.1326848 0.039240241 5.8936568e-39
0.11044691 0.13652632 0.038777351 6.4396517e-39
0.11154243 0.13885686 0.038758516 7.8251393e-39
0.10694528 0.02780278 0.058549225 2.0991443e-38
0.10641126 0.02900473 0.057296693 2.1080773e-38
0.10354896 0.027789064 0.05839169 2.0713789e-38
0.10166307 0.028985538 0.057076335 2.0621589e-38
0.099199474 0.027235664 0.058283746 1.961284e-38
0.099628143 0.028977312 0.056981862 2.0531906e-38
0.095421202 0.027064182 0.057966352 1.9151511e-38
0.095119447 0.12553993 0.04083097 1.3420242e-38
0.091740347 0.027339675 0.05740577 1.9061106e-38
0.090131775 0.028938934 0.056541026 1.9520626e-38
0.088150501 0.027280323 0.057755232 1.859869e-38
0.087149374 0.029461943 0.056308687 1.8505775e-38
0.083458483 0.03013318 0.056397915 1.8044096e-38
0.079192623 0.02963125 0.056412101 1.7308296e-38
0.074913889 0.029910542 0.056234002 1.6571805e-38
0.071086302 0.031583637 0.055517852 1.5281806e-38
0.069997683 0.12811744 0.039194465 1.6834711e-38
0.066885218 0.031659447 0.055984259 1.408033e-38
0.066791207 0.12649259 0.038312316 2.219607e-38
0.067089245 0.12853181 0.038578153 1.9522756e-38
0.064739808 0.12247138 0.038921654 1.657438e-38
0.064412996 0.12547976 0.038378119 2.1367062e-38
0.063274816 0.12866864 0.038442194 2.0723123e-38
0.063216016 0.13076907 0.038409352 2.034754e-38
0.058881357 0.033987604 0.054520547 1.5281796e-38
0.060694605 0.12847444 0.037677109 1.9521745e-38
0.059237614 0.13196835 0.037559569 1.804874e-38
0.055028901 0.035036348 0.054425895 1.3531164e-38
0.054216892 0.037488468 0.05334723 1.3626568e-38
0.056044072 0.13154045 0.037597239 1.4732579e-38
0.05195792 0.035617672 0.054585636 1.3159507e-38
0.050718322 0.037993856 0.053601861 1.3069458e-38
0.048006818 0.038875289 0.053319275 1.3253847e-38
0.045791462 0.041295178 0.05262059 1.4083246e-38
0.042876214 0.043244205 0.052564442 1.3164542e-38
0.038830265 0.046452053 0.051454902 1.3624791e-38
0.037305713 0.048790105 0.050565958 1.3804141e-38
0.038282886 0.12169565 0.0378111 1.6297736e-38
0.035705015 0.047607668 0.05171454 1.2886859e-38
0.03482008 0.049882874 0.05046016 1.2517363e-38
0.036247954 0.12168742 0.037716568 1.6668665e-38
0.032998934 0.050275765 0.051118433 1.1780884e-38
0.030540854 0.053221576 0.049469054 1.2611007e-38
0.033295497 0.12261105 0.038431644 1.6023678e-38
0.027579501 0.05382593 0.050239801 1.2240778e-38
0.026480153 0.055434577 0.04888916 1.2336931e-38
0.024864286 0.054261453 0.050035298 9.9427185e-39
0.023300812 0.055842601 0.049175739 8.8417379e-39
0.019419163 0.051560409 0.050252914 8.4561048e-39
0.018879786 0.053482451 0.049381852 8.4614675e-39
0.019626543 0.056411736 0.048684835 8.0073263e-39
0.018589914 0.11626548 0.037836432 1.5471212e-38
0.016978264 0.054058529 0.048682928 9.1993647e-39
0.016177461 0.057265632 0.048082054 7.081054e-39
0.015260682 0.060548715 0.047462344 5.8854073e-39
0.011785626 0.061820142 0.04758352 7.997272e-39
0.010777786 0.064157896 0.047125638 7.7217249e-39
0.0088824034 0.064726956 0.046428204 1.077312e-38
0.0048317313 0.069392331 0.045418143 1.4358377e-38
0.15663639 0.087022521 0.014919341 1.3718062e-38
0.15675834 0.090860315 0.015013516 1.2890809e-38
0.12986667 0.10295682 0.01575011 1.8420399e-38
0.14356792 0.07930129 0.019751072 1.8968193e-38
0.064358726 0.062367328 0.029128969 1.7214299e-38
0.092846319 0.082333155 0.026041448 1.7032057e-38
0.098013408 0.046869427 0.040130913 1.9240453e-38
0.1466904 0.02997268 0.060041308 1.7680658e-38
0.15817752 0.026081383 0.063637495 1.0495183e-38
0.15892088 0.14648783 0.042192459 2.275394e-38
0.15499154 0.023654453 0.066623867 1.1693358e-38
0.15497741 0.027007855 0.063662767 1.2985164e-38
0.15551507 0.14647406 0.042034328 2.164905e-38
0.1553627 0.14986557 0.043803215 2.2478076e-38
0.15069592 0.024600595 0.066255271 1.3535826e-38
0.15081796 0.027107246 0.06435281 1.4824779e-38
0.15026778 0.029588208 0.062310159 1.6851972e-38
0.15210924 0.14646029 0.041876256 2.1463212e-38
0.15126111 0.14985025 0.043612659 2.2016382e-38
0.15031113 0.15319419 0.043658376 1.7677089e-38
0.1467317 0.027075894 0.064052761 1.5655255e-38
0.14822428 0.029579952 0.062215328 1.7129636e-38
0.14734107 0.14644104 0.041654944 2.1552181e-38
0.14724214 0.14953139 0.042462885 2.1738719e-38
0.14780398 0.15340886 0.04350251 1.5469777e-38
0.14281222 0.026882552 0.063831389 1.5564128e-38
0.14461641 0.14643002 0.041528523 2.1367431e-38
0.14305708 0.14914265 0.043350339 2.2106063e-38
0.13753371 0.024012506 0.065060675 1.1053376e-38
0.13894424 0.025945805 0.06317842 1.4273394e-38
0.13903302 0.14956588 0.042295814 2.1462866e-38
0.13441138 0.023690417 0.06429249 1.0680257e-38
0.13526562 0.025497764 0.062321305 1.3720183e-38
0.13499269 0.14954937 0.041543663 2.2668606e-38
0.13343678 0.15267634 0.042954028 2.3417572e-38
0.13012037 0.023157768 0.062743843 1.1599001e-38
0.13088521 0.15008771 0.04142499 2.3417686e-38
0.12979051 0.15311125 0.042705894 2.3050348e-38
0.1262511 0.022940971 0.063700736 1.1601173e-38
0.12641045 0.025461979 0.061910331 1.2615318e-38
0.12682714 0.14996991 0.040915549 2.2124447e-38
0.12728338 0.15332595 0.042549968 2.2315643e-38
0.12253637 0.023459621 0.064112186 1.2152178e-38
0.12200603 0.026033409 0.062009037 1.2884356e-38
0.12345962 0.15052646 0.040320337 1.7432142e-38
0.12284113 0.1517151 0.039574265 1.998769e-38
0.11930753 0.023264393 0.064333081 1.3254884e-38
0.11817789 0.02616524 0.061907053 1.5832126e-38
0.11798902 0.14647174 0.040774465 1.3352195e-38
0.11855008 0.14939502 0.039779425 1.6036303e-38
0.11512412 0.02378238 0.064722538 1.7496606e-38
0.11476967 0.026151471 0.061748862 2.0534792e-38
0.11510942 0.14541498 0.040926039 1.4089727e-38
0.11527071 0.14847708 0.04029429 1.4275962e-38
0.11102278 0.024440266 0.064413726 2.0351118e-38
0.11136147 0.026137687 0.061590672 2.1452796e-38
0.1104645 0.12345638 0.043952703 9.0924344e-39
0.11122002 0.14159361 0.04080373 1.0677425e-38
0.11182813 0.14515293 0.040885091 1.4829436e-38
0.11193999 0.14878184 0.041608453 1.4455691e-38
0.10657527 0.02408506 0.064266503 1.924657e-38
0.1073179 0.026078083 0.061071754 2.099288e-38
0.1069717 0.12496496 0.044200897 6.2527423e-39
0.10696534 0.12904355 0.043653846 6.7212566e-39
0.10686623 0.13331184 0.04374671 7.3630415e-39
0.10704418 0.13701805 0.041918516 8.1938335e-39
0.10770407 0.14113399 0.04150933 1.1047298e-38
0.10818908 0.14468902 0.040795088 1.7963363e-38
0.10281233 0.023867518 0.064127326 1.7497025e-38
0.10322963 0.026061557 0.060881972 1.9979104e-38
0.10354225 0.12566811 0.044085145 6.4400328e-39
0.10353188 0.12907568 0.043655753 8.6519867e-39
0.10371666 0.13322201 0.044969201 8.8367324e-39
0.10464711 0.1377221 0.044223011 1.0125982e-38
0.098646536 0.023114026 0.063301086 1.5009535e-38
0.099468932 0.025721371 0.06084919 1.8783077e-38
0.099478349 0.12627885 0.04361701 1.0402975e-38
0.099306583 0.12930363 0.044320107 1.1968129e-38
0.10052088 0.13230982 0.044978797 1.1134783e-38
0.094690382 0.02333767 0.063256919 1.3805615e-38
0.094972856 0.025421456 0.061113477 1.7125012e-38
0.096849456 0.12541625 0.042967021 1.1678967e-38
0.095347106 0.12904346 0.043275714 1.3165247e-38
0.095048726 0.13228771 0.044724822 1.4088293e-38
0.090552345 0.023640446 0.063250721 1.334645e-38
0.09062314 0.025932536 0.060751021 1.6945649e-38
0.091402858 0.12606588 0.042596221 1.7747679e-38
0.091217987 0.12908813 0.043299258 1.5650217e-38
0.090944611 0.13227114 0.044534266 1.6940589e-38
0.087766096 0.02434627 0.063334227 1.4548572e-38
0.08611767 0.026456125 0.06186974 1.601759e-38
0.08714813 0.1263192 0.043367684 2.1361638e-38
0.087087378 0.12913197 0.043322563 1.8779441e-38
0.086840481 0.13225454 0.044343829 1.8509723e-38
0.08272329 0.027237408 0.061282218 1.6017916e-38
0.083837524 0.12974471 0.044134796 1.9886171e-38
0.082395732 0.13257381 0.04407835 1.9059301e-38
0.078619301 0.027709626 0.061499536 1.6389206e-38
0.077258676 0.13086691 0.044135928 2.0344983e-38
0.078831613 0.13318568 0.043802917 1.9242957e-38
0.074969828 0.028207719 0.061036825 1.6849807e-38
0.074645817 0.13067231 0.043369353 1.7861839e-38
0.074187487 0.13254064 0.043697298 1.7860045e-38
0.07051073 0.029982664 0.058821023 1.4175824e-38
0.07079576 0.13028854 0.041900098 1.5930764e-38
0.071110785 0.13286543 0.043495178 1.8785233e-38
0.066526234 0.030219004 0.05947262 1.3619015e-38
0.068259761 0.1300022 0.0408144 1.7124943e-38
0.067343354 0.13270351 0.041990817 1.8691568e-38
0.062439039 0.031547256 0.059046745 1.5096299e-38
0.0629493 0.1332162 0.04090327 1.9889404e-38
0.062500328 0.13582471 0.041214705 1.9245823e-38
0.059204876 0.031781845 0.060005069 1.4912268e-38
0.056964576 0.033240952 0.057271659 1.4454181e-38
0.059903949 0.13562512 0.040449798 1.9155087e-38
0.055334106 0.13397977 0.039506853 1.5656678e-38
0.056020811 0.13532579 0.039302886 1.6761583e-38
0.048092946 0.024185941 0.061492682 1.5188181e-38
0.04809849 0.025534861 0.061256111 1.390282e-38
0.047831282 0.035778828 0.058767259 1.251556e-38
0.047300145 0.038226262 0.056618512 1.2885421e-38
0.044055179 0.04035642 0.058463156 1.3254926e-38
0.042162433 0.041892231 0.056410372 1.2145714e-38
0.039054364 0.043179706 0.056918681 1.2239697e-38
0.037941501 0.045253523 0.054265976 1.2977649e-38
0.03449367 0.043914847 0.057387769 1.1317768e-38
0.03482081 0.046336032 0.054800093 1.2334057e-38
0.031753868 0.043004505 0.057418466 1.0025611e-38
0.030569538 0.048287541 0.055757463 1.1413874e-38
0.030551374 0.050545581 0.053859711 1.1137672e-38
0.031443745 0.12179375 0.040520608 1.6665811e-38
0.030645221 0.12326718 0.040732503 1.5190339e-38
0.026303843 0.048378088 0.056218088 9.7525693e-39
0.02659224 0.050891973 0.054660916 9.3852273e-39
0.02639471 0.053266488 0.052314818 1.0581973e-38
0.027794793 0.12338903 0.041084945 1.3995003e-38
0.022883743 0.048364259 0.056059361 9.1100501e-39
0.022608966 0.05080276 0.054037094 8.5547211e-39
0.022667125 0.053822577 0.052244902 8.0966577e-39
0.019993708 0.050719507 0.05347681 8.3703537e-39
0.020137236 0.053997435 0.052399814 8.0952101e-39
0.15658939 0.075557612 0.016930163 1.5927528e-38
0.1566129 0.081290074 0.015924752 1.4362361e-38
0.13728517 0.083086379 0.020006299 1.9982694e-38
0.14494798 0.075916417 0.020606577 2.0165293e-38
0.12458325 0.074776478 0.022766471 1.2243648e-38
0.096041337 0.077004798 0.027103543 1.7308299e-38
0.15053362 0.022825852 0.068592072 1.2708599e-38
0.14641103 0.023498796 0.068392515 1.2249421e-38
0.14566803 0.15370733 0.044365823 1.6024724e-38
0.14228609 0.023495905 0.068311512 1.1605118e-38
0.14291985 0.15167004 0.044594049 2.1278831e-38
0.14272326 0.15441227 0.046474934 1.5476941e-38
0.14267346 0.15665105 0.046757042 1.7453032e-39
0.1385514 0.023127653 0.068990767 1.0221819e-38
0.13877068 0.15383342 0.044526815 1.5385109e-38
0.13390294 0.022290193 0.06959641 9.5735758e-39
0.13465992 0.1538159 0.0443362 2.0452911e-38
0.13005872 0.021943547 0.066765606 9.9459204e-39
0.1315129 0.15387523 0.043669283 2.2774783e-38
0.12672973 0.020379163 0.069729447 6.5354234e-39
0.1228116 0.019606397 0.068740249 4.3241969e-39
0.12183907 0.021910332 0.066384077 9.9438353e-39
0.12381887 0.15430775 0.045060217 1.9080133e-38
0.12259342 0.15765506 0.045634508 9.9334419e-39
0.11912415 0.019500934 0.067822516 4.5993404e-39
0.11841421 0.021896489 0.066225111 1.1229827e-38
0.11485455 0.019976355 0.067410886 7.8211106e-39
0.11498936 0.021882646 0.066066146 1.335033e-38
0.11052082 0.020839915 0.06874907 1.1135514e-38
0.11083759 0.022582658 0.066086411 1.7131825e-38
0.10693558 0.022489756 0.066393197 1.6487912e-38
0.10258255 0.020232677 0.068210602 9.01647e-39
0.10266125 0.022170521 0.065434575 1.3906797e-38
0.10220991 0.13484594 0.045629501 9.4813676e-39
0.10305257 0.13797081 0.045701385 1.1510018e-38
0.10313608 0.14155248 0.046528459 1.7592056e-38
0.098626658 0.020340651 0.067344487 8.2771141e-39
0.099919997 0.021821745 0.065366626 1.2340206e-38
0.098764338 0.13424125 0.046081603 1.3254558e-38
0.098676346 0.13797241 0.047285676 1.5564481e-38
0.094332591 0.020529918 0.066007853 8.6448092e-39
0.094440222 0.021799602 0.065112293 1.0954013e-38
0.094784774 0.13429561 0.046138525 1.4641812e-38
0.094756074 0.13795358 0.047578573 1.6762322e-38
0.091009825 0.020434961 0.065190196 8.4589858e-39
0.090330392 0.021782994 0.064921498 1.0490171e-38
0.090848528 0.13414049 0.046089172 1.6940932e-38
0.091008708 0.1374526 0.047693193 1.712497e-38
0.086435385 0.02343785 0.064853966 1.2426634e-38
0.087177061 0.1348888 0.046099365 1.9153273e-38
0.087569579 0.13743871 0.047533512 1.9613521e-38
0.082906865 0.023871697 0.066034436 1.205498e-38
0.081442378 0.025799401 0.063797414 1.3806327e-38
0.081925586 0.1300835 0.046526194 2.0988916e-38
0.083089434 0.13505045 0.045708895 1.9890835e-38
0.08310011 0.13775972 0.047266483 2.0993951e-38
0.079197004 0.024229571 0.066609859 1.2238277e-38
0.078019366 0.026235826 0.063559473 1.399465e-38
0.077781126 0.13519746 0.044416487 1.9429509e-38
0.079523295 0.13775286 0.045913398 1.9890836e-38
0.079326808 0.14011821 0.04667455 1.9156169e-38
0.075414985 0.024808004 0.066736639 1.2792546e-38
0.074641451 0.026572563 0.065374017 1.4546742e-38
0.075038463 0.13451099 0.044407725 1.7768944e-38
0.07531248 0.13787797 0.046201169 1.9983756e-38
0.071380913 0.028221346 0.063660324 1.5376122e-38
0.071616381 0.13517255 0.044130325 1.943167e-38
0.071610823 0.13799122 0.044651628 2.0167793e-38
0.07195203 0.14115554 0.045128524 1.970611e-38
0.066810399 0.028619878 0.063967824 1.3713388e-38
0.067506552 0.13515595 0.043939531 1.8782688e-38
0.067517638 0.13785756 0.043465793 1.9893e-38
0.062362999 0.028824471 0.065416276 1.2706061e-38
0.062567279 0.030046284 0.064195037 1.3440732e-38
0.064230889 0.13811442 0.04326576 1.8696605e-38
0.058518529 0.030886561 0.063517869 1.4267274e-38
0.054297492 0.032066911 0.063619912 1.408216e-38
0.049604312 0.024511829 0.064047694 1.454126e-38
0.04924874 0.025669292 0.062303007 1.4264727e-38
0.04999882 0.032843716 0.064127922 1.3898154e-38
0.04928194 0.033774085 0.060881555 1.3069825e-38
0.046310022 0.027855322 0.064829886 1.3065518e-38
0.046323717 0.034918137 0.06155771 1.2241134e-38
0.044968098 0.038631044 0.060841918 1.2610634e-38
0.04313539 0.036433056 0.063174307 1.1783387e-38
0.042593777 0.039145529 0.061452806 1.224257e-38
0.039426789 0.040562712 0.062020302 1.1503218e-38
0.037440524 0.04265859 0.059780002 1.2056026e-38
0.03627567 0.040926687 0.062061906 1.1045467e-38
0.034618527 0.04292307 0.059939325 1.1779804e-38
0.03010194 0.044970952 0.061060905 8.5526346e-39
0.03047578 0.0467683 0.059238493 1.0860004e-38
0.028038427 0.044962607 0.06096518 9.0135609e-39
0.027167395 0.046675034 0.058590651 1.0210699e-38
0.023993388 0.047179647 0.057335973 9.6610883e-39
0.15622953 0.068877675 0.019102514 1.7768556e-38
0.15655774 0.071781017 0.017817736 1.6757645e-38
0.14093387 0.10302601 0.016112626 1.7311163e-38
0.14065187 0.10621559 0.016103923 1.4819729e-38
0.12176739 0.071360759 0.022373915 1.2151442e-38
0.091411203 0.056911655 0.031290531 1.758345e-38
0.14112146 0.15794465 0.048489511 2.2977231e-39
0.1009835 0.14296627 0.049736023 2.0172482e-38
0.098702937 0.14177477 0.049668431 1.9345972e-38
0.094763763 0.14089903 0.049805939 1.8787773e-38
0.091385759 0.13938153 0.049404979 1.7773233e-38
0.091285899 0.14093289 0.049805462 1.8602288e-38
0.087247387 0.13936481 0.049212933 1.896852e-38
0.087089114 0.14101169 0.049932599 1.8324601e-38
0.08257208 0.022413835 0.069865942 1.1317729e-38
0.083798766 0.13935086 0.049052775 2.0997195e-38
0.083114609 0.14070827 0.048782229 2.0538012e-38
0.079437926 0.14114681 0.048532009 1.9892289e-38
0.074266553 0.02353473 0.069447041 1.2518451e-38
0.074716583 0.14086592 0.049036384 1.979794e-38
0.071419522 0.025175594 0.069532931 1.3807423e-38
0.06988211 0.026997603 0.068530858 1.5004835e-38
0.069322839 0.1413326 0.048022628 2.0351849e-38
0.065998971 0.027130909 0.068426013 1.5000534e-38
0.067946166 0.14200711 0.047839344 1.8969293e-38
0.062204495 0.027456075 0.068190038 1.4269071e-38
0.058836073 0.027804293 0.068139553 1.3072356e-38
0.057832718 0.030433394 0.066953003 1.3624433e-38
0.055779025 0.028744467 0.068169296 1.2426269e-38
0.054934338 0.030511968 0.067480206 1.3439673e-38
0.050533399 0.031029217 0.067114294 1.3899575e-38
0.047564089 0.028666757 0.067456901 1.1868056e-38
0.046574593 0.031612121 0.06646961 1.1781257e-38
0.04382585 0.033236273 0.066817284 1.1046915e-38
0.042621881 0.035167739 0.065659046 1.1322419e-38
0.038718402 0.036925025 0.065674782 1.1134786e-38
0.038280115 0.039059378 0.064517021 1.1138353e-38
0.034992829 0.039935999 0.064716399 1.0032732e-38
0.030983523 0.042566299 0.063557327 1.0490158e-38
0.15975051 0.092242323 0.014975429 1.2797524e-38
0.14125979 0.081595518 0.020383656 1.7855334e-38
0.14068295 0.086973198 0.018326521 1.9336237e-38
0.13483876 0.10281769 0.018737257 1.1779784e-38
0.093358442 0.079698361 0.02728343 1.6939165e-38
0.09325844 0.083468996 0.026673019 1.6938789e-38
0.11508045 0.13857317 0.0427019 1.9709347e-38
0.097853884 0.14436153 0.051884592 2.1006942e-38
0.099851876 0.14764297 0.054451704 2.193207e-38
0.095029622 0.14376429 0.052195191 2.0081749e-38
0.094786219 0.14630094 0.053432286 2.1648709e-38
0.090846203 0.14379588 0.052161813 1.9985225e-38
0.089071207 0.14725655 0.054011464 2.0081694e-38
0.086687855 0.14377907 0.051968873 1.8969257e-38
0.086567074 0.14710927 0.053919375 1.7679605e-38
0.08261428 0.14361706 0.051297188 2.1090088e-38
0.082023956 0.14644477 0.052297354 1.3808478e-38
0.078182325 0.14373574 0.051067472 2.072382e-38
0.078323632 0.14657637 0.051422298 1.1592902e-38
0.074242651 0.14368027 0.051230311 2.0261768e-38
0.074410379 0.14647263 0.051425397 1.3253837e-38
0.07066308 0.14591044 0.051347554 1.732057e-38
0.042220846 0.032443345 0.06911695 1.1225567e-38
0.040614203 0.034867413 0.068412244 1.057985e-38
0.038154066 0.035406768 0.068879247 1.057949e-38
0.034676522 0.036452875 0.069596469 1.2237524e-38
0.033705205 0.038936853 0.067372203 1.0301406e-38
0.031834289 0.037167393 0.069627464 1.3623663e-38
0.031553164 0.04034283 0.067362726 1.1778345e-38
0.1604968 0.085152186 0.015542626 1.4086123e-38
0.10790176 0.1111582 0.012196422 1.6391383e-38
0.11665654 0.11309166 0.018791258 1.5652634e-38
0.078619301 0.027709626 0.061499536 1.6389206e-38
0.097265013 0.14689696 0.055477262 2.2210512e-38
0.094406515 0.14806283 0.055646062 2.2294028e-38
0.091000341 0.1475583 0.05506587 2.137098e-38
0.090036087 0.15016365 0.054563046 9.3759703e-39
0.084735662 0.14821962 0.054654479 1.5468995e-38
0.086414874 0.15014902 0.054394901 6.3370836e-39
0.082646511 0.14821118 0.054557562 1.2591956e-38
0.081955753 0.14958167 0.054284334 5.4186558e-39
