# .PCD v0.7 - Point Cloud Data file format
VERSION 0.7
FIELDS x y z rgb
SIZE 4 4 4 4
TYPE F F F F
COUNT 1 1 1 1
WIDTH 986
HEIGHT 1
VIEWPOINT 0 0 0 0 1 0 0
POINTS 986
DATA ascii
0.20273048 0.060613036 0.043706059 1.2796446e-38
0.19971664 0.059261754 0.040466309 1.390208e-38
0.20647791 0.079051435 0.037787855 7.3648057e-39
0.19986999 0.078304946 0.035820484 9.572864e-39
0.20628995 0.085229114 0.035900533 8.284293e-39
0.20661733 0.094661444 0.032938898 1.0867898e-38
0.19551852 0.083551556 0.03327173 1.2981947e-38
0.2010791 0.055296302 0.045688629 1.4176875e-38
0.20144686 0.057882071 0.042425156 1.4639285e-38
0.20256627 0.078885913 0.036613047 8.8381674e-39
0.20269051 0.081597686 0.035818875 8.9289309e-39
0.20284493 0.085224897 0.034793675 9.5760968e-39
0.20271346 0.088592768 0.033513784 1.0589896e-38
0.2027981 0.092659354 0.032647669 1.160331e-38
0.20268854 0.09682022 0.033611298 1.224654e-38
0.19707766 0.055649132 0.044359505 1.5741682e-38
0.19771026 0.058530778 0.041935027 1.6665776e-38
0.19712026 0.061984271 0.039639473 1.6481016e-38
0.19730037 0.06621483 0.038443685 1.481865e-38
0.19845283 0.069107622 0.037948012 1.2610998e-38
0.19847283 0.072598845 0.036920905 1.1322413e-38
0.19992834 0.085630879 0.033519089 1.0681382e-38
0.1995002 0.08890745 0.032823443 1.1327106e-38
0.19911118 0.092807218 0.032953918 1.2338726e-38
0.19899964 0.09674184 0.032722294 1.3258897e-38
0.19343877 0.054932475 0.043544292 1.8320656e-38
0.19425273 0.058535218 0.04085207 1.9242958e-38
0.19471422 0.061882466 0.038916826 1.7861448e-38
0.19521967 0.065695882 0.037946343 1.5465093e-38
0.19516695 0.068990111 0.036954701 1.371663e-38
0.19575316 0.072182119 0.036193371 1.2703199e-38
0.19596571 0.093404412 0.030289471 1.2984816e-38
0.1957999 0.097275451 0.030631721 1.4271255e-38
0.19509551 0.10140648 0.030604064 1.5744942e-38
0.18970311 0.05165796 0.043641686 2.0902834e-38
0.19019733 0.054373533 0.041722357 1.9242614e-38
0.19128636 0.057751641 0.039502561 1.9703604e-38
0.19165519 0.060546458 0.038355172 1.8598313e-38
0.19228765 0.09712261 0.028815925 1.4639671e-38
0.1919606 0.10128884 0.029174209 1.5930044e-38
0.19132188 0.103844 0.028701842 1.7498444e-38
0.18410981 0.047785133 0.043037951 2.0718456e-38
0.18544853 0.050242364 0.042638898 2.0532631e-38
0.18602166 0.054155156 0.040321708 1.9151483e-38
0.18668872 0.056716621 0.03793484 1.8966397e-38
0.18726443 0.093741879 0.027156055 1.3442219e-38
0.18809697 0.096915826 0.027475297 1.4089016e-38
0.18769777 0.10114783 0.028003156 1.4918415e-38
0.18831357 0.10401967 0.027708709 1.685344e-38
0.18077356 0.04734093 0.042125583 2.0257826e-38
0.18137336 0.049937248 0.040939927 1.9704662e-38
0.18207848 0.053742856 0.038279891 1.8965294e-38
0.18404266 0.093283758 0.026283622 1.3258175e-38
0.18378246 0.096841425 0.026480019 1.3993941e-38
0.18350789 0.10093772 0.027117312 1.4270535e-38
0.17752188 0.046202078 0.041082442 2.0256034e-38
0.17797157 0.049606383 0.039247692 1.9242254e-38
0.17877609 0.052682266 0.036925495 1.88738e-38
0.18041301 0.092647552 0.025336325 1.3258904e-38
0.1803482 0.096499711 0.024901807 1.3626602e-38
0.17959754 0.10052669 0.025860012 1.4085081e-38
0.17398024 0.046612084 0.03967154 1.9424848e-38
0.17446503 0.049364328 0.037859261 1.8783068e-38
0.17531535 0.051891699 0.035804451 1.8413565e-38
0.17674911 0.09223412 0.024448395 1.3626956e-38
0.17642677 0.096279711 0.024320662 1.3627672e-38
0.17622332 0.10066231 0.024556756 1.4454209e-38
0.17621577 0.1032047 0.024164796 1.4914467e-38
0.1703575 0.046458781 0.038583457 1.942556e-38
0.17096151 0.049122602 0.036471605 1.8321022e-38
0.1713565 0.051939487 0.034914672 1.7766413e-38
0.17183748 0.088664949 0.023832023 1.3995031e-38
0.17299235 0.091280609 0.023903131 1.3810999e-38
0.17264518 0.096038058 0.024080157 1.39961e-38
0.17264475 0.10028321 0.023912251 1.4364153e-38
0.16639391 0.046495229 0.037659109 1.8966367e-38
0.16715363 0.049117208 0.035886824 1.8230236e-38
0.16745159 0.052825004 0.033463776 1.7308292e-38
0.16867553 0.084911495 0.023953736 1.3443633e-38
0.16879129 0.087631151 0.023184955 1.3535114e-38
0.16930442 0.091201052 0.023014784 1.3629442e-38
0.16893902 0.095969096 0.023213148 1.3904954e-38
0.16912478 0.099571511 0.023021579 1.3810252e-38
0.16262682 0.046118438 0.036809802 1.8597966e-38
0.16278467 0.049049616 0.034993708 1.7861823e-38
0.16327037 0.052836508 0.032700002 1.6939884e-38
0.16262829 0.055698365 0.030708313 1.6386714e-38
0.1634914 0.080670267 0.023587048 1.2980881e-38
0.16409276 0.083828956 0.023384631 1.316705e-38
0.16442537 0.087638512 0.023014545 1.3167773e-38
0.16479585 0.091296613 0.022483349 1.3075582e-38
0.16466999 0.095831573 0.022054195 1.3626246e-38
0.16400161 0.09965767 0.02139318 1.3902132e-38
0.15933578 0.046736687 0.035597086 1.7954736e-38
0.15839064 0.048995554 0.034148991 1.7401208e-38
0.15892148 0.052978456 0.03207767 1.6663649e-38
0.15947017 0.056656837 0.029572606 1.5926081e-38
0.15857212 0.059146345 0.02841866 1.5648072e-38
0.16114862 0.077353656 0.023835659 1.2613895e-38
0.16071749 0.079981744 0.023195148 1.2521702e-38
0.16048566 0.083655313 0.022731006 1.2797203e-38
0.16024294 0.087645471 0.022683859 1.2706791e-38
0.1603179 0.091355979 0.021851003 1.2706798e-38
0.16032639 0.095502436 0.021473169 1.3534762e-38
0.1546917 0.049523219 0.033137977 1.7307222e-38
0.15515174 0.052939102 0.031363606 1.6664362e-38
0.15557541 0.056997299 0.02956897 1.6110835e-38
0.15601408 0.060410336 0.027849078 1.5465473e-38
0.15556645 0.063664526 0.026358783 1.4637857e-38
0.15633653 0.077150002 0.022390366 1.3257447e-38
0.15704097 0.079592913 0.021887779 1.2888307e-38
0.15679134 0.083573028 0.021841407 1.2889397e-38
0.15662292 0.087492272 0.021596611 1.2799698e-38
0.15641466 0.09145838 0.021446228 1.2984091e-38
0.15654387 0.09449394 0.020588279 1.3719139e-38
0.15125245 0.049545884 0.032236576 1.7216822e-38
0.1513768 0.052898139 0.030648291 1.6387425e-38
0.15175363 0.056998208 0.028977871 1.5742065e-38
0.15223789 0.060383469 0.027159572 1.5006288e-38
0.15259843 0.063854307 0.02564013 1.4363057e-38
0.15251303 0.067207664 0.024292529 1.4362702e-38
0.15241361 0.0716407 0.02279377 1.4360566e-38
0.15313357 0.075958729 0.021740913 1.3809554e-38
0.15322652 0.079613835 0.021292984 1.344219e-38
0.15321718 0.083384126 0.020658076 1.3074862e-38
0.15300274 0.087339446 0.020509124 1.2800424e-38
0.15293378 0.091159552 0.020445585 1.3168487e-38
0.15349683 0.093758941 0.01985234 1.3628395e-38
0.14861447 0.049919054 0.031300783 1.7033859e-38
0.1478247 0.053129196 0.029994726 1.6201933e-38
0.14813381 0.056844622 0.027890861 1.5282156e-38
0.14862335 0.060230494 0.026073873 1.436271e-38
0.14894477 0.063733488 0.024653792 1.3717337e-38
0.14884874 0.067559332 0.024217248 1.4178322e-38
0.14901841 0.071805745 0.023043633 1.4268744e-38
0.14933509 0.07593374 0.021527767 1.3993231e-38
0.14944804 0.07959947 0.020599008 1.4085062e-38
0.14956084 0.083266616 0.01966989 1.3809917e-38
0.14925817 0.087294132 0.019713938 1.3534406e-38
0.14913785 0.090544403 0.019440055 1.3534033e-38
0.14396143 0.053964272 0.028647661 1.6114782e-38
0.14434513 0.056814581 0.027198315 1.4269443e-38
0.14492363 0.060140073 0.025185108 1.3163457e-38
0.14516345 0.063709214 0.023961723 1.2243665e-38
0.14493701 0.067634374 0.023818016 1.2611029e-38
0.14511767 0.071877763 0.022618651 1.3165261e-38
0.14507642 0.075789332 0.020359039 1.2889757e-38
0.14523104 0.079421028 0.019332528 1.3349309e-38
0.14544168 0.083036616 0.01862514 1.4086134e-38
0.14562249 0.087129802 0.019078672 1.4177599e-38
0.13965598 0.053580061 0.027414322 1.2240767e-38
0.13995746 0.056751326 0.026297808 1.0584131e-38
0.14011234 0.060392931 0.025268376 9.9416521e-39
0.14033195 0.063985974 0.024092197 9.0207762e-39
0.14068127 0.067480251 0.022622943 9.0218636e-39
0.14084595 0.071736217 0.021459937 9.9434359e-39
0.14060035 0.075814828 0.019676864 1.0036363e-38
0.14088455 0.079346567 0.018357515 1.1049098e-38
0.14118305 0.083208591 0.018033683 1.1879554e-38
0.14202103 0.086304098 0.01846844 1.3534737e-38
0.13613212 0.054238945 0.026116729 1.1874506e-38
0.13563126 0.056641817 0.025248826 1.1871645e-38
0.13578638 0.06028448 0.024219096 1.0950764e-38
0.13594145 0.063927159 0.023189485 9.293396e-39
0.13622722 0.06747216 0.021866679 7.2697893e-39
0.13650683 0.071644336 0.020447195 7.3594528e-39
0.1368517 0.075763658 0.018882155 7.4534323e-39
0.13691899 0.079470396 0.018047988 8.2799727e-39
0.13753983 0.082579345 0.018168867 8.9224485e-39
0.13289633 0.060404569 0.023279369 1.2707159e-38
0.13231599 0.063773721 0.022100568 8.7434774e-39
0.13247108 0.0674164 0.021070957 7.1822642e-39
0.13291827 0.071466208 0.019286454 5.7950095e-39
0.13323167 0.075610459 0.017794907 6.8084202e-39
0.13320985 0.079386264 0.017154396 8.1870737e-39
0.129899 0.06367144 0.021374702 5.977617e-39
0.13032264 0.06711787 0.019761324 5.70786e-39
0.20628995 0.085229114 0.035900533 8.284293e-39
0.20107163 0.077836424 0.037299812 1.261423e-38
0.18255398 0.064992994 0.037618577 1.5006982e-38
0.17958063 0.08502984 0.026322544 1.2890107e-38
0.19897333 0.049033195 0.051674247 1.9156542e-38
0.19967106 0.051676646 0.049900353 1.7401564e-38
0.19885206 0.054433033 0.047860384 1.4915471e-38
0.19556394 0.048766971 0.0506863 2.1641483e-38
0.19613072 0.05143398 0.048501492 2.0165975e-38
0.19671786 0.054038793 0.047309399 1.7217819e-38
0.19835797 0.10129561 0.034077168 1.5379371e-38
0.19178385 0.048115164 0.049560428 2.1917727e-38
0.19262779 0.051161319 0.047002256 2.1364547e-38
0.19397759 0.053618893 0.046576262 1.9152911e-38
0.19607767 0.10294327 0.032634079 1.5565207e-38
0.19453293 0.10612847 0.032296777 1.7405161e-38
0.18750533 0.044767886 0.049348652 2.1454598e-38
0.18834767 0.047759667 0.048363745 2.1363472e-38
0.18899941 0.050368994 0.045980632 2.0998635e-38
0.19132625 0.10638881 0.030905306 1.8417881e-38
0.19023585 0.10889921 0.031221092 1.9246204e-38
0.18433586 0.041585386 0.049298942 2.1454937e-38
0.1845466 0.043942779 0.0483042 2.1454587e-38
0.18513983 0.047220141 0.046521604 2.108617e-38
0.18723032 0.1061348 0.029284298 1.7402677e-38
0.18697405 0.10924891 0.030097008 1.7864369e-38
0.1797055 0.041145533 0.047980368 2.1088679e-38
0.18042886 0.043655932 0.046647131 2.1087594e-38
0.18122101 0.04630591 0.044749618 2.0717375e-38
0.181558 0.10293666 0.028093159 1.4640745e-38
0.1832318 0.10564877 0.028111041 1.53776e-38
0.1830873 0.109069 0.028525889 1.6757292e-38
0.17561457 0.040345341 0.046937346 2.0811024e-38
0.1763719 0.043327063 0.044839978 2.0991113e-38
0.17973977 0.10285971 0.027547121 1.4361293e-38
0.17898294 0.10554126 0.02736336 1.4916613e-38
0.17871195 0.10902119 0.027579486 1.5654901e-38
0.17215207 0.040460095 0.045820057 2.0258222e-38
0.17284405 0.043088153 0.043443978 2.0440441e-38
0.17306015 0.045439512 0.042452753 1.9978374e-38
0.17548238 0.10539949 0.025871515 1.5007017e-38
0.17530257 0.10875496 0.026591539 1.5192127e-38
0.16850471 0.040305719 0.044724524 1.9704302e-38
0.169092 0.043018728 0.042653501 1.9979803e-38
0.16942376 0.045285627 0.041360557 1.9792904e-38
0.17125484 0.10250063 0.024998665 1.4455267e-38
0.17173888 0.10519543 0.025078297 1.5098481e-38
0.16485739 0.040151358 0.043628991 1.9429517e-38
0.16533554 0.04294996 0.041861415 1.9427713e-38
0.16610339 0.045449018 0.040273249 1.9334784e-38
0.16819859 0.10176343 0.02426064 1.3994279e-38
0.16804396 0.10446024 0.024230659 1.4454907e-38
0.16184393 0.040633515 0.04254353 1.896564e-38
0.16157556 0.042880446 0.041068673 1.8964948e-38
0.16215096 0.044977814 0.039176166 1.8873461e-38
0.16502893 0.10050286 0.023914158 1.3902122e-38
0.16419639 0.10371681 0.023791194 1.4273042e-38
0.15798584 0.04295963 0.040239573 1.8687998e-38
0.15788725 0.045877993 0.037575662 1.8229532e-38
0.1600619 0.099849641 0.022644222 1.3903193e-38
0.16045071 0.10382067 0.022921205 1.4089004e-38
0.15377952 0.043388948 0.039049327 1.878163e-38
0.15347897 0.046061516 0.037557483 1.8137333e-38
0.15382156 0.048272416 0.035595 1.74916e-38
0.15589572 0.096987873 0.021824956 1.3719138e-38
0.15602951 0.099760532 0.02169925 1.3903892e-38
0.15626878 0.1031069 0.022308052 1.3904614e-38
0.14968604 0.046445519 0.036552787 1.7860747e-38
0.14989512 0.048410147 0.034325659 1.7400846e-38
0.15089163 0.093128979 0.021401346 1.3443999e-38
0.15194336 0.096052453 0.021176279 1.3444719e-38
0.15186405 0.099718392 0.021660566 1.3995732e-38
0.14586803 0.047181249 0.035244107 1.7403028e-38
0.14625397 0.049155325 0.033510208 1.7034592e-38
0.14551815 0.052175909 0.031841636 1.6386333e-38
0.14846736 0.093026415 0.020673275 1.3903193e-38
0.14811398 0.09587118 0.021051347 1.3995746e-38
0.14853527 0.098598987 0.021222651 1.3813152e-38
0.14209563 0.047113836 0.034446657 1.7495555e-38
0.14253902 0.049321473 0.03296411 1.6942395e-38
0.14309385 0.0520733 0.031113446 1.6298476e-38
0.14346328 0.08916752 0.020249784 1.4455616e-38
0.14453876 0.091882706 0.020054698 1.4180119e-38
0.14449689 0.095491618 0.020412385 1.4180126e-38
0.13844827 0.046959475 0.033351183 1.6385993e-38
0.13898355 0.049108699 0.031672716 1.5284664e-38
0.13969469 0.05180788 0.030128479 1.4821525e-38
0.14069843 0.088632375 0.019760847 1.3165956e-38
0.14075708 0.09182933 0.019704044 1.3167756e-38
0.14050266 0.095210671 0.019712329 1.2889384e-38
0.1351234 0.049101114 0.03107214 1.3714462e-38
0.13563964 0.052249223 0.028865218 1.2885057e-38
0.13673511 0.085099399 0.019893229 9.6636275e-39
0.13697219 0.088306427 0.020495772 1.0497347e-38
0.13794109 0.09205389 0.019845247 1.1416768e-38
0.13168019 0.049518198 0.030476272 1.3898487e-38
0.13173786 0.053165823 0.028598011 1.3621542e-38
0.13107193 0.057132855 0.02621752 1.2242919e-38
0.13043937 0.060351521 0.024703979 9.6650596e-39
0.13320687 0.083951712 0.019984424 9.6632421e-39
0.12900808 0.053266376 0.028530836 9.662917e-39
0.12810886 0.057397708 0.02666378 6.9031718e-39
0.12805781 0.061096802 0.024827123 5.4316094e-39
0.12744966 0.063871354 0.023815513 6.533641e-39
0.10146484 0.094516635 0.0077039003 1.9423399e-38
0.10182914 0.097801983 0.0067243576 1.8595445e-38
0.1018742 0.10105044 0.0055868626 1.9613571e-38
0.096656561 0.091526061 0.0070846081 2.0714847e-38
0.098176152 0.093873143 0.0063813329 1.8870224e-38
0.098481506 0.097423464 0.0050631762 1.6012191e-38
0.098482162 0.10157223 0.0039893389 1.6571844e-38
0.094224989 0.091423154 0.0063542724 1.8317077e-38
0.094631702 0.093645215 0.0050979257 1.7670972e-38
0.094938904 0.097194761 0.003780365 1.5461529e-38
0.095044941 0.10152163 0.0027144551 1.4730074e-38
0.09118554 0.091294527 0.0054413676 1.3899596e-38
0.09088552 0.0935646 0.004191637 1.5002697e-38
0.091296613 0.0970404 0.0026865005 1.5926091e-38
0.091481894 0.10124779 0.0020436645 1.5924985e-38
0.087721795 0.093510419 0.0029240847 1.4177246e-38
0.087707222 0.096849263 0.001499176 1.4821912e-38
0.087367415 0.10050501 0.00097614527 1.4269815e-38
0.086286634 0.10450001 0 1.3630198e-38
0.17900217 0.069992393 0.033514738 1.4179041e-38
0.17944103 0.076554716 0.030731559 1.4822973e-38
0.19493228 0.078563958 0.032709301 1.3717344e-38
0.15775687 0.082614541 0.022911727 1.15061e-38
0.15253232 0.064640969 0.027792454 1.3625513e-38
0.14691308 0.073611051 0.023317456 1.0493737e-38
0.19780946 0.042516589 0.057231188 1.8051266e-38
0.19830319 0.045273066 0.055239022 1.8417872e-38
0.19885731 0.047929153 0.054142296 1.8512592e-38
0.20189109 0.10727131 0.037527144 1.602689e-38
0.20100477 0.1103327 0.037069619 1.7128604e-38
0.20071858 0.11326122 0.037564933 1.8794937e-38
0.19436973 0.042807192 0.055343091 1.9987369e-38
0.19467589 0.045089632 0.054037511 2.072242e-38
0.19488111 0.047455117 0.053038538 2.1734401e-38
0.19745544 0.11050829 0.036270022 1.7035686e-38
0.19766091 0.11313182 0.036646664 1.9069018e-38
0.19026405 0.041816294 0.054351807 2.1641868e-38
0.19111849 0.044849902 0.052632451 2.2009213e-38
0.19244227 0.047351897 0.052306056 2.192133e-38
0.19372541 0.11054903 0.035246551 1.7957623e-38
0.19218324 0.11351335 0.034819841 1.9062545e-38
0.18657163 0.039062917 0.055100262 2.1274155e-38
0.18712981 0.041157871 0.053082168 2.1365984e-38
0.18792713 0.044225633 0.051818788 2.1822661e-38
0.18996793 0.11121187 0.033719063 1.887742e-38
0.18975455 0.11381944 0.033969343 1.9338748e-38
0.18282717 0.03791675 0.053801417 1.9983072e-38
0.18361935 0.040252015 0.051647127 2.1086881e-38
0.18688467 0.11172265 0.03178668 1.8048755e-38
0.18622309 0.11466852 0.031796575 1.9244053e-38
0.18625101 0.1175556 0.031767368 2.0075949e-38
0.17946211 0.037591115 0.052903175 2.0260352e-38
0.17996109 0.040097192 0.050548315 2.099791e-38
0.18301281 0.11177206 0.030288398 1.7218992e-38
0.18302329 0.11434652 0.030346394 1.8048032e-38
0.17418395 0.034858674 0.052468836 1.8419302e-38
0.17485905 0.037357628 0.051544487 1.9616424e-38
0.17627674 0.039329752 0.049622655 2.0535505e-38
0.17874481 0.11159144 0.029006481 1.5746024e-38
0.17861873 0.11365387 0.029037118 1.6021889e-38
0.17112628 0.034729272 0.051550567 1.9155438e-38
0.17084447 0.036997795 0.0500651 1.9704676e-38
0.17139904 0.039123327 0.048157632 1.9893046e-38
0.1741589 0.11109161 0.027719617 1.5192844e-38
0.1741662 0.11366743 0.028229833 1.5377589e-38
0.16714016 0.036869735 0.049064994 1.9152213e-38
0.16774076 0.038968503 0.04705888 1.9520609e-38
0.1707806 0.10984001 0.027499855 1.4547834e-38
0.17024149 0.11293167 0.027945459 1.4547807e-38
0.16330713 0.037465006 0.048294306 1.8967467e-38
0.16396633 0.038896143 0.046262383 1.9245112e-38
0.16665159 0.10906237 0.026788116 1.4549255e-38
0.16711029 0.11245225 0.027289212 1.4641098e-38
0.15998338 0.03973867 0.045337141 1.8783422e-38
0.16329333 0.10604551 0.025813639 1.4549976e-38
0.16300979 0.10888731 0.026093662 1.4825479e-38
0.16158029 0.11160487 0.025809824 1.4733647e-38
0.15641859 0.040004566 0.044419646 1.8781256e-38
0.15570298 0.042128056 0.042357385 1.8780903e-38
0.15938449 0.1086936 0.024895728 1.4364513e-38
0.15283555 0.039794654 0.043118715 1.914752e-38
0.15326414 0.042024851 0.041624904 1.8964581e-38
0.15597677 0.10573588 0.023616135 1.3719864e-38
0.14874378 0.039879128 0.042370081 1.9056055e-38
0.14874187 0.043042779 0.04030472 1.8780917e-38
0.14793323 0.045468241 0.038937747 1.8229171e-38
0.14972314 0.1018022 0.022823811 1.3996447e-38
0.15132816 0.10459219 0.022995174 1.3628756e-38
0.15192845 0.10849839 0.023437202 1.4180842e-38
0.14431855 0.04319793 0.039809644 1.8411775e-38
0.14491072 0.045951873 0.037849069 1.7768927e-38
0.14707282 0.10081647 0.022286415 1.4179764e-38
0.14705652 0.10445628 0.022171855 1.4179394e-38
0.14757237 0.10844722 0.022361636 1.4365591e-38
0.1493496 0.11108725 0.022136271 1.4823335e-38
0.14065525 0.043525994 0.039102137 1.8045854e-38
0.14112461 0.045882642 0.037047863 1.7861829e-38
0.14285979 0.097842723 0.02184844 1.3995725e-38
0.1435315 0.10035688 0.021435499 1.4362711e-38
0.14340314 0.1042791 0.021474361 1.4180832e-38
0.14334282 0.10764372 0.021276236 1.4548922e-38
0.13735119 0.044339836 0.038138509 1.7495567e-38
0.13714144 0.045942217 0.036691368 1.740157e-38
0.13968301 0.097825482 0.021222532 1.2795759e-38
0.13940221 0.10061675 0.021397352 1.2612444e-38
0.14050034 0.10396612 0.021475375 1.3536528e-38
0.13370189 0.046752036 0.035349607 1.4452744e-38
0.13456836 0.088930801 0.021892011 1.040189e-38
0.13533458 0.092632249 0.021036267 1.1140166e-38
0.13597029 0.096445173 0.020469487 1.1045818e-38
0.13545108 0.10007246 0.021048069 1.1510387e-38
0.13010022 0.047000915 0.034211159 1.3530799e-38
0.13123247 0.087013975 0.023593247 1.0493356e-38
0.13187829 0.089002714 0.022117972 1.1231623e-38
0.13180101 0.092903137 0.021181285 1.1691868e-38
0.13197991 0.096359044 0.020594537 1.1691889e-38
0.12711203 0.047586486 0.033974051 1.1502516e-38
0.12762895 0.049876362 0.031552553 1.0581276e-38
0.12698451 0.05375424 0.029931009 6.1605845e-39
0.12554216 0.058265626 0.029233158 7.5467265e-39
0.12605199 0.060441285 0.027659893 6.2610057e-39
0.12904796 0.093054831 0.02112174 1.1785897e-38
0.12396604 0.05971995 0.029398382 8.1903065e-39
0.12069082 0.10466109 0.01507175 1.4083229e-38
0.12132755 0.10671204 0.014663935 1.2059263e-38
0.1169742 0.096223861 0.016406178 1.1596153e-38
0.11653692 0.1039339 0.013866365 1.6757621e-38
0.11688638 0.10594232 0.013230026 1.4172223e-38
0.11150506 0.099672377 0.013674319 1.6664397e-38
0.11264828 0.10315698 0.012728393 1.9888331e-38
0.10721579 0.096424192 0.013293743 1.7766723e-38
0.10861763 0.099510491 0.012697875 1.8412178e-38
0.10882255 0.10315846 0.011561275 2.2747824e-38
0.10803977 0.1052946 0.0098372102 1.9978644e-38
0.1050334 0.095521808 0.011789262 2.08074e-38
0.10548142 0.098943532 0.010553718 2.1175884e-38
0.10539684 0.10281345 0.0099866986 2.3208833e-38
0.10638514 0.105589 0.0103212 2.1551383e-38
0.10028258 0.092013568 0.012212217 2.136202e-38
0.10233587 0.094485849 0.010380864 2.1084357e-38
0.10318634 0.098727554 0.0095366836 2.0349344e-38
0.10251507 0.102956 0.0083653927 2.2101418e-38
0.10160369 0.1064921 0.007158041 2.2100677e-38
0.095920384 0.089199543 0.0118981 2.1728287e-38
0.097496569 0.091340095 0.010560036 2.1453498e-38
0.098605514 0.10626823 0.0059441328 2.1644019e-38
0.097395211 0.10950187 0.0063503385 2.1547465e-38
0.093474239 0.08909604 0.011163414 2.0071265e-38
0.093323827 0.090351194 0.0091894865 1.8686902e-38
0.093880832 0.10656832 0.0048747659 1.786366e-38
0.093899965 0.11012253 0.0048751235 1.8597241e-38
0.090416551 0.088966623 0.010245025 1.4354107e-38
0.089260817 0.09094061 0.0079381466 1.2882937e-38
0.088908345 0.10289748 0.0034721494 1.6018262e-38
0.089894146 0.10628255 0.0030207038 1.7679255e-38
0.090660185 0.10931562 0.0033909678 1.9708264e-38
0.087219417 0.091818988 0.0062227845 1.2512722e-38
0.087285489 0.10562426 0.0021574497 1.6206633e-38
0.087949753 0.10897192 0.0013743043 1.8698093e-38
0.083673626 0.10145295 0.0022619367 1.2798995e-38
0.084082812 0.10391626 0.0016608238 1.3261408e-38
0.17871195 0.10902119 0.027579486 1.5654901e-38
0.18449637 0.061840191 0.037547112 1.6388862e-38
0.19640501 0.084100634 0.030329049 1.1969237e-38
0.17225744 0.053718895 0.032129288 1.7307224e-38
0.15565164 0.075182498 0.024138629 1.224222e-38
0.18079746 0.11023332 0.032974422 1.8145261e-38
0.19547379 0.11218071 0.037332654 1.7959455e-38
0.19630224 0.11545017 0.03786844 2.0447293e-38
0.19539899 0.11821771 0.038788736 2.1550407e-38
0.18922888 0.038751245 0.059411347 1.934165e-38
0.19081885 0.041140914 0.056903005 2.1183753e-38
0.19340006 0.11483219 0.03621006 1.9986311e-38
0.19250116 0.11852436 0.037246883 2.155542e-38
0.18501708 0.035740644 0.059516847 1.7502386e-38
0.1859642 0.038108289 0.05709815 1.9617164e-38
0.19011897 0.11563957 0.034633458 2.035219e-38
0.18927622 0.11782384 0.034812033 2.0721712e-38
0.18154755 0.034887165 0.058166981 1.8512952e-38
0.18309069 0.03671886 0.055793822 1.8602292e-38
0.1853174 0.11889569 0.034344971 2.0166717e-38
0.17638774 0.032269031 0.05828011 1.6674444e-38
0.17822929 0.034420058 0.056525886 1.8327486e-38
0.17757867 0.036485597 0.054138362 1.9156877e-38
0.18164459 0.11862937 0.032652497 1.8326407e-38
0.18079254 0.1213015 0.033306003 1.8602293e-38
0.1736894 0.031784043 0.057307303 1.5839307e-38
0.17490172 0.033780068 0.055034816 1.7495576e-38
0.17635377 0.036433756 0.053770423 1.842219e-38
0.1781536 0.11809433 0.0316149 1.6848411e-38
0.17771663 0.12117133 0.03238219 1.7313358e-38
0.16963644 0.031335205 0.05630815 1.6943845e-38
0.17036554 0.03342545 0.053271115 1.8234926e-38
0.17385721 0.11791283 0.030324459 1.5928963e-38
0.17464074 0.12104115 0.031458318 1.7307954e-38
0.16528815 0.031182319 0.055129051 1.721791e-38
0.16629678 0.033662736 0.051927865 1.8877065e-38
0.16929577 0.11475831 0.028379261 1.464034e-38
0.16944966 0.11785235 0.02932626 1.5651652e-38
0.16242607 0.031266868 0.054208457 1.8138057e-38
0.16230923 0.033718795 0.051631391 1.8692315e-38
0.16287993 0.035863549 0.049723625 1.8967102e-38
0.16571212 0.11386958 0.027521074 1.4824058e-38
0.16568908 0.11777663 0.02841413 1.5837831e-38
0.15831292 0.033774912 0.051332414 1.8783405e-38
0.15909988 0.03704606 0.048674703 1.8783428e-38
0.16249108 0.11358219 0.027142704 1.5009884e-38
0.16193816 0.11769345 0.027930498 1.5654176e-38
0.15469094 0.0340624 0.050494254 1.8965284e-38
0.15534323 0.036944121 0.047771513 1.8874533e-38
0.15843731 0.11348456 0.026568651 1.4824772e-38
0.15810871 0.1163893 0.026936889 1.5470856e-38
0.15100247 0.034588128 0.049651265 1.9240439e-38
0.1516649 0.036788449 0.046666741 1.9056419e-38
0.15491703 0.11317036 0.02507633 1.4915502e-38
0.15418185 0.11647339 0.026409268 1.5839967e-38
0.14757514 0.036902487 0.046563208 1.8873103e-38
0.1501527 0.11026269 0.023720503 1.4547811e-38
0.15123871 0.11301467 0.023971558 1.5192851e-38
0.15085624 0.11595725 0.024432719 1.6019738e-38
0.14399698 0.037160963 0.045609117 1.8412472e-38
0.14386457 0.03915377 0.042800307 1.8411763e-38
0.14728966 0.11312518 0.023066163 1.5283967e-38
0.14594206 0.11574927 0.022956729 1.5745673e-38
0.14016986 0.037542418 0.044952035 1.7858581e-38
0.14046332 0.03994526 0.041985691 1.8414278e-38
0.1393089 0.042236924 0.040462315 1.8413555e-38
0.14142126 0.10620773 0.022188842 1.4275194e-38
0.14321339 0.10984597 0.022217155 1.4825137e-38
0.14388433 0.11286385 0.02270031 1.5467995e-38
0.14471355 0.11569728 0.022587776 1.6021889e-38
0.13733193 0.03802 0.044358313 1.8137324e-38
0.13582417 0.040265262 0.042568684 1.7677785e-38
0.13599762 0.043050736 0.039496541 1.6942039e-38
0.13835645 0.10523224 0.02214092 1.2337627e-38
0.13855854 0.1094 0.022525847 1.2891902e-38
0.13938639 0.112022 0.022734642 1.270825e-38
0.13182941 0.041047692 0.041196167 1.565019e-38
0.13218653 0.043462053 0.039080977 1.509704e-38
0.13211673 0.045617998 0.037211359 1.445203e-38
0.13513955 0.10225642 0.021393061 1.0863924e-38
0.13459435 0.10529262 0.022138357 9.4813606e-39
0.13460788 0.1086525 0.022599936 8.4679724e-39
0.12887731 0.041364118 0.040723205 1.4540991e-38
0.12837881 0.044086993 0.039216936 1.3990684e-38
0.12856099 0.045911148 0.036556423 1.3163101e-38
0.12961122 0.087280571 0.024095953 1.0862853e-38
0.1297684 0.090972692 0.023052275 1.2610592e-38
0.13069525 0.09838286 0.02114898 1.2061043e-38
0.13114887 0.10109711 0.021213412 1.1879519e-38
0.13069174 0.1053271 0.021512151 8.4650436e-39
0.13075319 0.10783508 0.020909965 5.891161e-39
0.1253441 0.044916511 0.038566351 1.3526469e-38
0.1260269 0.046384096 0.036712468 1.2054251e-38
0.12430361 0.055305824 0.032625258 7.6352858e-39
0.12758631 0.087865263 0.025466919 1.0491927e-38
0.12662163 0.090442285 0.02440232 1.1413537e-38
0.1268675 0.093650758 0.022440732 1.1782312e-38
0.12758061 0.097022533 0.020577073 1.1969226e-38
0.12720326 0.10116696 0.020684004 1.2429489e-38
0.12709352 0.10509443 0.020213187 9.8480019e-39
0.12781292 0.10758919 0.019699812 7.5485104e-39
0.12217936 0.05712229 0.033963442 8.7409299e-39
0.1219435 0.059040338 0.032233179 9.1090216e-39
0.12313983 0.062278211 0.030015886 8.0970066e-39
0.12284428 0.093901396 0.022438586 1.1689402e-38
0.12390596 0.096867025 0.019473314 1.1967797e-38
0.12397325 0.10063469 0.018621266 1.3439677e-38
0.12413046 0.10432723 0.017577529 1.1967777e-38
0.1243251 0.1067127 0.016690493 9.8534039e-39
0.11902016 0.093854159 0.021619141 1.1687227e-38
0.12023127 0.096711516 0.018369675 1.1598657e-38
0.12038845 0.10040364 0.017326057 1.4547829e-38
0.11542436 0.093625456 0.02031976 1.1963112e-38
0.11655658 0.096555993 0.017265975 1.1595422e-38
0.11671379 0.10024811 0.016222358 1.5011315e-38
0.11681855 0.10270956 0.015526772 1.9246893e-38
0.11196467 0.091241255 0.020668864 1.2054575e-38
0.11178401 0.093433321 0.01911658 1.2516289e-38
0.11226943 0.096374571 0.015978456 1.2884708e-38
0.11338905 0.10010742 0.015223861 1.5652396e-38
0.10688198 0.090078741 0.018644989 1.4266194e-38
0.10765007 0.093123943 0.017491341 1.4729323e-38
0.1083248 0.096032113 0.01484561 1.5555507e-38
0.10357192 0.089439631 0.017895758 1.5649488e-38
0.1034725 0.092851609 0.015962362 1.9520245e-38
0.1054801 0.094858751 0.014302909 2.0158767e-38
0.099556595 0.089864999 0.016727388 1.813553e-38
0.10116142 0.092083126 0.014317572 2.0809574e-38
0.10230324 0.10639495 0.0098944306 2.3210938e-38
0.096283644 0.089292884 0.014597237 2.1174765e-38
0.091958642 0.086357489 0.014766157 1.9700348e-38
0.092490196 0.087889344 0.013390243 1.9977288e-38
0.093964756 0.11157025 0.005753696 1.5650588e-38
0.088769585 0.086034626 0.014589787 1.4255447e-38
0.088597536 0.088304758 0.012593865 1.2415148e-38
0.087280959 0.091704145 0.011720121 1.0949006e-38
0.17360598 0.086556107 0.026375055 1.427125e-38
0.17428586 0.066061825 0.032556057 1.5836762e-38
0.17649321 0.075854897 0.029877603 1.454567e-38
0.18313965 0.070304781 0.033775508 1.3994289e-38
0.18292484 0.086780339 0.029179573 1.1417128e-38
0.12909707 0.062320977 0.023156762 5.9819259e-39
0.19056214 0.025360703 0.069961727 6.444695e-39
0.19566227 0.12057225 0.040351927 2.1928899e-38
0.18666971 0.022762507 0.069754899 5.3387103e-39
0.18698204 0.025103673 0.068433702 5.2472336e-39
0.18724406 0.028760403 0.067070425 7.0860847e-39
0.18747135 0.032439321 0.06581074 8.6562858e-39
0.18828285 0.035661131 0.062812507 1.3630172e-38
0.19192396 0.1211704 0.038642347 2.2387357e-38
0.19136956 0.12314576 0.040061831 2.284797e-38
0.18295127 0.022605151 0.068638086 5.7056543e-39
0.18319689 0.024996236 0.067523181 6.4407349e-39
0.18346074 0.02865386 0.066160202 8.3804108e-39
0.18368992 0.032333851 0.064900696 1.0682083e-38
0.18505985 0.034430087 0.061442554 1.4737635e-38
0.18842843 0.12076975 0.03694135 2.1366737e-38
0.18726687 0.12367249 0.039202869 2.2010994e-38
0.18047233 0.022500232 0.067893505 7.2704479e-39
0.17933892 0.024938479 0.066817164 8.2875131e-39
0.17964044 0.02857244 0.065352023 1.1787681e-38
0.18011969 0.032071978 0.06337738 1.4828022e-38
0.18227425 0.034003228 0.060697377 1.6942801e-38
0.18596406 0.12066546 0.036201179 2.118302e-38
0.18383843 0.12367818 0.037444234 2.1454221e-38
0.17567351 0.026026487 0.065348327 1.1233834e-38
0.17588806 0.02844052 0.064337969 1.3629075e-38
0.17669627 0.031664833 0.061957955 1.6209499e-38
0.18087614 0.12382364 0.035229921 1.9521025e-38
0.17915976 0.12728056 0.036469519 2.0257852e-38
0.17257479 0.025895357 0.06441772 1.1877396e-38
0.1723468 0.028435886 0.063186049 1.427409e-38
0.17283294 0.031080157 0.06165731 1.5655971e-38
0.17714556 0.1237663 0.033613086 1.8692706e-38
0.17628357 0.12693226 0.034801543 1.9427739e-38
0.16846344 0.02870965 0.0612095 1.4825134e-38
0.16900995 0.030307591 0.060181797 1.6300264e-38
0.17325592 0.1233369 0.032523274 1.7956208e-38
0.17272326 0.12702218 0.033987701 1.8784168e-38
0.16499269 0.028438479 0.06020391 1.5560534e-38
0.16586858 0.029765278 0.057544708 1.6298107e-38
0.16941607 0.12316108 0.032341599 1.7310834e-38
0.16881311 0.12642834 0.033484578 1.8598679e-38
0.16110602 0.028395891 0.059544921 1.6296301e-38
0.16055048 0.030540377 0.056947589 1.7492325e-38
0.1584799 0.029028177 0.059080482 1.7399421e-38
0.1568048 0.031443119 0.056286156 1.8137338e-38
0.16008817 0.11957037 0.028429329 1.6392434e-38
0.16057271 0.12299922 0.030227482 1.7587767e-38
0.15309769 0.031969696 0.055437028 1.8874177e-38
0.1533179 0.032777786 0.052000403 1.915005e-38
0.15759745 0.11884707 0.027864158 1.6391013e-38
0.15678483 0.12292358 0.029306829 1.7864713e-38
0.14872316 0.032344609 0.055046201 1.9700722e-38
0.14957371 0.033414975 0.051946878 1.9609967e-38
0.15390089 0.11869062 0.026753843 1.6850891e-38
0.15314692 0.12269451 0.028463125 1.7864346e-38
0.14500472 0.032187253 0.053929389 1.9699988e-38
0.14597568 0.034122556 0.051119745 1.9335155e-38
0.14983776 0.11889714 0.026510358 1.6666177e-38
0.14909214 0.12223202 0.027830541 1.7404455e-38
0.14201844 0.034124315 0.050607026 1.8963492e-38
0.14238638 0.036022559 0.0476197 1.8685832e-38
0.14589974 0.11864555 0.026441395 1.5931135e-38
0.13821682 0.034287304 0.050095201 1.869015e-38
0.13881937 0.036308855 0.046963513 1.8687622e-38
0.1414209 0.11445506 0.024102926 1.4918065e-38
0.14164898 0.11870119 0.025775492 1.5380114e-38
0.13494554 0.034991592 0.049589097 1.7861829e-38
0.13472605 0.037294894 0.047024012 1.7400125e-38
0.13895652 0.11435077 0.023362756 1.2340187e-38
0.13809106 0.11838129 0.02516526 1.1418572e-38
0.13114777 0.038157493 0.0471735 1.6199787e-38
0.13080326 0.040100977 0.044312894 1.5832086e-38
0.13369805 0.11019734 0.023382366 7.175807e-39
0.13488796 0.11389154 0.023193538 6.7144813e-39
0.13387457 0.11839104 0.024387598 6.5343977e-39
0.13273576 0.12179373 0.023568571 6.5340221e-39
0.12797019 0.038925007 0.046605408 1.6106509e-38
0.12687096 0.040641546 0.044483125 1.5002688e-38
0.12671059 0.043391854 0.04053396 1.3620819e-38
0.13014045 0.11134906 0.024323702 6.1677703e-39
0.13080028 0.11406896 0.02334404 6.7191393e-39
0.13162434 0.11838804 0.023503065 6.7198259e-39
0.12419394 0.041287825 0.043853521 1.4450577e-38
0.12432542 0.04371047 0.042234063 1.3528602e-38
0.12275362 0.051815957 0.038980067 9.6593325e-39
0.12284598 0.053732619 0.036264181 8.5544325e-39
0.12509066 0.087447181 0.02916503 9.1983361e-39
0.12456253 0.089360788 0.027344644 1.0398292e-38
0.11988792 0.052371308 0.03916353 1.1686151e-38
0.11978203 0.055677742 0.036214471 1.1320227e-38
0.11913911 0.059951395 0.033989549 1.131809e-38
0.12141481 0.088372111 0.02991879 9.293382e-39
0.12155703 0.090456545 0.026498735 1.0673089e-38
0.11658952 0.052531987 0.03901726 1.3531479e-38
0.11556309 0.05635941 0.036672413 1.2886852e-38
0.11561182 0.060550451 0.035491109 1.19674e-38
0.11558697 0.064406782 0.034825802 1.0859627e-38
0.11622831 0.068262786 0.034248114 9.9415918e-39
0.11638734 0.071998864 0.033192039 9.0221803e-39
0.11718032 0.088109553 0.028399408 1.0029504e-38
0.11772412 0.090391904 0.025172114 1.1132983e-38
0.11203262 0.056897223 0.036299467 1.3349625e-38
0.1124883 0.06033507 0.035424471 1.2703897e-38
0.11267391 0.064693809 0.034192443 1.215288e-38
0.11189014 0.068079203 0.032945156 1.141711e-38
0.11278227 0.07159768 0.032182872 1.0127104e-38
0.11292112 0.087224439 0.027056694 1.1317013e-38
0.11405572 0.090208709 0.02398783 1.1869121e-38
0.10821477 0.083462566 0.027241945 1.1962746e-38
0.1092971 0.0863581 0.02587676 1.1963112e-38
0.11015698 0.089717835 0.023058414 1.2147124e-38
0.10511604 0.083331436 0.026311338 1.2516612e-38
0.10577354 0.086061433 0.024378121 1.2516276e-38
0.10685602 0.089197487 0.022319734 1.2883612e-38
0.10172072 0.083498538 0.025199533 1.3713739e-38
0.10220629 0.085799754 0.022976577 1.389777e-38
0.1030862 0.087722272 0.020747304 1.4174346e-38
0.098325431 0.083665609 0.024087787 1.4632472e-38
0.098251611 0.085816771 0.022339046 1.5092729e-38
0.099264443 0.088290155 0.019746423 1.5832077e-38
0.094291627 0.085833132 0.021700144 1.9425527e-38
0.095023215 0.08834365 0.018870234 2.0161693e-38
0.09026885 0.083324641 0.021667957 2.0709473e-38
0.090855986 0.085428104 0.019486964 2.0253524e-38
0.092618823 0.087726206 0.018922806 2.2098875e-38
0.086550415 0.083167285 0.020551145 1.7487266e-38
0.087313354 0.084714651 0.018309772 1.6104708e-38
0.085256726 0.088654071 0.016344845 9.2909409e-39
0.084204018 0.08617577 0.018926501 1.1776204e-38
0.083817601 0.089042544 0.017231345 1.030472e-38
0.083099037 0.092623621 0.015583515 1.1499649e-38
0.080918193 0.094600171 0.01431632 1.2422686e-38
0.079057097 0.09670344 0.013982415 1.3532596e-38
0.18306458 0.067858398 0.03473717 1.4178684e-38
0.143962 0.071209401 0.021607876 8.3757613e-39
0.19043782 0.12624612 0.042481959 2.2574979e-38
0.18896961 0.1284405 0.042461872 2.2572826e-38
0.18703254 0.1264137 0.041366875 2.2564891e-38
0.18631411 0.12875029 0.041321576 2.2568872e-38
0.18362725 0.12658125 0.040251791 2.1549292e-38
0.18265018 0.12900972 0.040160656 2.1828043e-38
0.17453642 0.02294749 0.069170356 9.4860451e-39
0.17494217 0.024601996 0.067718804 1.0589182e-38
0.17965513 0.12951732 0.038684487 2.1274163e-38
0.1709041 0.024799094 0.066863716 1.1601169e-38
0.17010266 0.0275141 0.065342665 1.3537972e-38
0.17584208 0.12987542 0.037385464 2.0165669e-38
0.16731244 0.02568382 0.065737307 1.1971394e-38
0.16785681 0.02779077 0.064830303 1.3535467e-38
0.17164691 0.13020462 0.036519885 1.9616794e-38
0.1643039 0.025844038 0.065111578 1.2335151e-38
0.1637724 0.027326256 0.063780665 1.3996801e-38
0.1680533 0.12923411 0.035138428 1.9062897e-38
0.16921028 0.13135004 0.035418451 1.9800464e-38
0.16004243 0.027168378 0.062660336 1.5007377e-38
0.16426799 0.12782621 0.03437078 1.9062506e-38
0.15627977 0.028313637 0.061403453 1.6941328e-38
0.15534472 0.030629843 0.059803069 1.767637e-38
0.16053589 0.12766829 0.033249915 1.9062145e-38
0.15244697 0.02950424 0.06031841 1.822702e-38
0.15206185 0.031038746 0.0588727 1.8506472e-38
0.15645567 0.12769997 0.032099903 1.8693766e-38
0.14995709 0.029398859 0.059570611 1.9244044e-38
0.14829937 0.031326443 0.058481395 1.9610673e-38
0.15068451 0.1251871 0.03035754 1.8691957e-38
0.15298229 0.12744522 0.031224668 1.8693752e-38
0.14436215 0.032158941 0.056458771 1.9883664e-38
0.14907813 0.12550366 0.030850053 1.8416445e-38
0.14115518 0.032522872 0.054803252 1.9240807e-38
0.14420381 0.12323406 0.029452443 1.7497741e-38
0.13642249 0.032571852 0.054396808 1.8506475e-38
0.13561434 0.033535153 0.052770019 1.8507905e-38
0.14047173 0.12307611 0.028331518 1.5196465e-38
0.13258013 0.034842759 0.052250266 1.767781e-38
0.13560751 0.12080875 0.026936233 9.2087562e-39
0.13694474 0.12284005 0.027406693 9.9434542e-39
0.1294184 0.035470814 0.05112952 1.7308316e-38
0.12896326 0.03761737 0.049480796 1.6479594e-38
0.1343644 0.12075613 0.02656287 8.0077215e-39
0.1334098 0.12234338 0.026883245 8.3761228e-39
0.12537774 0.035850227 0.049970806 1.7492675e-38
0.12547114 0.038097948 0.048926413 1.6756538e-38
0.12274864 0.03898181 0.047858477 1.6754755e-38
0.12106293 0.041532949 0.046666622 1.4819756e-38
0.12122867 0.045394033 0.044759035 1.3803437e-38
0.12138817 0.049141094 0.043699861 1.1224504e-38
0.12258151 0.086924389 0.03397876 8.09595e-39
0.11845529 0.042549416 0.045822084 1.6570733e-38
0.11833414 0.045540929 0.044898808 1.6291259e-38
0.11872056 0.049149752 0.043346643 1.3621507e-38
0.11943385 0.076891273 0.035652518 7.1793453e-39
0.12039456 0.079340249 0.035539329 6.8098635e-39
0.11941588 0.085541815 0.033397615 8.0026334e-39
0.12032104 0.087287277 0.032619774 8.4647101e-39
0.11488023 0.046143889 0.04363966 1.7953287e-38
0.11503473 0.048963234 0.042127669 1.6109359e-38
0.1148136 0.052104458 0.040765762 1.4178275e-38
0.11606804 0.07655552 0.034646988 8.1917092e-39
0.11630353 0.085410103 0.032462776 9.1993843e-39
0.11658895 0.08712934 0.031498849 9.5667347e-39
0.11114541 0.045985848 0.0425179 1.7678156e-38
0.11130354 0.048805326 0.041007042 1.6754397e-38
0.11160272 0.052467287 0.039653778 1.5005188e-38
0.11170912 0.054965317 0.038947642 1.3810242e-38
0.11075848 0.061782315 0.036632538 1.2704257e-38
0.11086485 0.064280361 0.035926402 1.2428752e-38
0.11126369 0.073648006 0.033278525 9.574666e-39
0.11233503 0.076397538 0.033525765 9.4788691e-39
0.11173323 0.080222294 0.032568336 1.0215342e-38
0.11216736 0.084164828 0.031537294 1.0765991e-38
0.11325899 0.086594254 0.030343056 1.067343e-38
0.10780534 0.046343923 0.041366935 1.7028838e-38
0.10750452 0.048949882 0.040365279 1.6385617e-38
0.10754302 0.052513316 0.039216816 1.5003766e-38
0.10784689 0.056815103 0.037736237 1.3716979e-38
0.10796258 0.061236054 0.036645353 1.288831e-38
0.10821655 0.064924002 0.035391271 1.2244737e-38
0.1078015 0.068616092 0.034047604 1.1505724e-38
0.10848865 0.072456002 0.033367991 1.0584509e-38
0.10893777 0.075858757 0.03298521 1.0675626e-38
0.10822901 0.080508947 0.031169355 1.1409581e-38
0.10943031 0.083459377 0.030112088 1.150212e-38
0.11055234 0.086085588 0.029374599 1.1592882e-38
0.10358122 0.049286649 0.039174259 1.5738783e-38
0.10376188 0.052384645 0.038192809 1.4724662e-38
0.10393637 0.056769639 0.036979914 1.38063e-38
0.10408714 0.061169744 0.035815358 1.306983e-38
0.10424691 0.064922303 0.034754634 1.2516636e-38
0.10440668 0.068674862 0.03369391 1.2149282e-38
0.10496369 0.072028011 0.032875717 1.1965284e-38
0.1059179 0.074981794 0.032299995 1.1873447e-38
0.10514021 0.080253959 0.030340612 1.2238984e-38
0.10479876 0.082101792 0.028753579 1.2422657e-38
0.10109133 0.049181283 0.038426399 1.5921738e-38
0.10122445 0.05230841 0.037542522 1.4909042e-38
0.10076174 0.05603461 0.036294818 1.4173632e-38
0.10036561 0.061324388 0.034605145 1.3710877e-38
0.099889606 0.064737886 0.033445895 1.3529376e-38
0.099919558 0.06836009 0.032383144 1.3438256e-38
0.10202333 0.071071178 0.032238901 1.2885812e-38
0.10097918 0.080599576 0.029092014 1.3529336e-38
0.10004607 0.082529053 0.027575672 1.3898129e-38
0.095694929 0.064203635 0.032291651 1.43577e-38
0.095685422 0.068149686 0.031120718 1.4083607e-38
0.096263945 0.082863256 0.026635587 1.5094151e-38
0.09301576 0.063822687 0.031566143 1.4633205e-38
0.09317556 0.067575246 0.030505478 1.4080739e-38
0.092770189 0.083198696 0.025345981 1.8136584e-38
0.088985354 0.08227241 0.024481416 1.970036e-38
0.08532846 0.082063302 0.023217678 1.6756185e-38
0.08269003 0.083987564 0.02236706 1.3985298e-38
0.081254065 0.086198524 0.021107793 1.2972208e-38
0.080880284 0.089757085 0.019820809 1.1225218e-38
0.081486315 0.093167305 0.018184483 1.1593269e-38
0.078327686 0.090982378 0.018931806 1.1040812e-38
0.078207135 0.093459308 0.01761657 1.1321714e-38
0.075023979 0.093651906 0.017107904 1.0863241e-38
0.075779557 0.096805379 0.016410947 1.2609216e-38
0.17330423 0.06235294 0.032856643 1.5375435e-38
0.18143789 0.07536158 0.027818084 1.1047631e-38
0.17259279 0.065435618 0.029024422 1.5006288e-38
0.1018742 0.10105044 0.0055868626 1.9613571e-38
0.13454488 0.10888124 0.01959461 1.5652732e-38
0.13451007 0.091912806 0.020120442 1.4176897e-38
0.12024477 0.074185908 0.034618318 1.3069827e-38
0.19005166 0.13037688 0.043588221 2.2490339e-38
0.18905625 0.13325989 0.042877257 2.2864515e-38
0.18657625 0.13091382 0.042069733 2.2483516e-38
0.18606797 0.1337468 0.041616678 2.2768003e-38
0.18250488 0.13373035 0.040446162 2.2756504e-38
0.17854923 0.13382664 0.039905965 2.219756e-38
0.17453864 0.13381541 0.040088952 2.145783e-38
0.1709263 0.13349408 0.038587213 2.0628063e-38
0.16196233 0.023346603 0.069473326 1.1599736e-38
0.16243401 0.024908602 0.066618085 1.2336222e-38
0.16700971 0.13287151 0.036675036 1.9708988e-38
0.15934497 0.025311872 0.065350711 1.3808105e-38
0.16383609 0.13026404 0.03514725 1.9616044e-38
0.16354623 0.13270956 0.036292613 1.9800448e-38
0.15517077 0.025802732 0.064806819 1.6111925e-38
0.1544755 0.027333021 0.062684536 1.6852006e-38
0.1600958 0.13010576 0.034023821 1.9523849e-38
0.15910944 0.13249004 0.036275983 1.9616053e-38
0.15118474 0.025792897 0.064288437 1.7863977e-38
0.15200862 0.027853817 0.061758578 1.8137694e-38
0.1558246 0.13051006 0.034201086 1.8878144e-38
0.15660498 0.13238406 0.035523772 1.9338747e-38
0.14747047 0.025903344 0.063746929 1.9334459e-38
0.14785862 0.028327659 0.061136544 1.979509e-38
0.14715493 0.030774474 0.059375465 2.0345008e-38
0.15148565 0.13030633 0.033720374 1.8326047e-38
0.14459172 0.026379198 0.063140929 2.0069523e-38
0.14400908 0.028982192 0.06109935 2.034573e-38
0.14367464 0.030877262 0.058256209 2.0343206e-38
0.14684471 0.1257937 0.031154215 1.8509351e-38
0.14806767 0.12849632 0.032914639 1.8602624e-38
0.14036962 0.029968247 0.060757577 2.0162043e-38
0.13966584 0.031654388 0.057643056 1.9517759e-38
0.14372781 0.12566179 0.030218065 1.8513668e-38
0.14419416 0.12846148 0.032075882 1.8788806e-38
0.13635066 0.03202562 0.057646811 1.9241168e-38
0.1399875 0.12550351 0.029094636 1.3723125e-38
0.13999152 0.12828588 0.031072199 1.3997894e-38
0.13299015 0.032795727 0.057611883 1.8872744e-38
0.13173032 0.033872962 0.053632379 1.8321732e-38
0.13573053 0.12520301 0.02839613 9.3877566e-39
0.13608125 0.12809557 0.029936135 9.393509e-39
0.12831506 0.034041032 0.052514076 1.841284e-38
0.13271755 0.12495518 0.028071225 9.1147262e-39
0.13178644 0.12717962 0.028210282 7.3683678e-39
0.12476644 0.03428717 0.051693916 1.8228798e-38
0.12068722 0.03544718 0.051577866 1.7952221e-38
0.12064266 0.038160324 0.04962033 1.721501e-38
0.12207279 0.084731698 0.035557389 7.2697711e-39
0.11674225 0.038784489 0.049787879 1.7491604e-38
0.11741415 0.041082263 0.047019362 1.7123895e-38
0.11925638 0.081218511 0.035716116 7.0860707e-39
0.1197421 0.084275812 0.034963191 7.4519749e-39
0.11271468 0.038787335 0.049252868 1.7860046e-38
0.11374947 0.042039692 0.046315312 1.7768201e-38
0.11383387 0.044682011 0.04483372 1.7952581e-38
0.11567894 0.080709845 0.034747362 8.0040725e-39
0.1158123 0.083841532 0.033862114 8.646914e-39
0.10951909 0.039337873 0.048331976 1.7858952e-38
0.10986513 0.041963071 0.045485616 1.7861106e-38
0.11009356 0.044523716 0.043710351 1.7769628e-38
0.11211675 0.080559105 0.033677518 9.8458411e-39
0.11331874 0.083736002 0.033113241 1.0029502e-38
0.10626835 0.045095295 0.042966664 1.7028484e-38
0.10556486 0.047770739 0.041332364 1.6477807e-38
0.1074416 0.077235162 0.033198476 1.1412461e-38
0.10879505 0.079793289 0.032864809 1.1133716e-38
0.10229525 0.045548931 0.042660713 1.666077e-38
0.1030713 0.047665209 0.040583432 1.6199419e-38
0.10334241 0.073518813 0.033015907 1.2333708e-38
0.10414883 0.076626897 0.032348335 1.2240783e-38
0.10378131 0.078955889 0.03154403 1.2423371e-38
0.098159254 0.045614362 0.042315125 1.6934131e-38
0.099020481 0.048565596 0.039049625 1.6197993e-38
0.098920971 0.052491277 0.03785646 1.5184917e-38
0.099134326 0.057502002 0.036440074 1.4265113e-38
0.098644286 0.060607314 0.035367668 1.4171131e-38
0.1002644 0.069428861 0.033263505 1.334608e-38
0.10024855 0.072710559 0.03228718 1.2886533e-38
0.10055774 0.076318622 0.031315982 1.2977277e-38
0.10036606 0.079123974 0.030425727 1.3253471e-38
0.095031291 0.04646951 0.041688204 1.7117801e-38
0.094760865 0.04911305 0.039732337 1.6752595e-38
0.09521535 0.052708238 0.038084567 1.5739871e-38
0.095990747 0.056743741 0.03568095 1.5186352e-38
0.096014887 0.060964942 0.034439087 1.4633188e-38
0.095144004 0.066086113 0.032650828 1.4174737e-38
0.095303982 0.069844157 0.031588554 1.371411e-38
0.096657425 0.072402269 0.031254888 1.2887574e-38
0.096817434 0.076160327 0.030192614 1.2977634e-38
0.096656889 0.079492733 0.029882014 1.3621538e-38
0.091843784 0.049893022 0.03967762 1.6752953e-38
0.090725452 0.052985489 0.038412511 1.6200145e-38
0.091837853 0.056787193 0.034524381 1.574205e-38
0.091813713 0.060943469 0.033131063 1.5186729e-38
0.091363698 0.0649883 0.031792998 1.444989e-38
0.091161698 0.068597078 0.030661762 1.4080379e-38
0.092458904 0.072110921 0.030027568 1.3804498e-38
0.092581928 0.076331571 0.030026495 1.3161668e-38
0.092503697 0.080205441 0.028843403 1.4266913e-38
0.092097044 0.082212687 0.026924312 1.7123126e-38
0.087022334 0.054084659 0.036928475 1.6203024e-38
0.087359875 0.056711361 0.034260452 1.5833539e-38
0.087450057 0.060758784 0.031820416 1.5002718e-38
0.087610036 0.064516842 0.030758142 1.445061e-38
0.08798942 0.068192959 0.030099809 1.4265859e-38
0.08792609 0.072831929 0.030573547 1.3990331e-38
0.088135988 0.076633155 0.030239999 1.3069118e-38
0.088331431 0.080084935 0.028190672 1.4172947e-38
0.082939178 0.053597897 0.035795033 1.5832808e-38
0.083320737 0.056701899 0.034560084 1.5557658e-38
0.083646208 0.061036631 0.032181382 1.4728615e-38
0.083882928 0.064756691 0.030972838 1.4081818e-38
0.084100634 0.068961069 0.030794501 1.3713383e-38
0.084426969 0.072813481 0.030572951 1.3163082e-38
0.085028976 0.075769424 0.029886425 1.2702469e-38
0.084740222 0.079843193 0.027365446 1.2883639e-38
0.080761164 0.053819686 0.035047889 1.5923914e-38
0.080295742 0.057567716 0.033792973 1.5097389e-38
0.079980165 0.061165094 0.03262943 1.454423e-38
0.08015427 0.065254182 0.031473637 1.4082513e-38
0.080370069 0.068120509 0.030692756 1.3531496e-38
0.080840409 0.081345618 0.026562572 1.3622275e-38
0.080598325 0.083355367 0.024258792 1.4727536e-38
0.077556878 0.081314117 0.025907457 1.5003769e-38
0.077048957 0.083525151 0.02468574 1.5370397e-38
0.077043205 0.08706513 0.021866858 1.3346013e-38
0.077227831 0.089586139 0.020089626 1.1502864e-38
0.073052019 0.087236553 0.022200704 1.2426594e-38
0.073453575 0.090400144 0.019393861 1.1230561e-38
0.072682112 0.093895301 0.01739198 1.1230938e-38
0.07333383 0.098151073 0.017269552 1.2611717e-38
0.074818939 0.10023785 0.016183257 1.3441469e-38
0.070150554 0.083512485 0.022939503 1.2518798e-38
0.070270687 0.086967453 0.021736801 1.1874139e-38
0.069832176 0.090947896 0.019550323 1.0955789e-38
0.069861829 0.094265789 0.017955422 1.1323126e-38
