# .PCD v0.7 - Point Cloud Data file format
VERSION 0.7
FIELDS x y z rgb
SIZE 4 4 4 4
TYPE F F F F
COUNT 1 1 1 1
WIDTH 982
HEIGHT 1
VIEWPOINT 0 0 0 0 1 0 0
POINTS 982
DATA ascii
0.1185271 0.1033294 0.014250576 1.150716e-38
0.11849834 0.10715564 0.013967931 1.1232729e-38
0.11832468 0.11107551 0.014218271 1.1786616e-38
0.11887005 0.11368399 0.014374614 1.0590592e-38
0.11571173 0.055783048 0.019808352 1.3714097e-38
0.11438286 0.058392882 0.017980695 1.1042235e-38
0.1159763 0.096959509 0.014621675 1.0215328e-38
0.11552818 0.099569649 0.014794171 1.1323473e-38
0.1153959 0.10345807 0.014884651 1.2151093e-38
0.11453681 0.1072037 0.014030218 1.1602236e-38
0.11462888 0.11071163 0.014024734 1.224689e-38
0.11192177 0.059538312 0.018840075 9.9361954e-39
0.11207928 0.062863357 0.016744614 8.0941283e-39
0.11144951 0.071095794 0.015805721 7.7307548e-39
0.11151752 0.074872255 0.015175819 6.6247772e-39
0.11120263 0.07835345 0.014771283 6.9910024e-39
0.11192177 0.10785399 0.013899505 1.1508608e-38
0.11192177 0.10976119 0.013704479 1.1968148e-38
0.10560516 0.11220557 0.012480676 1.5744933e-38
0.10623682 0.11412262 0.01238209 1.7958321e-38
0.10264067 0.11134302 0.011984766 1.4732219e-38
0.10264066 0.11452097 0.011659801 1.9250481e-38
0.10083902 0.11703647 0.010234952 1.6105778e-38
0.098566622 0.10773645 0.011852622 1.242481e-38
0.098669738 0.11060107 0.010928452 1.4085087e-38
0.098749071 0.11436503 0.010278404 2.072382e-38
0.098343447 0.11777429 0.0090484023 1.7025234e-38
0.094235241 0.10757805 0.011200964 1.4820788e-38
0.094564974 0.11057171 0.0098157525 1.7029579e-38
0.094433606 0.11445633 0.009850204 2.219432e-38
0.094498217 0.1182274 0.0092486143 1.8687234e-38
0.096087933 0.12058476 0.008122623 1.5560902e-38
0.09017092 0.10701274 0.010341644 2.0164557e-38
0.090915591 0.11043914 0.0088146925 2.1176911e-38
0.090578973 0.11443569 0.0094840527 2.2751811e-38
0.09044528 0.11814474 0.0095362067 2.2102081e-38
0.086339474 0.10395833 0.010353804 2.1456023e-38
0.087032214 0.10662752 0.0089447498 2.1638632e-38
0.08811073 0.11074146 0.007899344 2.1268412e-38
0.087747812 0.11420467 0.0079978108 2.210286e-38
0.087083548 0.1182727 0.0081150532 2.3121636e-38
0.082982212 0.10297032 0.0090474486 2.1636823e-38
0.083996177 0.10594462 0.007755518 2.0990359e-38
0.084751904 0.11787256 0.0066522956 2.1913445e-38
0.083912209 0.12166248 0.0061352849 2.1913735e-38
0.078839809 0.099987932 0.0093493462 2.0252445e-38
0.079139769 0.10274572 0.0077037811 1.9976933e-38
0.077824354 0.12346901 0.0050119758 1.8597948e-38
0.075681955 0.099938668 0.0088675618 1.5646268e-38
0.075061157 0.10262813 0.0074798465 1.4356264e-38
0.074045673 0.10502876 0.0063150525 1.3251707e-38
0.073881388 0.12318609 0.0049415827 2.0443661e-38
0.072246969 0.10304767 0.0072574019 1.1132655e-38
0.070896775 0.10561347 0.0057697892 1.3252782e-38
0.071736485 0.12231763 0.0041911602 1.9707898e-38
0.068377674 0.10747568 0.0051909685 1.4091494e-38
0.066908181 0.10998812 0.0047075748 1.3625856e-38
0.065858558 0.11250708 0.004288137 1.2611009e-38
0.17178079 0.090480603 0.013531506 1.178484e-38
0.15705645 0.057017211 0.018655121 1.8783056e-38
0.16689083 0.076210476 0.016860783 1.601972e-38
0.14798076 0.077973433 0.011605144 1.3072698e-38
0.14249189 0.078210272 0.011627913 1.3164891e-38
0.14128967 0.09047959 0.010897994 1.2704993e-38
0.15716365 0.092427671 0.011265278 1.5099558e-38
0.18079345 0.041142888 0.035068035 1.2801163e-38
0.18116298 0.044826988 0.032488346 1.8512602e-38
0.17997266 0.047324136 0.031597555 2.0353272e-38
0.18054518 0.12703308 0.025823236 2.2017831e-38
0.17698276 0.041083433 0.034486592 1.4917352e-38
0.17740399 0.04475262 0.031690359 1.915942e-38
0.17870745 0.047304399 0.031404495 2.0536235e-38
0.17732801 0.12444789 0.023981452 2.0075986e-38
0.17689148 0.12754855 0.025098324 2.1734778e-38
0.17247733 0.038477354 0.034397483 1.4916654e-38
0.17317209 0.041023985 0.033905208 1.6947448e-38
0.17364663 0.044042043 0.030957878 1.9156885e-38
0.17389968 0.12439502 0.022780359 1.9430605e-38
0.17323139 0.12789366 0.024692416 2.1086176e-38
0.17247733 0.13056856 0.024980605 2.1456385e-38
0.1693002 0.038427792 0.033912778 1.6762343e-38
0.16936141 0.040964529 0.033323765 1.8422537e-38
0.16966742 0.044048764 0.031360626 1.9249794e-38
0.17111623 0.12486093 0.022303581 1.906431e-38
0.16960663 0.12764344 0.023142219 1.9153666e-38
0.16904604 0.13102666 0.024404764 2.0166373e-38
0.16612308 0.038378216 0.033427954 1.6671576e-38
0.16578844 0.041041486 0.032341301 1.8050536e-38
0.16586615 0.043989457 0.030780673 1.9157249e-38
0.16588761 0.12749964 0.022131503 1.7401942e-38
0.16530955 0.1308893 0.02343595 1.8970688e-38
0.16200055 0.041400939 0.030788302 1.8048735e-38
0.16289239 0.043874256 0.029317021 1.9248355e-38
0.16212985 0.12739795 0.021336615 1.6388176e-38
0.16192925 0.13091561 0.023318946 1.8412503e-38
0.15773223 0.04064285 0.029360354 1.8236718e-38
0.15719897 0.1246438 0.020180106 1.5193193e-38
0.15756261 0.12745562 0.021304488 1.5836786e-38
0.15704902 0.13072127 0.022417009 1.7494868e-38
0.15292957 0.040264413 0.028912842 1.8695548e-38
0.15340334 0.12426624 0.019633532 1.5469779e-38
0.15307885 0.1274282 0.020842016 1.6297751e-38
0.1527791 0.13077286 0.021922827 1.7313689e-38
0.14933963 0.040718898 0.028821409 1.8415367e-38
0.14897512 0.043020442 0.027258694 1.859901e-38
0.14918295 0.12416146 0.01980722 1.5377936e-38
0.14910902 0.12751728 0.021011949 1.620555e-38
0.14896654 0.13020176 0.021393478 1.7406253e-38
0.14551899 0.041143797 0.028273642 1.8874167e-38
0.14581211 0.043480434 0.026724041 1.8690862e-38
0.14566648 0.12395391 0.019150674 1.5010258e-38
0.14527565 0.12747902 0.020537853 1.6114791e-38
0.14578941 0.1301522 0.020908713 1.7683189e-38
0.1413786 0.041178629 0.029157341 1.8965658e-38
0.14186648 0.044228762 0.026717067 1.8322801e-38
0.14179146 0.12395681 0.018891931 1.5193214e-38
0.14134142 0.12624568 0.020622432 1.6208064e-38
0.13793832 0.044206541 0.026678801 1.9148952e-38
0.13948607 0.046692476 0.025420249 1.8415014e-38
0.1378424 0.12359517 0.018174767 1.5746737e-38
0.13752885 0.12618619 0.020040751 1.6389224e-38
0.13392635 0.044207223 0.026964188 1.8596851e-38
0.13442524 0.046613522 0.02464819 1.8412103e-38
0.13379265 0.12045854 0.016999483 1.4549623e-38
0.13442525 0.12301511 0.01683557 1.5287548e-38
0.13357583 0.12630028 0.01865685 1.6114079e-38
0.13021357 0.044328175 0.026647806 1.7857853e-38
0.13054834 0.047214545 0.024327934 1.7305065e-38
0.13057545 0.12299731 0.016469836 1.5196426e-38
0.13018899 0.126903 0.018399954 1.6116237e-38
0.12644401 0.044892766 0.026237667 1.7767107e-38
0.12619315 0.047534589 0.025173366 1.7862189e-38
0.12430361 0.05027568 0.022713184 1.7588475e-38
0.12430361 0.11649041 0.015942335 1.2338007e-38
0.12627171 0.11920931 0.015967667 1.3814205e-38
0.12655807 0.12310231 0.01674366 1.3814571e-38
0.12625562 0.12588233 0.01765573 1.3812055e-38
0.12354946 0.045388259 0.026147544 1.6755819e-38
0.1223866 0.048443094 0.025220037 1.6574335e-38
0.12152015 0.050741598 0.022236407 1.5836412e-38
0.12195393 0.11554421 0.015676856 1.0034578e-38
0.12154406 0.1193597 0.017257392 9.5760673e-39
0.12329343 0.12242848 0.017552197 9.6697273e-39
0.11846605 0.049146086 0.024979532 1.537647e-38
0.1176582 0.051544189 0.022801876 1.4545301e-38
0.11734498 0.053987194 0.021260798 1.3991052e-38
0.1176478 0.11557915 0.015590489 9.0200433e-39
0.11723772 0.11895306 0.016780376 6.3535713e-39
0.11393884 0.052018221 0.023479402 1.3252412e-38
0.11343822 0.05514171 0.021993279 1.2147509e-38
0.11341518 0.099418484 0.016517878 1.0676688e-38
0.11342284 0.10358705 0.01558429 1.1874872e-38
0.11354935 0.11250254 0.014692128 1.261567e-38
0.11379647 0.11530956 0.015912056 1.0493717e-38
0.11379704 0.11854454 0.016553164 6.9978239e-39
0.11084092 0.056701388 0.023031414 1.1590035e-38
0.11111113 0.057893105 0.021934271 1.0947535e-38
0.10829923 0.069452181 0.021335721 9.3862853e-39
0.10893849 0.071756743 0.01882571 8.8352653e-39
0.10866451 0.075697571 0.019397438 7.821856e-39
0.10829923 0.078405492 0.020420194 7.6399577e-39
0.11009091 0.10101999 0.017621219 1.0951115e-38
0.11008278 0.10371201 0.016186416 1.1688689e-38
0.11002484 0.10717221 0.014693797 1.1783395e-38
0.1102282 0.11133653 0.014299273 1.2890451e-38
0.11020622 0.11511498 0.014587462 1.3070885e-38
0.10702837 0.071990438 0.020880222 9.7557923e-39
0.10617831 0.10079002 0.017194092 1.0950426e-38
0.10615912 0.10372139 0.016032457 1.1596134e-38
0.10659073 0.10730053 0.014151156 1.1781952e-38
0.10674888 0.1109639 0.013800979 1.3626218e-38
0.10785592 0.11432376 0.013628125 1.6665434e-38
0.10208663 0.10061386 0.016682923 1.1687968e-38
0.10260618 0.10352353 0.014601052 1.1871986e-38
0.10279512 0.10724131 0.013572037 1.1598271e-38
0.10342771 0.10979791 0.013408244 1.1598648e-38
0.098666877 0.10084128 0.015878201 1.1963464e-38
0.098677933 0.10353325 0.014446437 1.2147143e-38
0.0989995 0.10622708 0.01309067 1.2331541e-38
0.094319806 0.1012102 0.015933096 1.2881122e-38
0.094567567 0.10362656 0.01399523 1.3343902e-38
0.094571263 0.10583965 0.012447536 1.3990334e-38
0.090230748 0.10055368 0.01507926 1.4542395e-38
0.090192884 0.10332515 0.01341635 1.6203387e-38
0.091408253 0.10642698 0.011899829 1.7589897e-38
0.090143055 0.11914084 0.010404706 2.191336e-38
0.086006835 0.10023875 0.014024377 1.592356e-38
0.086478055 0.1024658 0.011951685 1.9057143e-38
0.082001537 0.09962707 0.012416065 1.9797206e-38
0.08381702 0.10185178 0.011197329 2.0169224e-38
0.078330636 0.098360293 0.012064457 2.0436844e-38
0.075257003 0.095796607 0.013547659 1.8132335e-38
0.074395716 0.097913861 0.011418641 1.4717496e-38
0.071265072 0.099671669 0.011519015 1.0488362e-38
0.07179755 0.10166426 0.0093634725 1.0672397e-38
0.16153109 0.076170586 0.014413178 1.6388152e-38
0.17238519 0.076992027 0.016443133 1.5928239e-38
0.17258407 0.089793272 0.015766561 1.4732222e-38
0.1708871 0.091941617 0.015388727 1.4916606e-38
0.12453499 0.09830869 0.0082486868 1.1142332e-38
0.12622792 0.063748419 0.013648927 1.3440027e-38
0.11639149 0.10305424 0.014708698 1.5652729e-38
0.18041214 0.03738144 0.03674984 7.9158608e-39
0.17606379 0.026598513 0.041249871 4.3267178e-39
0.17614016 0.029799048 0.040482402 5.5238064e-39
0.17644711 0.033572134 0.038336039 7.5474608e-39
0.17675301 0.03732435 0.036191583 9.111897e-39
0.17738938 0.12956193 0.026857853 2.2657449e-38
0.17623672 0.13206181 0.029475391 2.2751077e-38
0.1730765 0.026766662 0.04077214 5.4315968e-39
0.17228189 0.029744398 0.040006161 7.5481712e-39
0.17253894 0.033534795 0.038189292 9.6683064e-39
0.17306523 0.036917254 0.03595531 1.1970289e-38
0.17254829 0.13269636 0.027994454 2.1825885e-38
0.16847399 0.030320734 0.03919071 9.9470331e-39
0.16877043 0.033457685 0.037277102 1.2431985e-38
0.16905601 0.036582947 0.035419762 1.5011669e-38
0.16925213 0.13315901 0.026252449 2.1086889e-38
0.16783385 0.1352483 0.028362513 2.0718111e-38
0.1646167 0.030394383 0.03869015 1.1419649e-38
0.16487762 0.033415049 0.037020385 1.381205e-38
0.16500734 0.036808487 0.035014689 1.5470505e-38
0.16402565 0.039687663 0.033987701 1.7033167e-38
0.16561657 0.13290083 0.024701416 1.9983023e-38
0.16466817 0.13516504 0.027713597 2.0256391e-38
0.16070057 0.030868638 0.038444698 1.2526681e-38
0.16093859 0.033383396 0.036981225 1.4365571e-38
0.16122031 0.037159856 0.035169661 1.6021893e-38
0.16148017 0.039647948 0.033599317 1.694169e-38
0.16096616 0.13302973 0.024988234 1.9058944e-38
0.16082987 0.13510513 0.027127922 1.8510439e-38
0.15685977 0.030808713 0.037858665 1.2614548e-38
0.15706033 0.033335228 0.036614239 1.43652e-38
0.15717132 0.037162825 0.035675049 1.6483943e-38
0.15766197 0.039588377 0.033016801 1.7587764e-38
0.15742131 0.13282257 0.02466625 1.8417528e-38
0.15749991 0.13518876 0.027283907 1.8508288e-38
0.15365911 0.030758776 0.037370324 1.3347132e-38
0.15313332 0.033297177 0.036464751 1.5467249e-38
0.15319762 0.037196338 0.034505308 1.6759073e-38
0.15384376 0.039528806 0.032434225 1.8507907e-38
0.15321627 0.13300955 0.024303913 1.8048399e-38
0.15470786 0.1347385 0.024865568 1.8417886e-38
0.15045843 0.030708842 0.036881983 1.4727913e-38
0.14939106 0.03362944 0.036273479 1.6387774e-38
0.14886793 0.036867872 0.033603311 1.7216829e-38
0.14875281 0.039449379 0.031657457 1.8416091e-38
0.14884299 0.13266942 0.02344662 1.8323901e-38
0.14661764 0.034514476 0.035900712 1.7584153e-38
0.14437294 0.03696952 0.033834577 1.7861479e-38
0.14478709 0.039429594 0.031726062 1.8782352e-38
0.1444075 0.13229126 0.023092031 1.8601192e-38
0.1403161 0.036966197 0.034226477 1.9517752e-38
0.14051569 0.039489195 0.03309536 1.9333006e-38
0.14111638 0.12835553 0.021388948 1.6483929e-38
0.1406157 0.13199478 0.023199558 1.8509353e-38
0.14021629 0.13491911 0.024646819 1.8969606e-38
0.13637549 0.037575983 0.034008563 1.9701082e-38
0.13704187 0.040617742 0.030862451 1.9240111e-38
0.13698998 0.12855154 0.022088706 1.6853066e-38
0.13658032 0.13210899 0.023469687 1.8141663e-38
0.13701563 0.13486916 0.024158478 1.869269e-38
0.13338819 0.037744127 0.033530831 1.9515959e-38
0.13319091 0.040564679 0.030387163 1.8964578e-38
0.1335462 0.12852213 0.021018445 1.648141e-38
0.13296059 0.13184473 0.022698462 1.8051595e-38
0.12933737 0.040716134 0.03056854 1.8686562e-38
0.12838902 0.042974487 0.028157473 1.8136604e-38
0.12853956 0.12919131 0.021398425 1.6115514e-38
0.12925544 0.13100651 0.022340119 1.6764465e-38
0.12522388 0.041168451 0.030396581 1.8044788e-38
0.1252768 0.043314978 0.028659821 1.7768907e-38
0.12547117 0.12840447 0.020497322 1.2891172e-38
0.12501752 0.13068464 0.022058725 1.160401e-38
0.12109606 0.041825116 0.030879498 1.7769611e-38
0.12120071 0.044167563 0.029596686 1.6294142e-38
0.12117684 0.047131762 0.026620448 1.6019351e-38
0.12075259 0.12099267 0.019002378 9.0221439e-39
0.12151603 0.12405679 0.019145727 7.087898e-39
0.12149024 0.12781921 0.020564914 7.5499579e-39
0.12101227 0.13075393 0.022112072 8.1041925e-39
0.11749285 0.044484161 0.029755414 1.6293781e-38
0.11772886 0.047651622 0.027197957 1.5558358e-38
0.11705104 0.1213037 0.020433784 7.0896944e-39
0.11809121 0.12359708 0.018777728 6.2610057e-39
0.11763218 0.12777972 0.020087183 6.0773544e-39
0.11845389 0.13143191 0.0203771 6.0741482e-39
0.11369216 0.045053005 0.029340088 1.6019717e-38
0.1137712 0.048047993 0.027757943 1.5005198e-38
0.11221337 0.051128406 0.025846839 1.3438577e-38
0.11245006 0.096252941 0.022794545 8.8342185e-39
0.11184344 0.097796753 0.020000756 9.386679e-39
0.1151363 0.1238433 0.019878924 7.1829662e-39
0.1151363 0.12705511 0.019550443 7.3648408e-39
0.11077014 0.045551866 0.029245377 1.6385268e-38
0.11065176 0.048390955 0.028174162 1.518779e-38
0.10968116 0.051854052 0.026907682 1.4634222e-38
0.10937171 0.055371024 0.025585055 1.3340988e-38
0.10870674 0.059733301 0.024426281 1.1134387e-38
0.10809746 0.063053839 0.024603069 1.0308572e-38
0.10802522 0.06699463 0.022561789 9.6618184e-39
0.10884973 0.081600443 0.025263131 6.442153e-39
0.10884973 0.082888961 0.025131404 6.809495e-39
0.10971442 0.096308559 0.023045003 8.5594141e-39
0.10919327 0.099212311 0.020633817 9.9394885e-39
0.10692933 0.053223059 0.027868807 1.6479239e-38
0.10612148 0.056202058 0.027270198 1.4823259e-38
0.10525796 0.059555285 0.026048362 1.38077e-38
0.10473913 0.063364238 0.025138199 1.2519122e-38
0.10497025 0.06778086 0.023874879 1.1508925e-38
0.10497208 0.072211236 0.022828817 1.0216061e-38
0.10486172 0.076175079 0.023395181 9.1136641e-39
0.10616118 0.080527678 0.024958372 7.9165614e-39
0.10628921 0.082849011 0.024740756 7.7318198e-39
0.10564905 0.097012736 0.023193717 9.29231e-39
0.10525846 0.098900534 0.021245539 1.002917e-38
0.10308853 0.057028692 0.026887536 1.647889e-38
0.10086906 0.059414208 0.025996268 1.5466545e-38
0.10077947 0.063346513 0.024981499 1.3533665e-38
0.10081106 0.067839809 0.024414003 1.2335841e-38
0.10084224 0.072331414 0.023846447 1.1692628e-38
0.10071629 0.076240756 0.02387929 1.1233089e-38
0.10083614 0.096458681 0.022169411 1.0672375e-38
0.10095307 0.09864492 0.020777404 1.1042609e-38
0.096687198 0.059666917 0.025630832 1.5370396e-38
0.096815228 0.063328929 0.024824142 1.4176153e-38
0.097058505 0.067587771 0.024471283 1.3071975e-38
0.096687198 0.072391041 0.024329722 1.2060001e-38
0.097455353 0.076526292 0.024025321 1.1414616e-38
0.096783549 0.095536433 0.02163887 1.1502832e-38
0.097178191 0.098953195 0.019401193 1.1871274e-38
0.094126657 0.06011017 0.025190771 1.4907627e-38
0.094126642 0.06333147 0.024861395 1.4174361e-38
0.094126657 0.065908507 0.024597883 1.3624051e-38
0.09256506 0.091797821 0.021419227 1.2148558e-38
0.093174234 0.095366172 0.020308793 1.2054201e-38
0.093697682 0.098962419 0.018213987 1.251341e-38
0.089118212 0.091708295 0.020806134 1.3252406e-38
0.089472771 0.09524332 0.019298792 1.3343517e-38
0.089906573 0.098245256 0.017589808 1.3710866e-38
0.085434824 0.091870658 0.020312548 1.3988896e-38
0.085572749 0.095215023 0.018926322 1.4170062e-38
0.086082727 0.098185599 0.017006338 1.4538837e-38
0.081323981 0.092252254 0.019930243 1.6199079e-38
0.081705064 0.095171168 0.018447518 1.7397228e-38
0.082451075 0.098030902 0.016665637 1.7395785e-38
0.077483177 0.092707738 0.01929158 1.9791822e-38
0.077832013 0.095139034 0.017164528 1.9884743e-38
0.078752279 0.097280473 0.014951825 2.025568e-38
0.073962435 0.092330679 0.018787324 1.8505405e-38
0.074060261 0.094590887 0.016682625 1.8411048e-38
0.071081832 0.092607863 0.018314838 1.5364607e-38
0.070093006 0.095038407 0.017009854 1.3617251e-38
0.070047051 0.097671837 0.014247656 1.1495686e-38
0.067905694 0.10383546 0.014643192 1.1967048e-38
0.067905694 0.10512019 0.014511824 1.2241855e-38
0.067241043 0.098990537 0.017070055 1.1684357e-38
0.067241043 0.10221184 0.01674068 1.1686522e-38
0.065000534 0.1066867 0.015937686 1.2609211e-38
0.062545329 0.10818581 0.014679492 1.3715907e-38
0.061606914 0.11075959 0.013981104 1.3993204e-38
0.059559405 0.11175589 0.014580429 1.39914e-38
0.16197857 0.079587497 0.014692485 1.5836416e-38
0.13129178 0.066997267 0.013590932 1.2888642e-38
0.12357762 0.11166532 0.017764509 1.9150781e-38
0.17811869 0.023524746 0.044931948 7.275494e-39
0.17522538 0.023156054 0.044523537 6.169173e-39
0.17571917 0.024741121 0.043420672 5.5263176e-39
0.17554685 0.13478616 0.033158302 2.2658894e-38
0.17297503 0.023444496 0.044147134 5.9840321e-39
0.17150311 0.025734186 0.04327929 6.5354234e-39
0.17315111 0.13454732 0.031796455 2.2196111e-38
0.17141259 0.13628855 0.032113075 2.2195025e-38
0.16824418 0.026907656 0.042555153 8.2885865e-39
0.16801497 0.028497856 0.041848719 9.0265215e-39
0.16824464 0.13683492 0.031314552 2.1822652e-38
0.16397361 0.027186673 0.042376697 9.7637264e-39
0.16416287 0.028760832 0.041227996 1.0222566e-38
0.16379407 0.13736081 0.030320346 2.0443667e-38
0.16075882 0.027136516 0.04188621 1.0313282e-38
0.16021268 0.029045627 0.041098356 1.1324236e-38
0.16024518 0.13699898 0.029895008 1.961354e-38
0.15663563 0.029114135 0.040438175 1.1780879e-38
0.15603785 0.13664448 0.029452085 1.9153648e-38
0.15250441 0.030218311 0.039789975 1.2795762e-38
0.15175742 0.1357092 0.029396296 1.8875639e-38
0.14800559 0.032088477 0.038905144 1.6020071e-38
0.14854263 0.13565904 0.028905809 1.9060745e-38
0.14455819 0.033839513 0.038092971 1.7124614e-38
0.1448305 0.13546556 0.027675271 1.9151484e-38
0.14058776 0.034000639 0.037493467 1.8964928e-38
0.14090088 0.13633484 0.02731961 1.9062154e-38
0.13568346 0.034510516 0.037266254 1.9886548e-38
0.13591413 0.035750877 0.036158085 1.9886195e-38
0.13661826 0.13626802 0.026666164 1.8877072e-38
0.13155462 0.03656387 0.035741866 1.9699982e-38
0.130778 0.13388622 0.025331318 1.8881386e-38
0.1325859 0.13530841 0.025973082 1.8975018e-38
0.12853035 0.037492763 0.035655141 1.9330858e-38
0.1269259 0.039487574 0.034390211 1.8778404e-38
0.12775919 0.13348296 0.025720656 1.5935448e-38
0.12487605 0.039487153 0.034582675 1.8596168e-38
0.12423402 0.1332387 0.024897158 1.0314354e-38
0.12153839 0.040760849 0.034446359 1.8045102e-38
0.12037909 0.13317856 0.02430898 8.8417589e-39
0.1165667 0.041932866 0.032882094 1.7862527e-38
0.11536959 0.043184198 0.032230556 1.7120309e-38
0.11253697 0.041914612 0.032940626 1.8045479e-38
0.11248052 0.043462202 0.031756759 1.7033497e-38
0.11151749 0.094816461 0.026356995 7.9115546e-39
0.1090441 0.044678699 0.031712711 1.7122825e-38
0.10807016 0.048011273 0.031018436 1.6477811e-38
0.10766539 0.050817855 0.030262232 1.6110426e-38
0.10876992 0.085168205 0.027598023 5.9811833e-39
0.10739331 0.087778598 0.027457774 6.9052779e-39
0.10825059 0.09275309 0.027081311 7.1771915e-39
0.10894942 0.094776392 0.025965154 7.8214637e-39
0.10539064 0.048776165 0.030933857 1.7215013e-38
0.1048329 0.051934749 0.030092716 1.7677068e-38
0.10424131 0.055072129 0.029299319 1.6572531e-38
0.10381329 0.080480859 0.02663511 8.5623036e-39
0.10479566 0.084798642 0.026780963 7.5499495e-39
0.10482147 0.088385575 0.026999235 6.9956883e-39
0.10482147 0.092268184 0.026602209 7.3601352e-39
0.10500506 0.095409214 0.025631428 8.8320381e-39
0.1016067 0.049509306 0.030478895 1.7769988e-38
0.10096373 0.05208768 0.030116141 1.7861469e-38
0.10097915 0.05575344 0.029108107 1.7032433e-38
0.10124522 0.080440804 0.026243389 9.759395e-39
0.10115141 0.084360041 0.026167095 8.6523496e-39
0.10096374 0.088325389 0.026410639 8.5579932e-39
0.10099521 0.092192627 0.02590704 9.8447481e-39
0.10150203 0.095177129 0.024776101 1.0119543e-38
0.09710598 0.052804016 0.029448152 1.7401934e-38
0.0972974 0.055853955 0.028487861 1.6848034e-38
0.096109092 0.058391411 0.027706146 1.5921071e-38
0.096109092 0.075191423 0.025988221 1.187883e-38
0.097393125 0.080380701 0.025655627 1.0494449e-38
0.09739311 0.084257625 0.025259197 1.0402616e-38
0.097265705 0.088192411 0.025289178 1.0768874e-38
0.097329721 0.092041574 0.024679482 1.1227301e-38
0.098677158 0.09461613 0.02439785 1.1042577e-38
0.093891203 0.05327154 0.028904676 1.6661512e-38
0.093377948 0.055812515 0.028113842 1.6199082e-38
0.092578009 0.059305552 0.027068257 1.5091662e-38
0.092256993 0.063500546 0.026589811 1.4174718e-38
0.093222946 0.068553336 0.02633512 1.2980493e-38
0.092702866 0.072628595 0.026403189 1.2059643e-38
0.093475744 0.076468475 0.025677741 1.1689049e-38
0.093541026 0.080320604 0.025067866 1.1599346e-38
0.093541026 0.084197529 0.024671435 1.1691912e-38
0.093541026 0.088074461 0.024275005 1.1690468e-38
0.094311446 0.091704942 0.024022579 1.1688642e-38
0.08955121 0.055954013 0.027961314 1.6106177e-38
0.089194685 0.059701663 0.026598752 1.5185646e-38
0.089046896 0.063450471 0.026100099 1.3897782e-38
0.089194149 0.067837365 0.026109993 1.3344969e-38
0.089390486 0.072614379 0.026232898 1.2699968e-38
0.089059204 0.076555118 0.025316715 1.2979059e-38
0.089489341 0.080339886 0.025119245 1.2519517e-38
0.089456379 0.084234692 0.024828851 1.2243653e-38
0.089489549 0.088100903 0.024325669 1.2426245e-38
0.088404894 0.090578936 0.023227036 1.3343528e-38
0.086175695 0.056386676 0.027396619 1.6566435e-38
0.084729046 0.05976139 0.026828527 1.6198007e-38
0.084246814 0.0634747 0.026374459 1.5464734e-38
0.084680051 0.068173468 0.025742888 1.4818287e-38
0.08488977 0.072544158 0.025546193 1.4450244e-38
0.084595412 0.076257154 0.024816096 1.3991791e-38
0.08488977 0.080309384 0.02475214 1.3163473e-38
0.084889784 0.084192 0.024355114 1.2518462e-38
0.084915265 0.08806359 0.023878515 1.3069467e-38
0.083910793 0.090508819 0.022541344 1.4263677e-38
0.081032023 0.063424543 0.025883973 1.5925007e-38
0.080389053 0.067944229 0.025322676 1.5463658e-38
0.080423474 0.072461776 0.024753034 1.4633906e-38
0.080457896 0.076331601 0.024249732 1.4082908e-38
0.080389068 0.080239162 0.024065435 1.3622654e-38
0.080389068 0.084121771 0.023668408 1.3345688e-38
0.080389068 0.088004388 0.023271441 1.3161652e-38
0.080700696 0.090781815 0.022018492 1.5182426e-38
0.07524541 0.064628467 0.024868727 1.5927172e-38
0.076531321 0.067884043 0.02473408 1.528144e-38
0.076531321 0.07241375 0.024270892 1.4636428e-38
0.076531321 0.076296367 0.023873866 1.4176164e-38
0.076692045 0.080019712 0.023517907 1.4266215e-38
0.077174276 0.084071621 0.023177922 1.3531503e-38
0.076531321 0.087944202 0.022682846 1.2882912e-38
0.076795384 0.09106712 0.021556795 1.6107606e-38
0.073316544 0.064598374 0.024574459 1.5833526e-38
0.072673574 0.06782385 0.024145484 1.5005566e-38
0.072834313 0.072194301 0.023723364 1.4360553e-38
0.0739595 0.07560914 0.023547649 1.4084336e-38
0.0739595 0.080138855 0.023084462 1.3714491e-38
0.073638007 0.088222608 0.022208273 1.2331874e-38
0.07261014 0.090905003 0.021165371 1.3713402e-38
0.070101738 0.069077931 0.023620725 1.4636778e-38
0.070101738 0.072313443 0.023289919 1.4174721e-38
0.069204062 0.091914624 0.02074039 1.2883576e-38
0.0654421 0.095943086 0.019985795 1.3807753e-38
0.06431511 0.099401437 0.019627869 1.2055629e-38
0.064594239 0.10315654 0.018439531 1.1322045e-38
0.065292299 0.10572605 0.018114865 1.1782679e-38
0.062386245 0.096782938 0.019598246 1.297763e-38
0.061100334 0.099351279 0.019137383 1.1874127e-38
0.061175644 0.10319956 0.018529534 1.0680258e-38
0.061183393 0.10617887 0.017435133 1.1598648e-38
0.058014125 0.099561974 0.018640041 1.1506077e-38
0.057242572 0.1031737 0.01815176 1.1782297e-38
0.057489216 0.10685726 0.017558873 1.24291e-38
0.058328927 0.10998089 0.016945243 1.4178308e-38
0.054670751 0.10054518 0.018024027 1.1136974e-38
0.054670751 0.10313358 0.017759323 1.1691156e-38
0.054670751 0.10572199 0.017494678 1.1967355e-38
0.16449428 0.088716932 0.013579309 1.4640381e-38
0.11625117 0.078059167 0.010721028 6.9053004e-39
0.1130026 0.078135915 0.013037145 5.1546386e-39
0.093362793 0.11468992 0.0060454607 1.7214317e-38
0.13234343 0.049401745 0.023533523 1.6110457e-38
0.11764297 0.10817438 0.014469206 1.4454902e-38
0.12669176 0.11486886 0.016278505 1.5559462e-38
0.096272945 0.065621391 0.027002335 1.528035e-38
0.17516333 0.13782611 0.035048246 2.2481358e-38
0.17528877 0.14122897 0.036527634 2.2954185e-38
0.17128235 0.022206176 0.046337426 6.6276205e-39
0.17022336 0.024736147 0.044607759 6.7187539e-39
0.1716271 0.13846201 0.034008741 2.2658535e-38
0.17065392 0.14104819 0.035831571 2.2663239e-38
0.16724963 0.022826791 0.046548069 6.7201902e-39
0.1673902 0.025210388 0.044122517 7.8265322e-39
0.1675266 0.13888887 0.033197343 2.2468766e-38
0.16680686 0.14168814 0.034737229 2.2935143e-38
0.1633746 0.022766333 0.04595685 7.9180202e-39
0.16365881 0.025308717 0.044215262 8.8410456e-39
0.16442826 0.13870242 0.032060623 2.0722058e-38
0.16331123 0.14115456 0.034180224 2.1919164e-38
0.15940091 0.022722952 0.045857131 8.5626553e-39
0.15968077 0.025508992 0.043193996 9.7607977e-39
0.15992098 0.13863209 0.031372964 2.0719896e-38
0.15804282 0.14052597 0.033940673 2.053982e-38
0.15631822 0.022904642 0.045702279 9.3927523e-39
0.15581183 0.025857601 0.043514192 1.0587002e-38
0.15476978 0.028383344 0.041852355 1.1503234e-38
0.15592386 0.13870785 0.031427026 2.0256036e-38
0.15558961 0.14034835 0.032902598 2.007739e-38
0.15184817 0.026225682 0.044237733 1.1783388e-38
0.15177089 0.02889185 0.04215163 1.2611364e-38
0.15212607 0.13793147 0.030581832 1.9983047e-38
0.15171365 0.14028788 0.03231132 2.0168545e-38
0.14771868 0.02950792 0.042811394 1.436128e-38
0.14811891 0.13800704 0.030634403 2.0075246e-38
0.14898869 0.1403847 0.032559276 2.0260007e-38
0.14381489 0.030954204 0.042951465 1.6204844e-38
0.14446738 0.032110907 0.039882839 1.6666163e-38
0.14424989 0.13794667 0.030044079 1.9615681e-38
0.13993455 0.030893661 0.042359471 1.8878128e-38
0.14045396 0.032082796 0.039945066 1.8692656e-38
0.14101812 0.1383194 0.030524671 1.9339463e-38
0.13651177 0.032686595 0.039614499 1.9519561e-38
0.13545279 0.13695425 0.027772188 1.8972506e-38
0.13199827 0.033264596 0.038859546 2.0162041e-38
0.13199791 0.13678157 0.028274298 1.925088e-38
0.12832296 0.033510901 0.039081275 2.0253523e-38
0.12708211 0.036376007 0.03676641 1.9514883e-38
0.12817925 0.1368134 0.02910614 1.6489305e-38
0.12485895 0.034210593 0.03918761 1.9884347e-38
0.12353244 0.037046522 0.03750658 1.8963507e-38
0.12257481 0.039545931 0.035747349 1.8321728e-38
0.12410694 0.13646173 0.027725995 1.077354e-38
0.12182629 0.034516491 0.039197206 2.015952e-38
0.11938384 0.037419178 0.037942767 1.8873471e-38
0.11963958 0.040043823 0.03565073 1.8136602e-38
0.11665252 0.03834112 0.038008451 1.8781249e-38
0.11553133 0.040233273 0.036964178 1.81366e-38
0.11186776 0.040528335 0.036792934 1.8320984e-38
0.11080697 0.092594996 0.029186606 6.8084412e-39
0.10822761 0.041958906 0.03396678 1.7862175e-38
0.10755047 0.043631855 0.033013225 1.7582371e-38
0.10877696 0.088767573 0.028586984 5.889345e-39
0.10926755 0.091614299 0.028371453 6.4414425e-39
0.10450172 0.042023446 0.035250187 1.8320287e-38
0.10420784 0.044528708 0.033649087 1.7952218e-38
0.10390171 0.047679238 0.032036841 1.7492675e-38
0.099837691 0.04198413 0.035043597 1.8412127e-38
0.10018134 0.044505376 0.033595741 1.7951504e-38
0.10049823 0.04790388 0.031489193 1.7769626e-38
0.096262366 0.044658571 0.03371042 1.758235e-38
0.096690774 0.048247892 0.031318903 1.776891e-38
0.096818835 0.051133007 0.030591667 1.776892e-38
0.093370467 0.045788579 0.033657491 1.7305787e-38
0.092603758 0.048446 0.03199631 1.7210346e-38
0.092687249 0.051693216 0.030188024 1.693555e-38
0.088668779 0.049255993 0.032069623 1.7672031e-38
0.088760421 0.052069284 0.030383527 1.7028115e-38
0.087804228 0.054556634 0.028851807 1.6566435e-38
0.084316343 0.049552668 0.031876743 1.8042266e-38
0.084619775 0.052077428 0.03064847 1.7487304e-38
0.084713519 0.055286072 0.028300703 1.7119607e-38
0.083940834 0.058384657 0.027864754 1.6931627e-38
0.080641851 0.053344712 0.03024441 1.7766037e-38
0.081157893 0.055806696 0.028377295 1.7397628e-38
0.080997288 0.05944968 0.027302086 1.6658988e-38
0.076874793 0.056063622 0.029555202 1.7491239e-38
0.077117741 0.059740528 0.027080953 1.6753341e-38
0.07703355 0.063343458 0.026292741 1.6200889e-38
0.074926257 0.081573784 0.024103701 1.3806678e-38
0.075698912 0.084178038 0.023956537 1.3255992e-38
0.072728485 0.056516744 0.029208541 1.6569305e-38
0.072781101 0.059629966 0.027372897 1.6385634e-38
0.072166651 0.063015044 0.025576055 1.6017916e-38
0.071062848 0.073736921 0.024309456 1.3989266e-38
0.071982682 0.076528631 0.024165869 1.3807039e-38
0.072350621 0.080052353 0.023862302 1.3348218e-38
0.072718576 0.084316708 0.023482919 1.2611361e-38
0.071577966 0.08774282 0.022956669 1.1504649e-38
0.070088416 0.056490496 0.028973758 1.6292716e-38
0.068837225 0.059504073 0.027837098 1.6017195e-38
0.068566084 0.063515499 0.02522397 1.5372533e-38
0.06822969 0.067601055 0.024500072 1.4728603e-38
0.06839335 0.072246671 0.024340868 1.4176157e-38
0.069021627 0.076335996 0.024067998 1.3440062e-38
0.068939313 0.080547333 0.02473861 1.2703202e-38
0.06896022 0.084169306 0.024952471 1.224256e-38
0.06858477 0.08818119 0.024145424 1.1780168e-38
0.068487242 0.090546019 0.022193551 1.2515172e-38
0.065887064 0.060515486 0.027575433 1.5464745e-38
0.06504716 0.063532002 0.027069747 1.5095943e-38
0.064434081 0.06806545 0.026409924 1.4544576e-38
0.064830184 0.072770394 0.025626779 1.3808807e-38
0.065172702 0.076499388 0.025378764 1.2885793e-38
0.064988256 0.080466844 0.025509834 1.2150014e-38
0.064914599 0.084398128 0.025322437 1.2057829e-38
0.064914599 0.088303477 0.024923086 1.297798e-38
0.064869493 0.091952957 0.022712409 1.4452383e-38
0.063765332 0.094792679 0.02103132 1.4177232e-38
0.062327728 0.064831011 0.026924431 1.4541711e-38
0.062327728 0.068736359 0.02652508 1.4177243e-38
0.06119597 0.072786771 0.025936425 1.3344249e-38
0.061034277 0.076526888 0.025529087 1.24266e-38
0.061071604 0.08041928 0.025023818 1.2426594e-38
0.061034277 0.084337585 0.024730384 1.3162727e-38
0.060529649 0.088178597 0.023836017 1.3991786e-38
0.060679451 0.091729611 0.021885872 1.4359837e-38
0.060599491 0.095445335 0.02047652 1.3070537e-38
0.058447391 0.072581165 0.025533676 1.3808077e-38
0.057523489 0.080563426 0.024574995 1.233655e-38
0.056930006 0.084390588 0.023990512 1.2795385e-38
0.056206018 0.088032469 0.022591114 1.2887596e-38
0.05674392 0.091720641 0.020714939 1.261136e-38
0.056897059 0.095549583 0.019895017 1.2058173e-38
0.055931211 0.099098787 0.019383192 1.1414257e-38
0.055609271 0.10849048 0.018373191 1.2983341e-38
0.056005821 0.11131451 0.019501626 1.3349625e-38
0.05586049 0.11419787 0.020879328 1.306981e-38
0.054567039 0.081633113 0.024009824 1.1784459e-38
0.053331792 0.084195517 0.023387849 1.2058161e-38
0.052550077 0.088218778 0.022444367 1.1781592e-38
0.052408934 0.091841184 0.021390259 1.1044369e-38
0.052642226 0.095645972 0.020359159 1.1227348e-38
0.052530915 0.099216312 0.020299792 1.0767077e-38
0.051920637 0.10327924 0.020625651 1.1323121e-38
0.052986905 0.107674 0.019679666 1.2152858e-38
0.053596959 0.11123355 0.020833433 1.2429111e-38
0.050255552 0.085037269 0.022997022 1.2426587e-38
0.049651951 0.088325702 0.022567689 1.2610995e-38
0.048520043 0.091933198 0.021879137 1.1689733e-38
0.048139244 0.09583617 0.021453559 1.1596857e-38
0.048358485 0.099891402 0.021185696 1.1412454e-38
0.048635185 0.10376053 0.020647824 1.2150383e-38
0.050686702 0.10760824 0.02075547 1.2610979e-38
0.045512915 0.10297127 0.020431995 9.7403878e-39
0.18741262 0.06266997 0.024056554 1.4454921e-38
0.16493946 0.082231969 0.014156401 1.5468348e-38
0.13539925 0.078216597 0.0090805888 1.1048347e-38
0.075334147 0.11829891 0.0027159452 1.7123912e-38
0.17341594 0.14451525 0.039292753 2.3322945e-38
0.16961496 0.015843809 0.05254209 7.9173209e-39
0.16932416 0.021007322 0.049935341 6.9956701e-39
0.17126998 0.14245597 0.037816465 2.2576426e-38
0.17050335 0.1445449 0.038162708 2.3133877e-38
0.16636251 0.015793063 0.052045882 7.8243924e-39
0.1665253 0.018386222 0.05090183 7.7310855e-39
0.16672973 0.020966839 0.049539447 6.8109075e-39
0.16802695 0.14240539 0.037321687 2.2667897e-38
0.16741218 0.14478582 0.038000524 2.3216737e-38
0.1627166 0.018502411 0.050698221 7.4563133e-39
0.16277564 0.020916719 0.049273968 7.5488621e-39
0.16257085 0.1446504 0.036686838 2.2568859e-38
0.15888189 0.019277096 0.050536335 7.8254448e-39
0.15888086 0.020855952 0.048679709 8.1013198e-39
0.15912832 0.14182869 0.036415517 2.1089067e-38
0.15858942 0.14460859 0.037505984 2.1184495e-38
0.15595469 0.019558765 0.050056219 8.3735935e-39
0.15445496 0.021674644 0.048422158 9.2058583e-39
0.15505482 0.142203 0.035342455 1.9894437e-38
0.15508246 0.14499614 0.036804438 2.0720276e-38
0.15114255 0.022438854 0.048002899 9.9427199e-39
0.15051457 0.02463058 0.046664894 1.2151449e-38
0.15116319 0.14214227 0.034748673 1.9986646e-38
0.15083288 0.14430696 0.036103547 2.072132e-38
0.14710803 0.022825088 0.048358321 1.1600434e-38
0.14715363 0.025906578 0.046581328 1.3259578e-38
0.14684224 0.14172137 0.03493911 2.0259641e-38
0.14814882 0.14448112 0.036078751 2.0536936e-38
0.14329171 0.026675966 0.046969354 1.4272676e-38
0.14330709 0.029102992 0.045435369 1.5559467e-38
0.14330803 0.14078382 0.034015536 2.0075236e-38
0.13969246 0.027161222 0.046771646 1.4548538e-38
0.13934879 0.029544737 0.045076668 1.7586677e-38
0.13931012 0.14081937 0.03387022 1.9339462e-38
0.13536783 0.029663257 0.04483211 1.8414647e-38
0.13540533 0.14011195 0.033374369 1.9154727e-38
0.13172999 0.030391864 0.044196784 1.9887615e-38
0.13102809 0.13985503 0.033403754 1.9710413e-38
0.12798366 0.030906636 0.044583499 2.0349668e-38
0.12668268 0.032195698 0.044251084 2.0347518e-38
0.12752011 0.14072436 0.032491565 1.5562706e-38
0.1235947 0.032984663 0.043016374 1.9885067e-38
0.12364088 0.14027369 0.031858861 1.0773516e-38
0.11960438 0.033549007 0.04183501 1.9978008e-38
0.12003008 0.03590513 0.040812194 1.9331226e-38
0.12004107 0.13963181 0.031478465 1.1229824e-38
0.115987 0.034101591 0.042000473 1.9702862e-38
0.11566287 0.036716942 0.040225387 1.9333009e-38
0.11743566 0.13769934 0.03000319 7.6475499e-39
0.11692536 0.13941121 0.031783402 7.46177e-39
0.11237192 0.034591157 0.041799843 1.9608518e-38
0.11198369 0.037143655 0.040462017 1.92408e-38
0.11094961 0.039680175 0.039026201 1.8504663e-38
0.10811505 0.03727676 0.040360451 1.9057131e-38
0.10766152 0.040292177 0.038626254 1.8596136e-38
0.1042302 0.037856229 0.040007353 1.9517733e-38
0.10358627 0.040488914 0.038655818 1.8872374e-38
0.10001262 0.038326424 0.039512515 1.9332647e-38
0.1000029 0.040707707 0.038123369 1.8779832e-38
0.095963687 0.041003823 0.037978828 1.8410671e-38
0.094085842 0.043333787 0.036052704 1.7582313e-38
0.091701746 0.042091385 0.037337661 1.7397252e-38
0.091218993 0.04445748 0.035877228 1.6937e-38
0.090194196 0.047189794 0.035058439 1.7578048e-38
0.088303819 0.042071834 0.037324369 1.7490161e-38
0.087433726 0.044574223 0.03546536 1.7580562e-38
0.08734031 0.047667496 0.034569681 1.7859658e-38
0.08349061 0.044725388 0.035548151 1.8687262e-38
0.083556056 0.047776259 0.034483612 1.8042627e-38
0.079676643 0.045501675 0.035135031 1.822774e-38
0.079644188 0.048372567 0.033875942 1.8409962e-38
0.079816476 0.051597387 0.03300786 1.7948631e-38
0.075294033 0.045796946 0.034937739 1.6657224e-38
0.075644076 0.048335627 0.033602059 1.7124275e-38
0.075854331 0.052206382 0.032560706 1.758308e-38
0.074627653 0.054780364 0.031882346 1.7491597e-38
0.071633756 0.048502658 0.033842444 1.7676361e-38
0.072033226 0.054739885 0.031486511 1.6660783e-38
0.068789154 0.048968859 0.033610463 1.6942017e-38
0.068398684 0.052464843 0.032785952 1.6568224e-38
0.06758371 0.055838864 0.031269312 1.601684e-38
0.064886212 0.053490739 0.032546341 1.5648768e-38
0.063954651 0.056203276 0.03148973 1.5278916e-38
0.06376183 0.059413195 0.029902935 1.5188153e-38
0.062952742 0.063084438 0.029233277 1.4821157e-38
0.060983285 0.057357933 0.031549156 1.4633173e-38
0.06034036 0.060339842 0.030467153 1.4262965e-38
0.059899241 0.063612655 0.029598415 1.4172576e-38
0.060178563 0.068223 0.028465092 1.3990345e-38
0.059061095 0.07150995 0.027771711 1.3529003e-38
0.057080343 0.061225131 0.03055203 1.4080737e-38
0.056248993 0.063989073 0.029850602 1.4265129e-38
0.056122512 0.068305142 0.028663397 1.3806306e-38
0.056261331 0.072785653 0.027336836 1.3807717e-38
0.056466654 0.076691762 0.026841938 1.2519865e-38
0.055169448 0.079935454 0.026310205 1.1784814e-38
0.056171834 0.11600483 0.023648202 1.2888653e-38
0.052031875 0.068954907 0.028531253 1.3530435e-38
0.05226475 0.072809175 0.027495086 1.3898469e-38
0.052497208 0.076656066 0.026459575 1.2334738e-38
0.052412868 0.080382042 0.025839627 1.1689724e-38
0.051926419 0.083801575 0.025414884 1.1966315e-38
0.051926419 0.11252418 0.022477806 1.1969927e-38
0.052225709 0.11596897 0.02318877 1.2612056e-38
0.048824698 0.069193035 0.028261006 1.3714114e-38
0.048209712 0.072795652 0.027323306 1.362119e-38
0.048328459 0.076682873 0.026605129 1.2978314e-38
0.048525438 0.080538958 0.025676131 1.1874484e-38
0.048191488 0.083982162 0.024990141 1.141675e-38
0.047818586 0.087436609 0.02440989 1.2063938e-38
0.048476607 0.10792154 0.022543788 1.2982644e-38
0.048705712 0.11153433 0.023506343 1.3164866e-38
0.044937879 0.073692866 0.027405143 1.3620845e-38
0.044457853 0.076830186 0.026374638 1.270069e-38
0.044548228 0.080398329 0.025769532 1.1868425e-38
0.044900417 0.084538914 0.025781751 9.8368938e-39
0.044960201 0.088442251 0.025222361 1.0020896e-38
0.044533104 0.092459813 0.024116099 1.0020889e-38
0.043961897 0.096153513 0.023432493 8.827355e-39
0.043961912 0.10007308 0.023031712 9.007838e-39
0.043546975 0.10435297 0.022784293 8.45899e-39
0.044853032 0.10779827 0.022742331 1.1035401e-38
0.04146862 0.096334368 0.024555087 9.3769372e-39
0.041590065 0.10021361 0.023837984 9.011756e-39
0.04146862 0.10288117 0.023885548 9.1976257e-39
0.16578333 0.080117956 0.011407375 1.2519887e-38
0.16533074 0.072294526 0.014994025 1.509884e-38
0.15182412 0.074276648 0.0092472434 1.4544246e-38
0.1557548 0.072358936 0.012141526 1.5651302e-38
0.14294916 0.091114774 0.0095000267 1.132529e-38
0.14359593 0.087347724 0.0097495317 1.325673e-38
0.12458356 0.11674228 0.014423013 1.4916236e-38
0.10562396 0.11436364 0.010607302 1.5098474e-38
0.1694054 0.014606845 0.055687129 7.5496188e-39
0.17121428 0.017236151 0.054680228 8.287181e-39
0.16569763 0.014528818 0.054309964 7.4541721e-39
0.16218987 0.01527825 0.054302692 7.3634255e-39
0.16077633 0.017073303 0.053087652 7.3651939e-39
0.15908554 0.015788 0.054992378 7.2719193e-39
0.15771061 0.017579749 0.053580225 7.6403361e-39
0.15803628 0.14717707 0.040039301 2.2106443e-38
0.1540526 0.018311366 0.052941382 8.4675884e-39
0.15274544 0.1465092 0.03963089 2.1269893e-38
0.15419032 0.15001106 0.039622724 2.314074e-38
0.15274544 0.1524269 0.039025784 2.341769e-38
0.15039313 0.019044016 0.052302361 9.2980441e-39
0.14968601 0.020839728 0.050992668 9.6682742e-39
0.15018374 0.14674431 0.038957715 2.1362408e-38
0.14999409 0.14990082 0.039537907 2.2677245e-38
0.14999409 0.15253344 0.039268732 2.3234015e-38
0.14621292 0.021257963 0.051431537 1.0955786e-38
0.14592952 0.14584118 0.038212538 2.0721718e-38
0.14600044 0.14991197 0.039260149 2.0643563e-38
0.14221929 0.023400862 0.050935686 1.233799e-38
0.14218374 0.024990428 0.049411595 1.2893688e-38
0.14250992 0.14285097 0.037410021 2.0350399e-38
0.14231639 0.14566511 0.037996352 2.0814623e-38
0.14207491 0.14985076 0.038661182 1.9075517e-38
0.13880366 0.023373228 0.051089823 1.1972478e-38
0.13824937 0.025567837 0.049472451 1.3810612e-38
0.13783081 0.14288342 0.037193775 1.8972844e-38
0.13827275 0.14572173 0.037932158 2.1092626e-38
0.13880366 0.14848274 0.0382967 2.1373889e-38
0.13460636 0.026280578 0.049273789 1.3622293e-38
0.13468146 0.14272881 0.036215544 1.9340555e-38
0.13427001 0.14494541 0.037756085 2.0262863e-38
0.13068362 0.026857093 0.049227476 1.4361645e-38
0.13020614 0.028789077 0.048193514 1.7861505e-38
0.13098165 0.14218804 0.035903871 1.9801887e-38
0.13022317 0.14547035 0.03690052 2.0173189e-38
0.1296441 0.14899832 0.036831796 1.9340173e-38
0.12768133 0.027150519 0.048988819 1.5835331e-38
0.12635793 0.029352684 0.047833145 1.9244421e-38
0.12661311 0.14544439 0.03571099 1.4826266e-38
0.12618589 0.14922658 0.036275387 1.5567425e-38
0.12252921 0.030345883 0.047528803 1.9978733e-38
0.12228639 0.032230619 0.045603693 1.988615e-38
0.12293877 0.14254561 0.034423888 1.1598623e-38
0.12279493 0.1452744 0.035393953 1.1971382e-38
0.12310153 0.14955473 0.035766304 1.179023e-38
0.11884889 0.030634318 0.047270894 2.0163146e-38
0.1188979 0.032203633 0.045592546 2.0255315e-38
0.1187636 0.1419552 0.033840597 1.4359409e-38
0.11864746 0.14476952 0.035060406 1.7867143e-38
0.11983028 0.15016216 0.035199821 7.006156e-39
0.11917603 0.15212736 0.034897983 8.6527125e-39
0.11459625 0.0308972 0.046588361 2.0161699e-38
0.11459136 0.032477662 0.04515475 1.9979453e-38
0.11485329 0.13868523 0.034589052 4.2255553e-39
0.11542696 0.14154547 0.034181654 1.2527481e-38
0.11462459 0.145448 0.034766316 1.8136249e-38
0.1152505 0.14811528 0.034703016 9.2302129e-41
0.11078398 0.03303377 0.044619977 1.9698921e-38
0.1059771 0.035915624 0.04271245 1.9427001e-38
0.10313576 0.034131344 0.044287443 1.9976938e-38
0.10297248 0.036211386 0.042473197 1.9885814e-38
0.099221259 0.034278918 0.043872178 1.9976582e-38
0.09945339 0.036470421 0.041649938 1.9700723e-38
0.094968587 0.034541801 0.043189704 1.9975144e-38
0.095475763 0.037077703 0.041200578 1.9423423e-38
0.094234407 0.039671876 0.040517926 1.8966733e-38
0.091697335 0.034490764 0.042690575 1.9885817e-38
0.091204494 0.037083372 0.041784585 1.9792923e-38
0.09147945 0.040317029 0.040535748 1.8778754e-38
0.087379247 0.037847452 0.041681647 1.9515978e-38
0.087315246 0.040305302 0.040742517 1.831885e-38
0.083846271 0.038319103 0.0410887 1.8596523e-38
0.079585359 0.041234098 0.039697826 1.8319225e-38
0.079478592 0.043726608 0.038082659 1.8410317e-38
0.075340956 0.042137232 0.039386988 1.7397263e-38
0.075811237 0.044014879 0.037742019 1.6931632e-38
0.071415424 0.042075984 0.038788021 1.6384916e-38
0.071771011 0.044435672 0.036948919 1.6292365e-38
0.067778438 0.044589229 0.03706634 1.5742055e-38
0.067552298 0.047937289 0.035762548 1.6571447e-38
0.066834792 0.051062766 0.035128951 1.6661136e-38
0.063674226 0.04522337 0.03693372 1.4819729e-38
0.063857943 0.048474681 0.036064625 1.4913009e-38
0.064142719 0.052189812 0.034852803 1.5556218e-38
0.060947359 0.045205023 0.036854208 1.4541697e-38
0.059885979 0.04862611 0.0360865 1.3896348e-38
0.059937432 0.052359287 0.035062969 1.4358403e-38
0.059763521 0.055796266 0.033893704 1.4358039e-38
0.058353975 0.059465941 0.032962143 1.4172175e-38
0.057021827 0.049753077 0.035783947 1.4818636e-38
0.055876866 0.052533723 0.035323143 1.3624063e-38
0.055978924 0.056252845 0.034167528 1.3531508e-38
0.055455744 0.05994229 0.033047736 1.3989966e-38
0.053787351 0.063334152 0.031862557 1.4544238e-38
0.052442044 0.057583276 0.034277201 1.3252777e-38
0.051837146 0.060194381 0.033771694 1.380559e-38
0.05136548 0.064084783 0.032768369 1.454242e-38
0.051830262 0.066586502 0.031228244 1.3622594e-38
0.049170792 0.061483067 0.033374071 1.4173283e-38
0.047940522 0.064075314 0.032693386 1.4726446e-38
0.047112316 0.067870155 0.030805528 1.3805933e-38
0.046611264 0.11312199 0.025665104 1.3163401e-38
0.047205389 0.11635955 0.026061237 1.2242566e-38
0.047027647 0.11981403 0.02572298 1.2059247e-38
0.04426387 0.064698867 0.03228873 1.5188497e-38
0.043780178 0.06833946 0.03105092 1.3714769e-38
0.043349415 0.072691657 0.029296458 1.3529708e-38
0.042044669 0.075625896 0.028795302 1.2976553e-38
0.042044669 0.082191661 0.028123915 1.2425176e-38
0.042044669 0.084817961 0.027855337 1.2049547e-38
0.042044669 0.089413993 0.027385354 1.0113091e-38
0.042044669 0.091383725 0.02718395 9.2829886e-39
0.042044669 0.10845471 0.025438368 8.2756708e-39
0.043821484 0.11250651 0.025806487 9.7482589e-39
0.044179156 0.11660503 0.025224507 1.0579843e-38
0.044654161 0.11965722 0.024695158 1.3256697e-38
0.040342271 0.069088593 0.031122267 1.3806262e-38
0.039983809 0.072985694 0.030400157 1.3622972e-38
0.039633572 0.07682734 0.02992785 1.3344251e-38
0.040846705 0.085322678 0.029144585 1.2145687e-38
0.039974988 0.088927835 0.028641582 1.1962382e-38
0.039782673 0.092778303 0.027540088 1.1953746e-38
0.039313078 0.096641921 0.026564181 1.0567563e-38
0.039435178 0.10053509 0.025845885 9.7468085e-39
0.039810568 0.10480655 0.025873721 1.0576184e-38
0.040157795 0.10858946 0.026150763 1.0484027e-38
0.041083217 0.1130041 0.026604652 1.0299652e-38
0.041013837 0.11629904 0.02590102 1.2786451e-38
0.037394196 0.090272062 0.02861464 1.3067269e-38
0.037159085 0.093195848 0.02802515 1.288177e-38
0.036208391 0.096789449 0.027426362 1.23322e-38
0.036208391 0.10073838 0.0270226 1.1958793e-38
0.036682725 0.10418936 0.026878357 1.1870867e-38
0.036958039 0.1078245 0.026752532 1.2419763e-38
0.033141553 0.097119667 0.027258754 1.003132e-38
0.033468664 0.10008788 0.027005672 9.2030277e-39
0.16870496 0.084757246 0.011795104 1.2798631e-38
0.10546656 0.052788451 0.029366612 1.647853e-38
0.14592952 0.14584118 0.038212538 2.0721718e-38
0.15982065 0.014558207 0.058282316 7.2719249e-39
0.15738724 0.015155382 0.056829095 7.2719095e-39
0.15310736 0.015230771 0.056568384 8.3761158e-39
0.15213814 0.017054584 0.055825651 8.7459675e-39
0.15213814 0.14912778 0.04232043 2.2680475e-38
0.15082586 0.015053011 0.055828035 9.0236334e-39
0.14944486 0.017462477 0.055707693 9.1147347e-39
0.14638163 0.019176293 0.055060208 9.9441492e-39
0.14426449 0.020893939 0.054219186 1.0771409e-38
0.13759249 0.022789229 0.053505182 1.1142712e-38
0.13639085 0.14954248 0.039850235 1.8969665e-38
0.13376629 0.023371603 0.052347302 1.0869712e-38
0.13311015 0.024682108 0.052112103 1.2428053e-38
0.1337091 0.1472435 0.039926112 2.0173547e-38
0.13405246 0.14943215 0.040178955 1.8780935e-38
0.13114175 0.023330662 0.051946819 1.0501998e-38
0.13114175 0.14747947 0.039251924 2.0541246e-38
0.13114175 0.14946058 0.039049327 1.9159351e-38
0.12572861 0.025722582 0.050867677 1.3900991e-38
0.1218735 0.025841195 0.050600231 1.3533331e-38
0.12195581 0.02847027 0.050005078 1.8142758e-38
0.12064356 0.14731568 0.037650168 1.0772525e-38
0.12064356 0.14995715 0.03738004 8.6577558e-39
0.11920652 0.02646742 0.050294459 1.3990373e-38
0.11760497 0.028958704 0.049894512 1.8783812e-38
0.118019 0.14727476 0.037249684 1.0664118e-38
0.11764404 0.14972168 0.036941767 5.6193133e-39
0.11408797 0.029187165 0.049735725 1.9702151e-38
0.1127699 0.14257029 0.036921501 1.703856e-38
0.11539444 0.14987525 0.036579132 4.9642946e-39
0.11001401 0.030289039 0.048486471 2.006913e-38
0.10631 0.030368503 0.048008978 1.9425943e-38
