# .PCD v0.7 - Point Cloud Data file format
VERSION 0.7
FIELDS x y z rgb
SIZE 4 4 4 4
TYPE F F F F
COUNT 1 1 1 1
WIDTH 986
HEIGHT 1
VIEWPOINT 0 0 0 0 1 0 0
POINTS 986
DATA ascii
0.1969887 0.048754215 0.047617733 1.989231e-38
0.1986631 0.051576629 0.046921968 1.8696285e-38
0.19883221 0.054234758 0.045545876 1.9709351e-38
0.19904152 0.11774909 0.036959827 1.6393209e-38
0.19453989 0.048698239 0.046886742 2.081607e-38
0.19483104 0.05111973 0.045769513 2.109194e-38
0.19516873 0.054151013 0.04445231 2.2012094e-38
0.19657701 0.11831363 0.03542155 1.7219004e-38
0.19615224 0.12070909 0.03597033 1.768143e-38
0.19079505 0.048025377 0.045228064 2.1734411e-38
0.191434 0.050916627 0.043836176 2.1826978e-38
0.19184773 0.053900845 0.043136477 2.1826256e-38
0.19280988 0.11929697 0.033951461 1.84186e-38
0.19227764 0.12182154 0.034359396 1.8877448e-38
0.18724959 0.047324225 0.044109404 2.1090472e-38
0.18787363 0.050788552 0.042428672 2.1641509e-38
0.18854043 0.05332166 0.042228937 2.1547858e-38
0.18930781 0.11951505 0.032330692 1.9154751e-38
0.18881199 0.12260018 0.033000469 1.9521731e-38
0.18221095 0.0446283 0.043806553 2.0444035e-38
0.18384477 0.047039017 0.042744517 2.0629504e-38
0.18500641 0.049883708 0.041705787 2.1548226e-38
0.18606064 0.11967395 0.030972302 1.7589229e-38
0.18543448 0.12279716 0.031579912 1.8600504e-38
0.18524572 0.12551059 0.031915009 2.0070937e-38
0.18037435 0.044586323 0.043258369 2.0077052e-38
0.18028489 0.046912603 0.041336775 2.0629155e-38
0.18210024 0.11989816 0.029740334 1.6758389e-38
0.18209468 0.12223431 0.030123413 1.7219371e-38
0.1736401 0.044432387 0.041248262 1.9981967e-38
0.17655739 0.046314403 0.039982617 2.0446181e-38
0.17745569 0.1195402 0.028393865 1.5747799e-38
0.17762436 0.12187023 0.028868198 1.602045e-38
0.1711913 0.044376403 0.04051733 1.9245486e-38
0.17189097 0.045387439 0.038455427 1.961354e-38
0.17331252 0.11883302 0.027405143 1.4916606e-38
0.17309752 0.12195276 0.02828002 1.4917673e-38
0.16813028 0.044306427 0.039603591 1.9153637e-38
0.16822872 0.045303717 0.037362278 1.9338388e-38
0.16952473 0.11755665 0.02676475 1.4641452e-38
0.16943517 0.12117238 0.027693391 1.4365595e-38
0.16506927 0.044236459 0.038689971 1.8971035e-38
0.16419455 0.045768604 0.036492527 1.9152932e-38
0.16489682 0.11446916 0.025402725 1.445673e-38
0.16605926 0.11709459 0.025690317 1.4917331e-38
0.16555621 0.12064104 0.02673763 1.4641105e-38
0.16073614 0.046683758 0.035936773 1.8874914e-38
0.16098878 0.048915029 0.034603119 1.8782715e-38
0.16306567 0.11442728 0.02485615 1.4456369e-38
0.16239534 0.11701083 0.024596691 1.4641117e-38
0.16188298 0.12055707 0.025641263 1.4732585e-38
0.15688795 0.047304943 0.03552109 1.8781615e-38
0.15702176 0.04935582 0.033546209 1.887168e-38
0.15757227 0.11430171 0.023216426 1.409005e-38
0.15853351 0.11705713 0.024009764 1.4364863e-38
0.15942001 0.11986941 0.025006115 1.4731505e-38
0.15291005 0.047746614 0.034460604 1.91479e-38
0.15335441 0.049699537 0.032625377 1.9147906e-38
0.15472789 0.11398128 0.022671938 1.3905307e-38
0.15462571 0.11712769 0.023522258 1.4272668e-38
0.14923681 0.047662646 0.033364177 1.9239374e-38
0.14949337 0.050149426 0.031780005 1.9056083e-38
0.14911559 0.052672237 0.030421197 1.8412138e-38
0.15040162 0.1101092 0.021714091 1.3812421e-38
0.1505543 0.11305988 0.022085309 1.4089006e-38
0.1509594 0.11678985 0.022937775 1.3904988e-38
0.14541128 0.050222635 0.031538904 1.8595109e-38
0.14502981 0.053029075 0.029658556 1.8044432e-38
0.14580587 0.10647909 0.020900369 1.4271607e-38
0.14647266 0.10901223 0.020700753 1.4088653e-38
0.14618367 0.11301789 0.021035671 1.4455969e-38
0.14667158 0.1169378 0.021618903 1.4364889e-38
0.14136305 0.051270768 0.030414104 1.8228828e-38
0.1411747 0.053431422 0.028562248 1.7862203e-38
0.14275396 0.10640934 0.019989491 1.4363424e-38
0.14276803 0.1089533 0.019708335 1.3994663e-38
0.14247361 0.11295946 0.020041585 1.3996815e-38
0.14260086 0.11610626 0.020098209 1.4089721e-38
0.13763916 0.053881198 0.0275172 1.6296629e-38
0.13871869 0.10523802 0.018955946 1.1970305e-38
0.13876328 0.10906665 0.019419551 1.1968874e-38
0.13850799 0.1128906 0.019661427 1.1875948e-38
0.13852024 0.11560355 0.019367576 1.1785907e-38
0.13378829 0.054570034 0.027603209 1.4268717e-38
0.13407519 0.056992702 0.025457203 1.3715541e-38
0.13316518 0.05960945 0.024503767 1.4172932e-38
0.13401124 0.097396925 0.018775403 1.0585549e-38
0.13474798 0.10149558 0.018952727 1.1139809e-38
0.13501036 0.10519819 0.018898487 1.0863933e-38
0.1349335 0.10845044 0.019416749 1.1143055e-38
0.13037568 0.057356909 0.025206387 1.2519514e-38
0.13019785 0.060997263 0.023651659 1.0771047e-38
0.12961569 0.064564064 0.022646844 9.6708119e-39
0.13072124 0.095222056 0.020238996 1.0126013e-38
0.13151821 0.097372979 0.019082665 1.1229122e-38
0.1313813 0.10145701 0.018998206 1.1691539e-38
0.13164404 0.10465737 0.018759429 1.16015e-38
0.12745211 0.058528975 0.025062025 9.9340276e-39
0.12772319 0.061611369 0.024127603 8.4574864e-39
0.12753835 0.066193506 0.022817791 8.5587415e-39
0.12748453 0.069278747 0.021520436 8.7470578e-39
0.12734339 0.072065741 0.020772398 7.6353166e-39
0.11552724 0.11349957 0.012754321 1.9341624e-38
0.11527067 0.11570345 0.01232779 1.4910504e-38
0.10648766 0.1060324 0.011205792 1.8969222e-38
0.10770905 0.10815904 0.010936201 1.8133429e-38
0.10661495 0.11171746 0.010343969 2.2749697e-38
0.10428032 0.10485479 0.0096689463 2.1636818e-38
0.10506174 0.10793673 0.0084924102 2.0897107e-38
0.10466489 0.11204346 0.0085293055 2.2471631e-38
0.10368162 0.11657973 0.0081595778 2.255983e-38
0.10432169 0.11860991 0.0085597038 1.8957015e-38
0.099056333 0.10207441 0.0095875263 2.1544597e-38
0.10096481 0.10414313 0.0083271861 2.0990365e-38
0.10203141 0.10774456 0.0074753761 1.9332308e-38
0.10246357 0.11186212 0.0073059201 2.0531595e-38
0.10157499 0.11676554 0.0063784719 2.2748194e-38
0.10132554 0.11981422 0.0053507686 1.9609858e-38
0.096530467 0.10142346 0.0085049272 2.145171e-38
0.097394556 0.10364144 0.006724298 2.0343178e-38
0.097243458 0.11732893 0.0045110583 2.081388e-38
0.097064197 0.12022039 0.0039990544 2.0069834e-38
0.092793673 0.10062341 0.0071569681 1.7949365e-38
0.092646509 0.10274604 0.0054315329 1.7215012e-38
0.092729479 0.11735164 0.0031437874 1.7587022e-38
0.093651682 0.12039417 0.0029405951 1.7678881e-38
0.089946181 0.10045655 0.0063870549 1.3062642e-38
0.08842054 0.10344927 0.0042548776 1.3345336e-38
0.087848067 0.10641317 0.0034012198 1.5277141e-38
0.089081585 0.11609323 0.0022409558 1.6666528e-38
0.086156964 0.10422693 0.0035006404 1.3898143e-38
0.085439414 0.10782689 0.0024496913 1.4455621e-38
0.085117131 0.11159633 0.0017554164 1.3533285e-38
0.08584246 0.11492811 0.0014469624 1.4547452e-38
0.083021492 0.10882072 0.0015617609 1.3625854e-38
0.16350546 0.095905244 0.022706151 1.4732577e-38
0.19591239 0.055710278 0.04196471 2.1919897e-38
0.14428404 0.097074911 0.015793562 1.5559828e-38
0.16829109 0.092506468 0.020066798 1.3443278e-38
0.19632997 0.045478866 0.052163661 1.7687856e-38
0.19733283 0.050164267 0.048554957 1.9156535e-38
0.19296066 0.044275373 0.05103451 1.6951031e-38
0.19389662 0.047058716 0.049065173 2.0077419e-38
0.19480139 0.12648554 0.038571954 2.146287e-38
0.18947022 0.041511364 0.050719559 1.4826593e-38
0.18973151 0.043970466 0.049704731 1.8144188e-38
0.19081721 0.04653772 0.047160804 2.0998291e-38
0.19303966 0.12299046 0.035725355 1.9522107e-38
0.19184664 0.12591313 0.036411405 2.0816788e-38
0.18558016 0.040889099 0.049431562 1.6488974e-38
0.18642187 0.043735191 0.047450602 1.8788475e-38
0.1880511 0.046158344 0.046385229 2.0634535e-38
0.18841845 0.12627964 0.034996927 2.0446202e-38
0.1823976 0.041223384 0.047571898 1.8421475e-38
0.18308094 0.043421581 0.04584533 1.9338412e-38
0.18438244 0.12695891 0.034383118 2.0164926e-38
0.18281171 0.12900494 0.034852505 2.0166708e-38
0.17853218 0.040563062 0.047036886 1.7683927e-38
0.17904243 0.043135181 0.044746101 1.906398e-38
0.18070172 0.12613405 0.032820702 1.7771446e-38
0.18034828 0.12894864 0.034117281 1.8323897e-38
0.17463481 0.040211074 0.045990705 1.7312981e-38
0.17558652 0.043401212 0.043525696 1.9246921e-38
0.17713922 0.12591541 0.031867027 1.6482859e-38
0.17665315 0.12886418 0.033014357 1.6297055e-38
0.17029341 0.037262313 0.045598865 1.6760153e-38
0.17093694 0.039598316 0.043574333 1.7958698e-38
0.17142618 0.042616837 0.041923404 1.9338402e-38
0.17283888 0.12581746 0.030583441 1.5470856e-38
0.17295803 0.12877972 0.031911373 1.5653118e-38
0.16634198 0.039600998 0.043095529 1.841827e-38
0.16696525 0.042785853 0.04054898 1.9429496e-38
0.16770701 0.12283288 0.028096914 1.464075e-38
0.16842574 0.125801 0.029604971 1.5100305e-38
0.16287962 0.040014595 0.042571008 1.8325694e-38
0.16305292 0.042995796 0.040126204 1.8600836e-38
0.16525453 0.12277682 0.027364969 1.473402e-38
0.16464438 0.12573338 0.029221714 1.5376518e-38
0.15867756 0.040807478 0.041528285 1.8874196e-38
0.15908608 0.043226354 0.040211976 1.8966035e-38
0.15862155 0.045485608 0.037600756 1.8874217e-38
0.16157581 0.12269273 0.026266932 1.4917327e-38
0.16084698 0.12499948 0.028005779 1.54687e-38
0.15527779 0.04318288 0.039420605 1.8965662e-38
0.1558696 0.045738846 0.036729217 1.8874899e-38
0.15745281 0.12167843 0.025974214 1.4548195e-38
0.15721549 0.12435865 0.026798844 1.5194268e-38
0.15154579 0.04311201 0.03842169 1.9057864e-38
0.15250456 0.045978069 0.035674751 1.8965307e-38
0.15386927 0.12147255 0.025070965 1.5009895e-38
0.15328497 0.1244358 0.02630347 1.5654875e-38
0.14772479 0.043710679 0.037583351 1.8965671e-38
0.14857954 0.04597757 0.035193503 1.8873105e-38
0.14984165 0.11863075 0.023365021 1.4089399e-38
0.1500234 0.12149431 0.024375319 1.48273e-38
0.14959165 0.12435137 0.025201082 1.5562319e-38
0.14466202 0.04661037 0.034614146 1.8319224e-38
0.14399174 0.048944928 0.032633126 1.8875263e-38
0.14641958 0.12135708 0.023073375 1.501097e-38
0.14614657 0.12410562 0.023494899 1.5559116e-38
0.14151907 0.044225916 0.03580308 1.8687656e-38
0.14096147 0.046960115 0.033994138 1.8688364e-38
0.14085212 0.049856469 0.031804442 1.8507921e-38
0.14247718 0.11814626 0.021216869 1.4368102e-38
0.14239952 0.12148474 0.022777915 1.4827649e-38
0.13650218 0.047640368 0.033535421 1.7309026e-38
0.13620934 0.050158091 0.031991661 1.6940954e-38
0.13671932 0.052572444 0.029861569 1.6662198e-38
0.13810745 0.11456876 0.020463288 1.1603683e-38
0.13809243 0.11809789 0.021107435 1.1972452e-38
0.13829499 0.12066694 0.022195697 1.206214e-38
0.13221553 0.050645739 0.031372011 1.4912297e-38
0.13264918 0.053043291 0.028980076 1.4542792e-38
0.13403013 0.11036566 0.019897044 1.1326349e-38
0.13414046 0.11337171 0.020158768 9.8479907e-39
0.13350698 0.11743741 0.0212605 7.4580986e-39
0.13297161 0.12066768 0.021115661 7.4559574e-39
0.12895265 0.051136643 0.03091234 1.3898493e-38
0.12904984 0.054003052 0.028638721 1.306943e-38
0.12822071 0.056171916 0.0267241 1.1037907e-38
0.12908474 0.094761461 0.020874143 9.6625401e-39
0.12916973 0.098557159 0.02029866 1.2146761e-38
0.12924054 0.10172024 0.0198192 1.2058166e-38
0.13007259 0.10603884 0.019386649 1.178627e-38
0.13028476 0.10953712 0.019835889 1.2063938e-38
0.13045689 0.11328624 0.019059479 1.0217491e-38
0.13036391 0.11712448 0.019304097 6.7176665e-39
0.13077113 0.12045415 0.019780219 7.5499593e-39
0.12594929 0.054592505 0.028929293 1.1864786e-38
0.12634668 0.057494178 0.026652932 1.0575817e-38
0.12589574 0.061809391 0.025128901 8.0004992e-39
0.12436876 0.066534057 0.026032507 8.0066327e-39
0.12377578 0.070437342 0.025939584 8.4719058e-39
0.12413046 0.074136809 0.02475661 7.5456475e-39
0.12667355 0.095965937 0.023124576 9.7547497e-39
0.12611863 0.098810703 0.02197814 1.1043658e-38
0.12620699 0.10196631 0.020389855 1.150644e-38
0.12660438 0.10560316 0.019112229 1.1875951e-38
0.12642333 0.10955098 0.019136727 1.2521692e-38
0.12659836 0.11330184 0.018360794 1.1233085e-38
0.12681392 0.11625108 0.018369794 8.6534062e-39
0.12211481 0.10209085 0.020190418 1.1410322e-38
0.12292323 0.10551775 0.018013716 1.1964918e-38
0.12300834 0.10931973 0.017437279 1.307304e-38
0.12291238 0.11321801 0.017260551 1.4177569e-38
0.1228922 0.11643803 0.016979337 1.040189e-38
0.11841422 0.10265321 0.019042015 1.1778342e-38
0.11924091 0.10543357 0.016914546 1.1871271e-38
0.11960068 0.10908736 0.015740216 1.3073076e-38
0.11968565 0.11288306 0.015164733 1.6853021e-38
0.1199204 0.1165241 0.014659047 1.2885032e-38
0.11486185 0.10231556 0.018097818 1.1595408e-38
0.11555853 0.10534941 0.015815377 1.1779451e-38
0.115922 0.10900328 0.014642119 1.3626949e-38
0.11620191 0.11238191 0.014191687 1.8328551e-38
0.11730403 0.11599007 0.013953269 1.3991021e-38
0.11103857 0.10183766 0.016884327 1.2517725e-38
0.11148417 0.10534428 0.014457166 1.3437536e-38
0.11163017 0.10890518 0.013361096 1.4728298e-38
0.11154538 0.11258201 0.012753129 2.0631648e-38
0.11117285 0.11584993 0.012123227 1.7029522e-38
0.10581991 0.099299937 0.016296506 1.5555119e-38
0.10703683 0.10190709 0.015828729 1.4728968e-38
0.10727403 0.10492839 0.013613939 1.684444e-38
0.1079798 0.11008632 0.012071252 1.9332346e-38
0.10765484 0.11285651 0.011836231 2.2567395e-38
0.10646445 0.11649442 0.012711883 2.0805956e-38
0.10287684 0.098737672 0.015144169 1.5466189e-38
0.10314259 0.10140479 0.013905644 1.8507187e-38
0.10415944 0.10367607 0.011932194 2.164111e-38
0.10430861 0.11625119 0.011042356 2.2467639e-38
0.10511252 0.11887285 0.0098135471 1.6287323e-38
0.098225474 0.098755091 0.013824344 1.9239358e-38
0.099409312 0.10115196 0.012217522 2.06259e-38
0.095168263 0.098206908 0.01219511 2.1450278e-38
0.096417606 0.10002148 0.010172009 2.1453148e-38
0.09125641 0.095016941 0.011870623 1.8872042e-38
0.091765195 0.097352371 0.010597825 1.8411794e-38
0.08792606 0.09733519 0.0097931027 1.1125084e-38
0.087848157 0.10045789 0.0075139403 1.1959526e-38
0.085097492 0.098083735 0.0097002983 1.1687245e-38
0.085707009 0.1010152 0.008187592 1.2148591e-38
0.08395496 0.10447879 0.0057010651 1.3348206e-38
0.084011644 0.10700925 0.00531739 1.4544242e-38
0.1635775 0.10135981 0.02080667 1.3719509e-38
0.17791104 0.07618174 0.028716683 1.5652374e-38
0.17757726 0.076672435 0.027571142 1.5191034e-38
0.17647678 0.081983082 0.025890708 1.4546745e-38
0.17543842 0.0790544 0.026051819 1.4822253e-38
0.18292961 0.092409581 0.025445342 1.3995368e-38
0.17840494 0.065297887 0.029727638 1.8140211e-38
0.14895687 0.10221468 0.017809808 1.6205553e-38
0.14918536 0.082062215 0.020687163 1.7678507e-38
0.12270913 0.11055315 0.015468955 1.3534391e-38
0.1923674 0.040624499 0.054435372 9.943457e-39
0.1941404 0.043652594 0.052847981 1.4830191e-38
0.19602123 0.1276549 0.040113688 2.1739477e-38
0.18771535 0.029927999 0.057130516 5.521996e-39
0.18804313 0.033039674 0.055856287 6.9027976e-39
0.1881631 0.036862694 0.055169642 8.0091158e-39
0.18882516 0.040314816 0.052827358 1.2523474e-38
0.19110134 0.12817851 0.038544416 2.1740889e-38
0.19028609 0.13122424 0.041438341 2.247919e-38
0.18395633 0.030500114 0.056080341 7.4530945e-39
0.18422157 0.032989591 0.055061698 8.6541559e-39
0.18448117 0.036764704 0.053955436 1.0592729e-38
0.18572144 0.039325789 0.050989747 1.3631969e-38
0.18637171 0.13123016 0.039802074 2.1642971e-38
0.17980111 0.029552035 0.054975092 9.11549e-39
0.18036224 0.032951877 0.054371417 1.095939e-38
0.18069497 0.036704972 0.053055882 1.436667e-38
0.1817196 0.039552338 0.049744844 1.7224371e-38
0.18332496 0.1311899 0.037699223 2.0443668e-38
0.18131496 0.13409042 0.038877964 2.090355e-38
0.177329 0.029922068 0.054169714 1.0223624e-38
0.17660442 0.03287854 0.053365171 1.280006e-38
0.17690592 0.036644325 0.052155495 1.5102424e-38
0.17800476 0.038831368 0.048736691 1.6671216e-38
0.17969768 0.13140132 0.035821557 1.9336965e-38
0.17872499 0.13443835 0.037617743 2.0349312e-38
0.17326936 0.033241645 0.052417517 1.3077015e-38
0.17322518 0.036546163 0.050941765 1.5563046e-38
0.17492092 0.038760871 0.047816277 1.6392101e-38
0.17604464 0.13127451 0.034561932 1.8322843e-38
0.17506945 0.13430242 0.036323547 1.9151508e-38
0.16926441 0.033964843 0.050740898 1.4183343e-38
0.17233858 0.13118978 0.033455729 1.7862576e-38
0.17156816 0.13437654 0.03535974 1.8596887e-38
0.16590235 0.033548906 0.049614966 1.4824411e-38
0.16612843 0.036264941 0.047785699 1.6389221e-38
0.16843128 0.13060755 0.032954454 1.6943125e-38
0.16779202 0.13433385 0.034401715 1.823097e-38
0.16232781 0.03384462 0.049016476 1.6297044e-38
0.16210945 0.036279082 0.047508419 1.7306875e-38
0.161156 0.038870253 0.043640375 1.8231696e-38
0.16273016 0.12752996 0.030075848 1.6017943e-38
0.16386575 0.13068196 0.032297015 1.7128573e-38
0.16456378 0.13370749 0.03387785 1.8047655e-38
0.15797171 0.037117191 0.046830058 1.7953318e-38
0.15793014 0.039131068 0.043681026 1.859833e-38
0.16025597 0.12715536 0.029387712 1.5838214e-38
0.15938811 0.1306867 0.031383812 1.7221127e-38
0.15898001 0.13357987 0.032211125 1.8599384e-38
0.15372799 0.037486948 0.045841575 1.9609233e-38
0.15403932 0.039747514 0.042994916 1.9333365e-38
0.15654826 0.12675259 0.028331339 1.6022936e-38
0.15575239 0.13054626 0.030072868 1.7495567e-38
0.1540167 0.13346641 0.030729651 1.9156525e-38
0.15029007 0.039675422 0.041990995 1.9702149e-38
0.15284765 0.12666799 0.027226746 1.6208054e-38
0.15207824 0.13043338 0.028863311 1.7496992e-38
0.15277588 0.13343804 0.030359268 1.8879937e-38
0.14608869 0.039745912 0.042119324 1.9426268e-38
0.14725196 0.041944712 0.038952947 1.9242968e-38
0.14865801 0.12690999 0.027331471 1.6114072e-38
0.14831783 0.13032778 0.028316259 1.7221847e-38
0.14243633 0.039853565 0.041263044 1.9055332e-38
0.14301601 0.042459279 0.038437009 1.8780554e-38
0.14478526 0.12645067 0.02667439 1.5839636e-38
0.1446245 0.12941279 0.028534055 1.6668668e-38
0.13869181 0.040419765 0.040411949 1.8689443e-38
0.13915142 0.043065846 0.037912965 1.8596904e-38
0.13931951 0.045579717 0.035980821 1.8688011e-38
0.14085177 0.12634872 0.026118577 1.5104959e-38
0.13966116 0.12929933 0.027052641 1.4460659e-38
0.13582194 0.04091654 0.039888918 1.8413562e-38
0.13513336 0.043505505 0.038346291 1.7216105e-38
0.13569167 0.046112701 0.035645664 1.7032423e-38
0.13765851 0.12282246 0.023246944 1.0865384e-38
0.13684145 0.12645249 0.025712311 1.0495863e-38
0.13698223 0.12966463 0.026185393 9.6632771e-39
0.13156503 0.044658147 0.038010299 1.6112246e-38
0.13157481 0.046802282 0.035692692 1.5927146e-38
0.1307703 0.049200624 0.032824636 1.4912286e-38
0.13295442 0.11921664 0.022396743 6.9960751e-39
0.13374439 0.12235548 0.02304405 6.81129e-39
0.13308132 0.12639353 0.024702966 5.067482e-39
0.12786025 0.047361299 0.03540653 1.5371475e-38
0.12731114 0.05021511 0.032675505 1.3803797e-38
0.12653843 0.052920215 0.030957103 1.2419066e-38
0.13070336 0.12692179 0.023666263 5.0707008e-39
0.13074628 0.12883939 0.023375571 7.64248e-39
0.12439147 0.047624938 0.034845054 1.5832786e-38
0.12437907 0.05049032 0.033507049 1.4170771e-38
0.12349451 0.054134533 0.03222245 1.2791777e-38
0.12336546 0.057603486 0.031369984 1.1130424e-38
0.12244481 0.062604919 0.029771566 9.9366172e-39
0.12312281 0.065563247 0.027923048 8.6491196e-39
0.12259987 0.078637928 0.027807772 6.9038458e-39
0.12389424 0.081219248 0.02778995 6.259554e-39
0.12384883 0.097697213 0.024638593 1.0030238e-38
0.12123257 0.058741093 0.032130361 1.2241074e-38
0.11943954 0.062964424 0.030487597 1.2243243e-38
0.12000328 0.06703978 0.02850765 1.0768506e-38
0.12022471 0.070814058 0.027624786 9.9394843e-39
0.12024048 0.074575201 0.027606249 8.8353003e-39
0.12026948 0.078798182 0.028311014 7.9165684e-39
0.12184972 0.081784964 0.028139353 7.0878811e-39
0.12056378 0.098098859 0.024374843 1.0121352e-38
0.12184858 0.10031061 0.024148703 1.0765652e-38
0.11583748 0.063279606 0.02984035 1.3255993e-38
0.11569715 0.067181289 0.028710544 1.2610973e-38
0.11582917 0.070999354 0.028028369 1.1873744e-38
0.11591801 0.075069442 0.028044641 1.06781e-38
0.11660275 0.078013256 0.028207958 9.5732087e-39
0.11471966 0.095458582 0.024876475 1.0860332e-38
0.11692569 0.098246574 0.022812068 1.1041519e-38
0.11775309 0.1010596 0.020679653 1.1592899e-38
0.11235759 0.067508489 0.028588951 1.307305e-38
0.11218601 0.071485206 0.027731299 1.2520226e-38
0.11251813 0.074678123 0.02750212 1.2794664e-38
0.11307752 0.077506125 0.027223229 1.1232353e-38
0.11223802 0.095401868 0.024135649 1.1409924e-38
0.11324987 0.098145142 0.021629691 1.1411372e-38
0.11343575 0.1009609 0.019390941 1.141174e-38
0.10843906 0.094341785 0.022853911 1.2054924e-38
0.10961026 0.098026469 0.020372868 1.2055292e-38
0.10505036 0.093820378 0.021510124 1.3160554e-38
0.10622093 0.097671017 0.018884838 1.3161651e-38
0.10222539 0.09133406 0.02175492 1.3989249e-38
0.10128304 0.093757078 0.020499468 1.4265113e-38
0.10266095 0.09671405 0.017713964 1.4357319e-38
0.097888887 0.094151691 0.019646466 1.5552259e-38
0.098822504 0.096973166 0.016429424 1.6291247e-38
0.093625575 0.094976395 0.018580019 2.0071671e-38
0.094527602 0.096436545 0.015753508 2.0990027e-38
0.089963228 0.093860492 0.017046452 2.0250656e-38
0.09207055 0.095802277 0.01586628 2.1265894e-38
0.086893886 0.093723923 0.015054107 1.6474563e-38
0.081276953 0.10406911 0.012352943 1.2520249e-38
0.079171091 0.10576233 0.011624634 1.2889019e-38
0.18343091 0.088708848 0.027250111 1.3535103e-38
0.20059608 0.089148 0.028575361 1.0678835e-38
0.10613778 0.10151882 0.01273942 1.2424803e-38
0.18024334 0.03102719 0.055579484 1.0866468e-38
0.10733032 0.095923424 0.020941496 1.2607743e-38
0.18667126 0.027034439 0.060619116 5.7078488e-39
0.18700719 0.028221786 0.059476018 4.9713501e-39
0.18874249 0.1335004 0.043328464 2.2938372e-38
0.18846668 0.13503928 0.044058025 2.2663946e-38
0.18293235 0.026948966 0.059503078 6.3506846e-39
0.18328811 0.028778486 0.058264256 6.6265513e-39
0.18687576 0.13345774 0.04277128 2.2837571e-38
0.18533669 0.13599396 0.042565048 2.2382673e-38
0.17919344 0.026863493 0.058386981 7.8261749e-39
0.18037954 0.028498083 0.05742991 8.2839272e-39
0.18199655 0.13617302 0.041263521 2.1825168e-38
0.18169838 0.13874044 0.041427076 2.2658895e-38
0.17670083 0.026806518 0.057642937 8.5655167e-39
0.17535695 0.028828695 0.056036413 1.0130704e-38
0.1783146 0.13699055 0.04041785 2.0995051e-38
0.17858264 0.13866921 0.040497065 2.1458205e-38
0.17232111 0.029398367 0.055305719 1.1232371e-38
0.17133962 0.032141656 0.054121912 1.2340538e-38
0.17465886 0.1368406 0.03907305 1.9707542e-38
0.16806307 0.03046491 0.054454088 1.1966684e-38
0.16832945 0.032323837 0.053535938 1.2520249e-38
0.17078379 0.13694008 0.037358224 1.8969627e-38
0.16557047 0.030407935 0.053710043 1.1876285e-38
0.16471198 0.032417946 0.052075863 1.3442205e-38
0.16682544 0.13702664 0.036853135 1.9063252e-38
0.16832358 0.13816725 0.036420643 1.9985564e-38
0.16051155 0.033127144 0.051222801 1.6202684e-38
0.163122 0.13582793 0.035747945 1.9061799e-38
0.15775397 0.033656679 0.050834179 1.7126064e-38
0.15692014 0.035584509 0.049484551 1.7583811e-38
0.15933479 0.13503981 0.034834206 1.8691581e-38
0.15314493 0.036502428 0.048568487 1.9147543e-38
0.15492195 0.13488619 0.033314049 1.9061099e-38
0.14865832 0.037612379 0.046403348 1.9978025e-38
0.15064937 0.13468654 0.032160521 1.8694836e-38
0.14455608 0.03763926 0.046216249 1.9702146e-38
0.14580795 0.13251895 0.030512869 1.8235994e-38
0.14733866 0.13409913 0.031781673 1.8603013e-38
0.13997573 0.038697302 0.043608427 1.9149689e-38
0.14317158 0.13147584 0.03023386 1.7592773e-38
0.13708743 0.038982764 0.042954743 1.887311e-38
0.13958135 0.13157131 0.029234648 1.4185159e-38
0.13331357 0.040416434 0.041957438 1.832029e-38
0.13259509 0.042378798 0.040795624 1.7949714e-38
0.13567659 0.1313646 0.028057516 8.927147e-39
0.13030994 0.041169465 0.041353285 1.8044076e-38
0.12978098 0.043286383 0.040254533 1.7124244e-38
0.13332003 0.13030839 0.027090192 7.6407186e-39
0.12659431 0.044142805 0.039548516 1.6665798e-38
0.1258367 0.04607451 0.03816855 1.6015772e-38
0.12291849 0.04485634 0.03853637 1.6661837e-38
0.12213403 0.047054201 0.037687182 1.647743e-38
0.12159604 0.051111177 0.036089838 1.5370364e-38
0.1219272 0.08403483 0.032032669 6.1666311e-39
0.1228095 0.095622554 0.030464172 8.5558506e-39
0.11864278 0.048614457 0.036649525 1.72168e-38
0.11879036 0.051156774 0.036056757 1.730827e-38
0.11860052 0.054793313 0.035205603 1.6201914e-38
0.11844549 0.058513045 0.034177184 1.3716233e-38
0.1192582 0.08355093 0.03109163 7.4555889e-39
0.12072408 0.08593525 0.031368196 6.6268946e-39
0.11982909 0.095485359 0.029233456 8.6480182e-39
0.11581156 0.051977158 0.035261691 1.8044787e-38
0.11509341 0.054943196 0.034457624 1.7306126e-38
0.11540842 0.058720618 0.033367753 1.4821876e-38
0.11498141 0.061227188 0.032489538 1.3809522e-38
0.11571661 0.080174163 0.029711187 9.2072932e-39
0.11585113 0.08288607 0.030378938 8.3786101e-39
0.11594224 0.094905898 0.028106868 9.7514777e-39
0.11187449 0.052315593 0.034018636 1.8041191e-38
0.11130896 0.054873228 0.033442795 1.7305422e-38
0.11144149 0.058714941 0.032757044 1.5742047e-38
0.11165866 0.06281966 0.031233549 1.3992858e-38
0.11074075 0.066263847 0.030410707 1.3348936e-38
0.11082697 0.070116028 0.02982676 1.2796824e-38
0.11097074 0.076536313 0.028853476 1.1877023e-38
0.11204335 0.079520717 0.02885592 1.0403678e-38
0.111783 0.082999632 0.029131949 9.9416353e-39
0.11150637 0.091508314 0.027700961 1.1319521e-38
0.11232615 0.094029188 0.027197301 1.1042221e-38
0.10799506 0.055225909 0.032385767 1.6477445e-38
0.10765639 0.058645576 0.031741917 1.5370036e-38
0.10775718 0.063146383 0.031059623 1.4084683e-38
0.10799819 0.067595117 0.030075788 1.3164539e-38
0.10794291 0.071280017 0.029431522 1.2519524e-38
0.10845301 0.075195387 0.028305292 1.1782319e-38
0.10825741 0.079163365 0.02832216 1.1138703e-38
0.10819986 0.082917728 0.028062344 1.1321691e-38
0.10747817 0.087774605 0.027075231 1.1963439e-38
0.10842326 0.090772808 0.026768625 1.1870167e-38
0.10906887 0.093548775 0.025848985 1.1686152e-38
0.1051062 0.056016721 0.031387746 1.5830641e-38
0.1039319 0.059203088 0.030528367 1.481614e-38
0.10401827 0.06306091 0.029943585 1.3990683e-38
0.10411906 0.067561708 0.029261291 1.3254589e-38
0.10420543 0.07141953 0.02867651 1.2609925e-38
0.1042918 0.075277358 0.028091609 1.2335123e-38
0.10453036 0.078977995 0.027577698 1.2059621e-38
0.10521233 0.0830101 0.027145207 1.2059604e-38
0.10455093 0.086850822 0.026337206 1.2425164e-38
0.10440686 0.090520203 0.024744153 1.2699961e-38
0.10154006 0.063646905 0.029102087 1.4082886e-38
0.10012275 0.071877047 0.027370632 1.3530089e-38
0.1007227 0.07482855 0.02708447 1.3438957e-38
0.10026771 0.087181345 0.024990857 1.3254931e-38
0.099709749 0.09033528 0.023794532 1.408217e-38
0.096742004 0.071891569 0.026346982 1.4633557e-38
0.096799582 0.074463457 0.025957048 1.4176167e-38
0.097101897 0.087965831 0.023910224 1.3991059e-38
0.096335948 0.09067373 0.023099065 1.5278556e-38
0.095590681 0.093296766 0.021552861 1.7488358e-38
0.091884315 0.091381088 0.021793067 1.896349e-38
0.09261772 0.093476638 0.020802379 2.0159539e-38
0.088723183 0.090995103 0.020265222 1.9425922e-38
0.089566112 0.092731252 0.019822299 2.0435053e-38
0.084876746 0.091475055 0.019308984 1.6660405e-38
0.085210413 0.092631683 0.018522203 1.7486197e-38
0.082304627 0.094696641 0.018373847 1.287968e-38
0.081353515 0.09746176 0.017120302 1.2052791e-38
0.07997033 0.10171235 0.016557693 1.1873437e-38
0.078080833 0.10213955 0.015707791 1.150681e-38
0.07702598 0.10449646 0.01452291 1.1413179e-38
0.075013936 0.10288432 0.014874697 1.1044037e-38
0.075071543 0.1054562 0.014484823 1.1689036e-38
0.075157911 0.10931402 0.013899982 1.4085046e-38
0.18724842 0.079383798 0.028859794 1.298193e-38
0.18926692 0.079719663 0.027790368 1.3071975e-38
0.12377578 0.070437342 0.025939584 8.4719058e-39
0.13312611 0.093306288 0.021721721 1.4822268e-38
0.18401513 0.019631758 0.06521523 8.1996377e-39
0.18532747 0.02236018 0.06465137 8.0116479e-39
0.18601352 0.025292344 0.062809467 6.6290918e-39
0.18856624 0.13702638 0.045710504 2.2393828e-38
0.18670851 0.13992471 0.046979547 2.2307387e-38
0.18194082 0.022551849 0.063597858 7.2715507e-39
0.18231453 0.025469325 0.061512947 6.3492581e-39
0.1863476 0.13782698 0.044032872 2.247992e-38
0.18474685 0.14072444 0.044499159 2.2669695e-38
0.17793946 0.023338612 0.062440515 6.8112956e-39
0.1785138 0.025120907 0.060570896 7.1800922e-39
0.1820945 0.14287843 0.04194808 2.2853024e-38
0.17469968 0.025491409 0.059095681 8.2878635e-39
0.17740743 0.14064221 0.041188061 2.2011366e-38
0.17113844 0.022784904 0.060825765 8.1031051e-39
0.17077175 0.025667548 0.058967054 9.3916957e-39
0.17018166 0.02869197 0.056431413 1.132348e-38
0.17363393 0.14035007 0.040731549 2.0904662e-38
0.16743159 0.026957676 0.05851686 1.0771757e-38
0.16723904 0.028765514 0.056939662 1.1414928e-38
0.1699221 0.14023679 0.039510787 2.016889e-38
0.16330793 0.029823035 0.055443704 1.2613851e-38
0.16338903 0.031754613 0.053894341 1.3259253e-38
0.16626315 0.1398633 0.038171113 1.9984133e-38
0.15936191 0.030002415 0.055596709 1.3719153e-38
0.16026871 0.031683281 0.052962959 1.4821909e-38
0.16138503 0.13725635 0.036581814 1.9339464e-38
0.1624479 0.13939096 0.037269294 1.9800806e-38
0.15583634 0.030272365 0.054752886 1.5653822e-38
0.15577543 0.032550573 0.052524805 1.712643e-38
0.15888876 0.1371993 0.035836697 1.9060741e-38
0.1582765 0.13968496 0.038005292 1.9431675e-38
0.1529357 0.030556604 0.054095805 1.7862529e-38
0.1521748 0.032985292 0.052189827 1.9149317e-38
0.15224239 0.035361305 0.049955666 1.9518108e-38
0.15469567 0.1371136 0.035904229 1.8969618e-38
0.15474164 0.13919397 0.037437737 1.9154015e-38
0.14817452 0.03362228 0.05164361 1.99773e-38
0.14889476 0.036006302 0.049546659 2.0253171e-38
0.15056452 0.13762866 0.035719335 1.8968539e-38
0.14972723 0.13907935 0.035940886 1.8876328e-38
0.14481553 0.036405474 0.048339009 2.0254599e-38
0.14660068 0.13625178 0.033463001 1.9063985e-38
0.14070767 0.036554918 0.04780817 1.9976933e-38
0.14132848 0.13293637 0.031206667 1.7410546e-38
0.14267462 0.13654405 0.033331275 1.8513307e-38
0.13675877 0.036917076 0.04729563 1.9423768e-38
0.13906756 0.1352116 0.032125473 1.3630202e-38
0.13366416 0.037226528 0.047217369 1.9331202e-38
0.13298288 0.038782537 0.043595433 1.8689427e-38
0.1338397 0.13276519 0.028971195 8.3797284e-39
0.13526902 0.13502103 0.030736387 9.1144053e-39
0.12863377 0.039743111 0.043336868 1.8689071e-38
0.13259158 0.13273665 0.028598726 8.4686912e-39
0.13262039 0.13402449 0.028403461 8.9368412e-39
0.12490648 0.040076964 0.042594016 1.8780544e-38
0.12497097 0.04310447 0.040490448 1.7217889e-38
0.12100208 0.040894277 0.042388618 1.8505022e-38
0.12110332 0.043476358 0.040772617 1.7675268e-38
0.12067461 0.046224169 0.038698494 1.6938051e-38
0.12159732 0.08743456 0.032451272 6.0730173e-39
0.12168381 0.091298029 0.031865478 6.9006214e-39
0.12236553 0.09388794 0.031661391 7.726799e-39
0.11705598 0.044069454 0.040719986 1.7860024e-38
0.11819276 0.046811014 0.037855685 1.7400841e-38
0.11779526 0.08477331 0.031724036 7.6407032e-39
0.11894864 0.08753489 0.031635106 6.9949624e-39
0.11909708 0.091282859 0.031321228 7.360145e-39
0.11924523 0.093816608 0.030729949 7.9115251e-39
0.11329928 0.044033065 0.039987028 1.822772e-38
0.11391219 0.04753688 0.0378564 1.7861089e-38
0.11412364 0.050794028 0.035995722 1.7769646e-38
0.11467493 0.084701985 0.030792594 8.5626329e-39
0.11535665 0.087291896 0.030588448 8.3750172e-39
0.11544317 0.091155365 0.030002713 9.0160748e-39
0.11674899 0.093759552 0.029984832 8.9224387e-39
0.11023322 0.04466325 0.038960934 1.7952581e-38
0.10988218 0.047534615 0.03734374 1.804477e-38
0.11049849 0.050812304 0.035199523 1.7768194e-38
0.11280274 0.084659174 0.030233741 9.3898922e-39
0.11161229 0.087206304 0.029470742 1.0398646e-38
0.11218652 0.090566054 0.02911222 1.0673793e-38
0.10602322 0.04769358 0.03681314 1.730399e-38
0.10668394 0.051177427 0.034626544 1.7030263e-38
0.10629573 0.054047525 0.033115625 1.6477083e-38
0.10827434 0.086700931 0.02854234 1.1596099e-38
0.10259917 0.048798107 0.035999835 1.7304705e-38
0.10241047 0.051252924 0.034614861 1.6843732e-38
0.10324302 0.054674961 0.032093942 1.6107231e-38
0.10346028 0.057415158 0.031725645 1.546258e-38
0.1027312 0.080567464 0.027839005 1.2426967e-38
0.10310093 0.083150245 0.027541697 1.2518804e-38
0.098769039 0.051703237 0.034206569 1.702741e-38
0.099175245 0.05490537 0.032002509 1.6475659e-38
0.099744767 0.058617383 0.030412793 1.5644818e-38
0.099730909 0.063063644 0.029704452 1.454207e-38
0.099946588 0.067632154 0.029046178 1.3713407e-38
0.10000426 0.070207804 0.028655767 1.3437897e-38
0.099524379 0.076632664 0.027493358 1.3530805e-38
0.10020611 0.079222575 0.027289093 1.3254563e-38
0.10029262 0.083086044 0.026703477 1.2795368e-38
0.10035029 0.085661694 0.026313007 1.2979058e-38
0.095196128 0.055580281 0.032477915 1.7119212e-38
0.095023304 0.058847845 0.031297803 1.6291614e-38
0.096101314 0.063039176 0.028611779 1.5370399e-38
0.096202224 0.067546561 0.027928531 1.4634987e-38
0.096075892 0.07119064 0.027313292 1.4358763e-38
0.09637931 0.075457491 0.026729286 1.3899587e-38
0.096461743 0.079136983 0.026171446 1.344004e-38
0.096548229 0.083000451 0.025585771 1.2795382e-38
0.096209079 0.086425141 0.024941027 1.3253856e-38
0.091283947 0.059066623 0.030955255 1.656786e-38
0.091750056 0.063213237 0.027873456 1.6016127e-38
0.09183374 0.067446701 0.02662456 1.5646979e-38
0.091920257 0.071310177 0.026038945 1.4633918e-38
0.092006773 0.075173646 0.02545321 1.3991057e-38
0.092093259 0.079037115 0.024867535 1.3347846e-38
0.092507064 0.083034515 0.025063932 1.3439321e-38
0.092065662 0.087139532 0.02494967 1.352578e-38
0.092603743 0.089897767 0.023301899 1.656858e-38
0.086563021 0.060066834 0.029370666 1.6845166e-38
0.087455779 0.062900901 0.028135002 1.6109397e-38
0.087511986 0.067549787 0.025566697 1.5280346e-38
0.087551832 0.071210317 0.024734974 1.4635e-38
0.087638319 0.075073794 0.024149239 1.3899586e-38
0.08789745 0.079123981 0.024642825 1.3440752e-38
0.088160545 0.083185524 0.025135636 1.3255303e-38
0.088031024 0.086917073 0.024637699 1.2604888e-38
0.087962717 0.08956182 0.021952927 1.6570392e-38
0.084682614 0.060023844 0.028809369 1.6019727e-38
0.083939761 0.063433006 0.027622402 1.5651295e-38
0.083891302 0.067340508 0.025902271 1.5005212e-38
0.08427909 0.071192026 0.024101317 1.4449533e-38
0.083909243 0.075225346 0.024407566 1.380703e-38
0.084216982 0.079263419 0.024800062 1.3347819e-38
0.084101528 0.083218768 0.024608493 1.2796841e-38
0.084188342 0.087096483 0.024020731 1.2146772e-38
0.084113538 0.090082586 0.02155292 1.5187802e-38
0.081023127 0.064465031 0.027000487 1.5187816e-38
0.080545276 0.067658491 0.026174247 1.4727194e-38
0.080261469 0.071654916 0.025235653 1.426621e-38
0.080500424 0.074981824 0.025001049 1.3808099e-38
0.081356198 0.079339966 0.024745524 1.3348189e-38
0.081414133 0.081926912 0.024353325 1.307091e-38
0.08093214 0.088379949 0.023185909 1.3623715e-38
0.080066413 0.090732858 0.022400796 1.4634615e-38
0.080212563 0.094375044 0.019694686 1.3251696e-38
0.079406023 0.097410992 0.018124878 1.1961325e-38
0.075290918 0.088250995 0.021502018 1.4359851e-38
0.076602459 0.09086661 0.021484077 1.5004839e-38
0.076761752 0.094483927 0.020430982 1.3808099e-38
0.076615721 0.098362669 0.018187702 1.196563e-38
0.076372236 0.10120314 0.016607821 1.1229857e-38
0.073783547 0.095542461 0.019891977 1.2699968e-38
0.072787851 0.098290756 0.018854022 1.1505706e-38
0.07263279 0.10181651 0.016437531 1.0767455e-38
0.072254509 0.10583638 0.01568675 1.1783021e-38
0.069823474 0.095882878 0.01864171 1.2056737e-38
0.069616884 0.098648474 0.018141329 1.1229487e-38
0.068952769 0.10221872 0.016846955 1.1322787e-38
0.069226772 0.10583341 0.01662147 1.1967778e-38
0.070113093 0.10881761 0.016680896 1.2983724e-38
0.17458987 0.11387365 0.024786115 1.4640748e-38
0.18026404 0.078035936 0.028741717 1.3901367e-38
0.18930781 0.11951505 0.032330692 1.9154751e-38
0.12294108 0.074256383 0.030703187 1.4912279e-38
0.10842326 0.090772808 0.026768625 1.1870167e-38
0.11408296 0.09241581 0.028585136 9.4770516e-39
0.16345575 0.027114339 0.060225725 1.0316186e-38
0.10324302 0.054674961 0.032093942 1.6107231e-38
0.18077716 0.019773424 0.066679955 8.1027337e-39
0.18039684 0.021494113 0.066292524 7.6399619e-39
0.17668521 0.019772306 0.066500425 7.8247329e-39
0.17699471 0.021648169 0.065416455 7.2711808e-39
0.17269084 0.01974263 0.066002846 7.2733696e-39
0.17352772 0.021244779 0.064433038 7.2740689e-39
0.17559393 0.14455041 0.046763241 2.2752536e-38
0.16953859 0.019670572 0.065061867 7.4573727e-39
0.16897571 0.021696985 0.063162148 8.0112752e-39
0.17181246 0.14446399 0.045634449 2.1918814e-38
0.16601264 0.022431094 0.063348174 8.8385443e-39
0.16556036 0.025564574 0.061417222 1.0127478e-38
0.16904667 0.14408214 0.043626726 2.0813178e-38
0.16203141 0.026399538 0.061376214 1.1415336e-38
0.16199934 0.028459795 0.059983671 1.224543e-38
0.1641466 0.14345838 0.042773426 2.026e-38
0.1583944 0.028518185 0.060293972 1.3536542e-38
0.16045156 0.14392933 0.041846693 2.0169599e-38
0.15408354 0.029505007 0.056722164 1.6112633e-38
0.15595284 0.14105313 0.039622366 1.9335898e-38
0.15695915 0.14391266 0.040412724 1.9985945e-38
0.15664661 0.14745916 0.040930569 2.0726726e-38
0.15048674 0.03000591 0.056190252 1.83228e-38
0.15302813 0.14072946 0.039054036 1.9154014e-38
0.15326494 0.14352651 0.039626122 1.9801192e-38
0.14664042 0.030145317 0.055957019 1.8690871e-38
0.14722674 0.031941406 0.054264843 1.9795785e-38
0.14970493 0.14078818 0.038569152 1.8784124e-38
0.14948085 0.14293365 0.038954079 1.9062524e-38
0.14364409 0.030311778 0.05520153 1.9336958e-38
0.14299402 0.032430053 0.053542793 2.0346807e-38
0.1456984 0.14030512 0.037171185 1.9339841e-38
0.14551905 0.14297868 0.038278341 1.9340553e-38
0.13958097 0.033530101 0.052609086 2.0255332e-38
0.14198548 0.14017534 0.035893798 1.8423632e-38
0.14141381 0.14255978 0.037104487 1.8237807e-38
0.13570988 0.034118734 0.052025497 1.9976946e-38
0.13536999 0.035560101 0.050109744 1.970179e-38
0.13807246 0.13952677 0.035166621 1.2519538e-38
0.13889202 0.14250211 0.0363518 1.3629152e-38
0.13143063 0.03440351 0.051216006 2.0162747e-38
0.13163474 0.036397874 0.049376965 1.9610286e-38
0.13323513 0.1366441 0.033457279 8.7467116e-39
0.13434187 0.1391601 0.034449875 1.0126744e-38
0.12890884 0.034345858 0.0504632 1.9795758e-38
0.12809476 0.036808312 0.048770726 1.9520235e-38
0.13134924 0.13660099 0.032894373 9.2098366e-39
0.13137832 0.13789824 0.032697737 1.0312225e-38
0.12414259 0.03677097 0.048052251 2.0068755e-38
0.12063712 0.037170798 0.04734087 1.9515964e-38
0.11935008 0.039638355 0.045680642 1.8964218e-38
0.11764809 0.03798946 0.046484292 1.9515234e-38
0.11614761 0.040388696 0.044242263 1.8780545e-38
0.11605683 0.042898066 0.043112993 1.8135891e-38
0.11259174 0.040740222 0.043112338 1.8778754e-38
0.11102784 0.042783104 0.04161191 1.8321002e-38
0.10872236 0.040407732 0.042216063 1.8687987e-38
0.10811356 0.043580875 0.040605187 1.7400846e-38
0.1050258 0.040771224 0.04180783 1.7954741e-38
0.10458219 0.043989524 0.039943159 1.6937361e-38
0.10357144 0.046502374 0.038770258 1.7118174e-38
0.10197422 0.041532181 0.041187942 1.7304001e-38
0.10041234 0.044177458 0.03963685 1.7210711e-38
0.10089806 0.047367394 0.037825644 1.7580576e-38
0.09680143 0.044742033 0.038694263 1.8225205e-38
0.096976101 0.047753543 0.037401438 1.7857493e-38
0.096398503 0.050706819 0.036289632 1.7488737e-38
0.093093127 0.04826431 0.03743881 1.7767109e-38
0.093434036 0.051519156 0.035382807 1.7305418e-38
0.093073606 0.054690138 0.034302115 1.7487281e-38
0.090170413 0.049064383 0.036429107 1.6847345e-38
0.089412391 0.051505536 0.034756958 1.7030283e-38
0.089944959 0.055266917 0.03326571 1.7121747e-38
0.088760346 0.058481261 0.032398641 1.6661854e-38
0.085435152 0.051477656 0.034029365 1.7676001e-38
0.085972816 0.055240825 0.032539427 1.6845532e-38
0.086431652 0.058705874 0.031659722 1.6569303e-38
0.081908077 0.051885754 0.033310056 1.6754034e-38
0.081995845 0.055215247 0.031811476 1.5924644e-38
0.082270592 0.05883798 0.030513704 1.5834615e-38
0.081303954 0.062200546 0.029557109 1.55584e-38
0.078160852 0.056012198 0.031278074 1.5556927e-38
0.078306437 0.05902566 0.030093491 1.5831364e-38
0.078514934 0.0631897 0.028663576 1.5280362e-38
0.077662915 0.067951888 0.027546287 1.45428e-38
0.07772103 0.070546366 0.027152956 1.4450249e-38
0.078275651 0.076609723 0.026360333 1.3441818e-38
0.078552932 0.079641402 0.025964081 1.2980106e-38
0.079115182 0.083706051 0.025490284 1.2795392e-38
0.079167932 0.08706446 0.024974346 1.3255293e-38
0.075080931 0.059408605 0.029968143 1.4908309e-38
0.074618608 0.063489407 0.028301895 1.4819386e-38
0.075096369 0.067911863 0.026894629 1.4638215e-38
0.075235546 0.071786135 0.026205838 1.4083614e-38
0.075322658 0.075677849 0.025615931 1.3440756e-38
0.0754098 0.079569563 0.025025964 1.3072685e-38
0.075496972 0.083461285 0.024435997 1.3256006e-38
0.075737596 0.087194428 0.023917437 1.408326e-38
0.070624322 0.064343899 0.027840257 1.4913375e-38
0.070904791 0.067963228 0.026559353 1.4450955e-38
0.071201295 0.071788751 0.025573552 1.389922e-38
0.071498305 0.075609893 0.024588525 1.3163819e-38
0.071638048 0.079483345 0.023900032 1.3164178e-38
0.071725219 0.083375067 0.023310065 1.3256377e-38
0.071812332 0.087266788 0.022720098 1.3807756e-38
0.071899474 0.091158494 0.022130132 1.4266213e-38
0.07155782 0.094608217 0.02148068 1.2701037e-38
0.066987306 0.069014758 0.026265919 1.3898138e-38
0.067055345 0.071827352 0.025136709 1.4082537e-38
0.067354679 0.07565251 0.024151802 1.3069106e-38
0.067706734 0.079454392 0.023069084 1.2058193e-38
0.067847043 0.083328068 0.02238065 1.2244372e-38
0.06804058 0.087180555 0.021594286 1.2795388e-38
0.068127722 0.091072261 0.021004319 1.2701748e-38
0.06802693 0.094589233 0.020416975 1.2148575e-38
0.067030221 0.098178327 0.019547403 1.0770667e-38
0.067233533 0.10725899 0.018170834 1.2335479e-38
0.068187565 0.11099093 0.018320918 1.3992844e-38
0.068584085 0.1142218 0.018532813 1.3073043e-38
0.064244956 0.073178172 0.024778068 1.3529716e-38
0.063408107 0.076504111 0.02378726 1.2609912e-38
0.06370005 0.079774842 0.023116052 1.1780863e-38
0.063591778 0.083419189 0.022137225 1.1874121e-38
0.064000338 0.087195784 0.020958185 1.2426231e-38
0.064194649 0.091048911 0.02017194 1.1691163e-38
0.064174742 0.094985917 0.019777298 1.1597921e-38
0.064369023 0.098836124 0.018991411 1.1138694e-38
0.064456195 0.10272971 0.018401206 1.1689728e-38
0.064440429 0.10664745 0.018782437 1.251914e-38
0.065060586 0.10960628 0.019255817 1.3164877e-38
0.060695261 0.083499745 0.022071242 1.140742e-38
0.05992642 0.08744821 0.020685256 1.0948975e-38
0.059825212 0.091193318 0.020120442 1.0582324e-38
0.060276806 0.094851464 0.019222617 1.1594685e-38
0.060965091 0.098679379 0.019220531 1.2610586e-38
0.061011046 0.1025794 0.018299878 1.1781571e-38
0.18306914 0.081249923 0.028193831 1.3902089e-38
0.17106253 0.084375739 0.023459196 1.5652376e-38
0.17182344 0.080180719 0.023598075 1.5008447e-38
0.16024598 0.067222625 0.022410572 1.6387774e-38
0.1875616 0.049056388 0.043269038 2.136599e-38
0.10917556 0.064179175 0.032087684 1.3992489e-38
0.11535665 0.087291896 0.030588448 8.3750172e-39
0.17181246 0.14446399 0.045634449 2.1918814e-38
0.17151344 0.018078361 0.069608569 7.1811656e-39
0.17434393 0.14692144 0.050236464 2.2849039e-38
0.16779202 0.019066855 0.068151772 7.4552161e-39
0.17064896 0.14674531 0.048795879 2.2018912e-38
0.1647533 0.019838482 0.066759288 8.2857111e-39
0.16339022 0.02204423 0.065469921 9.115127e-39
0.16647007 0.14636959 0.04776895 2.0631675e-38
0.16541854 0.14942479 0.047495782 2.2581446e-38
0.16101795 0.02330048 0.065787017 1.0127107e-38
0.15983173 0.025317974 0.063700378 1.1785556e-38
0.1632365 0.14608942 0.046043992 2.0260377e-38
0.16274032 0.14895037 0.046610951 2.1835628e-38
0.15675929 0.02658736 0.063577354 1.3168474e-38
0.15580845 0.028670289 0.061601818 1.4641087e-38
0.16096684 0.14615734 0.044555068 2.01689e-38
0.15894336 0.14838132 0.045282125 2.07246e-38
0.1525335 0.026844859 0.063014686 1.4457769e-38
0.15304601 0.028677538 0.061470449 1.6021495e-38
0.15613648 0.1479703 0.043513119 2.0726373e-38
0.14905331 0.027092256 0.06192404 1.5009857e-38
0.1491293 0.028623208 0.060647964 1.6298086e-38
0.1513055 0.14607398 0.042177737 2.1368144e-38
0.15207313 0.14781187 0.043719411 2.0912555e-38
0.14533871 0.026981413 0.06055522 1.4273735e-38
0.14533016 0.028536357 0.059513927 1.59268e-38
0.14794436 0.14526461 0.041818798 2.0629849e-38
0.14240256 0.027267188 0.059887111 1.436234e-38
0.14100561 0.029343061 0.058432043 1.7678173e-38
0.14350167 0.14472708 0.040561736 2.0077753e-38
0.1380997 0.030656077 0.056993842 1.9795447e-38
0.13737282 0.032216795 0.055998862 2.0163518e-38
0.14011869 0.144908 0.039246917 1.7870461e-38
0.13912788 0.14723907 0.038842499 1.6028363e-38
0.13373849 0.030956283 0.056333244 2.0255689e-38
0.13393059 0.03267087 0.054992676 2.0161697e-38
0.13652244 0.14462887 0.038072586 1.2062529e-38
0.1360532 0.14791344 0.038652241 1.2066843e-38
0.12980846 0.030902892 0.055506527 1.9885831e-38
0.13042751 0.032710083 0.053822517 2.0161329e-38
0.1324268 0.14159264 0.036655664 1.1876984e-38
0.13269463 0.14451084 0.037448466 1.2711065e-38
0.13283375 0.14778447 0.037488639 8.747055e-39
0.12600383 0.030815922 0.05437088 2.0069154e-38
0.12638661 0.033135034 0.052798569 1.979471e-38
0.13013157 0.14115746 0.037087739 1.2530292e-38
0.12983567 0.14534174 0.037392378 1.6390681e-38
0.12265238 0.033240654 0.051917791 2.0159167e-38
0.11880064 0.033825383 0.050837576 1.979149e-38
0.11847845 0.036076263 0.049151182 1.9699996e-38
0.11531201 0.034495115 0.05055815 1.9791131e-38
0.11503038 0.036806583 0.048918307 1.9883303e-38
0.11115974 0.036949098 0.048328102 1.9976207e-38
0.1111798 0.039387025 0.046421885 1.9238648e-38
0.10721105 0.037559487 0.04744941 1.9514517e-38
0.109283 0.039343663 0.045855641 1.9239357e-38
0.10335201 0.038145311 0.04636687 1.960922e-38
0.10366184 0.039378569 0.045560837 1.9056766e-38
0.099905133 0.040165842 0.043798089 1.8413915e-38
0.099254221 0.043026723 0.042242646 1.6292721e-38
0.096681297 0.041011751 0.041784406 1.8317064e-38
0.09609285 0.04295446 0.041299045 1.840782e-38
0.092376232 0.041059442 0.041708887 1.831994e-38
0.092689216 0.04404977 0.040361404 1.8227369e-38
0.091754526 0.046767592 0.039384544 1.804262e-38
0.088463396 0.041205429 0.04138428 1.7676338e-38
0.088821471 0.04419288 0.039727986 1.6753323e-38
0.089065641 0.047637627 0.038434386 1.7030283e-38
0.08505097 0.041650556 0.040282845 1.6844448e-38
0.084724694 0.044185951 0.039195836 1.6199799e-38
0.085311383 0.047969006 0.037599921 1.6847325e-38
0.081437647 0.044445276 0.038748622 1.6295578e-38
0.081161976 0.047979936 0.037166476 1.6754035e-38
0.080005229 0.050550789 0.036292374 1.712387e-38
0.076968819 0.048659071 0.036731303 1.5464375e-38
0.077339292 0.051631875 0.035315752 1.5649492e-38
0.077387512 0.054263771 0.033856988 1.5557658e-38
0.073559374 0.052183822 0.034841239 1.4542799e-38
0.073744178 0.055431135 0.033363879 1.4819005e-38
0.072329462 0.059402242 0.031779349 1.4905068e-38
0.070096254 0.053079486 0.033954978 1.4176882e-38
0.069858938 0.055797681 0.033056557 1.4082158e-38
0.069712698 0.059270307 0.031802237 1.4265473e-38
0.069739431 0.061991766 0.030850887 1.4542076e-38
0.066999018 0.056278348 0.032512665 1.371336e-38
0.066417843 0.060026973 0.031532168 1.4083239e-38
0.066075355 0.063698702 0.030107677 1.5003387e-38
0.065425187 0.067552984 0.028138578 1.3804872e-38
0.06565389 0.11617583 0.021564364 1.2429459e-38
0.062458783 0.064778641 0.029398739 1.4817561e-38
0.062132508 0.068398051 0.027890503 1.3897057e-38
0.062200338 0.072174028 0.026432574 1.3529717e-38
0.061739177 0.075097725 0.025830209 1.2978335e-38
0.060885727 0.079316542 0.024904251 1.1965257e-38
0.061528414 0.10802147 0.020552754 1.3437862e-38
0.062756151 0.11146267 0.021083117 1.3898849e-38
0.063037813 0.11581579 0.021585941 1.2610596e-38
0.063325197 0.11864495 0.021526515 1.1599694e-38
0.058975428 0.065903932 0.028564334 1.4358035e-38
0.058744043 0.068615213 0.027669013 1.3620819e-38
0.058872968 0.072084531 0.026366055 1.3162716e-38
0.058671832 0.07609424 0.025274038 1.2794659e-38
0.05875954 0.080011383 0.024680257 1.1963091e-38
0.058296263 0.083883882 0.023750901 1.140527e-38
0.057486445 0.096844211 0.021101713 9.5610118e-39
0.058336824 0.10033582 0.021862209 1.086431e-38
0.057952106 0.1051165 0.022045553 1.1046883e-38
0.059049129 0.10757206 0.021107554 1.2793912e-38
