# .PCD v0.7 - Point Cloud Data file format
VERSION 0.7
FIELDS x y z rgb
SIZE 4 4 4 4
TYPE F F F F
COUNT 1 1 1 1
WIDTH 976
HEIGHT 1
VIEWPOINT 0 0 0 0 1 0 0
POINTS 976
DATA ascii
0.13522084 0.029663309 0.042973757 2.0437544e-38
0.13542134 0.13296829 0.027154803 1.9250168e-38
0.13158983 0.031049088 0.043458521 2.034571e-38
0.1310077 0.03291674 0.040692151 1.9519175e-38
0.13169974 0.13275741 0.027433097 1.915978e-38
0.12707105 0.033699021 0.040890813 1.9056045e-38
0.12655798 0.12945682 0.025601923 1.2985896e-38
0.12739763 0.13169529 0.027419746 1.4274484e-38
0.12335931 0.03424383 0.041259289 1.8781259e-38
0.12239116 0.036648318 0.039327204 1.841284e-38
0.12290893 0.1295 0.025221705 1.0125312e-38
0.12472993 0.13086136 0.027514815 1.0958626e-38
0.11980411 0.034516446 0.041537941 1.8690498e-38
0.11840437 0.037058115 0.039495468 1.8044782e-38
0.11866723 0.12836272 0.025262356 7.3634171e-39
0.120193 0.13076678 0.026895463 9.7644593e-39
0.11482339 0.03775382 0.039180756 1.804334e-38
0.11423241 0.040165901 0.036833346 1.7124956e-38
0.11051232 0.038054705 0.039529502 1.8042987e-38
0.11096464 0.040622286 0.03659898 1.7032395e-38
0.10942659 0.085728578 0.031247318 4.9720368e-39
0.10976243 0.088710189 0.029477417 6.9917212e-39
0.10787843 0.038666032 0.039238393 1.8320988e-38
0.10683687 0.041271873 0.037673891 1.7217875e-38
0.10689774 0.043831542 0.035759628 1.7122448e-38
0.10863978 0.082121693 0.029645741 5.9826014e-39
0.1077179 0.084862344 0.029098511 6.5361213e-39
0.10734916 0.087890476 0.028584599 7.1757496e-39
0.10398962 0.042465702 0.038114965 1.7769967e-38
0.10299402 0.044427954 0.035779774 1.7861448e-38
0.099160507 0.044782303 0.035725057 1.804513e-38
0.099605501 0.047159284 0.033722222 1.8229524e-38
0.096212 0.042303585 0.037053227 1.7766784e-38
0.095339 0.04467506 0.034980655 1.7491246e-38
0.095733672 0.047400564 0.033144534 1.7491234e-38
0.091258526 0.045328319 0.035048425 1.7121401e-38
0.091675475 0.048368856 0.033110499 1.6751905e-38
0.091861844 0.051505625 0.031976819 1.6198008e-38
0.087462172 0.045678541 0.035315573 1.7582011e-38
0.087232754 0.04853981 0.034506321 1.7212156e-38
0.08775723 0.051936895 0.031592906 1.6475303e-38
0.086699396 0.054617837 0.030780435 1.6106162e-38
0.083777934 0.048898973 0.033968806 1.7672399e-38
0.084053397 0.052016921 0.031034887 1.7303986e-38
0.083601952 0.055326037 0.030239642 1.6658619e-38
0.083472878 0.059702307 0.029553354 1.5831017e-38
0.083150238 0.080624431 0.026313603 1.2520603e-38
0.082827583 0.084159516 0.025728762 1.3069447e-38
0.079654291 0.052169144 0.032212675 1.7306148e-38
0.080048651 0.055861607 0.030342221 1.6843704e-38
0.080180332 0.059666701 0.029325783 1.6292711e-38
0.079601049 0.062197462 0.028631508 1.6018998e-38
0.078955755 0.077639163 0.026183546 1.3531161e-38
0.079877615 0.080418244 0.025888026 1.3072678e-38
0.079816163 0.083882093 0.025350451 1.2976549e-38
0.076443866 0.052563556 0.032725096 1.721502e-38
0.075672314 0.056008875 0.031410456 1.6846581e-38
0.07547906 0.059659533 0.029294252 1.6292328e-38
0.07766515 0.063445032 0.028170586 1.5831015e-38
0.075342059 0.077306248 0.025729537 1.3622638e-38
0.076307222 0.080199532 0.025649548 1.2979764e-38
0.075553223 0.083890803 0.02475363 1.260743e-38
0.074438632 0.08656051 0.024190247 1.6209164e-38
0.072879136 0.053459436 0.032090366 1.6754041e-38
0.07175298 0.055943079 0.030986547 1.6384898e-38
0.071492687 0.059678502 0.028175235 1.5923193e-38
0.070244133 0.062968366 0.027206719 1.51885e-38
0.069921464 0.068435341 0.026326835 1.4448808e-38
0.070843324 0.072502352 0.02583468 1.3806323e-38
0.071754575 0.076259457 0.025728583 1.27972e-38
0.071855187 0.080444358 0.026919127 1.2243627e-38
0.071373433 0.084081754 0.024140596 1.1870207e-38
0.068153352 0.056091495 0.030736506 1.5922137e-38
0.067883343 0.059493825 0.029322147 1.5555849e-38
0.067427292 0.063991763 0.027422845 1.4819709e-38
0.067671403 0.068550244 0.027016282 1.4174725e-38
0.067567319 0.072473958 0.026742995 1.3255289e-38
0.06790182 0.076525122 0.027192295 1.2335141e-38
0.067728519 0.080497153 0.027128935 1.1782682e-38
0.067546755 0.084077656 0.025940776 1.2333328e-38
0.067561015 0.086971909 0.02384758 1.4910497e-38
0.065101504 0.05717805 0.030436039 1.5278189e-38
0.064709395 0.059955932 0.029548705 1.5001604e-38
0.064287558 0.064198166 0.02873987 1.4543494e-38
0.063875467 0.068758965 0.028269589 1.3438595e-38
0.063805223 0.072673976 0.027888894 1.2519146e-38
0.064064488 0.075783961 0.027450204 1.2518442e-38
0.063805237 0.08043544 0.026703715 1.2519891e-38
0.064237326 0.084540784 0.026137233 1.3992852e-38
0.063762665 0.087962583 0.025165439 1.5372182e-38
0.063307136 0.091319203 0.021908641 1.3805927e-38
0.061212704 0.064858459 0.028720081 1.3805206e-38
0.060564578 0.06872569 0.028039038 1.3254567e-38
0.060564578 0.073253214 0.027347684 1.2795011e-38
0.059916422 0.07595621 0.026844442 1.2887933e-38
0.059592366 0.08067102 0.026079237 1.3717685e-38
0.059161067 0.084804066 0.025047541 1.3901366e-38
0.059702426 0.087857068 0.023635745 1.3990333e-38
0.059596628 0.09075889 0.021475852 1.2885413e-38
0.058306009 0.096527666 0.02041471 1.1417395e-38
0.058306009 0.10039146 0.019824743 1.1232736e-38
0.058736205 0.10769869 0.018769085 1.3439638e-38
0.056397974 0.076585107 0.026256919 1.2150365e-38
0.056027621 0.08027333 0.025642037 1.2609914e-38
0.055512115 0.084068991 0.024581909 1.2427663e-38
0.055651605 0.08749865 0.021649539 1.1598645e-38
0.05572477 0.090678185 0.020947337 1.1411386e-38
0.055356026 0.095362261 0.020180643 1.0953626e-38
0.055480197 0.09909685 0.019882977 1.1599373e-38
0.055903763 0.10285479 0.019696653 1.2246853e-38
0.055950508 0.10695118 0.020791769 1.3073749e-38
0.053435072 0.080219284 0.025288105 1.2241495e-38
0.051978573 0.084038615 0.024331272 1.1780484e-38
0.051508605 0.087816522 0.022327125 1.1322752e-38
0.051777691 0.091282949 0.020530522 1.1690108e-38
0.051777691 0.095148817 0.019940257 1.1322029e-38
0.051677004 0.099011838 0.020130634 1.1875941e-38
0.052682519 0.10298656 0.021366179 1.1876632e-38
0.049546272 0.085312538 0.023967147 1.2152503e-38
0.047439829 0.088017479 0.023259878 1.0950035e-38
0.047333613 0.091516256 0.021576107 1.03958e-38
0.047675878 0.095197544 0.020040631 1.0027714e-38
0.047575831 0.09938626 0.02097559 1.1594303e-38
0.044361189 0.091672346 0.022271693 8.7290889e-39
0.044037119 0.095546335 0.021634936 8.4571866e-39
0.077715099 0.098501265 0.0054644942 1.6292003e-38
0.1424139 0.083784647 0.013797522 1.601972e-38
0.14487642 0.09830521 0.010791719 1.2520955e-38
0.12011173 0.075599827 0.012990534 1.5559451e-38
0.16097443 0.11921634 0.01994586 1.5562343e-38
0.10066065 0.084148951 0.024647355 1.3625489e-38
0.14894159 0.13088274 0.026298344 1.9338384e-38
0.1450673 0.026919536 0.048609793 1.021931e-38
0.16955537 0.015642442 0.054773748 7.6407074e-39
0.16960976 0.018215708 0.054048061 6.7201902e-39
0.1690404 0.14020041 0.034831643 2.3038836e-38
0.16423129 0.012983751 0.055116773 7.363759e-39
0.16566664 0.01555261 0.054130793 7.4559532e-39
0.16615611 0.018404614 0.052770793 7.3644638e-39
0.16576087 0.13822806 0.034844935 2.2293346e-38
0.16525088 0.14077368 0.035491228 2.2942287e-38
0.16187365 0.015658345 0.053868413 7.2737171e-39
0.16188544 0.018661089 0.052390456 8.1034694e-39
0.16176876 0.1382747 0.034790695 2.1644017e-38
0.16292746 0.14111593 0.035369694 2.3032662e-38
0.15858141 0.016335614 0.053815782 8.0098416e-39
0.15799534 0.019222893 0.051688254 9.2994931e-39
0.15755954 0.13811702 0.034465075 2.1454223e-38
0.15392433 0.019866426 0.05194521 1.0034558e-38
0.15384744 0.022018932 0.050244153 1.0769975e-38
0.15398696 0.13793941 0.033584654 2.0719141e-38
0.15021524 0.02017298 0.052061081 1.1416414e-38
0.15008017 0.023004901 0.050588548 1.2705705e-38
0.1498974 0.13671166 0.03279233 2.0537304e-38
0.14618987 0.0231557 0.050787985 1.4176167e-38
0.14572217 0.025417268 0.048590243 1.5280367e-38
0.14624041 0.13652287 0.032378316 2.0168879e-38
0.14206639 0.024231728 0.050302982 1.5834618e-38
0.14220129 0.026121341 0.049352467 1.6848752e-38
0.14264542 0.13614464 0.032019019 1.9707169e-38
0.13836288 0.027029395 0.04833734 1.8968164e-38
0.13848089 0.13637774 0.032678187 1.878844e-38
0.13458952 0.027418911 0.048363388 1.9978724e-38
0.13406837 0.13637856 0.031653166 1.9524952e-38
0.13163584 0.027917638 0.0482831 2.0437907e-38
0.12947161 0.13405545 0.02973181 1.750098e-38
0.1305075 0.13620195 0.030774236 1.8329659e-38
0.12667826 0.030668728 0.046003401 2.0066968e-38
0.12654653 0.13367015 0.02938199 1.2615692e-38
0.12576866 0.13578749 0.030992448 1.1137359e-38
0.1226629 0.030913495 0.045891345 2.0073427e-38
0.12297139 0.032727107 0.044295907 1.9424474e-38
0.12293255 0.13331282 0.029101968 1.0307531e-38
0.12262562 0.135594 0.030072331 1.0585198e-38
0.11869913 0.030576825 0.045632243 2.0162401e-38
0.11862737 0.033014506 0.044155896 1.9242237e-38
0.11895286 0.13288179 0.028952301 9.2098142e-39
0.11494698 0.030952662 0.045488358 1.9884735e-38
0.11500907 0.033930354 0.043680727 1.9150414e-38
0.1138711 0.03642945 0.042459369 1.8872741e-38
0.11077476 0.031386144 0.044839382 1.9884383e-38
0.1109951 0.033894956 0.04357928 1.9427005e-38
0.11127099 0.036375254 0.042104423 1.9057141e-38
0.10738218 0.034314364 0.04357785 1.9332657e-38
0.10685229 0.037185974 0.041703761 1.8595082e-38
0.10607083 0.04015889 0.040800214 1.7678494e-38
0.10360377 0.035139993 0.043264389 1.9515961e-38
0.10315321 0.037643388 0.04202497 1.868942e-38
0.10209602 0.041407518 0.040346205 1.795222e-38
0.099264249 0.038006857 0.042074621 1.8687981e-38
0.098721266 0.041392386 0.040351152 1.8135533e-38
0.095454901 0.038548186 0.041605651 1.8133014e-38
0.094489112 0.041074596 0.040063798 1.7581652e-38
0.091869414 0.038798727 0.041066527 1.7582713e-38
0.090319946 0.041425034 0.03955555 1.6937347e-38
0.090376899 0.043765172 0.03839767 1.7213954e-38
0.086348176 0.041119069 0.039634466 1.804261e-38
0.086082578 0.044252537 0.038200021 1.7860383e-38
0.082416728 0.042179748 0.039229751 1.8412847e-38
0.082412362 0.044965893 0.037669122 1.831992e-38
0.081803352 0.047869563 0.036232829 1.8041893e-38
0.07857272 0.045508094 0.036823034 1.7766403e-38
0.078736901 0.04868497 0.035793543 1.7672773e-38
0.074648634 0.045674838 0.037202418 1.7767489e-38
0.074568391 0.048714906 0.036114335 1.7492337e-38
0.074029177 0.052232064 0.034685016 1.7030275e-38
0.070356399 0.046156973 0.036937773 1.7675989e-38
0.070560828 0.048675045 0.03590095 1.7029916e-38
0.070807129 0.052235126 0.034030199 1.6567866e-38
0.067748785 0.046102613 0.036581755 1.684875e-38
0.066983029 0.049078375 0.035679996 1.6292716e-38
0.066965193 0.052362353 0.03381449 1.6106534e-38
0.065769479 0.055535644 0.03282249 1.5828145e-38
0.06383732 0.049924411 0.03545177 1.5282146e-38
0.063132048 0.052599192 0.03421551 1.4909065e-38
0.062807441 0.056049526 0.032968581 1.4723586e-38
0.062194362 0.059677489 0.031690598 1.4633188e-38
0.062844381 0.077853851 0.029006004 1.2610286e-38
0.06316939 0.080779657 0.028604686 1.2703564e-38
0.062302694 0.084221177 0.027958095 1.4634985e-38
0.059217811 0.056695282 0.033262074 1.417294e-38
0.059088826 0.060019456 0.031772017 1.4358394e-38
0.05912146 0.064433374 0.030628145 1.3991396e-38
0.057969198 0.068995163 0.029677629 1.371626e-38
0.058749229 0.072384521 0.029269159 1.2979048e-38
0.059269235 0.077454999 0.028567493 1.2980131e-38
0.059529245 0.080444314 0.028147399 1.3716255e-38
0.059919268 0.083955273 0.027665734 1.4360914e-38
0.057318226 0.11224182 0.025025725 1.2797168e-38
0.056014419 0.057568014 0.03319186 1.4358379e-38
0.055254638 0.060537927 0.03229177 1.4542412e-38
0.055039525 0.064548284 0.030968666 1.3991754e-38
0.055369109 0.068940975 0.029322743 1.3624065e-38
0.055369109 0.072833009 0.028728485 1.25152e-38
0.054069072 0.076049261 0.028055727 1.1689012e-38
0.054069072 0.10848287 0.023103297 1.2337281e-38
0.054618686 0.11175036 0.024431765 1.2612056e-38
0.05102241 0.065165892 0.030653536 1.40818e-38
0.05113405 0.06901449 0.029741108 1.3532208e-38
0.051245093 0.072858661 0.028829217 1.2793915e-38
0.051356912 0.076698683 0.0279181 1.2148898e-38
0.05081895 0.080522224 0.026918769 1.2426598e-38
0.050168946 0.083103359 0.026433766 1.2151482e-38
0.050948948 0.10439608 0.023291528 1.2518423e-38
0.050924733 0.10796143 0.024403155 1.2428043e-38
0.052102953 0.11148255 0.024413049 1.2428035e-38
0.047652483 0.069049455 0.029930174 1.3622255e-38
0.047000587 0.07293763 0.029245377 1.2792497e-38
0.047502398 0.076968946 0.028311014 1.1133702e-38
0.047432423 0.080770671 0.027301311 1.1043322e-38
0.047320962 0.084224805 0.026120007 1.1967059e-38
0.046268821 0.086914092 0.025307059 1.0216421e-38
0.047518492 0.10377705 0.023545086 1.3344949e-38
0.048191518 0.10684714 0.024574459 1.2980159e-38
0.043965131 0.084789008 0.026739478 8.8184665e-39
0.043048888 0.088094205 0.025406599 9.5549315e-39
0.04274945 0.092108384 0.024430811 9.0060471e-39
0.042194635 0.09601219 0.023859322 9.2844319e-39
0.043460608 0.099953562 0.023536444 9.0053227e-39
0.043375105 0.10327956 0.024037898 9.5563777e-39
0.040167332 0.088770717 0.025532842 1.241939e-38
0.040368617 0.091070741 0.025890589 1.1492468e-38
0.040543616 0.095527604 0.024723887 1.1396682e-38
0.14466345 0.097030461 0.011588693 1.5652745e-38
0.17376995 0.08527372 0.014416099 1.1785193e-38
0.14379439 0.059633993 0.015637696 1.3896715e-38
0.13828114 0.077761479 0.014252007 1.2520961e-38
0.10392804 0.092745364 0.024846435 1.519176e-38
0.10113199 0.058157511 0.029447854 1.4912635e-38
0.16532376 0.012437858 0.058212101 7.4563091e-39
0.16147104 0.012810972 0.057565928 7.2722724e-39
0.15996699 0.014353864 0.056354225 7.5481544e-39
0.1604453 0.14250639 0.037874222 2.2844693e-38
0.1571261 0.015373856 0.057078183 8.1009611e-39
0.15604421 0.018186722 0.055221021 9.1154619e-39
0.1586594 0.1395947 0.037048161 2.2008476e-38
0.15725544 0.14221586 0.038056612 2.1826963e-38
0.15343115 0.016644958 0.056878507 9.0214754e-39
0.1533045 0.018186007 0.055519223 9.4820991e-39
0.15342903 0.13948567 0.036334157 2.0810633e-38
0.15308797 0.14191735 0.037787437 2.0905752e-38
0.15043458 0.016930331 0.056671619 9.7583258e-39
0.14905286 0.018647522 0.055195153 1.0679932e-38
0.14950627 0.13940391 0.035798609 2.0444394e-38
0.14901379 0.14153588 0.036629736 2.0719557e-38
0.14568725 0.020128194 0.054294765 1.2244741e-38
0.1442759 0.021856047 0.053016782 1.3170275e-38
0.14558348 0.13932213 0.035263121 2.0167094e-38
0.14509915 0.14218706 0.036417484 2.1275595e-38
0.14453346 0.14505424 0.036283553 2.1284238e-38
0.14256641 0.020692255 0.05499804 1.2891886e-38
0.14153346 0.022997286 0.053097665 1.4457066e-38
0.14127749 0.13886628 0.035343945 1.9892641e-38
0.14191072 0.14238226 0.036325157 2.137246e-38
0.13765693 0.023514222 0.053151965 1.4916241e-38
0.13773794 0.025634393 0.051526546 1.7314057e-38
0.13726754 0.13888656 0.035189152 1.915544e-38
0.13732094 0.14097796 0.035898447 2.1094794e-38
0.13371469 0.024106506 0.05324018 1.4827645e-38
0.13327363 0.025963441 0.051873863 1.8139876e-38
0.13408899 0.13882124 0.033989251 1.9432759e-38
0.1325126 0.14131396 0.035175443 2.1279178e-38
0.12941767 0.027096763 0.051332414 1.9888684e-38
0.1285848 0.029358238 0.049679279 2.0808453e-38
0.1298379 0.13873264 0.03340894 1.8236734e-38
0.12951502 0.141675 0.034409881 1.9159751e-38
0.12570688 0.027455308 0.050759196 2.0531197e-38
0.12596962 0.029303722 0.049322307 2.0346788e-38
0.12612393 0.13802159 0.032889307 1.2612482e-38
0.12561867 0.1419258 0.03366518 1.270825e-38
0.12559444 0.14522439 0.033271551 1.3819992e-38
0.12235487 0.028072976 0.05053705 2.0161333e-38
0.12189212 0.029286414 0.049436152 2.0348942e-38
0.12178239 0.13818999 0.033278346 1.1783028e-38
0.12237136 0.14171328 0.033697903 1.1883123e-38
0.12289593 0.14525753 0.033229887 8.9390483e-39
0.11788727 0.027930021 0.049424171 2.0438329e-38
0.11776793 0.029285066 0.049711227 2.0897462e-38
0.11681649 0.13480788 0.031933844 8.6433421e-39
0.11815965 0.13762781 0.033149779 1.4176509e-38
0.11357179 0.029498443 0.048837245 2.0159876e-38
0.11502774 0.13135278 0.034253955 7.3587129e-39
0.11518812 0.13380656 0.033220947 7.0774331e-39
0.112405 0.13914996 0.032696962 2.2382268e-38
0.112405 0.14045861 0.032497168 2.0460517e-38
0.10994707 0.029758178 0.048376203 1.9976573e-38
0.11109364 0.13912264 0.03251797 2.3401801e-38
0.11043796 0.14041761 0.032228649 2.0828232e-38
0.10605872 0.030967616 0.047478318 1.9885807e-38
0.1053988 0.033260256 0.046184957 1.9610648e-38
0.10278833 0.031204671 0.047836125 1.9976589e-38
0.1019862 0.033758201 0.046312988 2.0068065e-38
0.099291354 0.031567991 0.047292113 2.0067342e-38
0.098156527 0.034088075 0.046068072 1.9698561e-38
0.097856402 0.036546975 0.044289052 1.9146813e-38
0.094136149 0.034040831 0.045854032 1.9425208e-38
0.0943259 0.036995336 0.043727398 1.85018e-38
0.090640754 0.034404188 0.045310259 1.933624e-38
0.090280145 0.037401706 0.04382962 1.8042631e-38
0.086177707 0.035220571 0.044902503 1.8597244e-38
0.086522281 0.037703566 0.043323398 1.8131596e-38
0.083554983 0.035165899 0.044544518 1.8412489e-38
0.082550704 0.03786777 0.043481112 1.8414285e-38
0.081754923 0.040639922 0.042095602 1.8413559e-38
0.079183757 0.038564496 0.043414891 1.8411787e-38
0.078475684 0.04130353 0.041748822 1.7767478e-38
0.07824254 0.043967396 0.040416062 1.7673492e-38
0.07431598 0.041838318 0.041797519 1.6750808e-38
0.07477355 0.043977842 0.040610671 1.7214304e-38
0.070441321 0.042090088 0.041655362 1.6570367e-38
0.070898429 0.044528812 0.039815068 1.7308648e-38
0.067162916 0.042021751 0.04120779 1.5923933e-38
0.066719234 0.044747919 0.039416552 1.6112629e-38
0.065820426 0.047623098 0.038122594 1.6016853e-38
0.063031375 0.045472324 0.039228499 1.4541348e-38
0.062927604 0.048532195 0.03787142 1.5094531e-38
0.058901295 0.045906343 0.039460599 1.4358371e-38
0.058817148 0.048971966 0.038413405 1.4451311e-38
0.058957458 0.052604854 0.036913812 1.4632118e-38
0.057321101 0.055927619 0.035667241 1.4081451e-38
0.057974875 0.11400823 0.026890039 1.2981206e-38
0.058449805 0.11620913 0.028079152 1.3536522e-38
0.055688471 0.049307264 0.038492441 1.2887596e-38
0.054886609 0.052812405 0.037277937 1.3804506e-38
0.054705262 0.05618494 0.035943329 1.4081805e-38
0.053180367 0.059538461 0.034537435 1.4820438e-38
0.054705888 0.11394009 0.026443779 1.2521656e-38
0.054269731 0.11654964 0.026665151 1.1784814e-38
0.052082211 0.054139502 0.037250817 1.3529713e-38
0.051017553 0.056862198 0.036431074 1.4265485e-38
0.050448805 0.060499437 0.035030425 1.5001236e-38
0.050129354 0.062954538 0.033589602 1.4357654e-38
0.050129354 0.10993007 0.026416779 1.2796107e-38
0.049799755 0.11260791 0.026302278 1.2979751e-38
0.050231725 0.11668721 0.026420534 1.2244354e-38
0.050770849 0.11954427 0.027080715 1.2522384e-38
0.048148125 0.057329103 0.036214173 1.4541716e-38
0.046949252 0.06052576 0.035218239 1.5276388e-38
0.046121627 0.064866394 0.032993138 1.3713737e-38
0.044898957 0.06936989 0.031879365 1.3347504e-38
0.044898957 0.076546706 0.030783534 1.1314147e-38
0.044898957 0.079808898 0.030285418 1.0297473e-38
0.044898957 0.10590641 0.02630049 1.1224085e-38
0.046593368 0.10890016 0.026488602 1.2052802e-38
0.046655327 0.11297399 0.026925564 1.159431e-38
0.046655327 0.11689669 0.026326597 1.306945e-38
0.048048437 0.11968975 0.025657058 1.3533666e-38
0.042902678 0.061472848 0.03484875 1.4819002e-38
0.042847157 0.064715058 0.033733308 1.3621879e-38
0.042707056 0.069431745 0.032244563 1.3070536e-38
0.042879879 0.073270649 0.031171918 1.2605603e-38
0.042591631 0.077324159 0.031363845 1.196095e-38
0.042534262 0.081272379 0.030923009 1.0762083e-38
0.04163 0.084960267 0.029042184 1.1311301e-38
0.040976197 0.10125758 0.026462376 1.0668779e-38
0.042419165 0.1061765 0.027444661 8.9206688e-39
0.043375194 0.10867193 0.02741605 1.0208158e-38
0.04421404 0.11286438 0.027184784 1.1310553e-38
0.043886185 0.11678347 0.026540577 1.3902789e-38
0.039900824 0.065418936 0.033656716 1.3712643e-38
0.039952099 0.069263197 0.033246994 1.3530428e-38
0.040126175 0.073109508 0.032173514 1.3069095e-38
0.040279925 0.077449046 0.032042861 1.2885416e-38
0.040279925 0.08202929 0.03134352 1.2883624e-38
0.039303482 0.085218772 0.030379713 1.2698134e-38
0.03867957 0.088441148 0.028438985 1.3067265e-38
0.038813666 0.093031302 0.027620614 1.2418335e-38
0.038511962 0.09706603 0.027268767 1.3156972e-38
0.038604841 0.10079783 0.027392805 1.2879652e-38
0.038776278 0.10433358 0.027523577 1.2330066e-38
0.03634584 0.086527534 0.030107081 1.28858e-38
0.036581695 0.089022428 0.029078424 1.2886119e-38
0.035286844 0.09316358 0.028690636 1.1321312e-38
0.035409153 0.096790209 0.028409243 1.0308627e-38
0.03634584 0.1009226 0.02790904 1.1323442e-38
0.035908699 0.1044032 0.027316511 1.0677383e-38
0.032411724 0.094297379 0.028371096 9.5710591e-39
0.17612168 0.068896078 0.018313766 1.5190314e-38
0.1590849 0.012101598 0.061680853 7.1782803e-39
0.15941416 0.14715181 0.041105568 2.1091195e-38
0.15719852 0.013338037 0.06071794 7.5460034e-39
0.15522486 0.015266448 0.060147762 8.2846293e-39
0.15597346 0.14451474 0.040006399 2.2114318e-38
0.15651029 0.14733016 0.040332258 2.2677224e-38
0.15231109 0.015082363 0.059870958 9.1125738e-39
0.15262304 0.14453335 0.039875925 2.221342e-38
0.14867638 0.015992045 0.058951974 9.9430646e-39
0.14892536 0.14423874 0.03982985 2.1645501e-38
0.14986572 0.14596707 0.039952636 2.3417677e-38
0.14525613 0.017070513 0.058990359 1.0865734e-38
0.14441624 0.01863195 0.057868719 1.1508613e-38
0.14610992 0.14430915 0.03865993 2.1922762e-38
0.14610992 0.14562155 0.038459539 2.2578927e-38
0.14032331 0.14287612 0.038070381 2.0823961e-38
0.14068067 0.14638822 0.038434982 1.8520532e-38
0.13624638 0.022049632 0.055950284 1.3534733e-38
0.13690396 0.14296889 0.037578583 2.1000425e-38
0.13265231 0.02251773 0.055580974 1.2429489e-38
0.1338353 0.14230341 0.037251532 2.1552527e-38
0.12896428 0.023230303 0.054979682 1.4271991e-38
0.12901312 0.02583608 0.054361701 1.8235664e-38
0.12769797 0.14392537 0.036146522 1.6298481e-38
0.12747629 0.14615753 0.036795914 1.6763804e-38
0.12496729 0.023167241 0.054657817 1.5102441e-38
0.12506771 0.025753841 0.053823054 1.8971073e-38
0.12220818 0.023818687 0.05474031 1.5653471e-38
0.1208681 0.026631139 0.053394318 1.9426656e-38
0.12007768 0.14284855 0.035501719 1.177372e-38
0.12038705 0.14648718 0.035074413 7.0075909e-39
0.117717 0.02728954 0.053072274 1.9886562e-38
0.11586174 0.13908522 0.035232127 1.7780739e-38
0.11722265 0.14236252 0.035432339 1.6020773e-38
0.11759859 0.14595163 0.035447478 3.7840341e-39
0.11311024 0.027522087 0.052393258 2.0160607e-38
0.11298901 0.13205549 0.036925375 8.0037166e-39
0.1123305 0.1353275 0.036333799 8.925345e-39
0.11330494 0.13830835 0.035376489 1.6303488e-38
0.11370862 0.14251897 0.035172939 1.6750409e-38
0.10955328 0.02775161 0.051606059 2.0251378e-38
0.11047807 0.13778856 0.035188615 2.1283491e-38
0.11060119 0.14225659 0.034012973 1.8403443e-38
0.10517082 0.028030351 0.05137676 1.970178e-38
0.10525541 0.029311925 0.050852478 1.9885808e-38
0.1024528 0.028006926 0.051341057 1.9518833e-38
0.10074031 0.030144155 0.050605237 2.0067707e-38
0.09727338 0.030711479 0.049864113 1.9975149e-38
0.093659475 0.031177603 0.04901588 2.0068421e-38
0.089558959 0.031575724 0.047973752 1.9702877e-38
0.088682204 0.033307329 0.047586918 1.9521003e-38
0.08542487 0.03155975 0.048079431 1.9423063e-38
0.085566223 0.033478975 0.04729557 1.9057152e-38
0.081395835 0.033906534 0.046860516 1.8410695e-38
0.080352992 0.036633462 0.045915484 1.8960293e-38
0.077700734 0.034406506 0.046614408 1.7859321e-38
0.077284321 0.037444443 0.045362949 1.8227027e-38
0.074795261 0.035316162 0.046361446 1.7309368e-38
0.07374385 0.037820652 0.044924438 1.6846588e-38
0.074434876 0.040447325 0.044506371 1.6843739e-38
0.069801837 0.038183115 0.044934332 1.6016843e-38
0.069831878 0.040351383 0.043878019 1.6293786e-38
0.066893101 0.039094321 0.044680655 1.5836036e-38
0.065297961 0.041068017 0.043339491 1.5738457e-38
0.062340692 0.042080753 0.042976022 1.4909781e-38
0.061283469 0.044110417 0.042109907 1.3437885e-38
0.057888404 0.044518493 0.041913688 1.3808085e-38
0.057338059 0.11883542 0.030148745 1.4091167e-38
0.054544106 0.04600203 0.041390181 1.3993224e-38
0.053195283 0.048954934 0.040444553 1.2149321e-38
0.055365354 0.11879431 0.029879451 1.2705708e-38
0.053722858 0.12030581 0.03044039 1.2428381e-38
0.049867183 0.053156845 0.039863229 1.3344603e-38
0.04878965 0.055661663 0.038600802 1.3436818e-38
0.047137737 0.054454021 0.039575636 1.2241861e-38
0.045686603 0.056762218 0.038291097 1.4171491e-38
0.042528152 0.057643667 0.038444638 1.4819725e-38
0.042213976 0.059986785 0.037021816 1.5371822e-38
0.040725723 0.11006857 0.029677331 1.131308e-38
0.042213976 0.11327055 0.028885722 1.1775491e-38
0.042213976 0.11589536 0.028484941 1.3445775e-38
0.038391203 0.061541818 0.036658823 1.3711944e-38
0.037333131 0.064853847 0.035767019 1.3713017e-38
0.037409097 0.07015615 0.035002053 1.3714466e-38
0.037409112 0.074094504 0.034400702 1.3437871e-38
0.037260026 0.077905364 0.03461498 1.3162717e-38
0.037642002 0.081617363 0.033809721 1.2976531e-38
0.036777481 0.085031703 0.032948732 1.3159828e-38
0.038268566 0.10662627 0.029349089 1.2237509e-38
0.038247824 0.1084832 0.030083835 1.2419027e-38
0.034026757 0.085911706 0.032770455 1.2793217e-38
0.033546388 0.089529559 0.031640351 1.2243269e-38
0.033008009 0.092080116 0.03083533 1.1136911e-38
0.033008009 0.097985953 0.029933572 9.0193371e-39
0.033665568 0.10128069 0.029522359 8.8356422e-39
0.034144849 0.10533421 0.029480934 9.8480047e-39
0.035284489 0.10809286 0.029729486 1.1870207e-38
0.031333417 0.086981855 0.032401085 1.2702085e-38
0.03045541 0.090030238 0.031813025 1.1780844e-38
0.030031979 0.093264043 0.030749381 9.5706639e-39
0.030176371 0.097382784 0.030197442 8.6516167e-39
0.031094044 0.10105421 0.029963553 8.8377918e-39
0.027382344 0.094128102 0.030757964 8.651974e-39
0.15050004 0.062144741 0.014820755 1.6203752e-38
0.081591427 0.10102198 0.0052806139 1.9424079e-38
0.16085573 0.011190683 0.067173243 6.9045521e-39
0.15987833 0.012343664 0.064818323 7.1804285e-39
0.15666077 0.012239005 0.063874245 7.3619723e-39
0.15329494 0.01285293 0.063650668 8.3760934e-39
0.14962798 0.01311902 0.063268065 9.2069079e-39
0.14816566 0.014660459 0.061807215 9.4835326e-39
0.14948645 0.14728448 0.041740894 2.3417684e-38
0.14948645 0.14912976 0.041459143 2.341769e-38
0.14535896 0.014246151 0.063724995 9.3898656e-39
0.14486367 0.015909687 0.0611552 1.0222502e-38
0.14640459 0.14730811 0.041306794 2.2860207e-38
0.1411604 0.017535325 0.062432051 1.0127845e-38
0.13958046 0.019753732 0.059830189 1.2151449e-38
0.13697945 0.018635228 0.062701166 9.9459471e-39
0.13645962 0.020514112 0.059686661 1.2062465e-38
0.13432653 0.01857993 0.062339008 9.3952143e-39
0.13311686 0.020250369 0.060076833 1.114053e-38
0.12919238 0.020414893 0.05929929 1.0589172e-38
0.125413 0.020233065 0.05913955 1.0956486e-38
0.12195252 0.020881064 0.059237957 1.1414924e-38
0.12075908 0.022986069 0.056707442 1.3257105e-38
0.11887506 0.022048496 0.057608604 1.0579499e-38
0.11766919 0.023956574 0.056638181 1.5191426e-38
0.11646648 0.026521251 0.05556798 1.9337693e-38
0.11358431 0.02391813 0.05658406 1.7397989e-38
0.11415508 0.026143551 0.055302739 1.9337322e-38
0.11250408 0.13386026 0.038624525 6.8051552e-39
0.11250408 0.14242764 0.037316322 1.9431269e-38
0.11415508 0.14509816 0.037139177 5.3275868e-39
0.10937002 0.02392241 0.057015836 1.9797571e-38
0.10953228 0.026047193 0.054671705 2.0160609e-38
0.11069459 0.13101763 0.040848136 7.3670044e-39
0.10992926 0.13427082 0.039019048 1.0955042e-38
0.10880986 0.13747144 0.037812352 1.9715108e-38
0.10854168 0.14036795 0.037077308 2.3403967e-38
0.11118329 0.1443772 0.036834121 9.2757452e-39
0.10517082 0.024131425 0.056543291 1.9701088e-38
0.10616425 0.026438311 0.054141462 1.979219e-38
0.10473496 0.11965886 0.041750014 7.9201361e-39
0.10473496 0.1223025 0.041346371 9.0239627e-39
0.10414957 0.12616383 0.041696131 1.0035618e-38
0.10722089 0.13902237 0.037098229 2.2760073e-38
0.10722089 0.14034042 0.036897004 2.3400011e-38
0.10119629 0.024803907 0.055885375 1.9332651e-38
0.10154358 0.027223177 0.053631425 1.9334449e-38
0.10183541 0.1187035 0.03985697 1.0398641e-38
0.10173757 0.12195525 0.039732575 1.0682772e-38
0.10157527 0.12585966 0.040507793 1.2061399e-38
0.097525015 0.024754763 0.055671692 1.9058208e-38
0.09779951 0.027515694 0.053489208 1.9792197e-38
0.096654505 0.029403426 0.052360296 1.9975159e-38
0.097975284 0.11839977 0.038955629 1.3898102e-38
0.097740918 0.12189849 0.039296329 1.2430543e-38
0.097647935 0.1252479 0.040417135 1.2615674e-38
0.094090581 0.025242239 0.055701017 1.8870591e-38
0.093564123 0.027525812 0.053917289 1.9422015e-38
0.093352482 0.029664114 0.0518592 1.9795803e-38
0.093877822 0.11842884 0.038889349 1.5922143e-38
0.093609586 0.12178989 0.039359927 1.4175074e-38
0.089651704 0.028529532 0.053703725 1.9148285e-38
0.089390099 0.03057006 0.051167369 1.9518126e-38
0.091098636 0.11848506 0.039003193 1.8314539e-38
0.090350688 0.12169276 0.039225817 1.509488e-38
0.085736215 0.028869748 0.053163171 1.9057526e-38
0.08580789 0.030598812 0.051683784 1.9148993e-38
0.08392106 0.12342569 0.039288402 1.638421e-38
0.081268132 0.02938731 0.053276837 1.8875636e-38
0.081690013 0.030998833 0.050638974 1.8872762e-38
0.082594603 0.12339804 0.039107323 1.7108097e-38
0.078615218 0.029332012 0.052914739 1.8229923e-38
0.077754796 0.03126353 0.05086571 1.7860425e-38
0.076842502 0.032944627 0.04905194 1.7675666e-38
0.07390371 0.032110602 0.049790025 1.7490534e-38
0.073876947 0.033959076 0.048686981 1.7215023e-38
0.069993228 0.033123419 0.051131368 1.5922514e-38
0.069884241 0.034904554 0.04897213 1.6016495e-38
0.068917707 0.036733612 0.047366381 1.5740987e-38
0.065332875 0.036112905 0.049206972 1.5370375e-38
0.065945908 0.037989721 0.046759427 1.5648058e-38
0.062034473 0.036928631 0.049438536 1.546259e-38
0.061841518 0.038735904 0.047603965 1.5921405e-38
0.060992897 0.041181624 0.045580149 1.5095597e-38
0.057711661 0.040029317 0.047340095 1.4727888e-38
0.057430506 0.042341769 0.045313835 1.4083963e-38
0.05570972 0.044366635 0.04435575 1.3900291e-38
0.05570972 0.12081392 0.032682776 1.3904973e-38
0.053412482 0.040720031 0.047655165 1.3620834e-38
0.053404927 0.042763054 0.045980692 1.3347837e-38
0.054388911 0.044339105 0.044175446 1.3899938e-38
0.053656593 0.12228891 0.034468353 1.3073045e-38
0.050427943 0.043636158 0.046792984 1.3346384e-38
0.05026032 0.046293452 0.043810904 1.2794651e-38
0.049766108 0.049514972 0.042739391 1.232973e-38
0.051418051 0.12095781 0.033082485 1.2245436e-38
0.046024084 0.047300033 0.045034885 1.2883937e-38
0.045889422 0.050527193 0.043210387 1.3619727e-38
0.046199948 0.053131193 0.041689038 1.3710509e-38
0.041702032 0.05163715 0.043671608 1.4445917e-38
0.042101264 0.054129213 0.042155385 1.3891684e-38
0.041841328 0.055940069 0.040651262 1.4173286e-38
0.038821414 0.052329235 0.043844223 1.4265825e-38
0.038662925 0.055233724 0.042868018 1.3803418e-38
0.038364634 0.057916477 0.040374398 1.408217e-38
0.037878931 0.059811644 0.039506555 1.4172572e-38
0.037878931 0.11055683 0.03175813 1.2877165e-38
0.038050443 0.11284797 0.032861888 1.3247745e-38
0.034842044 0.059526667 0.04218936 1.2702834e-38
0.033868417 0.062004238 0.040653944 1.2520589e-38
0.033739015 0.065074079 0.038635314 1.2795748e-38
0.033797964 0.069006599 0.037872851 1.3713747e-38
0.033858418 0.07335595 0.037314475 1.3711592e-38
0.033571035 0.077222921 0.036858916 1.3897766e-38
0.033916518 0.08081796 0.035745561 1.3528627e-38
0.033696383 0.083888836 0.035245895 1.2975804e-38
0.033980459 0.10965025 0.032117844 1.1687613e-38
0.033892468 0.11168291 0.03205049 1.3164898e-38
0.030658871 0.066174529 0.039909184 1.1686549e-38
0.03047508 0.069035493 0.039718986 1.2427691e-38
0.030318618 0.073275477 0.039117754 1.3623349e-38
0.030094504 0.077031001 0.037264943 1.4084325e-38
0.030494303 0.080805145 0.035609722 1.4359105e-38
0.030321002 0.084843628 0.03462857 1.3345288e-38
0.029293716 0.088629931 0.033906937 1.2519482e-38
0.029293716 0.10181051 0.031894326 8.5601315e-39
0.030114025 0.10493851 0.031701505 9.2051366e-39
0.030055165 0.10875475 0.032528937 1.0401893e-38
0.029434294 0.1125094 0.033003449 1.3074174e-38
0.026441127 0.078104049 0.038179159 1.3440044e-38
0.026042759 0.080947757 0.036327779 1.3440393e-38
0.026638925 0.08516594 0.034436464 1.3256328e-38
0.026358604 0.088998839 0.033732355 1.1875199e-38
0.025859654 0.092248917 0.032874584 9.938743e-39
0.025712848 0.096807405 0.032566547 8.0988031e-39
0.026074648 0.10082154 0.032744467 7.5463426e-39
0.02596122 0.10477565 0.032904923 8.3789759e-39
0.025556833 0.10897207 0.033342302 1.2247912e-38
0.022903919 0.082442671 0.037022531 1.2888286e-38
0.022903919 0.085090078 0.036618292 1.2335113e-38
0.022756726 0.089294031 0.035445213 1.1138723e-38
0.022378534 0.092988461 0.034171879 9.2018996e-39
0.022756726 0.096570656 0.034334183 7.7289388e-39
0.022903919 0.10031269 0.03429395 6.4399824e-39
0.022903919 0.10626936 0.033384383 8.749489e-39
0.022903919 0.11024049 0.032778025 1.4000788e-38
0.17653148 0.084789373 0.017423749 1.2889737e-38
0.089167029 0.064776458 0.030164123 1.389778e-38
0.15636185 0.0099775158 0.069680989 6.9027836e-39
0.15234421 0.0099019036 0.069244623 7.7325569e-39
0.14817971 0.0098790042 0.069574177 8.6555908e-39
0.14796802 0.012358524 0.066726446 9.1151256e-39
0.14447185 0.010302447 0.069785714 8.193898e-39
0.14406812 0.012702595 0.067405581 8.6519698e-39
0.14128998 0.011149317 0.069552362 7.9155315e-39
0.14040042 0.013623483 0.066780984 8.4686772e-39
0.1400937 0.016133562 0.064539433 9.1147823e-39
0.13637283 0.014004536 0.067262411 7.5477999e-39
0.13666953 0.016765401 0.064475238 8.2843098e-39
0.13200918 0.014262334 0.067440093 6.4461033e-39
0.13224936 0.017272782 0.065056622 7.6421381e-39
0.12926693 0.014898065 0.067300379 6.2635225e-39
0.12827025 0.017412566 0.065188646 7.2737115e-39
0.1301311 0.019902665 0.062572181 1.0400098e-38
0.12409684 0.017390739 0.065403223 7.7343057e-39
0.11924773 0.014689222 0.065932631 3.0334552e-39
0.12009335 0.017307702 0.064856648 8.1034372e-39
0.12044281 0.020053729 0.061451018 1.1137264e-38
0.11546269 0.0008347556 0.067519486 1.2272086e-38
0.11724389 0.014647454 0.065659106 2.2998587e-39
0.11595999 0.017268132 0.064852655 7.7264388e-39
0.1164166 0.020874433 0.061656833 1.1039717e-38
0.11203396 0.0011744723 0.066421211 1.4390427e-38
0.1119003 0.0038711131 0.066558182 1.6594785e-38
0.11223429 0.018209103 0.064415455 1.0399379e-38
0.11246102 0.021005098 0.061637461 1.38066e-38
0.10805961 0.0011248142 0.066441 1.5117928e-38
0.10922852 0.0038154125 0.066193402 1.6681232e-38
0.10922852 0.018479738 0.063954234 1.3167333e-38
0.10827544 0.020986155 0.061849892 1.8231304e-38
0.10776132 0.12724687 0.04492873 7.6396284e-39
0.10809025 0.13091499 0.043053031 8.010929e-39
0.10799196 0.13388366 0.042075455 9.8505018e-39
0.10452422 0.021046069 0.060990453 1.8877435e-38
0.10622084 0.12280017 0.043520391 8.1038001e-39
0.10568953 0.12703097 0.042800069 9.205152e-39
0.1046682 0.13093981 0.042968214 1.0862487e-38
0.10549372 0.13809279 0.04133898 2.0634554e-38
0.10022131 0.020838536 0.0609743 1.713004e-38
0.10157165 0.023284126 0.058066308 1.9702142e-38
0.1002433 0.12797792 0.041894674 1.3718758e-38
0.10036573 0.13113965 0.044237316 1.4087898e-38
0.096322536 0.021167886 0.060719788 1.6116247e-38
0.096125707 0.023216676 0.057826459 1.8324948e-38
0.09655109 0.12746708 0.041865408 1.3997172e-38
0.096044749 0.13069141 0.044297755 1.4734718e-38
0.093197793 0.021478385 0.061257005 1.5008076e-38
0.092135161 0.024094291 0.057985961 1.7771438e-38
0.092937395 0.12384887 0.041504562 1.4635708e-38
0.092758149 0.12665625 0.041731596 1.5560186e-38
0.09178628 0.13094644 0.043907106 1.7217883e-38
0.088159651 0.024600264 0.05894196 1.7034948e-38
0.088288188 0.026984006 0.055645764 1.9054998e-38
0.088288188 0.12375195 0.040869892 1.5557322e-38
0.088769332 0.1265731 0.041187108 1.6482853e-38
0.088286102 0.13041289 0.04332459 1.887741e-38
0.084220126 0.024496846 0.058180451 1.5930415e-38
0.084353626 0.027331166 0.056064308 1.8872052e-38
0.086295664 0.12371042 0.040597916 1.5745288e-38
0.084811658 0.12646407 0.040537477 1.7126776e-38
0.084215403 0.1296654 0.040929794 1.9061461e-38
0.080029428 0.024473406 0.058279395 1.289048e-38
0.080839336 0.02754043 0.055030823 1.7214697e-38
0.080318093 0.12358582 0.039781928 1.8775461e-38
0.080791712 0.12640682 0.040098071 1.6572536e-38
0.080028802 0.12969133 0.042213142 1.8324633e-38
0.076905519 0.024780899 0.058221519 1.2153271e-38
0.076392502 0.028043523 0.05535394 1.620161e-38
0.076997221 0.03072542 0.053497195 1.7769315e-38
0.076802254 0.12366936 0.039958835 2.0713387e-38
0.076380968 0.12666115 0.040918231 1.6934828e-38
0.07583116 0.12976569 0.04229629 1.6940963e-38
0.072268248 0.028668411 0.056360066 1.583498e-38
0.072531044 0.031015441 0.053339601 1.7217534e-38
0.074045241 0.12369031 0.039910853 2.2567002e-38
0.072886407 0.12672129 0.040988147 1.8868768e-38
0.068483755 0.029628523 0.056560099 1.5555872e-38
0.068318233 0.03166946 0.053891242 1.5465477e-38
0.066479921 0.029586755 0.056286573 1.3622659e-38
0.064937234 0.032060683 0.054161489 1.4545664e-38
0.061087161 0.032600306 0.054690123 1.3802346e-38
0.060462579 0.035445154 0.051779747 1.4541721e-38
0.055792749 0.033363342 0.054216981 1.4358389e-38
0.056479231 0.036028355 0.052246451 1.5089475e-38
0.057072014 0.038263634 0.049562752 1.5184565e-38
0.052983612 0.036192521 0.052984059 1.5097039e-38
0.053222835 0.039024636 0.0493173 1.4359111e-38
0.053049847 0.12565275 0.036295354 1.3626924e-38
0.049781233 0.037237398 0.052785695 1.2887938e-38
0.04939118 0.039470263 0.050347924 1.3069821e-38
0.048171729 0.043163866 0.047979653 1.28854e-38
0.048990935 0.12301125 0.035833895 1.2429474e-38
0.049147338 0.12603702 0.036967993 1.270642e-38
0.049980283 0.13024402 0.038407743 1.5014215e-38
0.046107233 0.040676296 0.05140692 1.288291e-38
0.044941276 0.043616533 0.049603701 1.2793209e-38
0.043788582 0.046603061 0.046433747 1.2976534e-38
0.045440525 0.1235645 0.037976563 1.2982289e-38
0.045840159 0.12659752 0.037977755 1.3350711e-38
0.046774536 0.12891725 0.037345588 1.3996082e-38
0.042101443 0.044590279 0.050249696 1.2701774e-38
0.041083664 0.047454864 0.046564043 1.3344593e-38
0.041131854 0.04986167 0.045565069 1.4172911e-38
0.036955878 0.04735323 0.048720002 1.2149649e-38
0.037261158 0.051000193 0.046075881 1.3527191e-38
0.036279827 0.054825209 0.044333577 1.3158787e-38
0.033973157 0.052460968 0.04825294 1.2421586e-38
0.033061028 0.055295795 0.045820415 1.242301e-38
0.032731414 0.058796726 0.043173134 1.2427312e-38
0.03183344 0.061598137 0.042474031 1.2062128e-38
0.029920667 0.056749679 0.046521246 1.1784098e-38
0.029248446 0.05920659 0.043353379 1.1414246e-38
0.028996408 0.062276416 0.04248476 1.1230918e-38
0.028673738 0.065092579 0.041669309 1.1136197e-38
0.02818051 0.069806919 0.04071033 1.2242576e-38
0.027848393 0.073445372 0.040108383 1.3348195e-38
0.025326371 0.059286974 0.045273244 9.9412611e-39
0.025126636 0.062420227 0.043453991 1.0035601e-38
0.025206655 0.065780669 0.041930854 1.0677744e-38
0.024826616 0.069565512 0.04129976 1.1414249e-38
0.024947673 0.073495261 0.040376246 1.2610994e-38
0.024748921 0.076915666 0.039145529 1.307269e-38
0.022395402 0.060662724 0.045383155 9.2080051e-39
0.021910936 0.062577523 0.04451251 9.2073058e-39
0.021650732 0.065825418 0.043469667 9.6682672e-39
0.020884365 0.069749221 0.04242301 1.0307192e-38
0.021253854 0.073583201 0.040868104 1.1597579e-38
0.021268666 0.077621087 0.039426863 1.2337644e-38
0.021515548 0.081107885 0.038666368 1.2613523e-38
0.020596027 0.085692763 0.037991047 1.205638e-38
0.020260572 0.089004025 0.037081182 1.1231273e-38
0.019878328 0.092500269 0.036085427 9.5728303e-39
0.020335138 0.097454727 0.035596967 7.2686809e-39
0.020614445 0.10143878 0.035406947 6.2559541e-39
0.020900875 0.10502799 0.034698308 7.2722696e-39
0.021685421 0.10855272 0.034397364 1.1144151e-38
0.018387735 0.067244783 0.043818295 8.836008e-39
0.017853379 0.070166513 0.043297529 9.5707116e-39
0.0172593 0.073794678 0.042093217 1.0675265e-38
0.01721257 0.077568792 0.041184068 1.1598648e-38
0.017426372 0.081712216 0.040453732 1.2242949e-38
0.017259628 0.08553604 0.039846539 1.2054237e-38
0.016903162 0.089662254 0.03799963 1.0952177e-38
0.01688683 0.093272746 0.036457241 9.1072083e-39
0.016761571 0.097319037 0.036162317 7.8186176e-39
0.017133892 0.10146958 0.036374867 6.9005976e-39
0.01688391 0.10559419 0.03639096 7.2690536e-39
0.014380038 0.075159967 0.042049825 9.9405815e-39
0.01392135 0.078048654 0.041340411 1.1413886e-38
0.013587981 0.081923708 0.040468752 1.2150016e-38
0.01333946 0.085661076 0.039506733 1.1689385e-38
0.013149917 0.089526027 0.038209379 1.0400799e-38
0.012854517 0.093210444 0.036016941 9.0182426e-39
0.012925267 0.097078726 0.03569144 8.3714369e-39
0.013381898 0.10161945 0.03696239 8.0959206e-39
0.013489425 0.10535879 0.037314296 8.0984387e-39
0.00983271 0.085668691 0.039469659 9.7582964e-39
0.0099487603 0.097765207 0.036447346 8.2821195e-39
0.009832412 0.10165954 0.037027955 7.9140503e-39
0.010372341 0.10440508 0.037024438 7.8226043e-39
0.18996707 0.074641049 0.018406272 1.0124572e-38
0.14062619 0.11096662 0.017242551 1.3535827e-38
0.13164243 0.12723091 0.023418188 1.2525265e-38
0.12697566 0.01391948 0.069512486 4.5107433e-39
0.12353185 0.013804682 0.069219112 3.3132833e-39
0.11833353 0.010444436 0.069516718 4.5953902e-40
0.11958331 0.013156727 0.068547726 2.1140269e-39
0.11633128 0.002308704 0.069458067 1.5488434e-38
0.11509454 0.0052847788 0.069596708 1.1524039e-38
0.11503556 0.009650521 0.069177151 1.0105562e-39
0.11533749 0.013461195 0.068053961 1.4711924e-39
0.11129889 0.0060254745 0.068698108 8.5684244e-39
0.11184937 0.008077994 0.06897223 3.2146025e-39
0.11196873 0.014734846 0.067461789 2.7575914e-39
0.11105463 0.016580299 0.066950262 7.266869e-39
0.10606049 0.0012033656 0.068192065 1.7140104e-38
0.10722455 0.0052857846 0.068460703 9.9499394e-39
0.10698372 0.017849997 0.066391945 1.1876302e-38
0.10392536 0.0011895448 0.068406463 1.6127405e-38
0.10380004 0.0038938969 0.068486631 1.5844976e-38
0.10359061 0.018238999 0.065756381 1.3075618e-38
0.10204148 0.019835994 0.06478554 1.7408778e-38
0.099903226 0.01849683 0.065201879 1.2242995e-38
0.098022491 0.13338752 0.04688555 1.5747792e-38
0.099960685 0.13603455 0.047569036 1.7592452e-38
0.097763047 0.01849452 0.065413892 1.1320266e-38
0.095079944 0.019777361 0.064843178 1.260924e-38
0.09601298 0.13334563 0.046611249 1.5563399e-38
0.096474141 0.13542636 0.047174871 1.6947423e-38
0.092195883 0.020676669 0.063792408 1.2428059e-38
0.092575446 0.13335615 0.046469808 1.630024e-38
0.091055274 0.13482758 0.046713591 1.6759077e-38
0.088554561 0.021589957 0.062974095 1.1508644e-38
0.087974966 0.13317809 0.045513988 1.9707545e-38
0.089713722 0.13479963 0.046530426 1.8135893e-38
0.084893733 0.02161758 0.062118113 1.0031318e-38
0.084533349 0.13252008 0.045474052 1.9613905e-38
0.081053346 0.021626659 0.061580241 9.2055038e-39
0.079795003 0.13179302 0.045093298 1.9429163e-38
0.075102389 0.023999628 0.060897112 1.0766365e-38
0.076395348 0.13176292 0.044793189 1.8139876e-38
0.072600514 0.02544795 0.060632944 1.2242951e-38
0.07122913 0.027215049 0.059354544 1.436021e-38
0.072322398 0.13149568 0.044435322 1.8233485e-38
0.068450093 0.028080963 0.059174478 1.4450261e-38
0.069255009 0.13136095 0.044197559 1.8047647e-38
0.064429224 0.029334664 0.058421373 1.205821e-38
0.060302973 0.029728755 0.058125138 1.1409608e-38
0.059841961 0.030988351 0.057187676 1.2884714e-38
0.056174845 0.029676571 0.057896912 1.1780889e-38
0.056402206 0.031901121 0.056859612 1.4267626e-38
0.053491741 0.03229817 0.057121754 1.2794322e-38
0.051803946 0.034831457 0.055477977 1.2978363e-38
0.048625067 0.036157556 0.055342019 1.2056398e-38
0.046783984 0.13055786 0.041181147 1.4552499e-38
0.044213131 0.040097877 0.054294169 1.2242209e-38
0.043096095 0.12689508 0.040204048 1.3994989e-38
0.043597549 0.12970068 0.040356278 1.2340171e-38
0.041417748 0.041417882 0.054042578 1.1875225e-38
0.040012211 0.043725021 0.052881241 1.2151466e-38
0.041756451 0.12820405 0.039817035 1.3630867e-38
0.037060678 0.044855721 0.052568555 1.1783388e-38
0.032590717 0.051007628 0.051004767 1.1320621e-38
0.028516352 0.055805348 0.049532831 1.1595411e-38
0.025319099 0.05714754 0.049391866 1.0034177e-38
0.022635996 0.058430381 0.048821211 9.1100683e-39
0.019831747 0.060187891 0.047752678 8.0966409e-39
0.018796712 0.062960796 0.047082484 8.0051851e-39
0.018982083 0.065564133 0.046200275 8.7448913e-39
0.01726976 0.060996063 0.047679782 6.9920954e-39
0.016263604 0.06331794 0.047184706 6.9017018e-39
0.015900493 0.066097401 0.046326637 7.6396284e-39
0.015297979 0.069832221 0.045033932 8.6491238e-39
0.012574345 0.06692265 0.046118915 6.1655619e-39
0.012637377 0.070243917 0.04545033 7.3619681e-39
0.012507021 0.07411892 0.043989539 9.1115327e-39
0.011279017 0.077769756 0.043260515 1.0585564e-38
0.010944068 0.081439212 0.042653441 1.1967396e-38
0.011613905 0.10685401 0.038866341 8.3757207e-39
0.011903554 0.1090799 0.039588094 8.9274539e-39
0.010226607 0.070555329 0.04523629 5.9776198e-39
0.0097570419 0.073959403 0.044650912 7.4545561e-39
0.0092204213 0.078232288 0.043923557 9.9423485e-39
0.0089917481 0.082369328 0.042442918 1.0769557e-38
0.0091832578 0.10648733 0.038991272 7.8225819e-39
0.17092273 0.075828619 0.016947448 1.4179032e-38
0.12454876 0.10701832 0.01308918 1.6389213e-38
0.15040468 0.095353827 0.011600435 1.3903538e-38
0.11586174 0.13908522 0.035232127 1.7780739e-38
0.10733412 0.016178131 0.06914705 8.1887861e-39
0.10399023 0.014307071 0.06998682 5.9764945e-39
0.10350899 0.016474444 0.069078028 9.2029856e-39
0.099906191 0.0052901357 0.069885433 4.964523e-39
0.10001595 0.014425892 0.069413483 6.2591799e-39
0.099806979 0.016732913 0.06852138 9.0160916e-39
0.09858948 0.13816652 0.049298644 1.8422575e-38
0.099763736 0.14037479 0.049806237 2.0081011e-38
0.09900555 0.14246061 0.049722314 2.1551801e-38
0.095898837 0.13777481 0.04898262 1.7958349e-38
0.094290286 0.14034571 0.049386501 1.8971413e-38
0.091940597 0.017618567 0.067214429 8.7373552e-39
0.090517521 0.019855205 0.066236436 8.1906792e-39
0.092078149 0.13620129 0.048893332 1.676052e-38
0.09226948 0.13828695 0.049418569 1.7771434e-38
0.088027328 0.018166952 0.066656888 8.005876e-39
0.087826848 0.019799117 0.065869093 8.0048502e-39
0.087394208 0.13620378 0.048647106 1.924406e-38
0.084186167 0.018465292 0.066585362 8.7391236e-39
0.083454534 0.020043623 0.065221012 8.8316738e-39
0.083604723 0.1353347 0.048318505 1.9799012e-38
0.079754889 0.13374633 0.047342539 1.961281e-38
0.074373573 0.13363415 0.046607912 1.8599074e-38
0.075429261 0.13435084 0.047667205 1.8877447e-38
0.070337594 0.024804711 0.062661648 1.0856406e-38
0.071010262 0.13356405 0.046148777 1.8604769e-38
0.072734848 0.13519093 0.047162473 1.8877777e-38
0.067757562 0.02582927 0.062910616 1.1782304e-38
0.066974267 0.027419671 0.061792552 1.3713754e-38
0.06675005 0.1316852 0.045840561 1.777142e-38
0.066672385 0.13372016 0.046540141 1.7678162e-38
0.064651549 0.026124611 0.06268698 1.1595776e-38
0.063157916 0.027935803 0.061793268 1.1595781e-38
0.063696042 0.13167882 0.046027601 1.9611008e-38
0.064651549 0.13367803 0.046264291 1.8230603e-38
0.059719488 0.028113082 0.061081707 1.1130863e-38
0.055221051 0.02861689 0.060989141 1.0676712e-38
0.05218479 0.02941601 0.060102463 1.1133016e-38
0.051503003 0.032735832 0.058819532 1.2153628e-38
0.049023852 0.032252066 0.059568286 1.1686891e-38
0.046121687 0.036382765 0.057510972 1.1134121e-38
0.043994248 0.037345648 0.058088005 1.0766755e-38
0.042758361 0.039668992 0.056539357 1.1873063e-38
0.043095365 0.13222557 0.042657793 1.1511855e-38
0.044443324 0.13325681 0.043505669 1.4833415e-38
0.041748896 0.037746981 0.057712972 1.1227342e-38
0.040268078 0.040089048 0.056739986 1.1136581e-38
0.040401682 0.12510605 0.044185638 1.3993581e-38
0.039728075 0.12710863 0.043785751 1.4087183e-38
0.040404037 0.13191918 0.04212445 7.6410899e-39
0.037033647 0.041681945 0.056453466 1.0488715e-38
0.036281496 0.043256044 0.055342138 1.0948614e-38
0.033839673 0.04491435 0.055003047 1.057984e-38
0.031985998 0.04915183 0.054267287 1.0858564e-38
0.029375613 0.05257991 0.053464353 1.0948614e-38
0.027287066 0.054785654 0.052069902 1.076783e-38
