# .PCD v0.7 - Point Cloud Data file format
VERSION 0.7
FIELDS x y z rgb
SIZE 4 4 4 4
TYPE F F F F
COUNT 1 1 1 1
WIDTH 981
HEIGHT 1
VIEWPOINT 0 0 0 0 1 0 0
POINTS 981
DATA ascii
0.1502333 0.11789247 0.019688606 1.5469071e-38
0.14930648 0.12073013 0.020461261 1.6022602e-38
0.14644943 0.036508597 0.033202052 1.8874927e-38
0.14630625 0.039265774 0.031949759 1.8780926e-38
0.14615285 0.042022988 0.030752718 1.8689064e-38
0.14743786 0.11489026 0.018001497 1.5009514e-38
0.14648178 0.11774653 0.018880427 1.5285041e-38
0.1435924 0.036755875 0.032703936 1.9056073e-38
0.14256766 0.039382368 0.031743228 1.8963509e-38
0.14278309 0.042191975 0.029672027 1.8872735e-38
0.14301331 0.11478144 0.017307222 1.5473377e-38
0.14259058 0.11710994 0.018753171 1.5565228e-38
0.13855255 0.039786316 0.031247795 1.8874537e-38
0.13918309 0.041851565 0.029658973 1.8780548e-38
0.1386416 0.11398932 0.017411649 1.4458158e-38
0.13863117 0.11717227 0.018790007 1.5379033e-38
0.13470381 0.040347889 0.030711889 1.8409292e-38
0.13488574 0.041896999 0.028653502 1.8317785e-38
0.13606051 0.11081675 0.016810656 1.3995737e-38
0.1354053 0.11366609 0.017027318 1.4365962e-38
0.13466071 0.11732942 0.018053889 1.5379394e-38
0.131423 0.042769074 0.028267443 1.8135898e-38
0.13037182 0.044919565 0.026224136 1.7954738e-38
0.13037182 0.11004454 0.01601702 1.3908198e-38
0.13135388 0.113507 0.016144633 1.4183001e-38
0.13111436 0.11752787 0.017127216 1.5286845e-38
0.13025956 0.12026167 0.017472267 1.565885e-38
0.12743977 0.043418825 0.028652608 1.7679953e-38
0.1268734 0.045954414 0.026011884 1.7496286e-38
0.12531522 0.048588887 0.024836004 1.6299552e-38
0.12708461 0.10952348 0.015797853 1.2430205e-38
0.12742153 0.11352745 0.016704857 1.3169203e-38
0.12763411 0.11711317 0.017031133 1.2706798e-38
0.12265646 0.046187297 0.027114153 1.5282511e-38
0.12278688 0.048526704 0.024439335 1.4819023e-38
0.12215483 0.10668103 0.015223026 1.1139087e-38
0.12264998 0.10969573 0.016367376 9.6646939e-39
0.12338591 0.11309667 0.017050862 8.9318162e-39
0.11870298 0.049602658 0.02412641 1.3806657e-38
0.1179731 0.094915241 0.017077982 1.1780505e-38
0.11881386 0.10154061 0.015491486 1.160261e-38
0.11878738 0.10550974 0.015662313 1.2247951e-38
0.1185561 0.10895833 0.016952157 1.0401548e-38
0.11592665 0.047369324 0.025567353 1.2698183e-38
0.11526123 0.050217271 0.024330735 1.1776578e-38
0.11468452 0.053288683 0.022975802 1.0305353e-38
0.114897 0.094294697 0.018944025 1.0768512e-38
0.11465874 0.098071188 0.017416894 1.1690463e-38
0.11514123 0.10149848 0.015135348 1.1968863e-38
0.11474928 0.10561042 0.015908301 1.261458e-38
0.11311732 0.10840817 0.016573846 1.2892263e-38
0.11184753 0.051217586 0.025333285 1.279535e-38
0.11203113 0.053663634 0.024296165 1.15032e-38
0.11167192 0.057308957 0.022642136 1.0856383e-38
0.11155367 0.061265454 0.021661401 9.3819665e-39
0.11140953 0.065950744 0.019879103 8.4665318e-39
0.10930794 0.068938032 0.022147596 8.4711785e-39
0.11057773 0.09564364 0.018166184 1.095218e-38
0.110824 0.098000333 0.016925275 1.1596118e-38
0.1112859 0.10145189 0.014750481 1.214931e-38
0.1111019 0.10539533 0.014786065 1.3902787e-38
0.11037418 0.10929818 0.015407681 1.5468682e-38
0.10668415 0.094914109 0.017039478 1.1227014e-38
0.10705127 0.097884074 0.016223073 1.1686892e-38
0.10755466 0.10131189 0.013944685 1.1780869e-38
0.10761711 0.10505888 0.013139725 1.4087209e-38
0.10310325 0.094719946 0.016596675 1.1595421e-38
0.10324752 0.097790509 0.015626132 1.1873788e-38
0.10382465 0.10117193 0.013139188 1.1966335e-38
0.10398267 0.10481143 0.012594163 1.4086877e-38
0.10306615 0.10848774 0.011870682 2.0446901e-38
0.099613667 0.094951659 0.015999258 1.2056028e-38
0.099508762 0.097650737 0.014819086 1.2332605e-38
0.10019022 0.10092446 0.012593627 1.2974726e-38
0.095340192 0.095268846 0.015774965 1.3620851e-38
0.095477551 0.097660571 0.014089823 1.5093447e-38
0.095986903 0.09996751 0.012067854 1.6568192e-38
0.090973258 0.09510906 0.014841557 1.6292672e-38
0.091387331 0.097116083 0.013210058 1.8593999e-38
0.08724305 0.094329849 0.014107764 1.7764619e-38
0.087706715 0.096033394 0.011353135 1.9979827e-38
0.083415553 0.093980938 0.012741804 2.1175835e-38
0.083598226 0.095616207 0.010757983 2.1636099e-38
0.079300612 0.09354946 0.01141572 1.8779116e-38
0.076316386 0.093747839 0.010904789 1.1030083e-38
0.074749172 0.095398545 0.0093692541 1.094245e-38
0.072084188 0.097374469 0.0103392 1.1875932e-38
0.071378082 0.10037389 0.0080475211 1.3809533e-38
0.069013864 0.10202181 0.0094587207 1.4270129e-38
0.15621954 0.079505131 0.014598906 1.491517e-38
0.15422818 0.080224924 0.01416117 1.4362721e-38
0.15247691 0.070785761 0.015739501 1.5191758e-38
0.14737138 0.074968487 0.014646471 1.5099551e-38
0.15484238 0.082499221 0.015317142 1.6020441e-38
0.18164736 0.040028758 0.039627492 1.8972138e-38
0.18278597 0.12052675 0.026901066 2.2012461e-38
0.18121958 0.12345789 0.02794677 2.24756e-38
0.1795474 0.12653893 0.029537618 2.2568163e-38
0.17698899 0.026665881 0.04477948 6.9910346e-39
0.176989 0.029225104 0.04437834 8.0094927e-39
0.1771273 0.032978669 0.043015182 1.0035647e-38
0.17722575 0.036749139 0.041870654 1.584288e-38
0.17769927 0.03898789 0.038862884 1.851403e-38
0.17772505 0.12329221 0.02642262 2.1825194e-38
0.17713791 0.12690979 0.028238058 2.2745348e-38
0.17315139 0.026571482 0.044177294 9.1147753e-39
0.17319191 0.029107533 0.043558538 1.0866477e-38
0.17337553 0.032835945 0.041978776 1.4273754e-38
0.17362066 0.036514446 0.040075183 1.8144897e-38
0.17388424 0.12412408 0.02490598 2.1177656e-38
0.17319761 0.12721947 0.027256966 2.1546793e-38
0.16931379 0.026477098 0.043575048 1.1511492e-38
0.16939794 0.028989844 0.042739213 1.3719512e-38
0.16964996 0.032681473 0.040834665 1.6207722e-38
0.16994393 0.035695098 0.038815379 1.8514017e-38
0.17070505 0.12404588 0.024407089 1.8784543e-38
0.16973451 0.12701699 0.025607467 2.0442243e-38
0.16822532 0.12984279 0.026174545 2.0900707e-38
0.16675538 0.026414171 0.043173552 1.2247238e-38
0.16554102 0.028906956 0.042245924 1.4179783e-38
0.16577832 0.032611251 0.040450871 1.5838575e-38
0.16564453 0.035369039 0.039029181 1.6851295e-38
0.16610241 0.12727575 0.024917901 1.952136e-38
0.16586518 0.12952822 0.024819434 2.0532624e-38
0.16208984 0.028994434 0.041579783 1.4550698e-38
0.16183874 0.03257782 0.040392041 1.639246e-38
0.16225812 0.035403959 0.03950417 1.7036046e-38
0.16190493 0.12700865 0.024449468 1.8691605e-38
0.15805683 0.029527232 0.041287065 1.5287554e-38
0.15786958 0.032555245 0.040440679 1.6391032e-38
0.15814458 0.034964271 0.038740873 1.8139146e-38
0.15798829 0.1237331 0.022411466 1.6942038e-38
0.15812068 0.12689961 0.024441719 1.8323536e-38
0.15412344 0.032808602 0.038603008 1.7035328e-38
0.15396278 0.034705065 0.036742628 1.8879218e-38
0.15426452 0.12312803 0.022786081 1.7033876e-38
0.15417482 0.12694296 0.024369836 1.8140564e-38
0.14884658 0.029812545 0.039761484 1.7587024e-38
0.14970477 0.032278247 0.03848809 1.7586325e-38
0.14957517 0.034558065 0.03571862 1.8506849e-38
0.14998126 0.12299007 0.022265434 1.6941327e-38
0.14555976 0.032227039 0.038285136 1.8688711e-38
0.1454273 0.03500396 0.035323381 1.8967469e-38
0.14575763 0.12232618 0.021348774 1.6665106e-38
0.14566323 0.12629619 0.022809923 1.8692666e-38
0.14117137 0.033462621 0.037955344 1.9702521e-38
0.14135754 0.03568612 0.036099374 1.942485e-38
0.14082067 0.038080826 0.033075571 1.9147899e-38
0.14209235 0.11952585 0.020515025 1.6023317e-38
0.14160587 0.12258077 0.022121608 1.6944544e-38
0.14128649 0.12611225 0.022940338 1.8694101e-38
0.13861297 0.033399694 0.037553847 1.9610683e-38
0.13749103 0.035850652 0.036306024 1.9241886e-38
0.13827732 0.038018271 0.032676458 1.8966009e-38
0.1381188 0.11959036 0.020549357 1.5931473e-38
0.1377005 0.12256667 0.021837592 1.6667257e-38
0.1374121 0.12605876 0.022496581 1.7956551e-38
0.13381667 0.03613767 0.035767853 1.8870589e-38
0.13430065 0.03863845 0.032623172 1.8595083e-38
0.13509813 0.11935383 0.019417465 1.602259e-38
0.13392618 0.12241936 0.021026075 1.6577554e-38
0.13357638 0.12596442 0.021894634 1.8144901e-38
0.12965858 0.036378495 0.035647213 1.8690141e-38
0.13026173 0.039286077 0.032783151 1.8135521e-38
0.13053592 0.12253509 0.020405948 1.5657052e-38
0.12710017 0.036955379 0.035145462 1.8044787e-38
0.1260455 0.039376698 0.033685327 1.7307945e-38
0.12607142 0.042077318 0.031871259 1.7311169e-38
0.12581465 0.11886369 0.018684924 9.5728668e-39
0.12626435 0.12223285 0.020492494 1.1232028e-38
0.12236731 0.040326253 0.033599973 1.6293085e-38
0.12249903 0.042977542 0.031412065 1.6112264e-38
0.12216942 0.11479554 0.018053114 7.4545169e-39
0.12249967 0.11825624 0.019613564 6.7162175e-39
0.12192041 0.1223104 0.020550489 6.1680997e-39
0.11855435 0.043395996 0.031883419 1.528179e-38
0.11759898 0.045946002 0.029390275 1.4084323e-38
0.1179305 0.11087501 0.017986059 8.5565512e-39
0.11864659 0.11437449 0.019089997 6.9078199e-39
0.11864483 0.11818701 0.019118547 6.446469e-39
0.11866951 0.12198332 0.019054115 6.3524839e-39
0.11430816 0.044318445 0.031934679 1.4174745e-38
0.11437754 0.046202749 0.029771626 1.3529369e-38
0.11347964 0.049493209 0.026890874 1.2056389e-38
0.11307222 0.093676016 0.021437824 1.0123152e-38
0.11459911 0.11049032 0.019121349 1.0494428e-38
0.11483805 0.11422645 0.019653797 7.6399745e-39
0.11133872 0.0466903 0.030231416 1.5004859e-38
0.11065498 0.050144754 0.028794348 1.3991029e-38
0.11002317 0.054005995 0.026652753 1.2883591e-38
0.10847047 0.057944626 0.026810706 1.2149993e-38
0.10847047 0.062410109 0.026110768 1.0953601e-38
0.10847047 0.066875599 0.02541095 9.3841847e-39
0.10902879 0.071009263 0.022803009 8.4700855e-39
0.10956106 0.074676499 0.025046885 7.6403627e-39
0.10919136 0.091538414 0.023711145 9.2934044e-39
0.11050421 0.093786061 0.021861732 1.0122424e-38
0.11193445 0.11074662 0.018067002 1.233331e-38
0.11229679 0.11290042 0.018812537 8.0087696e-39
0.10741216 0.054951414 0.028646946 1.4081766e-38
0.10596122 0.058240049 0.02753222 1.2703178e-38
0.10582963 0.062635027 0.026396275 1.2150704e-38
0.10573119 0.066918582 0.025646925 1.067883e-38
0.10597247 0.070547841 0.024818003 9.6653917e-39
0.10791215 0.07359232 0.026318192 8.3772285e-39
0.10620555 0.091313541 0.022497714 1.0119197e-38
0.1065343 0.093262911 0.021305442 1.0489067e-38
0.10242987 0.058284879 0.027835846 1.3533298e-38
0.10205208 0.062450714 0.026353478 1.2703538e-38
0.10177162 0.066895269 0.025469422 1.206104e-38
0.10234103 0.07035023 0.025725663 1.1784427e-38
0.10185859 0.090017855 0.022462904 1.104043e-38
0.10209328 0.092873752 0.020310879 1.1317392e-38
0.097678572 0.05862502 0.027018607 1.3993571e-38
0.098190248 0.067211039 0.025755167 1.1602241e-38
0.097678572 0.087416396 0.022506118 1.1778711e-38
0.097874701 0.089846462 0.021473467 1.1776923e-38
0.098254398 0.093153507 0.019137323 1.2055303e-38
0.093840957 0.087322012 0.021903872 1.2609548e-38
0.094107717 0.089709759 0.020661414 1.2515574e-38
0.094407558 0.09334527 0.019115031 1.315914e-38
0.090003356 0.087227628 0.021301627 1.3896335e-38
0.090342999 0.089572713 0.019849896 1.3987812e-38
0.090817988 0.093095943 0.017779827 1.4540271e-38
0.086805359 0.087148964 0.020799756 1.4451661e-38
0.086476475 0.089499623 0.019353569 1.5369663e-38
0.087099165 0.092299238 0.016965151 1.6102926e-38
0.08253935 0.089469284 0.01906693 1.9240456e-38
0.083278477 0.092205271 0.016365588 2.0252808e-38
0.078857794 0.089763224 0.018526614 1.9976604e-38
0.079140544 0.091983497 0.015588582 1.9701088e-38
0.075099468 0.089404002 0.017667413 1.6472429e-38
0.074486688 0.092452928 0.015323162 1.1497141e-38
0.073421866 0.094939232 0.01332736 1.0391794e-38
0.07209456 0.090626001 0.017889559 1.2599866e-38
0.071889371 0.092617139 0.01686126 1.0947885e-38
0.070679128 0.096033379 0.015277147 1.1594671e-38
0.067261174 0.10120146 0.014600873 1.30734e-38
0.064762473 0.10302107 0.013743103 1.3533312e-38
0.064762473 0.1042988 0.013542831 1.3719491e-38
0.15759563 0.082836047 0.013930082 1.4823336e-38
0.18012638 0.061671451 0.021691084 1.9336614e-38
0.11477788 0.096182942 0.01818043 1.1229487e-38
0.098190248 0.067211039 0.025755167 1.1602241e-38
0.17654505 0.022419602 0.047935963 4.969918e-39
0.17651609 0.12970264 0.031287491 2.2746432e-38
0.17351875 0.022575788 0.04759568 6.8109705e-39
0.17272356 0.024877533 0.046765506 8.1913967e-39
0.17406791 0.12947267 0.030246615 2.2099228e-38
0.17266344 0.13089252 0.030481517 2.1734055e-38
0.16884163 0.024798781 0.046324492 9.8541438e-39
0.16881016 0.13122615 0.029809713 2.1543924e-38
0.16478093 0.025205955 0.045863926 1.1417847e-38
0.16531114 0.13131155 0.029062867 2.0532627e-38
0.16163176 0.025787644 0.045112669 1.2429833e-38
0.15995532 0.028380178 0.043821931 1.4087569e-38
0.16086704 0.1308168 0.028169692 1.9152579e-38
0.15706865 0.02798833 0.043419182 1.4455276e-38
0.15706865 0.13065878 0.027327538 1.915436e-38
0.15360269 0.029293939 0.043242991 1.5652374e-38
0.15289903 0.031415075 0.042211711 1.6480327e-38
0.15407628 0.13039258 0.027400494 1.924763e-38
0.14973152 0.029392377 0.043044269 1.6941307e-38
0.14562002 0.029548295 0.042358816 1.7950789e-38
0.14520125 0.12876266 0.025716603 1.9152217e-38
0.1449776 0.13029705 0.026464999 1.9338755e-38
0.14240791 0.029983401 0.041774154 2.0159161e-38
0.14131397 0.031790435 0.040461063 1.9793624e-38
0.14135236 0.12866801 0.025112569 1.9153647e-38
0.14184223 0.13013443 0.025644779 1.9153651e-38
0.13706087 0.032389447 0.040244579 1.9702518e-38
0.13686199 0.12855756 0.024407923 1.8510802e-38
0.13726853 0.13010743 0.025255203 1.8789892e-38
0.13285145 0.033565678 0.039334536 1.9147908e-38
0.13237162 0.034760334 0.038386881 1.8961714e-38
0.13285145 0.12862867 0.024435222 1.8698792e-38
0.13277157 0.12999684 0.024549544 1.8790978e-38
0.12891704 0.034792624 0.038851261 1.8780905e-38
0.12788126 0.12448652 0.023602009 1.3450831e-38
0.12936091 0.12625256 0.024075508 1.5289356e-38
0.12523168 0.036763415 0.037266612 1.7677809e-38
0.12403236 0.12439185 0.022998035 8.836043e-39
0.12506251 0.12595144 0.02394408 9.9431066e-39
0.1218504 0.03718935 0.037339389 1.7951515e-38
0.12105402 0.038919583 0.036530197 1.6844102e-38
0.12274939 0.12436029 0.02279669 7.5514153e-39
0.12120798 0.12585664 0.023339152 7.455949e-39
0.11771569 0.04037866 0.035764754 1.6662214e-38
0.11684307 0.04214295 0.035245478 1.5190328e-38
0.11414133 0.040855519 0.035525322 1.6569656e-38
0.11391774 0.04282818 0.03456527 1.5097057e-38
0.11001113 0.044042692 0.033951759 1.6388487e-38
0.10835955 0.047139622 0.033610761 1.7493746e-38
0.10863681 0.049577124 0.032248437 1.7304678e-38
0.10991977 0.076559663 0.02822572 6.903148e-39
0.10943517 0.079377152 0.028145492 6.9031606e-39
0.10835955 0.081841707 0.028171897 7.1815551e-39
0.10972333 0.09081465 0.026692033 8.6487553e-39
0.104505 0.044474296 0.033408761 1.777216e-38
0.10562925 0.047233127 0.03315711 1.8138755e-38
0.10597721 0.050841711 0.031964302 1.6571435e-38
0.1055577 0.054121576 0.031041205 1.5002636e-38
0.10580465 0.075402528 0.028129816 8.8345801e-39
0.10578984 0.079207979 0.02817148 8.1920917e-39
0.10604681 0.082298927 0.027728379 7.6382019e-39
0.10514742 0.088189006 0.026660562 9.0168007e-39
0.10602435 0.089972392 0.025668085 9.3841469e-39
0.10193533 0.047348827 0.03254509 1.7860743e-38
0.10209437 0.050761953 0.031466365 1.7583422e-38
0.102222 0.054552883 0.030437291 1.5375045e-38
0.10158053 0.05710385 0.029934227 1.4179366e-38
0.1013667 0.072071366 0.027553976 1.1511064e-38
0.10199881 0.075219929 0.027959287 1.0126025e-38
0.10193533 0.079113171 0.027566612 9.2973435e-39
0.10177472 0.082804352 0.02696228 9.4802774e-39
0.10184664 0.086934149 0.026070356 1.0399006e-38
0.10350496 0.089235693 0.025207579 1.0395415e-38
0.098080784 0.047529437 0.031897008 1.7122841e-38
0.098210692 0.050682187 0.030968308 1.6936287e-38
0.098373085 0.054458216 0.029833257 1.5279631e-38
0.098586917 0.058099717 0.029296875 1.4176879e-38
0.097945452 0.062575772 0.028492212 1.2888678e-38
0.098373115 0.066008627 0.028022885 1.2063214e-38
0.098176181 0.071319453 0.027287006 1.1507858e-38
0.098178238 0.075106449 0.027248919 1.0953605e-38
0.098080784 0.079018369 0.026961684 1.0862162e-38
0.098080784 0.082874149 0.026357412 1.1045832e-38
0.098263472 0.086451799 0.025185525 1.1320966e-38
0.094483227 0.051425271 0.030707955 1.5920351e-38
0.094358265 0.054440916 0.029759765 1.5090943e-38
0.094424278 0.058262229 0.028943717 1.4173652e-38
0.094300419 0.062820263 0.028636515 1.2978356e-38
0.094324946 0.067303233 0.027852356 1.1874885e-38
0.094391376 0.071120173 0.027037084 1.2150376e-38
0.094524205 0.074897639 0.026010931 1.1967414e-38
0.094424695 0.078806788 0.025723815 1.1783407e-38
0.094226271 0.082779348 0.025752485 1.1782314e-38
0.094425201 0.085868105 0.024617195 1.2148924e-38
0.091656566 0.051869847 0.030183792 1.6107958e-38
0.09055528 0.054780506 0.029550552 1.5183496e-38
0.090371728 0.058264561 0.02897501 1.4540632e-38
0.090371728 0.062762976 0.028269947 1.3713384e-38
0.090371728 0.067261398 0.027564883 1.3712322e-38
0.090405256 0.071098708 0.026855052 1.3622635e-38
0.090506017 0.074897192 0.025934219 1.2795762e-38
0.090438783 0.07878992 0.025541067 1.2336901e-38
0.090371728 0.082684539 0.025147617 1.252024e-38
0.090265125 0.085820794 0.023760557 1.3346037e-38
0.087802038 0.055630833 0.028974593 1.574348e-38
0.087802038 0.058201358 0.028571725 1.5829205e-38
0.08583194 0.062522784 0.027577579 1.5369306e-38
0.085946143 0.06729535 0.026848018 1.472575e-38
0.085874766 0.071006574 0.026254892 1.4359117e-38
0.08667779 0.075042769 0.025751412 1.3255651e-38
0.087373748 0.077898175 0.025415778 1.2612055e-38
0.086333632 0.083136052 0.024427593 1.3254221e-38
0.085548759 0.085842282 0.023364842 1.463498e-38
0.081377819 0.062541768 0.026858509 1.5557664e-38
0.081377804 0.067040183 0.026153505 1.4726823e-38
0.081377804 0.07089597 0.025549173 1.4082876e-38
0.082662657 0.073498093 0.025347888 1.3716969e-38
0.081567883 0.086977169 0.022444427 1.8409252e-38
0.077844501 0.063097492 0.026203334 1.5280362e-38
0.077523291 0.066945374 0.025548577 1.4727179e-38
0.077890366 0.070626587 0.025030673 1.4357686e-38
0.07816571 0.073387489 0.024642229 1.4173662e-38
0.077684492 0.08677277 0.021954536 1.9056785e-38
0.077204227 0.088588804 0.021080256 2.0068777e-38
0.073668748 0.064280048 0.025346577 1.4638579e-38
0.073762208 0.086442947 0.02159524 1.5280008e-38
0.072713852 0.088478357 0.02037555 1.4078216e-38
0.071099073 0.087351561 0.021317422 1.4356244e-38
0.070204303 0.09007673 0.020336449 1.3800902e-38
0.069311023 0.093568966 0.019235551 1.149962e-38
0.06724453 0.094968334 0.019503832 1.0950765e-38
0.066191435 0.097849727 0.018736541 1.1322061e-38
0.065329999 0.10034668 0.017669797 1.1508967e-38
0.062747568 0.098713517 0.018193841 1.1139818e-38
0.062308639 0.10108523 0.017623425 1.2336921e-38
0.062105149 0.1044814 0.017186522 1.3350008e-38
0.1585699 0.077008031 0.015779316 1.5375789e-38
0.15745184 0.064734876 0.017116725 1.6571093e-38
0.16138349 0.073280416 0.017229676 1.6571812e-38
0.15788719 0.062456429 0.019403338 1.7400862e-38
0.11526123 0.050217271 0.024330735 1.1776578e-38
0.12063128 0.092387572 0.015174091 1.6020799e-38
0.16742057 0.043670587 0.030326962 2.1085796e-38
0.14869186 0.039556958 0.033733964 1.8050888e-38
0.10577957 0.071055777 0.026116729 1.3993931e-38
0.09891358 0.089337617 0.022296727 1.1502486e-38
0.17627871 0.020629063 0.049711108 5.7982325e-39
0.17635339 0.13291377 0.034174383 2.2573172e-38
0.17203131 0.018141203 0.05158174 6.9041989e-39
0.17192793 0.021411702 0.049230456 7.2719291e-39
0.17193025 0.1338391 0.03400147 2.2471984e-38
0.16829497 0.018223867 0.051110387 7.7310968e-39
0.16843244 0.021786347 0.048951387 8.7484829e-39
0.16851389 0.13360836 0.032395065 2.1275236e-38
0.16417919 0.018645398 0.050809681 8.2867845e-39
0.16443884 0.021752492 0.048997879 9.577882e-39
0.16403657 0.13373034 0.031809807 2.0720963e-38
0.16152993 0.01861117 0.050730646 8.7459703e-39
0.16067338 0.021849722 0.048676074 1.0310772e-38
0.16019464 0.024738461 0.046480954 1.1504658e-38
0.16085516 0.13331586 0.030799627 2.0625538e-38
0.15894519 0.13683784 0.03178525 2.0904289e-38
0.15700665 0.023024686 0.049311638 1.1049419e-38
0.15679449 0.025388002 0.046743393 1.2150746e-38
0.15707129 0.13311869 0.029812157 1.9983392e-38
0.15649828 0.13531008 0.030948043 2.0536227e-38
0.15284839 0.025788411 0.047331512 1.3807386e-38
0.15247428 0.027766436 0.044765055 1.5006285e-38
0.15275259 0.13262281 0.029254019 2.0078113e-38
0.15248336 0.13538611 0.030973852 2.0537301e-38
0.14898312 0.026356488 0.047243178 1.5009882e-38
0.14925748 0.027687319 0.044260204 1.6206975e-38
0.14894371 0.13231298 0.029292047 1.9523517e-38
0.14506321 0.028064914 0.045064092 1.7953296e-38
0.1453817 0.13258386 0.02924633 1.9431671e-38
0.14115755 0.028498322 0.043709278 2.0070904e-38
0.14125261 0.1323953 0.027843297 1.9337683e-38
0.13727498 0.029232129 0.043848515 2.0070564e-38
0.13639022 0.031232268 0.041635752 2.0070212e-38
0.13788256 0.13211814 0.026576221 1.9341261e-38
0.13348034 0.029852137 0.044202745 2.0345726e-38
0.13301301 0.031867206 0.041676581 1.9610669e-38
0.13301484 0.13174057 0.027390122 1.8975013e-38
0.12925734 0.032805339 0.042087197 1.9240802e-38
0.12866987 0.12822175 0.025193155 1.418302e-38
0.12922072 0.13136652 0.027863562 1.4646873e-38
0.12570205 0.033326566 0.042253852 1.8873827e-38
0.12434934 0.035406232 0.039865613 1.8413572e-38
0.12496224 0.12844077 0.02544117 9.9466827e-39
0.12534361 0.13084021 0.02732265 1.0034195e-38
0.12189728 0.033365317 0.042045891 1.8966369e-38
0.1202485 0.035852224 0.040366173 1.8504676e-38
0.12069105 0.12828016 0.024926126 8.1935266e-39
0.12211269 0.13076076 0.026815653 9.2155889e-39
0.11699098 0.036571056 0.039729774 1.8133738e-38
0.11676767 0.038794294 0.03729558 1.7492316e-38
0.11241992 0.037441507 0.039883256 1.8043698e-38
0.11289066 0.039366767 0.037168145 1.7583434e-38
0.11194244 0.042215258 0.035983562 1.5838914e-38
0.11194244 0.088552445 0.028721094 7.4516386e-39
0.11194244 0.089839578 0.028519332 8.0023237e-39
0.10904109 0.040169656 0.037741065 1.7584149e-38
0.10877097 0.042587593 0.036440194 1.703349e-38
0.10918653 0.083733886 0.030314326 6.6261911e-39
0.1091246 0.087367564 0.029364765 7.1757664e-39
0.11065573 0.089807928 0.028317392 8.0019551e-39
0.10466571 0.041129157 0.038058519 1.7860003e-38
0.1053535 0.043324068 0.035903335 1.7676708e-38
0.10679555 0.045950092 0.034570634 1.7861456e-38
0.10518715 0.084203064 0.028316617 7.8204183e-39
0.10569263 0.086743832 0.027999759 8.1881274e-39
0.10014242 0.041017905 0.037348688 1.7861104e-38
0.10136196 0.043370716 0.03512615 1.7954019e-38
0.10164866 0.0458235 0.033762991 1.8045157e-38
0.10293537 0.084469467 0.027912796 8.9249624e-39
0.10293537 0.085756615 0.027711093 9.2933848e-39
0.098203868 0.040970229 0.037044466 1.767458e-38
0.097583666 0.04347223 0.034758925 1.74909e-38
0.097788483 0.045728557 0.03315717 1.7398707e-38
0.093411654 0.044160686 0.035363972 1.7121751e-38
0.093629703 0.047048032 0.033306599 1.6845157e-38
0.093606621 0.049808919 0.031845272 1.6476385e-38
0.090449661 0.044657871 0.035219729 1.7670987e-38
0.08939448 0.04734461 0.034372807 1.7303624e-38
0.089830905 0.050555475 0.031377375 1.6657899e-38
0.089424759 0.053245708 0.030634284 1.5919277e-38
0.08528018 0.048409097 0.033800602 1.7671342e-38
0.086047113 0.054288886 0.029927671 1.6292352e-38
0.085564584 0.05829934 0.029221535 1.6015032e-38
0.086207956 0.064750887 0.028313816 1.5092724e-38
0.085350126 0.066875026 0.027842999 1.4817942e-38
0.084921226 0.073729247 0.026699722 1.3808453e-38
0.085779041 0.079327971 0.025960147 1.2610995e-38
0.085779041 0.081902258 0.025556684 1.2886153e-38
0.081577808 0.050824247 0.032257438 1.7582013e-38
0.081857085 0.054575548 0.030803382 1.6843725e-38
0.082347766 0.058220223 0.028716743 1.62927e-38
0.08234778 0.075113989 0.026068926 1.3715181e-38
0.08234778 0.078814521 0.025488973 1.3437508e-38
0.082186937 0.082511112 0.024883747 1.3251715e-38
0.08148995 0.085658193 0.024278402 1.592466e-38
0.077895209 0.050997719 0.032207489 1.7122826e-38
0.077739239 0.054588892 0.030936301 1.6754052e-38
0.077845603 0.058420703 0.029191315 1.6200522e-38
0.076557517 0.061295666 0.027303696 1.5649505e-38
0.075914145 0.071576998 0.02558887 1.4080751e-38
0.077844232 0.075099751 0.025347054 1.389886e-38
0.078344285 0.078797862 0.025303364 1.3071985e-38
0.078019679 0.082686514 0.024186194 1.279109e-38
0.077844232 0.085139483 0.023773551 1.5467985e-38
0.073721141 0.054555565 0.03075099 1.6109769e-38
0.073908955 0.058147438 0.028282344 1.610939e-38
0.073340684 0.062328167 0.02662468 1.518851e-38
0.073340699 0.067008696 0.025891125 1.4266931e-38
0.073340699 0.070870124 0.0252859 1.3805947e-38
0.073656604 0.074918076 0.025727212 1.3164891e-38
0.073829442 0.079052672 0.026587367 1.2520959e-38
0.073575854 0.082694761 0.024751484 1.1687258e-38
0.073340684 0.085028708 0.023066819 1.25217e-38
0.070094854 0.05546914 0.030252516 1.574241e-38
0.069983512 0.058040947 0.028678477 1.5373976e-38
0.069665506 0.062632859 0.027395189 1.4820442e-38
0.06979017 0.067087568 0.026332796 1.4083261e-38
0.070012659 0.070844918 0.025096357 1.3254574e-38
0.069955885 0.075082794 0.026586711 1.2519524e-38
0.069771737 0.079054609 0.02650404 1.2241132e-38
0.069817156 0.082654722 0.025306404 1.2058203e-38
0.069583744 0.086287618 0.022607028 1.3991435e-38
0.068622708 0.089203149 0.02165395 1.4637134e-38
0.067187011 0.055720814 0.029745519 1.5189592e-38
0.066493526 0.058643132 0.028663635 1.4818656e-38
0.066287532 0.062616102 0.028110266 1.4544587e-38
0.066043973 0.067253955 0.027298748 1.3530089e-38
0.065931916 0.071184337 0.027006328 1.2702125e-38
0.066153109 0.074311554 0.026665568 1.2059268e-38
0.066110045 0.079180002 0.025895596 1.270352e-38
0.066056192 0.082841575 0.025313079 1.3715914e-38
0.065859884 0.086480156 0.02432698 1.5280361e-38
0.065812469 0.09025763 0.022403419 1.435946e-38
0.06545952 0.093683973 0.020443082 1.1873789e-38
0.064977005 0.096407294 0.019938648 1.1229848e-38
0.063309908 0.063382193 0.027921379 1.417149e-38
0.062986821 0.067575812 0.027212143 1.3344257e-38
0.062792972 0.071384773 0.026584029 1.2793953e-38
0.06220217 0.074990049 0.025923967 1.2977264e-38
0.062202156 0.079237781 0.025258183 1.3622276e-38
0.061862573 0.082810514 0.024336159 1.4084322e-38
0.061860114 0.086340517 0.022638023 1.3992838e-38
0.062175736 0.090036049 0.02117002 1.2979775e-38
0.061760172 0.093753889 0.01983732 1.1691187e-38
0.061576337 0.097243041 0.019260943 1.0956129e-38
0.060473457 0.10273224 0.018223226 1.3624442e-38
0.060473457 0.10401939 0.018021524 1.344223e-38
0.058463529 0.075221293 0.025286615 1.2150383e-38
0.058140427 0.078768522 0.024678767 1.2517376e-38
0.057477713 0.082426913 0.023532927 1.2427687e-38
0.057198703 0.08630766 0.022320747 1.160008e-38
0.057899997 0.089797512 0.019836724 1.1505351e-38
0.057899997 0.093658939 0.019231558 1.1321693e-38
0.057899997 0.097520381 0.018626332 1.1691162e-38
0.05779691 0.10138112 0.018773317 1.2427673e-38
0.057668626 0.10450232 0.020057142 1.3167396e-38
0.054909512 0.076103471 0.024576902 1.1600441e-38
0.054263309 0.078673162 0.024070323 1.1967078e-38
0.053676218 0.082505308 0.023204446 1.1873771e-38
0.053794324 0.086321145 0.022283792 1.1136584e-38
0.053484738 0.089999706 0.020689428 1.1321289e-38
0.05364269 0.093782365 0.019666433 1.0679182e-38
0.053999737 0.097481579 0.019176602 1.1232719e-38
0.054381445 0.10187456 0.020111263 1.1875934e-38
0.051678583 0.079902366 0.023461998 1.215363e-38
0.051678583 0.082487948 0.023056805 1.2703519e-38
0.050817013 0.086776063 0.022246182 1.224219e-38
0.049435884 0.090250626 0.020967126 1.0766354e-38
0.049334496 0.093928277 0.02020371 1.0488332e-38
0.15806772 0.070656262 0.016813457 1.5283241e-38
0.16213657 0.075171188 0.016150355 1.5191404e-38
0.11878738 0.10550974 0.015662313 1.2247951e-38
0.094107717 0.089709759 0.020661414 1.2515574e-38
0.0887236 0.061079942 0.03134346 1.5006281e-38
0.17397508 0.13661507 0.036969781 2.2757219e-38
0.1737358 0.13955811 0.037836611 2.2958145e-38
0.16983613 0.012031171 0.057197094 7.7350792e-39
0.17137967 0.13719952 0.036460936 2.2665006e-38
0.17178597 0.13951015 0.037530661 2.2947012e-38
0.16742478 0.014486387 0.055399656 7.6417822e-39
0.16631792 0.016967826 0.053807855 7.914423e-39
0.16761406 0.13628258 0.035315871 2.1834155e-38
0.16371334 0.015209109 0.055099607 7.7307576e-39
0.1636602 0.016932141 0.053727806 8.0062781e-39
0.16359693 0.13700777 0.035239637 2.1460335e-38
0.16073687 0.015708316 0.055157721 8.0069914e-39
0.15935344 0.018213999 0.053859293 9.0214782e-39
0.15854114 0.020666208 0.051977813 1.0309691e-38
0.16033617 0.1369499 0.034809828 2.1181948e-38
0.15561618 0.021588288 0.052095175 1.0862521e-38
0.15594888 0.13729222 0.033282042 2.0904641e-38
0.15167254 0.022620693 0.052446067 1.2796471e-38
0.15141243 0.024380535 0.050249457 1.3624075e-38
0.15180677 0.13698858 0.033893585 2.0628415e-38
0.14838788 0.023206487 0.051997006 1.3993229e-38
0.14782566 0.024851069 0.050009012 1.4547115e-38
0.14788201 0.13614681 0.03353107 2.0077073e-38
0.14406098 0.026246756 0.04979986 1.7216452e-38
0.14362559 0.13576168 0.033077896 1.961643e-38
0.14012857 0.026167385 0.049350858 1.8599746e-38
0.13980976 0.13490912 0.031743944 1.9429868e-38
0.13643928 0.026230976 0.048986912 1.9428426e-38
0.13650692 0.027903572 0.047300696 2.0071279e-38
0.13655019 0.13552266 0.0321486 1.9617483e-38
0.13343911 0.026739761 0.049039721 2.0071641e-38
0.13207096 0.028440639 0.047733247 2.0254954e-38
0.13132238 0.1340934 0.02982384 1.7779721e-38
0.12808207 0.031586021 0.045368969 1.9609223e-38
0.12808207 0.13271715 0.029518545 1.2617504e-38
0.12758958 0.13452215 0.03120631 1.1786668e-38
0.12446532 0.029714957 0.046618044 2.0253515e-38
0.1244545 0.03184884 0.045000732 1.9425203e-38
0.12484173 0.13263744 0.029010057 1.0312908e-38
0.12433985 0.13444224 0.030696392 1.0677395e-38
0.12075111 0.029786557 0.046317101 1.9886884e-38
0.12052318 0.032357812 0.044886768 1.9242598e-38
0.12062931 0.13220972 0.028399825 9.4871297e-39
0.11654049 0.030225076 0.045776486 1.9793258e-38
0.11683144 0.032706127 0.044295609 1.9335153e-38
0.11576882 0.03517282 0.04282707 1.8961707e-38
0.11394072 0.030161127 0.045368433 1.9607065e-38
0.1127301 0.03269352 0.044435203 1.9608508e-38
0.11317655 0.035757363 0.042318702 1.8779824e-38
0.10911013 0.033376992 0.043677747 1.9514526e-38
0.10898867 0.036199898 0.042088449 1.8687998e-38
0.10771662 0.038987346 0.041959465 1.8039023e-38
0.1054914 0.033854261 0.043431103 1.96078e-38
0.10490328 0.036413528 0.042707562 1.8964228e-38
0.10445917 0.039798483 0.041015744 1.8136963e-38
0.10112745 0.036719084 0.042280495 1.8595801e-38
0.10075244 0.039707333 0.040434122 1.8044054e-38
0.097042084 0.036897242 0.041595697 1.8135537e-38
0.096431851 0.039814502 0.039759159 1.7490891e-38
0.095030725 0.042442068 0.038353384 1.712176e-38
0.093792349 0.037467465 0.040983737 1.7672761e-38
0.09289816 0.039806321 0.040034175 1.7029174e-38
0.091890946 0.042785414 0.03856343 1.7397622e-38
0.088592768 0.039940216 0.039760232 1.7675266e-38
0.088122159 0.043519363 0.037970483 1.7949717e-38
0.087253928 0.046140455 0.036523342 1.7764238e-38
0.084303141 0.040614888 0.038964748 1.8595082e-38
0.084352404 0.043605171 0.037479103 1.8409978e-38
0.084661663 0.04672499 0.036014974 1.8040123e-38
0.080458373 0.044159867 0.036766052 1.7857524e-38
0.080633104 0.047334023 0.035727262 1.7672771e-38
0.076297224 0.044166833 0.036949933 1.7583448e-38
0.076599538 0.047295302 0.035540342 1.7674919e-38
0.075588763 0.050391473 0.033981442 1.6755128e-38
0.072344109 0.044741832 0.036395133 1.7494839e-38
0.072561577 0.047256462 0.035352647 1.7214303e-38
0.072793454 0.050826423 0.033592045 1.6384553e-38
0.069744334 0.044677883 0.035987139 1.7121751e-38
0.06929037 0.047499821 0.035266817 1.6293786e-38
0.068812519 0.050998233 0.033707917 1.5925359e-38
0.068848863 0.053985722 0.032334507 1.5833891e-38
0.065198928 0.051530726 0.03377229 1.48183e-38
0.064846054 0.054595001 0.03223598 1.4725011e-38
0.064355627 0.057678416 0.031033278 1.4449867e-38
0.063923582 0.063718364 0.030017138 1.4361998e-38
0.064895675 0.076383665 0.028188407 1.2242586e-38
0.064787656 0.078866072 0.027781963 1.2794661e-38
0.063923582 0.083166659 0.026969016 1.4087197e-38
0.061944976 0.052287951 0.033540368 1.4449849e-38
0.061249301 0.055230595 0.032454789 1.4172869e-38
0.061063394 0.058580421 0.031159759 1.4175422e-38
0.06115073 0.062971659 0.029874861 1.4083232e-38
0.06055361 0.067265846 0.028919399 1.3714473e-38
0.06035921 0.071085878 0.028289318 1.2977983e-38
0.060683236 0.075307645 0.027679741 1.3160575e-38
0.060683236 0.077900752 0.027273357 1.3252061e-38
0.057807028 0.058974102 0.031570852 1.4453444e-38
0.057093665 0.063060932 0.03004694 1.3622974e-38
0.057442933 0.067448646 0.028390586 1.3989971e-38
0.057442933 0.071338303 0.02778095 1.2608121e-38
0.057183683 0.074962273 0.027171254 1.2058547e-38
0.057442933 0.10699351 0.022192657 1.2982634e-38
0.056681991 0.10952771 0.022954166 1.2795733e-38
0.053081989 0.063665152 0.02964884 1.389884e-38
0.053200111 0.067510471 0.028723538 1.3623703e-38
0.053554535 0.071242668 0.027170718 1.2608833e-38
0.053369373 0.074757323 0.026590109 1.1691205e-38
0.052906454 0.10266812 0.022141099 1.1875934e-38
0.053047687 0.1063697 0.023047864 1.2243987e-38
0.052412421 0.10970087 0.02300936 1.2980132e-38
0.049439028 0.063873157 0.029542983 1.353115e-38
0.049242824 0.067679547 0.028701365 1.3622628e-38
0.049105406 0.071400732 0.028024852 1.2702451e-38
0.049512863 0.075350046 0.02677393 1.1593983e-38
0.049368382 0.078825623 0.025693536 1.1224488e-38
0.049018055 0.082800061 0.024629951 1.2149263e-38
0.048802048 0.085820019 0.024121821 1.1510366e-38
0.049425676 0.10240388 0.022306204 1.3347809e-38
0.049595982 0.10529721 0.023246646 1.3532542e-38
0.048476577 0.11100601 0.021659374 1.0759583e-38
0.049334019 0.11408445 0.02118665 1.3069453e-38
0.046346247 0.070108719 0.02823925 1.2886852e-38
0.046346247 0.075960144 0.027322173 1.1589271e-38
0.046346247 0.08051125 0.026608884 8.7391558e-39
0.046044558 0.083251275 0.025515974 8.5436102e-39
0.045573115 0.086961716 0.024448633 8.7279917e-39
0.045092881 0.090469375 0.023675263 8.4535838e-39
0.044823676 0.094537929 0.022969842 8.54612e-39
0.045092613 0.098629072 0.022396386 9.1911348e-39
0.045553684 0.10151434 0.022677064 9.4691833e-39
0.042446554 0.090817869 0.024366498 1.084458e-38
0.042446554 0.094068661 0.023856997 1.0752759e-38
0.042446554 0.097319454 0.023347497 1.1217674e-38
0.16425346 0.07752949 0.015605807 1.4730773e-38
0.144122 0.084982127 0.011679232 1.2796468e-38
0.14407042 0.0887613 0.011306345 1.2613158e-38
0.13230866 0.11326781 0.013147056 2.090429e-38
0.17532063 0.1139977 0.019696236 1.841646e-38
0.10352036 0.067951597 0.026030064 1.3344617e-38
0.10432625 0.03801056 0.039415121 1.8504327e-38
0.16946594 0.14063698 0.03903079 2.3219611e-38
0.1669679 0.011666469 0.059662759 7.3666344e-39
0.16685863 0.13861674 0.038928211 2.2568844e-38
0.16648327 0.14111033 0.039501905 2.3127035e-38
0.16386607 0.011556461 0.060411155 7.2726339e-39
0.16247493 0.013705783 0.058569491 7.1804579e-39
0.16313389 0.14076069 0.037993312 2.2386259e-38
0.15880255 0.014847822 0.058227181 7.4570406e-39
0.15753101 0.017196897 0.057483613 8.7459746e-39
0.15909518 0.14145505 0.038845599 2.1829132e-38
0.15602155 0.015940968 0.058462679 8.3757375e-39
0.15491992 0.018437386 0.056869447 9.4806683e-39
0.15497561 0.14094511 0.038702488 2.0534092e-38
0.15106927 0.018768758 0.056784093 1.0863952e-38
0.15107317 0.020924386 0.055519521 1.1968864e-38
0.1507262 0.14083783 0.037450373 2.0443308e-38
0.14719649 0.019320484 0.056514084 1.188026e-38
0.14693093 0.021772578 0.054915845 1.3718775e-38
0.14730379 0.13813576 0.035859466 2.0352919e-38
0.14701435 0.14109451 0.036715746 2.0724575e-38
0.14326113 0.022484019 0.054799914 1.4824414e-38
0.14339283 0.024584606 0.053027689 1.6295596e-38
0.14331859 0.13812576 0.03556186 1.9893731e-38
0.14299645 0.14111432 0.03652221 2.072709e-38
0.1442548 0.14447418 0.036425591 2.0547039e-38
0.13933228 0.022834718 0.054493904 1.4732205e-38
0.13932961 0.024551548 0.053062797 1.6485736e-38
0.13955913 0.1376349 0.035512686 1.9246214e-38
0.13967884 0.13978416 0.036424935 2.0448001e-38
0.13575658 0.023289599 0.054052651 1.399539e-38
0.1350105 0.024804786 0.05267036 1.75885e-38
0.1348626 0.13725854 0.034816444 1.9801882e-38
0.13120633 0.026192725 0.0516361 2.0165621e-38
0.13164338 0.13680732 0.034318388 1.9342708e-38
0.130309 0.13998966 0.034886181 1.8607663e-38
0.12742189 0.026284821 0.051559925 2.0257105e-38
0.12774895 0.028112069 0.04995954 2.025638e-38
0.12786511 0.1368016 0.033235908 1.3257475e-38
0.1274225 0.14061204 0.033641398 1.3167422e-38
0.12341911 0.026874989 0.051165402 2.0530092e-38
0.12367006 0.028082401 0.049991608 2.0712688e-38
0.12375435 0.13699251 0.032593846 1.141461e-38
0.12347551 0.14054468 0.033131123 1.2247609e-38
0.12006757 0.026827246 0.050975621 2.0253878e-38
0.11934406 0.028337345 0.04959774 2.0344993e-38
0.11972725 0.13635816 0.03250134 1.3628339e-38
0.11974069 0.13962072 0.033244789 1.8335735e-38
0.11566515 0.029262751 0.049202859 1.9976932e-38
0.11523029 0.13290597 0.033315778 6.9889004e-39
0.11575288 0.13631865 0.032950342 1.3718484e-38
0.1154916 0.13918926 0.032629251 2.073858e-38
0.11192775 0.029968306 0.047808051 1.9699252e-38
0.11287676 0.13912494 0.032218874 2.2023205e-38
0.1081817 0.029825561 0.047569752 1.9793257e-38
0.10786819 0.03186135 0.046175361 1.9791827e-38
0.10372482 0.030348815 0.047796011 2.0159539e-38
0.10389724 0.032449409 0.046176791 1.9883315e-38
0.10111 0.030284502 0.047385693 2.0161315e-38
0.10008696 0.032760695 0.045808256 1.9608142e-38
0.099720359 0.035247162 0.04433465 1.8964221e-38
0.09588033 0.030155875 0.046564996 1.9610696e-38
0.096041471 0.032711841 0.045620918 1.9424491e-38
0.096363783 0.035203688 0.044143379 1.8596158e-38
0.092219532 0.033466235 0.045457602 1.9886516e-38
0.092151985 0.036076531 0.043719828 1.8136255e-38
0.088689521 0.033902541 0.04482162 1.9238652e-38
0.088303819 0.036401786 0.043456912 1.8133749e-38
0.08392185 0.038832285 0.041745067 1.8688341e-38
0.081498712 0.037649214 0.043078244 1.8871299e-38
0.080419153 0.039918169 0.041267872 1.804228e-38
0.08016552 0.042590678 0.040039599 1.7766421e-38
0.076264083 0.040437706 0.04121393 1.6383809e-38
0.076693311 0.042590983 0.04016453 1.7212506e-38
0.072579622 0.040401101 0.041066527 1.6845512e-38
0.072540089 0.043001898 0.03936404 1.7216827e-38
0.069296151 0.040836662 0.040616632 1.6200159e-38
0.068567455 0.043366261 0.039078116 1.6201603e-38
0.067780793 0.046198308 0.037482917 1.6113709e-38
0.064725384 0.04434222 0.038649142 1.4173283e-38
0.064986616 0.047508851 0.037397683 1.5004834e-38
0.063869834 0.050666392 0.036153793 1.4633565e-38
0.061451629 0.04456725 0.038770676 1.3806271e-38
0.060731292 0.047540262 0.037733436 1.426872e-38
0.060929477 0.050933719 0.036078393 1.444988e-38
0.05908975 0.054243714 0.03482455 1.4081061e-38
0.059730738 0.11222716 0.026523054 1.2887572e-38
0.060097396 0.11482351 0.027029157 1.399464e-38
0.057638332 0.047852054 0.037642717 1.3714466e-38
0.057037771 0.051508039 0.036332607 1.3804511e-38
0.056467533 0.055146545 0.034944713 1.4173997e-38
0.055613339 0.058939837 0.03352958 1.4545272e-38
0.056584388 0.11207305 0.025699675 1.2705335e-38
0.056711406 0.11520118 0.02629739 1.2337256e-38
0.054042935 0.052668035 0.036309838 1.3441486e-38
0.053803742 0.055567488 0.035560727 1.3991768e-38
0.052748114 0.058935188 0.034606993 1.5095587e-38
0.052611545 0.061552562 0.033149898 1.4263303e-38
0.052136928 0.10775733 0.025319397 1.2335473e-38
0.05223605 0.11153108 0.025085449 1.2795391e-38
0.052436203 0.11517155 0.025230289 1.2335815e-38
0.050833285 0.11750588 0.023581862 1.2982637e-38
0.049308449 0.05950094 0.034306884 1.5185626e-38
0.048204124 0.062557019 0.03245461 1.3989604e-38
0.046922296 0.066550553 0.030939341 1.3254561e-38
0.046922296 0.074375033 0.029712975 1.1963443e-38
0.04848668 0.10727634 0.02480787 1.2331875e-38
0.04874742 0.11041254 0.024358213 1.1594701e-38
0.049529612 0.11747381 0.023377299 1.3443249e-38
0.044237316 0.060273923 0.033541143 1.4452358e-38
0.044779241 0.063195981 0.032259405 1.3714075e-38
0.04478395 0.067885138 0.030898809 1.2978689e-38
0.044836432 0.071976386 0.029753566 1.2606319e-38
0.044458032 0.075381234 0.02967155 1.2239657e-38
0.044690132 0.079348519 0.028984547 1.094464e-38
0.044314981 0.082135387 0.028077483 1.0205287e-38
0.043011338 0.086015567 0.027259707 1.020815e-38
0.044314981 0.10365272 0.024705052 9.648904e-39
0.045091629 0.10731789 0.025280356 9.6546549e-39
0.045062184 0.11004961 0.0241642 1.1126545e-38
0.04171437 0.064748719 0.032177985 1.3623333e-38
0.041806221 0.067978106 0.031430423 1.3438606e-38
0.04197377 0.071624167 0.030783296 1.3253126e-38
0.042276174 0.075919814 0.03077364 1.3068337e-38
0.042276174 0.079843342 0.030158699 1.3159459e-38
0.041362405 0.083789654 0.028752685 1.2605602e-38
0.040932357 0.087332696 0.027060688 1.2696001e-38
0.040925473 0.091180578 0.026114821 1.2140317e-38
0.040637076 0.095463648 0.025653422 1.2142494e-38
0.040703058 0.099387974 0.025407672 1.2602735e-38
0.04100287 0.1029184 0.025517404 1.2325775e-38
0.042276174 0.10730806 0.025854111 1.1591108e-38
0.042276174 0.10992375 0.02544415 1.2240056e-38
0.03835392 0.084978253 0.02872324 1.3161264e-38
0.037762403 0.087546676 0.028054833 1.2885056e-38
0.03734988 0.091581225 0.027142644 1.1961288e-38
0.037170947 0.095343322 0.026566863 1.076493e-38
0.037256598 0.099147871 0.02619791 1.0307186e-38
0.037700236 0.10261807 0.025853455 1.05866e-38
0.034431636 0.092074916 0.02698034 9.1075558e-39
0.16392469 0.068373315 0.016841412 1.6020083e-38
0.14049293 0.084805816 0.010667741 1.344148e-38
0.10548471 0.057908595 0.029414475 1.5187088e-38
0.083475724 0.071554668 0.028755426 1.5926095e-38
0.13955913 0.1376349 0.035512686 1.9246214e-38
0.16479202 0.01108456 0.062683761 7.2733528e-39
0.16141587 0.012353886 0.062454402 7.0889699e-39
0.16085847 0.14346015 0.041303933 2.2841856e-38
0.15869249 0.01232766 0.06253314 6.9053102e-39
0.15747951 0.013569608 0.061630964 7.5488733e-39
0.1567229 0.14362812 0.041637599 2.1820193e-38
0.15784837 0.14590751 0.041461349 2.2853344e-38
0.15540984 0.012246922 0.062018037 8.1935182e-39
0.15408698 0.01461298 0.060665786 8.7448801e-39
0.15392286 0.14270118 0.040563941 2.1459653e-38
0.15409678 0.14619051 0.040813744 2.3325845e-38
0.15070038 0.015152622 0.06029284 9.8508872e-39
0.14971343 0.017271731 0.059289634 1.0679914e-38
0.15102461 0.14321828 0.039760709 2.1644752e-38
0.15022829 0.14600462 0.039879203 2.3046745e-38
0.14753146 0.015993614 0.060164094 1.0312612e-38
0.14638121 0.01786783 0.058916628 1.0775719e-38
0.14643548 0.14507282 0.038732171 2.1102381e-38
0.14293575 0.019821044 0.058825254 1.2157207e-38
0.14184636 0.021013051 0.057438374 1.3534402e-38
0.14184636 0.14495996 0.038011968 1.9808408e-38
0.13812596 0.021296788 0.057308137 1.3531158e-38
0.13849165 0.14190596 0.038292885 2.1093725e-38
0.13944252 0.14468223 0.037669003 1.9530723e-38
0.13451786 0.021973461 0.056621909 1.3163099e-38
0.13490462 0.14059344 0.037836432 2.0446181e-38
0.13081977 0.022898734 0.055984855 1.4089724e-38
0.13070132 0.024673752 0.055072665 1.7494886e-38
0.13086808 0.14178073 0.037155092 1.9896252e-38
0.12992591 0.14545926 0.036529481 1.9070467e-38
0.12717901 0.023373961 0.055734992 1.6670116e-38
0.12676777 0.024577007 0.0544554 1.8420056e-38
0.12192677 0.023244783 0.054910719 1.5653467e-38
0.12275091 0.02516745 0.054058611 1.9244416e-38
0.11855325 0.02551876 0.053499401 1.961069e-38
0.11863846 0.14189708 0.034760594 1.5269906e-38
0.11516383 0.026638478 0.052778959 2.006878e-38
0.11496714 0.028221577 0.051986814 2.0160964e-38
0.11444268 0.13759731 0.035101473 1.6486866e-38
0.11485504 0.14150712 0.03465265 1.6842948e-38
0.11470491 0.14390817 0.034837902 4.596245e-40
0.11142227 0.026926875 0.05264467 2.0070914e-38
0.11077137 0.028643027 0.051246107 1.988579e-38
0.11190772 0.13788415 0.034307301 2.2479161e-38
0.1123448 0.14161111 0.033793449 1.5641883e-38
0.10748309 0.026829988 0.05202651 1.9791118e-38
0.10663459 0.028397992 0.051131785 1.9792542e-38
0.099138677 0.030054227 0.049496174 1.9883657e-38
0.095125169 0.029634513 0.049190044 1.9518486e-38
0.091365904 0.030264303 0.047871947 1.9702516e-38
0.091038108 0.031895749 0.047563553 2.0070569e-38
0.088443696 0.030302167 0.048421085 1.9425932e-38
0.087158561 0.032441191 0.047147155 1.960851e-38
0.083586112 0.032888025 0.046466053 1.841105e-38
0.082843244 0.035301112 0.045712173 1.8595083e-38
0.080565333 0.033392116 0.046670079 1.84125e-38
0.079401374 0.036364116 0.044992208 1.8135902e-38
0.075525522 0.036471829 0.044693708 1.7216089e-38
0.076287329 0.039074689 0.044066668 1.6658247e-38
0.071699917 0.036781475 0.044274151 1.610976e-38
0.071042612 0.03894569 0.043243587 1.647709e-38
0.068310082 0.037250087 0.04409498 1.564699e-38
0.067272276 0.039747849 0.042682469 1.5645545e-38
0.063607082 0.040813722 0.042438567 1.4819023e-38
0.063831121 0.042703137 0.041495204 1.4449876e-38
0.060869396 0.04144536 0.042241037 1.3991793e-38
0.059567094 0.043673262 0.04086256 1.3991036e-38
0.05644618 0.044554599 0.040530026 1.4270531e-38
0.055107564 0.047499523 0.039545834 1.3160941e-38
0.05465284 0.050347038 0.038821459 1.3528651e-38
0.057275206 0.11730351 0.02874887 1.2979783e-38
0.055849016 0.11865927 0.028648674 1.2244353e-38
0.051021427 0.053024545 0.038842857 1.2793227e-38
0.051172897 0.05527465 0.037694573 1.3438964e-38
0.052030474 0.11848612 0.027720273 1.2520913e-38
0.04829523 0.055972859 0.037600756 1.408288e-38
0.047222823 0.058471136 0.036353528 1.53718e-38
0.044143081 0.058981679 0.036363959 1.5096288e-38
0.041173488 0.060006514 0.036165118 1.3895969e-38
0.039982945 0.063427292 0.03509593 1.3714811e-38
0.038671136 0.068426616 0.034101427 1.380559e-38
0.039153665 0.072634473 0.033092499 1.3529352e-38
0.039203882 0.076376699 0.033282816 1.3253098e-38
0.039388597 0.080230124 0.032195985 1.2976876e-38
0.038918674 0.082750224 0.031213045 1.3250629e-38
0.039574265 0.10506368 0.027821243 1.315481e-38
0.039422691 0.10703015 0.02851361 1.2971153e-38
0.037234277 0.081582196 0.032150209 1.2885081e-38
0.035851121 0.083963305 0.031298339 1.2976548e-38
0.034985155 0.087899908 0.029773474 1.2241825e-38
0.034985155 0.090523124 0.029362321 1.1320932e-38
0.034985155 0.10101599 0.027717769 9.4817319e-39
0.035696447 0.1042251 0.027534127 9.758281e-39
0.037234277 0.10653849 0.028238773 1.2331859e-38
0.032857418 0.084977195 0.030914426 1.2885444e-38
0.032828033 0.087944046 0.029932141 1.1966279e-38
0.031953275 0.091860175 0.029177666 9.6607156e-39
0.032288253 0.095831782 0.028737187 8.741262e-39
0.032891482 0.099723637 0.027925313 8.9285413e-39
0.033295125 0.10315788 0.02813524 9.3902341e-39
0.17657554 0.066373616 0.01823163 1.5559105e-38
0.11077696 0.066131815 0.025175452 1.7768209e-38
0.12052274 0.10949609 0.020019054 1.9150428e-38
0.10046157 0.088752523 0.027162254 1.3993933e-38
0.16298634 0.010195028 0.068682253 6.7208937e-39
0.16100264 0.011469137 0.068163633 7.1811586e-39
0.16126198 0.14605027 0.04574573 2.1641865e-38
0.16100264 0.14905053 0.046600282 1.4097702e-38
0.1588203 0.011229672 0.065458953 7.3641205e-39
0.16017112 0.14636493 0.044325292 2.173585e-38
0.15941358 0.14846078 0.04438746 1.9074789e-38
0.15487967 0.011654336 0.064690411 8.1016855e-39
0.1507712 0.012184054 0.064698398 9.7568923e-39
0.1465977 0.013705045 0.064813852 9.2059045e-39
0.14671759 0.015181288 0.062466562 9.8523543e-39
0.1420477 0.016867869 0.063244879 9.9455799e-39
0.1424365 0.018699847 0.061226785 1.0869342e-38
0.13852069 0.017530669 0.063598871 9.3920446e-39
0.13842848 0.019282624 0.060747206 1.0683174e-38
0.13700542 0.1449998 0.040302098 1.906471e-38
0.13788331 0.1476559 0.040026963 1.539814e-38
0.13521452 0.017449349 0.063080013 8.6548327e-39
0.13470662 0.019123364 0.060891092 9.8534067e-39
0.13393283 0.14228971 0.040232837 2.109118e-38
0.13464022 0.14540082 0.040883899 1.8332518e-38
0.1353277 0.14834094 0.040328562 1.6140003e-38
0.1306825 0.020079169 0.060572624 1.0775346e-38
0.13261601 0.021070082 0.059020042 1.2337999e-38
0.13238013 0.14251933 0.040972114 2.1183028e-38
0.1310614 0.14512518 0.040351748 1.9805138e-38
0.12717506 0.020577528 0.060067236 1.1417142e-38
0.12734871 0.022257775 0.057986975 1.3993913e-38
0.12331232 0.021125298 0.060590208 1.0863254e-38
