# .PCD v0.7 - Point Cloud Data file format
VERSION 0.7
FIELDS x y z rgb
SIZE 4 4 4 4
TYPE F F F F
COUNT 1 1 1 1
WIDTH 980
HEIGHT 1
VIEWPOINT 0 0 0 0 1 0 0
POINTS 980
DATA ascii
0.18944173 0.026024286 0.066373944 6.074102e-39
0.19123846 0.14174895 0.049600601 2.2768358e-38
0.19189566 0.1430632 0.049601316 2.3139672e-38
0.18515593 0.023457795 0.066973984 7.1789627e-39
0.1854614 0.025994778 0.065855384 7.3637351e-39
0.18653584 0.028502986 0.064508259 8.0076963e-39
0.18785429 0.14128301 0.048363447 2.247956e-38
0.18791521 0.14417544 0.048466265 2.2856243e-38
0.18138012 0.023372188 0.065822065 7.5506053e-39
0.18165344 0.025918845 0.064809442 8.2864173e-39
0.18214348 0.028403398 0.063168168 9.3023713e-39
0.18447196 0.14081709 0.047126889 2.192062e-38
0.18417363 0.14356497 0.047775745 2.2569571e-38
0.17789689 0.026254069 0.064152777 9.3906209e-39
0.17782496 0.028701484 0.062583029 1.0404428e-38
0.18080533 0.1407859 0.045682847 2.1090842e-38
0.18151751 0.14308912 0.04745245 2.1921332e-38
0.17517368 0.02713516 0.063327968 1.0771764e-38
0.17406321 0.029476047 0.061831892 1.1508982e-38
0.17345944 0.032747641 0.059820175 1.2888339e-38
0.17783397 0.14083964 0.044898748 2.1181579e-38
0.17048553 0.029756755 0.06108135 1.2336949e-38
0.17093515 0.032041669 0.059149742 1.2799015e-38
0.17335185 0.14108405 0.043125331 2.0537294e-38
0.17270727 0.14288937 0.04476434 2.0445441e-38
0.16675895 0.030307733 0.060031772 1.436416e-38
0.16658473 0.032563947 0.058784842 1.5376514e-38
0.1694015 0.14047539 0.042528868 2.0353267e-38
0.17019007 0.14283228 0.043996394 2.0446867e-38
0.16393283 0.030783996 0.059297979 1.5652755e-38
0.16295126 0.032645211 0.058003604 1.6759066e-38
0.16568059 0.14025976 0.042207062 1.9891216e-38
0.1591844 0.033448607 0.055836201 1.9423041e-38
0.16155756 0.13986243 0.041083992 1.9430582e-38
0.15561646 0.033726744 0.055044949 2.0532613e-38
0.15470695 0.035566129 0.053599834 2.0532987e-38
0.15778062 0.13956086 0.039964855 1.8787385e-38
0.15174666 0.033869922 0.054851294 2.0805975e-38
0.15167511 0.036397979 0.052889049 2.0529044e-38
0.15387684 0.1391238 0.03918004 1.9249442e-38
0.14797375 0.036642693 0.052282095 2.0345005e-38
0.14970794 0.13820857 0.037329078 1.7684642e-38
0.14414939 0.036780596 0.051683068 1.9884393e-38
0.14475358 0.039232858 0.049964428 1.9423065e-38
0.14753887 0.13660634 0.03584826 1.3998965e-38
0.14638478 0.13858584 0.036774397 1.1784502e-38
0.14036989 0.037351243 0.050487638 1.979112e-38
0.14068216 0.039464906 0.048672318 1.9148271e-38
0.14150915 0.13672332 0.035027444 1.0764919e-38
0.14241421 0.13829878 0.036122203 1.058774e-38
0.13704598 0.037981793 0.049893916 1.9611402e-38
0.13661933 0.040105075 0.048529088 1.8872749e-38
0.13925231 0.13650303 0.033659697 9.0239964e-39
0.13325894 0.040893398 0.047924876 1.8967079e-38
0.13354528 0.042871132 0.045946062 1.7858574e-38
0.12893716 0.041051038 0.046919584 1.9242226e-38
0.12978038 0.042785764 0.044797421 1.8411753e-38
0.13080174 0.088869147 0.038025081 5.1517869e-39
0.13084489 0.090816326 0.037738979 6.1637809e-39
0.12580511 0.041630626 0.045863867 1.9056773e-38
0.12556958 0.0440218 0.043610215 1.822809e-38
0.12421936 0.046552092 0.042502046 1.7860734e-38
0.12149563 0.044001013 0.042994142 1.8413189e-38
0.12108195 0.046480954 0.041544795 1.8136597e-38
0.11767983 0.043927617 0.041945457 1.8413195e-38
0.11731711 0.046395585 0.040396094 1.8138399e-38
0.11378747 0.043891504 0.041203201 1.7768163e-38
0.1128698 0.047243193 0.039598644 1.7491239e-38
0.11141771 0.045208126 0.040873885 1.730898e-38
0.1097503 0.047831699 0.03889811 1.7672045e-38
0.10905752 0.051164582 0.037325442 1.730291e-38
0.10595489 0.048467472 0.038686812 1.8409957e-38
0.105896 0.051398836 0.036689937 1.7488729e-38
0.10494012 0.05389978 0.035422564 1.7027057e-38
0.10178593 0.051407963 0.036242843 1.7856802e-38
0.1020332 0.054965287 0.034512818 1.7213242e-38
0.10188901 0.057723001 0.033893049 1.6843732e-38
0.098575652 0.052290626 0.035821676 1.7489113e-38
0.098347276 0.055153653 0.03401798 1.7213965e-38
0.098730743 0.058964513 0.03284514 1.6753319e-38
0.098504007 0.0626508 0.032090604 1.6567859e-38
0.094602287 0.055490345 0.033196688 1.7030986e-38
0.094765067 0.05893755 0.032095492 1.6846604e-38
0.095101804 0.062759012 0.031024098 1.693627e-38
0.094321579 0.084149584 0.027493477 1.3073052e-38
0.090266705 0.055789068 0.032719553 1.6384904e-38
0.090794742 0.058911532 0.031344533 1.6202305e-38
0.091336906 0.062673643 0.029875457 1.638561e-38
0.091087937 0.065587297 0.0293504 1.5834594e-38
0.090312123 0.073030166 0.027966321 1.4175451e-38
0.090369672 0.075626418 0.027584791 1.3807741e-38
0.09077692 0.079852425 0.027060509 1.3163456e-38
0.091797233 0.083443612 0.026823163 1.2704274e-38
0.091124833 0.087061286 0.02605921 1.2885082e-38
0.087763965 0.056382939 0.031855881 1.5925722e-38
0.087012082 0.05904118 0.030553877 1.5557661e-38
0.087315381 0.062664405 0.029223502 1.5560169e-38
0.087473154 0.067096367 0.028195202 1.5005208e-38
0.087773442 0.071675144 0.027391374 1.4451325e-38
0.087680459 0.075565442 0.026764393 1.3991067e-38
0.087946057 0.079463884 0.026246786 1.3530087e-38
0.088032365 0.083358258 0.025674462 1.3622265e-38
0.088118672 0.087252617 0.025102139 1.4358406e-38
0.087349176 0.090262592 0.024401665 1.5467263e-38
0.084074706 0.060202986 0.03012985 1.5002336e-38
0.083209246 0.06289243 0.029052496 1.4818656e-38
0.083440989 0.067190289 0.027801871 1.4821523e-38
0.083593786 0.071724072 0.027034283 1.4543511e-38
0.083991051 0.075518504 0.025868058 1.4176164e-38
0.08418116 0.079378523 0.025098085 1.4268003e-38
0.084267497 0.083272889 0.024525762 1.4543882e-38
0.084353805 0.087167256 0.023953438 1.5189591e-38
0.084425718 0.090412572 0.023476481 1.601613e-38
0.079616308 0.067555234 0.026988626 1.5187428e-38
0.079771817 0.071655139 0.025982976 1.4819386e-38
0.079858243 0.075555161 0.025409877 1.48194e-38
0.080153883 0.079382733 0.024442196 1.4451307e-38
0.080502599 0.083187528 0.023377061 1.4453106e-38
0.080588907 0.087081887 0.022804797 1.4452034e-38
0.08066082 0.090327203 0.0223279 1.4361259e-38
0.079880595 0.11171778 0.018797219 1.363123e-38
0.079909384 0.11301589 0.018606484 1.390423e-38
0.076295853 0.068701535 0.026422441 1.4728605e-38
0.075841933 0.07161963 0.025128305 1.445239e-38
0.076087892 0.075469673 0.024259448 1.4359831e-38
0.076385945 0.079297312 0.02329272 1.3436077e-38
0.07657811 0.083158001 0.022523165 1.2886507e-38
0.076824039 0.086996511 0.021656096 1.2977991e-38
0.076749891 0.090725079 0.021059752 1.3071248e-38
0.076469123 0.11103666 0.018695474 1.2797172e-38
0.077788949 0.11307867 0.01847142 1.3351059e-38
0.071777225 0.072936535 0.024376571 1.3807735e-38
0.072102845 0.075452939 0.02350235 1.3440027e-38
0.072403997 0.079284206 0.02253598 1.2700307e-38
0.07254383 0.083165839 0.021864653 1.1873792e-38
0.072790593 0.087007105 0.020997465 1.2152167e-38
0.072984129 0.090865105 0.020228803 1.1873427e-38
0.072889864 0.094603211 0.019668877 1.1594683e-38
0.073156863 0.098657608 0.01908356 1.1321316e-38
0.073069781 0.10272072 0.01847595 1.0955416e-38
0.072915316 0.1067186 0.018342376 1.2243646e-38
0.073214382 0.10940376 0.01921165 1.25188e-38
0.069346547 0.076785132 0.023034573 1.3437512e-38
0.068818182 0.079722375 0.021890879 1.3345301e-38
0.06894362 0.083340667 0.021146536 1.1598243e-38
0.068882525 0.086919755 0.020879388 1.2058154e-38
0.068870336 0.091131814 0.020020008 1.2793198e-38
0.068816304 0.094860196 0.019385934 1.2242192e-38
0.069142044 0.098629504 0.019158661 1.2610959e-38
0.069000781 0.10256189 0.018566847 1.1503552e-38
0.069571406 0.1058512 0.018633842 1.1782307e-38
0.15672237 0.078405239 0.02013135 1.353333e-38
0.15698415 0.088800088 0.018525362 1.3625879e-38
0.15469441 0.082208827 0.0189206 1.3072348e-38
0.15981752 0.1025974 0.023113668 1.206214e-38
0.16192348 0.10748631 0.021494865 1.3537251e-38
0.12781775 0.10529013 0.022191226 1.3163457e-38
0.095447153 0.10369679 0.0089679956 1.2602384e-38
0.18020219 0.021691203 0.069419265 7.3647945e-39
0.18333066 0.14626876 0.051401436 2.2852287e-38
0.18410654 0.14811906 0.051708877 2.3411147e-38
0.17746481 0.019709032 0.069408178 7.5513396e-39
0.1767482 0.022386402 0.067717493 7.458802e-39
0.17634298 0.024738934 0.066172838 8.9325098e-39
0.17904626 0.14460129 0.049630523 2.155432e-38
0.17332256 0.023105159 0.067607641 8.745613e-39
0.17288671 0.025847621 0.065464675 1.0036357e-38
0.17566115 0.14485176 0.049076378 2.1089763e-38
0.16957687 0.026401669 0.064710677 1.1049067e-38
0.16822518 0.028469883 0.06309402 1.2704646e-38
0.17156243 0.14530337 0.047742128 2.0537662e-38
0.165613 0.027292915 0.064584374 1.3261028e-38
0.16530547 0.028753806 0.062413692 1.4180479e-38
0.16798687 0.14461219 0.04603976 2.0353272e-38
0.16159618 0.029939167 0.061880112 1.6021155e-38
0.16413778 0.14462297 0.045026541 2.0262148e-38
0.15767418 0.030456148 0.061013401 1.823132e-38
0.15821403 0.032157898 0.059437394 1.9425187e-38
0.16064478 0.14183331 0.043319941 1.9799369e-38
0.1601586 0.14417352 0.044396698 1.9985211e-38
0.15384063 0.030248292 0.059968233 1.8323183e-38
0.15442729 0.032072045 0.058282077 2.0714853e-38
0.15667784 0.14187303 0.042618513 1.8879931e-38
0.15681738 0.14422837 0.043886006 1.961678e-38
0.15027708 0.030519493 0.05909127 1.8969258e-38
0.150148 0.032351851 0.057447314 2.0900326e-38
0.15270728 0.14191267 0.041916013 1.9616427e-38
0.14636093 0.033337668 0.057079136 2.0991103e-38
0.1493389 0.14071891 0.040304601 1.8053426e-38
0.14840725 0.14385457 0.041136682 1.7226183e-38
0.14273205 0.033867411 0.055454671 2.0345007e-38
0.1454109 0.14101776 0.038955867 1.0958703e-38
0.14478445 0.14434838 0.039757669 1.1696252e-38
0.13916764 0.034140013 0.054577172 2.0620149e-38
0.1392386 0.035678275 0.053393006 2.0251741e-38
0.14144269 0.14091799 0.038240254 1.1142691e-38
0.14130297 0.14354941 0.039202809 1.25216e-38
0.13477284 0.034446269 0.053967237 2.0254594e-38
0.13497511 0.036601014 0.052791595 1.979543e-38
0.13763773 0.14017871 0.037179828 1.0954362e-38
0.13690013 0.14420688 0.037592053 1.8702316e-38
0.13134304 0.037108183 0.052102923 1.9793997e-38
0.13078493 0.039875977 0.050491214 1.9701777e-38
0.1350393 0.14281896 0.036324441 1.8248977e-38
0.12745008 0.037496887 0.050709665 1.997835e-38
0.12809375 0.039304972 0.049043357 1.9978346e-38
0.12387034 0.037557647 0.049701273 1.9792887e-38
0.12397304 0.040192157 0.04808861 1.9239731e-38
0.12313157 0.043107472 0.046927273 1.85054e-38
0.12093514 0.038058825 0.049141407 1.9980509e-38
0.12000081 0.040577903 0.047760546 1.9240096e-38
0.11624759 0.040690102 0.046893716 1.9055704e-38
0.1124025 0.041268162 0.046014845 1.8412846e-38
0.11429584 0.042907134 0.044231415 1.8135152e-38
0.10857984 0.044067994 0.043611288 1.7305745e-38
0.10500848 0.044133626 0.042352021 1.8133384e-38
0.10513002 0.0469715 0.041042268 1.8226298e-38
0.10116658 0.044060275 0.04129529 1.8778753e-38
0.10155565 0.047247648 0.040161192 1.8411045e-38
0.097387254 0.044829637 0.040621877 1.758129e-38
0.097805083 0.047808453 0.038858771 1.7673492e-38
0.097228438 0.050785169 0.037752926 1.7580951e-38
0.093892634 0.045298278 0.039682984 1.6377751e-38
0.093616992 0.047825187 0.038504124 1.7028136e-38
0.094002813 0.051669158 0.037326872 1.7583801e-38
0.093098104 0.054171525 0.035957575 1.7307209e-38
0.089534581 0.048471399 0.037850082 1.6939161e-38
0.090010762 0.051637188 0.036569834 1.7399421e-38
0.090421587 0.054155871 0.035486639 1.6937716e-38
0.087017298 0.049068689 0.036981404 1.6387399e-38
0.086306363 0.051819049 0.036036909 1.6295565e-38
0.086078644 0.05497241 0.034373403 1.5740971e-38
0.082553446 0.055805951 0.033963382 1.5004848e-38
0.082530171 0.058763817 0.032342672 1.4817941e-38
0.079596072 0.056753054 0.033509433 1.4543881e-38
0.078902036 0.059411027 0.032093167 1.4357307e-38
0.078916281 0.062840641 0.030550063 1.463354e-38
0.077580482 0.065564714 0.02941668 1.5464017e-38
0.079410076 0.11611122 0.023441553 1.3441106e-38
0.079708695 0.11892217 0.023982942 1.3074838e-38
0.075870991 0.059940502 0.03186965 1.3989985e-38
0.075076908 0.063283443 0.030581713 1.4910851e-38
0.074257642 0.067232653 0.028588176 1.4912999e-38
0.075848877 0.11570057 0.021876872 1.3163445e-38
0.076068729 0.11876385 0.02253139 1.251913e-38
0.072174907 0.064437404 0.030037463 1.5279987e-38
0.071127832 0.067751586 0.028543651 1.4542432e-38
0.070963115 0.071939677 0.026394188 1.3807732e-38
0.071495235 0.1113923 0.020843327 1.3440016e-38
0.072065592 0.11555672 0.021745324 1.3348185e-38
0.072127879 0.11940467 0.021569312 1.242586e-38
0.072185904 0.12202352 0.021184385 1.1963123e-38
0.068060637 0.068500653 0.027931511 1.426475e-38
0.067197531 0.071897686 0.02674973 1.3528976e-38
0.067130506 0.07582318 0.024966836 1.3531148e-38
0.066308916 0.078794166 0.023903787 1.3622647e-38
0.065979779 0.082919225 0.023167729 1.2334326e-38
0.066095531 0.088141851 0.02240026 1.1869814e-38
0.066138923 0.090100363 0.022112429 1.2239309e-38
0.066355944 0.099892795 0.020673454 1.094677e-38
0.066457212 0.10446259 0.020001888 1.0302447e-38
0.067433268 0.10739857 0.020063043 1.1591793e-38
0.068739146 0.11140195 0.021401763 1.3257413e-38
0.069494545 0.11476426 0.021470308 1.2785681e-38
0.069567084 0.11803783 0.020989299 1.1770093e-38
0.064444453 0.072441936 0.026420951 1.3069441e-38
0.063720107 0.075756371 0.02502656 1.3255647e-38
0.063520879 0.079773709 0.023950636 1.3255287e-38
0.063748986 0.083877899 0.024447501 1.2703128e-38
0.063836038 0.08780618 0.02387023 1.1586415e-38
0.063815564 0.091842048 0.022396982 1.0113125e-38
0.06370461 0.095525295 0.021937251 9.5606516e-39
0.063709766 0.099481761 0.021506786 9.5599202e-39
0.064228773 0.1030391 0.020855248 9.1042866e-39
0.065208524 0.10753022 0.019938052 9.3827148e-39
0.061072081 0.077273354 0.024637163 1.3898867e-38
0.18685316 0.067443348 0.030483663 1.7677063e-38
0.17436188 0.11766824 0.029012084 1.5100286e-38
0.16713443 0.072884366 0.027366757 1.1505019e-38
0.16578536 0.085277066 0.026934564 1.5467629e-38
0.18090171 0.14726761 0.052966356 2.3039506e-38
0.17825472 0.14729592 0.052497685 2.2475912e-38
0.17169806 0.022060938 0.069646835 8.5615833e-39
0.17437348 0.14659579 0.051583946 2.1550397e-38
0.16894045 0.023706011 0.069336236 9.6664945e-39
0.16741852 0.025552318 0.06752485 1.1141623e-38
0.17074546 0.14703733 0.04986763 2.0632745e-38
0.17127016 0.14980869 0.050132275 2.2304162e-38
0.16415367 0.026602652 0.066708326 1.3167756e-38
0.16630211 0.14693658 0.048511982 2.0540547e-38
0.16684371 0.14969316 0.048725247 2.1931428e-38
0.16641852 0.15218936 0.047739983 2.341769e-38
0.16024494 0.027420882 0.065728903 1.5007011e-38
0.15987408 0.0286626 0.064718366 1.5745641e-38
0.16312826 0.14686461 0.047543585 2.0910043e-38
0.16321102 0.14942853 0.04757148 2.1188811e-38
0.15652871 0.028962635 0.064168692 1.6756925e-38
0.15931967 0.14677826 0.046381593 2.1372097e-38
0.15926829 0.14943989 0.046749592 2.0359032e-38
0.15971896 0.15231 0.046711743 1.7690074e-38
0.15250033 0.027276509 0.063713849 1.4271971e-38
0.15289167 0.028504271 0.062587976 1.5837854e-38
0.15491375 0.14594385 0.045361817 2.0632735e-38
0.15615717 0.14927177 0.046079874 1.9710772e-38
0.1499576 0.027218852 0.062937975 1.3443652e-38
0.14869338 0.028972309 0.061643541 1.6667979e-38
0.15189296 0.14503497 0.044622242 1.989373e-38
0.14545581 0.030682251 0.06048727 1.9338416e-38
0.14472702 0.03225676 0.059491336 2.0899267e-38
0.14792699 0.14639056 0.043718815 1.8702734e-38
0.14628232 0.14806208 0.043218672 1.7497022e-38
0.14114559 0.030962311 0.059642971 1.9703628e-38
0.14155319 0.032184795 0.05852294 2.0624478e-38
0.1449818 0.14671816 0.043023944 1.3818556e-38
0.14379752 0.14831723 0.041566432 1.132426e-38
0.13750231 0.032617964 0.057206273 2.0624455e-38
0.13985866 0.145918 0.040931463 1.4186224e-38
0.14160442 0.14900169 0.040572822 7.1765469e-39
0.13398319 0.033074364 0.05684334 2.071412e-38
0.1375311 0.14576046 0.040343225 1.760066e-38
0.13674715 0.14784588 0.040309429 1.5921358e-38
0.1302703 0.034070253 0.055174291 2.0344982e-38
0.12894517 0.035836533 0.054070592 2.006807e-38
0.12701178 0.034480155 0.053682566 2.0252797e-38
0.12640613 0.035778955 0.05329597 2.0069848e-38
0.12247202 0.036162876 0.052375376 1.9980168e-38
0.11841094 0.037478708 0.050990403 2.0253506e-38
0.11481571 0.037539311 0.049977362 1.9791452e-38
0.11379811 0.039430693 0.048843563 1.9517387e-38
0.11111853 0.037839383 0.049319148 1.9884732e-38
0.11084303 0.039719939 0.048151553 1.942449e-38
0.10748607 0.041023858 0.047104001 1.8687991e-38
0.1034691 0.041222468 0.045909405 1.8502168e-38
0.099872917 0.041498587 0.045021653 1.8595082e-38
0.095825315 0.043477669 0.043380022 1.7582725e-38
0.091685563 0.044597596 0.042018533 1.6381689e-38
0.088613808 0.044945329 0.040646851 1.6107972e-38
0.088582098 0.046734162 0.039938867 1.6478541e-38
0.084920108 0.04546047 0.040062428 1.5370741e-38
0.084604979 0.048010372 0.038968623 1.5466165e-38
0.083605856 0.051215202 0.037714064 1.528465e-38
0.08182919 0.049333647 0.038512886 1.454171e-38
0.080952704 0.052057207 0.037426949 1.4082883e-38
0.080504745 0.054426238 0.036263287 1.4728618e-38
0.080889523 0.1216054 0.027107835 1.3628028e-38
0.08091867 0.12292047 0.026914597 1.3814932e-38
0.077759981 0.055744529 0.035742342 1.426838e-38
0.076148719 0.058265075 0.03432864 1.3991053e-38
0.078815281 0.12132727 0.025452852 1.2891523e-38
0.078844368 0.12264046 0.025259793 1.2799333e-38
0.073188603 0.059581786 0.033741534 1.3898136e-38
0.072427452 0.062118307 0.032587647 1.4636774e-38
0.075006664 0.12124091 0.0242908 1.1875151e-38
0.074877232 0.12262815 0.024390042 1.1415288e-38
0.069792241 0.063752562 0.032369316 1.491229e-38
0.069340914 0.065985933 0.031040311 1.5278939e-38
0.066922694 0.064768687 0.031539083 1.6104355e-38
0.065615356 0.067483731 0.030012846 1.4633169e-38
0.065997392 0.11228645 0.023416638 1.1404543e-38
0.068571687 0.1171574 0.022933006 1.1586792e-38
0.06862992 0.11978377 0.022547066 1.1954857e-38
0.06238696 0.069555499 0.029138684 1.4266184e-38
0.061538994 0.072173402 0.028104246 1.3070882e-38
0.061877251 0.08395277 0.026502788 1.2886118e-38
0.061090529 0.088295996 0.026120961 1.2237504e-38
0.061641961 0.090749547 0.024856031 1.1308769e-38
0.061454892 0.1047345 0.023705184 1.0115221e-38
0.062005758 0.1071645 0.022443652 1.0666991e-38
0.063714653 0.11113876 0.023417592 1.0299666e-38
0.059498578 0.073801287 0.027858853 1.3439318e-38
0.059790015 0.075695977 0.027128518 1.3623006e-38
0.059629738 0.079719141 0.026989162 1.3898856e-38
0.059848368 0.08958225 0.025539696 1.2607715e-38
0.059435934 0.092138186 0.024666786 1.2426573e-38
0.059776574 0.095772624 0.023930907 1.2607711e-38
0.060246408 0.10004026 0.023701489 1.1866934e-38
0.060139805 0.10273305 0.023607135 1.1410256e-38
0.060227245 0.10667829 0.02302736 1.1961292e-38
0.19189233 0.10087816 0.026646912 1.2983386e-38
0.19233809 0.10605575 0.026869595 1.3627675e-38
0.18653873 0.0622264 0.031820595 1.905858e-38
0.15309942 0.079906195 0.02230835 1.3165608e-38
0.14584503 0.074835256 0.019108772 9.3884671e-39
0.1079846 0.075524583 0.02986294 1.3993204e-38
0.075397462 0.087484241 0.024314106 1.3991407e-38
0.15125507 0.02645855 0.064865768 1.0402256e-38
0.180617 0.15003344 0.055626452 2.2300152e-38
0.18066084 0.15201169 0.055335701 1.9229659e-38
0.17806701 0.14997563 0.054848492 2.2574572e-38
0.17811084 0.15195388 0.054557741 2.0252803e-38
0.17487952 0.14990336 0.053875923 2.2384419e-38
0.17492335 0.15188162 0.053585172 2.165226e-38
0.17232952 0.14984553 0.053097904 2.274462e-38
0.17237335 0.15182379 0.052807152 2.3412623e-38
0.16850454 0.1497588 0.051930845 2.1192085e-38
0.16775547 0.15251443 0.051804781 2.341769e-38
0.16067155 0.026330862 0.068496406 1.4087922e-38
0.15610507 0.026916992 0.067349613 1.4825851e-38
0.15900052 0.15217969 0.048625708 1.768361e-38
0.15266111 0.02624099 0.067095995 1.3813877e-38
0.15363443 0.14964134 0.047360182 1.9247312e-38
0.15484849 0.15239607 0.047663689 1.4460365e-38
0.14861071 0.026455749 0.065548539 1.3074493e-38
0.15132636 0.14849994 0.047035038 2.0814971e-38
0.14486954 0.027423985 0.064963043 1.4180497e-38
0.14418429 0.029911585 0.062857866 1.841933e-38
0.14817598 0.14909191 0.04606241 1.9339114e-38
0.14774561 0.1516626 0.045496464 1.1700632e-38
0.14117122 0.028167486 0.064100325 1.5563793e-38
0.14163429 0.029853769 0.062079847 1.8876012e-38
0.1449317 0.1498834 0.044637322 1.270434e-38
0.14464951 0.15152475 0.044297814 9.758096e-39
0.1366334 0.028708741 0.063885927 1.5652779e-38
0.13741276 0.030324288 0.061127841 1.8784529e-38
0.13917962 0.1490939 0.042983711 9.936606e-39
0.13922349 0.15107214 0.042692959 1.2936703e-39
0.13407242 0.028650675 0.06310463 1.5192879e-38
0.13341653 0.030473262 0.061035335 1.8969638e-38
0.1327678 0.032289103 0.05896914 2.0990362e-38
0.13731098 0.15102878 0.042109489 2.8591435e-39
0.12938774 0.03043092 0.060327411 2.0437921e-38
0.13021779 0.032231279 0.058191121 2.1080386e-38
0.12569979 0.031400569 0.059191346 2.0621234e-38
0.12628859 0.033494718 0.057136893 2.0436823e-38
0.12731069 0.12871516 0.044721961 7.3658861e-39
0.12675869 0.13174394 0.044992328 7.638555e-39
0.12198147 0.031686112 0.058906555 2.00684e-38
0.12207216 0.034161583 0.056791008 2.0070198e-38
0.12430066 0.1285633 0.042607546 9.4820668e-39
0.12291732 0.13165684 0.043820322 1.0494798e-38
0.11783084 0.034169719 0.056538641 2.0069853e-38
0.11883053 0.035927646 0.05410862 2.0162774e-38
0.12029165 0.12456438 0.042220414 1.0218579e-38
0.12032139 0.12848796 0.042184353 1.1416751e-38
0.12099662 0.13161328 0.043234348 1.1784809e-38
0.11441362 0.034857005 0.05476135 2.0343194e-38
0.11563051 0.12153713 0.039954722 1.4085025e-38
0.11649188 0.12418307 0.041475892 1.2244311e-38
0.11706719 0.12755269 0.042646229 1.2061731e-38
0.1104058 0.035135336 0.053534687 2.0343917e-38
0.10992503 0.036604509 0.051256359 2.0069485e-38
0.11247784 0.12486303 0.039528072 1.3625848e-38
0.11066487 0.12740754 0.040692866 1.4730417e-38
0.10666263 0.035357215 0.052768588 1.9700737e-38
0.10654864 0.03768079 0.05057776 1.9976591e-38
0.10616824 0.039595097 0.049637139 1.9698923e-38
0.10902166 0.12536412 0.038913429 1.4729345e-38
0.10806331 0.12822597 0.03946197 1.5654176e-38
0.10223708 0.035871848 0.0521698 1.9334092e-38
0.1031433 0.037658878 0.050059199 1.9517763e-38
0.10298076 0.039522827 0.04866457 1.9148616e-38
0.10423321 0.12593786 0.038934052 1.5912417e-38
0.10446647 0.12821259 0.038656235 1.5559107e-38
0.098762482 0.0379356 0.049571514 1.8597236e-38
0.099170387 0.040095516 0.047400594 1.8503967e-38
0.10167229 0.12587979 0.038152754 1.7832298e-38
0.10095686 0.12824647 0.037567973 1.5003776e-38
0.094906867 0.038278751 0.048832476 1.7675289e-38
0.09548831 0.041267388 0.046718895 1.813663e-38
0.091113806 0.039260179 0.048216224 1.6848037e-38
0.090845019 0.041570798 0.047777891 1.6939877e-38
0.092230976 0.04323364 0.044776559 1.6750826e-38
0.08726269 0.041621953 0.046664596 1.5832107e-38
0.088405997 0.043146908 0.0436095 1.6015423e-38
0.083299905 0.042496689 0.044461012 1.5003778e-38
0.084921658 0.04405655 0.0423944 1.5463672e-38
0.079672813 0.043224499 0.043370843 1.500162e-38
0.080568045 0.045006461 0.041433692 1.5277459e-38
0.080438197 0.047799602 0.040435255 1.4357323e-38
0.081278652 0.1240537 0.028967023 1.5100982e-38
0.080859601 0.12625822 0.029556334 1.5836438e-38
0.076804012 0.043238185 0.043188512 1.4450983e-38
0.076218694 0.046039104 0.041731 1.4266562e-38
0.076827377 0.048879743 0.0396837 1.3990327e-38
0.076593339 0.052294686 0.03855741 1.3992474e-38
0.074984789 0.055694908 0.037538052 1.3809546e-38
0.077989578 0.12469693 0.028117478 1.3075568e-38
0.077580661 0.12678298 0.029169023 1.3259972e-38
0.073050678 0.047124587 0.041432619 1.3805937e-38
0.072604537 0.04984089 0.039970577 1.3532957e-38
0.072271466 0.053063497 0.038515866 1.4175083e-38
0.072894156 0.056240685 0.036808968 1.3254222e-38
0.074280798 0.12455414 0.026730537 1.1874137e-38
0.073765755 0.12712845 0.028291285 1.2242207e-38
0.069282234 0.053921744 0.038695455 1.269745e-38
0.068538815 0.057290852 0.037286878 1.3344612e-38
0.069315612 0.060142621 0.03531611 1.3713749e-38
0.06844449 0.062467083 0.034478247 1.4267996e-38
0.071892589 0.12473485 0.027023554 1.1784469e-38
0.070985287 0.12716976 0.028484583 1.2610984e-38
0.065517694 0.058333218 0.03667897 1.3530072e-38
0.065050423 0.060880005 0.035034955 1.3159483e-38
0.065837741 0.063531168 0.033686399 1.4358394e-38
0.065560788 0.11589998 0.025899529 1.0944285e-38
0.064891845 0.11886314 0.026823997 1.1402056e-38
0.061234266 0.062096059 0.034637451 1.3711228e-38
0.061786115 0.064392544 0.032832623 1.4634259e-38
0.061751693 0.067148671 0.031692863 1.4543498e-38
0.062557369 0.11308375 0.024876893 1.0392569e-38
0.062825769 0.11540057 0.026190042 9.7497246e-39
0.057659507 0.064868018 0.033954084 1.4265839e-38
0.057842433 0.067875348 0.031829238 1.3715196e-38
0.057645857 0.071502402 0.030108809 1.325631e-38
0.057096064 0.075446054 0.029332697 1.3623729e-38
0.056520939 0.079617888 0.029924035 1.4174012e-38
0.05766052 0.083460599 0.02880317 1.3622266e-38
0.058263302 0.087469056 0.027623355 1.2978662e-38
0.057787955 0.099134654 0.025550425 1.2424034e-38
0.0582017 0.10342813 0.025017798 1.1963097e-38
0.058374077 0.1070995 0.024717808 1.1963803e-38
0.058553964 0.11125599 0.025906026 1.1960609e-38
0.05473429 0.07175453 0.031287193 1.3073003e-38
0.055487752 0.075520352 0.029530108 1.3807741e-38
0.054577678 0.079801589 0.030706346 1.4449157e-38
0.054602295 0.084015429 0.029537022 1.3896703e-38
0.054266334 0.087995425 0.028292358 1.3252749e-38
0.054279327 0.091545261 0.026957154 1.2793188e-38
0.054537594 0.095342189 0.026423454 1.2793215e-38
0.054737806 0.099264577 0.025646925 1.2333322e-38
0.054880977 0.10320549 0.024967551 1.1507156e-38
0.054913461 0.10718897 0.024482429 1.0401847e-38
0.054299831 0.11057445 0.025887847 1.0400439e-38
0.051000476 0.091635004 0.027782559 1.3252705e-38
0.051103204 0.09627074 0.027101219 1.2796442e-38
0.050410092 0.099696308 0.026058316 1.104474e-38
0.050432295 0.10335506 0.024864554 9.29517e-39
0.050825 0.10693614 0.024670064 8.3778899e-39
0.05141145 0.11017799 0.025057495 8.4729554e-39
0.047393918 0.1021439 0.025053322 9.111883e-39
0.047482014 0.1061174 0.024469435 8.5608504e-39
0.19210124 0.089388743 0.026979744 1.371879e-38
0.19192928 0.09516862 0.02700752 1.2890821e-38
0.15544435 0.087536499 0.021917224 1.3167049e-38
0.13245881 0.11709893 0.021423221 1.1787363e-38
0.14921388 0.15105554 0.050009608 1.7295777e-38
0.14260373 0.026288193 0.067158461 1.2978706e-38
0.13872367 0.02384102 0.069863379 1.0587377e-38
0.13972595 0.026554376 0.066229463 1.3073766e-38
0.13495564 0.024597265 0.069077849 1.0587368e-38
0.1358878 0.026875239 0.065877199 1.2338373e-38
0.13140956 0.02506813 0.068122745 9.483171e-39
0.13167706 0.027327538 0.06508106 1.2795415e-38
0.12801877 0.02807124 0.063793838 1.7955827e-38
0.12882885 0.13451138 0.048378885 6.8155962e-39
0.12877208 0.13791931 0.048189759 7.3637492e-39
0.12349904 0.028126687 0.064153433 1.9979449e-38
0.12409884 0.029845767 0.060900867 2.0528678e-38
0.12599412 0.13461183 0.048193753 7.8225875e-39
0.12620166 0.13764343 0.048778892 8.2828188e-39
0.12688899 0.1409584 0.0489043 9.6678398e-39
0.11956906 0.028053813 0.063128114 2.0069488e-38
0.12015542 0.030610226 0.060201049 1.9699986e-38
0.12269062 0.13401982 0.046258152 1.0219282e-38
0.11534518 0.027501225 0.062394559 1.8968181e-38
0.11693919 0.031041622 0.058860064 1.9608878e-38
0.11799818 0.13046199 0.043543875 1.2614557e-38
0.11801356 0.13398369 0.046047986 1.3078756e-38
0.11192825 0.028268978 0.06135422 1.8872036e-38
0.11276737 0.031023391 0.058398128 1.9515959e-38
0.11200535 0.033548713 0.056599438 1.9792915e-38
0.11470425 0.12641016 0.043150604 1.2704184e-38
0.11514443 0.12929742 0.043106794 1.2614941e-38
0.11443922 0.13365828 0.04465723 1.3998955e-38
0.11390463 0.13666426 0.045557797 1.5375059e-38
0.10764125 0.028528959 0.060255706 1.7402323e-38
0.10854095 0.031014986 0.058035493 1.9147557e-38
0.10944077 0.033490576 0.055817008 1.9975874e-38
0.11278084 0.12636654 0.042563677 1.344148e-38
0.11166939 0.12918857 0.041918993 1.4456707e-38
0.11044079 0.13364924 0.043777227 1.7126775e-38
0.10469812 0.031593956 0.05676055 1.8780928e-38
0.1052807 0.033727661 0.054496646 1.9149352e-38
0.10838106 0.13024393 0.040609658 1.5838923e-38
0.10667172 0.1335099 0.042400479 1.8233846e-38
0.10019344 0.031642623 0.056949615 1.7864001e-38
0.10132962 0.034072891 0.054282129 1.8781281e-38
0.10325193 0.13012764 0.039044738 1.6111564e-38
0.10285741 0.13339567 0.041123569 1.7955829e-38
0.096116453 0.031934083 0.05617559 1.611014e-38
0.09705627 0.034743458 0.053918004 1.8136619e-38
0.099316895 0.12606126 0.038455784 1.9332529e-38
0.093544692 0.032209083 0.055339634 1.5739188e-38
0.093146473 0.034833863 0.052829683 1.6758354e-38
0.095817715 0.12613851 0.038069367 2.2378274e-38
0.095779419 0.12884483 0.037876248 1.8498855e-38
0.089257628 0.035133786 0.05268544 1.6386689e-38
0.089960188 0.037578046 0.049388289 1.6755826e-38
0.093103707 0.12615527 0.037581801 2.2940472e-38
0.091709256 0.12912516 0.037487984 2.0073051e-38
0.090692937 0.13276441 0.03881824 1.5734148e-38
0.08596158 0.038591251 0.049373686 1.5741332e-38
0.085253805 0.04089646 0.047214031 1.5372552e-38
0.081832826 0.038960479 0.049805641 1.454568e-38
0.082689226 0.040838324 0.046431601 1.4727198e-38
0.07887727 0.039209396 0.049736798 1.3619784e-38
0.07837522 0.041719623 0.046657085 1.4358769e-38
0.07943809 0.12963313 0.034310699 1.7315165e-38
0.078997612 0.13187303 0.035522699 1.731443e-38
0.074386805 0.042626835 0.046503246 1.4450613e-38
0.073767751 0.045175083 0.044069231 1.4267284e-38
0.076607943 0.12937248 0.031732082 1.3718432e-38
0.076470554 0.13145213 0.033220947 1.408325e-38
0.069953769 0.043673433 0.046296537 1.3530777e-38
0.070636153 0.045892246 0.04447341 1.380629e-38
0.069819361 0.049226493 0.041698813 1.3163096e-38
0.07264635 0.12967423 0.030727744 1.2426953e-38
0.072607189 0.13170388 0.032307327 1.2428029e-38
0.067252636 0.047247678 0.044648767 1.334676e-38
0.067429572 0.049962685 0.04190588 1.3160578e-38
0.066714346 0.053799391 0.040037394 1.2149283e-38
0.068705767 0.12560207 0.030137897 1.2242584e-38
0.069192648 0.1282683 0.02987808 1.2798238e-38
0.070107609 0.13094425 0.029748857 1.2703177e-38
0.063689828 0.050577678 0.04277277 1.2791424e-38
0.063554436 0.053774506 0.040954947 1.2699902e-38
0.063156784 0.057256654 0.038407862 1.352899e-38
0.059912503 0.054488957 0.041005611 1.3713362e-38
0.059651822 0.05782669 0.038825154 1.4171135e-38
0.05961284 0.060567923 0.036540449 1.3894538e-38
0.060285032 0.11685458 0.028179467 1.1409243e-38
0.061041206 0.12024605 0.029184043 1.2514502e-38
0.061253011 0.12324007 0.03031671 1.3806657e-38
0.056679368 0.055371702 0.040401042 1.4356942e-38
0.055970728 0.058443092 0.039533615 1.4355148e-38
0.055717826 0.061774097 0.037356615 1.3802341e-38
0.055114239 0.064616755 0.034970403 1.3713421e-38
0.055067003 0.066726357 0.03392607 1.3529362e-38
0.056095868 0.11314981 0.027103841 1.1970277e-38
0.057305157 0.11586177 0.028117776 1.2883261e-38
0.056794673 0.11975467 0.029212534 1.3991801e-38
0.05322215 0.062553003 0.037700713 1.3621194e-38
0.051484436 0.065425456 0.03689903 1.3069111e-38
0.052258521 0.068374582 0.034165978 1.2609562e-38
0.051643908 0.072058298 0.032754898 1.2703889e-38
0.051815689 0.076015264 0.032023013 1.3440023e-38
0.052071512 0.080037378 0.031710088 1.3989245e-38
0.052109331 0.083628491 0.030413926 1.3989262e-38
0.051661104 0.086534902 0.029828608 1.4080353e-38
0.053263068 0.1125553 0.026321113 9.7558119e-39
0.053035438 0.1162654 0.028218806 1.1136597e-38
0.05340904 0.11973669 0.029069662 1.298159e-38
0.049178481 0.065867633 0.036472082 1.2058169e-38
0.048413455 0.068721503 0.035373926 1.1506437e-38
0.047728747 0.072394341 0.034315765 1.1138744e-38
0.048322469 0.076238275 0.032849967 1.2429117e-38
0.048814386 0.080202267 0.030981839 1.3715524e-38
0.04858768 0.083970435 0.030214667 1.4267623e-38
0.048844188 0.087897725 0.029337347 1.445236e-38
0.048557907 0.091874994 0.028654158 1.3621512e-38
0.048714459 0.095641106 0.027972162 1.3161984e-38
0.048093528 0.099048331 0.026803076 1.1784439e-38
0.048731595 0.1085638 0.025536656 8.194565e-39
0.049363554 0.11188844 0.026278138 8.9300001e-39
0.049338669 0.11594382 0.028114796 1.0401914e-38
0.050361037 0.11922446 0.028630972 1.1691218e-38
0.045047432 0.073329061 0.034049809 1.0860369e-38
0.044739753 0.076496154 0.032806456 1.168762e-38
0.044818163 0.08005406 0.03162235 1.2886513e-38
0.044980258 0.08402551 0.02991581 1.3440047e-38
0.044898182 0.088071555 0.029620767 1.3899578e-38
0.044986635 0.092062011 0.029034376 1.3532216e-38
0.045075119 0.096052468 0.028447986 1.3623341e-38
0.045476437 0.10001189 0.026753962 1.1046539e-38
0.04528296 0.10386711 0.025591373 8.9285581e-39
0.045179874 0.10792339 0.025332272 7.8229182e-39
0.045636594 0.11220498 0.027043581 8.1006234e-39
0.046403646 0.11513498 0.02803874 1.0034589e-38
0.041707158 0.077697486 0.032347083 1.1414614e-38
0.041579694 0.080651224 0.031588972 1.1966712e-38
0.041925073 0.084569618 0.03056407 1.2887955e-38
0.042114764 0.088312626 0.030487657 1.3534384e-38
0.041709989 0.092363298 0.030092418 1.2981563e-38
0.041060477 0.096490577 0.029125094 1.215289e-38
0.041205734 0.10001048 0.027835071 1.0495165e-38
0.041336149 0.10366774 0.025669634 8.4668667e-39
0.041139662 0.10806948 0.026090443 7.0864392e-39
0.041614622 0.11130641 0.026885152 6.53545e-39
0.038267165 0.096951619 0.028324306 1.1510399e-38
0.037541479 0.10030982 0.026922822 1.0215358e-38
0.037763029 0.10413283 0.025477529 8.2817384e-39
0.037633121 0.10810664 0.025590301 7.45377e-39
0.033667952 0.10090041 0.025874674 1.0029515e-38
0.033446044 0.10410692 0.025383532 8.6497838e-39
0.03386417 0.10765111 0.025320053 8.0065724e-39
0.030633211 0.1014449 0.025277436 9.2062086e-39
0.030692339 0.10411274 0.024885476 8.8338234e-39
0.19200468 0.085031599 0.027620018 1.4546019e-38
0.14955771 0.071001418 0.019059062 8.6516419e-39
0.15030789 0.11351362 0.024628162 1.8970332e-38
0.18399979 0.044903748 0.046394527 2.0079201e-38
0.11290327 0.089470565 0.027120411 1.2792852e-38
0.10050017 0.059054717 0.036458194 1.4268366e-38
0.12636369 0.025223322 0.069715083 1.3990626e-38
0.12600744 0.026492983 0.068704724 1.6013911e-38
0.12741041 0.14214614 0.050998032 6.9931744e-39
0.1218608 0.026460122 0.068135321 1.9063926e-38
0.12411809 0.13939746 0.050404787 9.573175e-39
0.12455609 0.14293221 0.050751865 1.4828368e-38
0.12450314 0.14568213 0.050614834 2.2196093e-38
0.11811042 0.026344504 0.066643119 1.9340555e-38
0.12073672 0.13873622 0.049815655 1.2708219e-38
0.12182403 0.14160465 0.050415218 1.5932211e-38
0.11538562 0.026313305 0.066159725 1.8323906e-38
0.11712432 0.13852273 0.0489856 1.5840701e-38
0.1105026 0.027032763 0.063836992 1.7403027e-38
0.11428347 0.13893771 0.048322201 1.6575381e-38
0.10693181 0.027874984 0.062958121 1.7219356e-38
0.11021867 0.13724214 0.047152221 1.6669021e-38
0.10377488 0.028058395 0.062308311 1.5379764e-38
0.1035969 0.029965311 0.060902297 1.8872047e-38
0.10647443 0.13707456 0.045669973 2.0075232e-38
0.10119966 0.028669454 0.061419666 1.528543e-38
0.10007688 0.029950429 0.06052351 1.7771444e-38
0.10253045 0.1373612 0.044585049 2.0075234e-38
0.096635789 0.030318081 0.059405148 1.5101743e-38
0.0920977 0.031425484 0.057658076 1.436202e-38
0.091400325 0.033699825 0.056564212 1.6202676e-38
0.08898592 0.032409221 0.057075381 1.5372915e-38
0.087520719 0.033611849 0.055380523 1.5466201e-38
0.091067106 0.13530551 0.040834844 1.6760515e-38
0.084742963 0.035161182 0.054813921 1.4728971e-38
0.086535722 0.13419664 0.040211499 1.6110081e-38
0.081510723 0.035810135 0.054245651 1.2703595e-38
0.080039442 0.037561968 0.05352217 1.389708e-38
0.082809716 0.13335611 0.039644361 1.8784152e-38
0.076430827 0.039432257 0.051591992 1.371413e-38
0.079039425 0.13321002 0.038238883 1.8048391e-38
0.074736834 0.04000707 0.050451934 1.3715195e-38
0.072464585 0.041776352 0.049831271 1.4175092e-38
0.07523948 0.13375658 0.036823452 1.4452764e-38
0.069797933 0.042685345 0.049573779 1.4728589e-38
0.065202534 0.043526262 0.047497392 1.1227718e-38
0.065460145 0.045703597 0.04692471 1.2792873e-38
0.062513053 0.047388218 0.046249747 1.2608125e-38
0.060998201 0.049542233 0.045098484 1.3162025e-38
0.058047533 0.051229782 0.04442203 1.3529684e-38
0.057369322 0.053429112 0.043028176 1.316235e-38
0.059306204 0.12412032 0.033811688 1.3899928e-38
0.054089069 0.054321647 0.042483151 1.2703885e-38
0.053578645 0.057354219 0.041254818 1.3437513e-38
0.05572015 0.12254731 0.032241821 1.5832094e-38
0.055435956 0.12470204 0.032527924 1.5744915e-38
0.051376224 0.058334462 0.04148221 1.2976184e-38
0.050203919 0.062252328 0.039988935 1.3255273e-38
0.049435914 0.064836711 0.038825631 1.2794308e-38
0.051300019 0.12220833 0.03137058 1.3631607e-38
0.051535964 0.12394415 0.031440973 1.4551393e-38
0.046562016 0.063045338 0.03927201 1.2061015e-38
0.04629904 0.065389723 0.038407266 1.1874125e-38
0.046056539 0.067879796 0.037314713 1.1414585e-38
0.047247678 0.11765513 0.030291498 1.1137687e-38
0.048454851 0.12119651 0.030912757 1.2523477e-38
0.04334259 0.065739408 0.037864268 1.0398653e-38
0.042905062 0.068962753 0.036836684 1.0215351e-38
0.042706788 0.072260559 0.035607278 1.0399393e-38
0.041913867 0.075362287 0.034885585 1.1043328e-38
0.042773604 0.11415526 0.029184699 7.9137392e-39
0.043781698 0.11677711 0.029797673 1.0862892e-38
0.039546579 0.069670036 0.036088347 9.3899076e-39
0.039126724 0.072975881 0.035450339 9.7579671e-39
0.038933307 0.076546952 0.034312487 1.0398669e-38
0.038664162 0.080369264 0.033112645 1.1323488e-38
0.03844285 0.084481195 0.033046663 1.215147e-38
0.038718849 0.088751085 0.032369375 1.2981216e-38
0.038833559 0.092710838 0.031478405 1.2428039e-38
0.038478911 0.095339656 0.030753136 1.1417127e-38
0.039710641 0.11363818 0.028742075 6.9914073e-39
0.039702535 0.11564246 0.029066086 9.7625802e-39
0.036281228 0.078075677 0.033787787 1.0029186e-38
0.036016822 0.080747485 0.033295393 1.0585214e-38
0.035664499 0.085291758 0.03248775 1.1693361e-38
0.035389274 0.088934019 0.031842649 1.2703918e-38
0.035370588 0.092761859 0.031130612 1.2423374e-38
0.035548419 0.096419245 0.029682815 1.159972e-38
0.034688234 0.099264756 0.028979719 1.0952924e-38
0.036162376 0.11271676 0.027600765 6.8084314e-39
0.03547287 0.11669418 0.027599156 1.0496555e-38
0.0351533 0.12062711 0.026895523 1.1511813e-38
0.032633603 0.088704169 0.031027615 1.2703199e-38
0.032210618 0.092979074 0.030239701 1.2607039e-38
0.032142162 0.096724063 0.028716922 1.1139469e-38
0.031785935 0.0995332 0.028042793 1.0491931e-38
0.031677544 0.10922411 0.026518881 8.2824362e-39
0.032607764 0.1127681 0.027142465 7.9161859e-39
0.032411575 0.11697537 0.026460111 8.8395911e-39
0.032492161 0.12061107 0.025925636 1.0314348e-38
0.029499948 0.093319267 0.029350817 1.0954326e-38
0.029243022 0.096325964 0.028809071 1.00324e-38
0.029265553 0.099908903 0.027736068 9.4817319e-39
0.029633969 0.10449822 0.026615083 8.8338318e-39
0.029722929 0.1085113 0.026025355 8.1906414e-39
0.029930413 0.11274308 0.02649647 8.1927755e-39
0.029989809 0.11644864 0.025733232 8.4701065e-39
0.1917446 0.076980956 0.029042482 1.5834963e-38
0.19177341 0.08074557 0.028648674 1.5283585e-38
0.15356544 0.092535451 0.016983986 1.362625e-38
0.15728498 0.08578141 0.02264154 1.3903177e-38
0.12106335 0.026625544 0.06997931 1.943342e-38
0.12018052 0.14296991 0.051813602 1.8148857e-38
0.12074992 0.14607802 0.052040279 2.1923114e-38
0.11432135 0.024502665 0.068754137 1.5194637e-38
0.11707762 0.14271836 0.051071048 1.8882459e-38
0.11783132 0.14588436 0.051063538 2.0910389e-38
0.11042261 0.024414271 0.067564607 1.2797573e-38
0.1093753 0.02636053 0.066413224 1.5657434e-38
0.11280978 0.14148909 0.050824583 1.7773938e-38
0.10631442 0.02436607 0.066833258 9.6650848e-39
0.10663772 0.026329044 0.065925896 1.3630937e-38
0.10927883 0.1391423 0.049038112 1.7127483e-38
0.10954365 0.14074275 0.049931407 1.7583436e-38
0.10241294 0.024277609 0.065642893 8.4650717e-39
0.1024732 0.027145013 0.064691484 1.2522068e-38
0.1053828 0.13905396 0.047849417 2.0260684e-38
0.10434166 0.14062481 0.048344374 2.0903549e-38
0.098877341 0.027719859 0.063317299 1.2064681e-38
0.1014967 0.13941339 0.046594918 2.0166358e-38
0.10109043 0.14055109 0.047352374 2.0258199e-38
0.09491697 0.028093517 0.062213838 1.0307216e-38
0.093880475 0.030037202 0.06106621 1.3164536e-38
0.097150296 0.13859411 0.045644104 1.9248714e-38
0.091669887 0.028291758 0.061710298 9.7482911e-39
0.091283143 0.029978309 0.060273707 1.1966734e-38
0.093519866 0.13752498 0.04477632 1.6757994e-38
0.087263584 0.031038523 0.059222877 1.2703192e-38
0.089562535 0.13814887 0.043635488 1.7954368e-38
0.088085473 0.14025621 0.043384492 1.712535e-38
0.083529353 0.032227568 0.05832839 1.2979419e-38
0.082931072 0.033816934 0.057106018 1.3162371e-38
0.085663795 0.13806048 0.042445958 1.6851627e-38
0.079118788 0.034659952 0.056152463 1.1411034e-38
0.081947088 0.13583723 0.041112065 1.8049089e-38
0.081855893 0.13776201 0.041845679 1.7408009e-38
0.076242805 0.03600926 0.055762708 1.1778377e-38
0.075213879 0.038087144 0.054861188 1.3163101e-38
0.078368306 0.13542041 0.040071785 1.758525e-38
0.078922361 0.13735937 0.041002393 1.6756569e-38
0.071675688 0.039687127 0.053523123 1.3349285e-38
0.074804395 0.13567528 0.0389328 1.4361268e-38
0.072419882 0.13721192 0.039018393 1.4362707e-38
0.068972707 0.04032623 0.052855253 1.2245807e-38
0.068184882 0.041986123 0.051299036 1.307231e-38
0.071059763 0.13449199 0.039016962 1.2433776e-38
0.064249158 0.040106662 0.050373554 1.0491227e-38
0.065139532 0.042052329 0.05077225 1.0768893e-38
0.061091751 0.044063076 0.048790753 1.0948276e-38
0.060494542 0.046399206 0.048247159 1.2147872e-38
0.062937677 0.12735021 0.036551118 1.2793251e-38
0.062967449 0.12869357 0.036353767 1.3351786e-38
0.058082521 0.047474332 0.048395276 1.1783777e-38
0.057070345 0.049405381 0.047257006 1.2243686e-38
0.059191316 0.12682787 0.036533177 1.4269071e-38
0.060536534 0.1288752 0.036633492 1.4087909e-38
0.053866059 0.051348135 0.045969427 1.2700649e-38
0.055735439 0.12450159 0.034766674 1.5654864e-38
0.0501737 0.054926284 0.044015288 1.1225561e-38
0.049081862 0.058560088 0.042855024 1.2607404e-38
0.051045567 0.12560956 0.033783793 1.4735418e-38
0.046454072 0.059612572 0.042675495 1.1415326e-38
0.046544045 0.061187878 0.0416677 1.2151075e-38
0.046600044 0.12228045 0.032289267 1.3169559e-38
0.047787637 0.12566404 0.032135308 1.4089718e-38
0.042459786 0.062499337 0.04065913 1.0127428e-38
0.041438699 0.065100119 0.039490581 9.2973463e-39
0.0426296 0.11883375 0.031594038 1.2433412e-38
0.044137657 0.12145945 0.032109022 1.3536187e-38
0.038947731 0.063847333 0.039972305 8.192805e-39
0.038856208 0.065712899 0.038599372 8.7431047e-39
0.038583636 0.068056382 0.03815484 9.0196916e-39
0.03976059 0.11823164 0.030801356 1.2893667e-38
0.039720446 0.12026078 0.03118217 1.4918392e-38
0.035756111 0.066464067 0.038584948 7.6389109e-39
0.035251796 0.069115758 0.037845194 7.4548812e-39
0.034762472 0.072896749 0.036627948 8.1920651e-39
0.034323901 0.07678692 0.035709143 9.2012144e-39
0.034003943 0.081043534 0.034744203 1.0307911e-38
0.03407836 0.084401876 0.034250677 1.1139115e-38
0.036770642 0.11802959 0.02990973 1.2710014e-38
0.036180913 0.12070155 0.029316783 1.3717693e-38
0.031175226 0.077889904 0.035202444 8.3732516e-39
0.031231344 0.081037417 0.034242213 9.4813746e-39
0.031329811 0.084843069 0.033334672 1.0586298e-38
0.031147331 0.088810988 0.032668054 1.2611351e-38
0.030346096 0.091701925 0.031976223 1.2609548e-38
0.028295994 0.081757233 0.033930779 9.1104355e-39
0.028722525 0.085009977 0.032857001 1.0400441e-38
0.028987885 0.088985793 0.031974733 1.2335101e-38
0.0290474 0.09167248 0.031579971 1.2334015e-38
0.19150016 0.073324561 0.030058205 1.6846235e-38
0.16100615 0.086823069 0.024769664 1.3811705e-38
0.17808065 0.038037539 0.054203629 1.5372914e-38
0.10866866 0.05363895 0.039434075 1.4821167e-38
0.11084303 0.039719939 0.048151553 1.942449e-38
0.11387646 0.1465815 0.054601669 2.0630216e-38
0.11117119 0.14643914 0.054846466 1.9800476e-38
0.10543197 0.02250142 0.06896311 8.0941466e-39
0.10726252 0.14332932 0.052607477 1.7309024e-38
0.10137871 0.022438228 0.068074763 8.8331059e-39
0.10383534 0.14317861 0.051270902 2.0074866e-38
0.098082006 0.024022773 0.067307353 8.9235345e-39
0.096829027 0.026397187 0.066238105 1.0034185e-38
0.10003069 0.14322428 0.049998999 2.0349686e-38
0.094008446 0.024667058 0.068278193 9.3888118e-39
0.094002277 0.026378967 0.065897465 9.3884447e-39
0.096254587 0.14273924 0.049490154 1.970539e-38
0.089779526 0.027363747 0.06523627 9.2908891e-39
0.092383444 0.13950899 0.046941221 1.7867178e-38
0.091995776 0.1422548 0.048514903 1.9889756e-38
0.086002469 0.028945733 0.06356293 1.0485482e-38
0.084745169 0.030122265 0.061407328 1.0956128e-38
0.089015663 0.14267999 0.047000825 1.9615687e-38
0.087933213 0.14625072 0.047704399 1.9803328e-38
0.082129478 0.030883223 0.062069774 1.1597573e-38
0.085428655 0.14240745 0.045142651 1.7773232e-38
0.084659189 0.1461765 0.046705484 1.7038943e-38
0.079118848 0.032116458 0.060422301 1.1413544e-38
0.080646187 0.13924286 0.043360054 1.851576e-38
0.081226587 0.14200263 0.044928253 1.7863248e-38
0.082055002 0.14679442 0.045806825 1.4462527e-38
0.076980114 0.032642826 0.058623433 1.0952531e-38
0.074384153 0.034484774 0.058596849 1.1316327e-38
0.077475369 0.13895886 0.042954206 1.6663287e-38
0.076827705 0.14255807 0.044610143 1.6574689e-38
0.071356088 0.036190338 0.058034778 1.214965e-38
0.070296884 0.038101956 0.057837009 1.334783e-38
0.074110538 0.13842052 0.041469693 1.4915899e-38
0.074574083 0.14115664 0.042249799 1.5931841e-38
0.067058623 0.039379492 0.056641281 1.2056759e-38
0.069473505 0.13767479 0.041740179 1.4365558e-38
0.06434387 0.040144853 0.054980695 1.1226636e-38
0.066129625 0.13695559 0.042405546 1.3352121e-38
0.060904741 0.13070536 0.038581073 1.3719127e-38
0.057687134 0.044340216 0.050870776 1.0396544e-38
0.055785 0.046821192 0.050748467 1.0120679e-38
0.058206767 0.12659924 0.038379967 1.3902445e-38
0.057708859 0.12915735 0.038467646 1.4365565e-38
0.059147656 0.13225435 0.038858414 1.4271573e-38
0.052227795 0.048508912 0.050660551 9.292324e-39
0.052271068 0.050144508 0.049012005 1.1230184e-38
0.053478181 0.12719098 0.040003181 1.5469026e-38
0.054178059 0.12923779 0.039904296 1.4824378e-38
0.049922079 0.051094197 0.049022436 1.0309321e-38
0.051686078 0.12645139 0.036390543 1.6020405e-38
0.049916089 0.12799443 0.036664784 1.4732542e-38
0.044796228 0.058476254 0.045071363 1.021321e-38
0.040775597 0.059973955 0.04456985 8.4643528e-39
0.03981784 0.061463147 0.04272294 8.0073109e-39
0.041178167 0.12284233 0.03370285 1.4823349e-38
0.036946654 0.060471863 0.045162737 7.3576073e-39
0.036634982 0.062681884 0.042787313 7.7296618e-39
0.038581759 0.12293828 0.034649968 1.4732966e-38
0.038228333 0.12458315 0.034640551 1.4180846e-38
0.03169322 0.059675768 0.043664038 9.8433174e-39
0.033276618 0.063288718 0.042539239 7.7271241e-39
0.033831537 0.065821797 0.0402053 6.6254807e-39
0.032172382 0.069379687 0.039146125 6.4414285e-39
0.035812646 0.12171337 0.033807456 1.5193899e-38
0.035738558 0.12408082 0.035007179 1.4091117e-38
0.030383646 0.059646077 0.043264449 1.0947147e-38
0.029523253 0.063011482 0.042481422 1.0762386e-38
0.030270398 0.066114962 0.040119112 7.8171827e-39
0.029447675 0.069351695 0.038544714 6.8991627e-39
0.029813051 0.073202595 0.037830114 6.3452826e-39
0.029395074 0.076395378 0.037210107 7.3587451e-39
0.027673423 0.066731185 0.039222896 1.1876278e-38
0.026955873 0.069261417 0.037554562 1.279461e-38
0.027853042 0.07483644 0.038031816 6.3442148e-39
0.027195036 0.080053359 0.035968542 8.1888323e-39
0.19116619 0.067497253 0.031512499 1.8228109e-38
0.15881662 0.073115475 0.025087535 1.4823339e-38
0.13254237 0.11075318 0.020841181 1.2611336e-38
0.11315924 0.14950673 0.057632685 2.1553226e-38
0.11325413 0.15194297 0.058873892 2.0911063e-38
0.11006311 0.148628 0.056283534 2.0629138e-38
0.11112455 0.1516003 0.05763483 2.0723499e-38
0.11066562 0.15392652 0.057770073 1.6951351e-38
0.10650006 0.14789748 0.055413783 1.841575e-38
0.10798657 0.15182355 0.057266772 1.9253776e-38
0.0932751 0.023022138 0.0693627 9.6617946e-39
0.09534657 0.14737532 0.052539229 2.0166373e-38
0.088942796 0.025001027 0.069572568 9.6614386e-39
