# .PCD v0.7 - Point Cloud Data file format
VERSION 0.7
FIELDS x y z rgb
SIZE 4 4 4 4
TYPE F F F F
COUNT 1 1 1 1
WIDTH 979
HEIGHT 1
VIEWPOINT 0 0 0 0 1 0 0
POINTS 979
DATA ascii
0.069039181 0.11827399 0.032442689 1.9333349e-38
0.065657191 0.079436861 0.030872881 1.5464733e-38
0.065012664 0.080756575 0.030695736 1.6658974e-38
0.06082695 0.081043735 0.031382143 1.8965308e-38
0.057715788 0.081580326 0.031594038 2.1544244e-38
0.056856096 0.11921971 0.033864319 1.9615707e-38
0.055994377 0.12093865 0.034412622 1.998307e-38
0.051276281 0.078923866 0.032525957 2.0993606e-38
0.052564025 0.12178515 0.034601331 1.9246197e-38
0.048276484 0.078054741 0.032660246 1.905894e-38
0.048543051 0.12297633 0.034553945 1.6485029e-38
0.047619939 0.12477446 0.035789132 1.6391057e-38
0.044398993 0.075382888 0.033641219 1.5832836e-38
0.044419453 0.07706771 0.03296864 1.5648797e-38
0.045712769 0.12347439 0.034977078 1.3807771e-38
0.04415261 0.12527308 0.035897255 1.3903189e-38
0.04028973 0.074866377 0.033785939 1.3988875e-38
0.040566809 0.076735437 0.033238769 1.3804839e-38
0.040566809 0.1234365 0.035696864 1.2981569e-38
0.04053387 0.12504709 0.036797404 1.2796471e-38
0.037957124 0.075335465 0.034542263 1.3252756e-38
0.03668119 0.077950522 0.034521878 1.2334379e-38
0.036681302 0.12231715 0.036857069 1.1224851e-38
0.037957124 0.12470332 0.037140727 1.2154719e-38
0.032572113 0.082095817 0.035046697 1.0665894e-38
0.03156139 0.084452644 0.034908056 1.2610269e-38
0.03156139 0.1155867 0.036546826 1.0118507e-38
0.032820933 0.11817802 0.03711319 9.7500876e-39
0.030226856 0.082423896 0.035999596 1.3986022e-38
0.028960466 0.085692175 0.035899878 1.5737396e-38
0.028345168 0.088320725 0.035562754 1.6379872e-38
0.028796159 0.11441542 0.037504971 1.3621217e-38
0.029582664 0.11684674 0.037901819 1.3530093e-38
0.025073349 0.086932994 0.036959767 1.4912646e-38
0.025128946 0.11132327 0.03722465 1.2245094e-38
0.025080062 0.11405643 0.038260102 1.3442562e-38
0.021852419 0.086909279 0.037410319 1.4175087e-38
0.021242045 0.089537233 0.037072539 1.3346393e-38
0.019982979 0.10706931 0.037722468 8.9281854e-39
0.021235049 0.11030422 0.038278937 9.93772e-39
0.020950571 0.11340538 0.038931429 1.1603679e-38
0.018202022 0.090346813 0.038103282 1.3349967e-38
0.017364979 0.093390554 0.038043857 1.1507139e-38
0.016958244 0.097877368 0.037999988 9.0196678e-39
0.017372206 0.1024853 0.038409173 7.6382047e-39
0.017372623 0.10638065 0.038614154 8.2846349e-39
0.01777257 0.10983097 0.039189041 9.4839039e-39
0.01476635 0.094652034 0.038811743 1.1043642e-38
0.01476635 0.097899921 0.038982689 8.7427025e-39
0.014122173 0.10244222 0.039312124 7.0868105e-39
0.014251009 0.1060808 0.039485574 6.9946317e-39
0.10779691 0.099439129 0.0083152652 1.925232e-38
0.10801736 0.11274739 0.012328267 1.6295215e-38
0.11813929 0.073098913 0.011044145 1.8233495e-38
0.087478966 0.091288611 0.017263234 1.5649128e-38
0.16662732 0.1035594 0.0096022487 1.9061469e-38
0.16743839 0.075615376 0.013362288 2.2670763e-38
0.077587776 0.11043704 0.027671337 1.6203035e-38
0.10092038 0.063115068 0.022034228 1.2329721e-38
0.077571839 0.08723475 0.028434277 1.3534022e-38
0.16351458 0.060244665 0.020181715 2.2955997e-38
0.16459942 0.063011825 0.0187307 2.3233659e-38
0.16522624 0.066214181 0.017222345 2.3325136e-38
0.1650112 0.1282296 0.020516694 2.3048913e-38
0.1646383 0.13017118 0.022525012 2.295312e-38
0.16057883 0.059764519 0.019961596 2.2393828e-38
0.16059153 0.061773583 0.018312812 2.2488901e-38
0.16102099 0.13123488 0.0219087 2.2568153e-38
0.16037625 0.13418429 0.024311483 2.2752918e-38
0.15541507 0.05593805 0.021091044 2.2657472e-38
0.15637386 0.058840066 0.019087017 2.2658912e-38
0.15791476 0.13208053 0.021714747 2.2011379e-38
0.15639165 0.1347947 0.023817778 2.201245e-38
0.15591037 0.1377213 0.024989247 2.2386254e-38
0.15055537 0.052308679 0.02158165 2.2664646e-38
0.15152863 0.055233717 0.020335138 2.2936191e-38
0.15146345 0.13528568 0.022788286 2.1181571e-38
0.15175505 0.13839585 0.0251863 2.1646894e-38
0.14760911 0.051989734 0.021725357 2.275072e-38
0.14781623 0.055023313 0.019580841 2.2842191e-38
0.14759266 0.13590771 0.023364007 2.0263235e-38
0.14777166 0.13852429 0.024937212 2.0906814e-38
0.14731556 0.14114468 0.026711941 2.1923099e-38
0.14393908 0.051744588 0.021300316 2.2836444e-38
0.14397992 0.054434992 0.019582391 2.3019755e-38
0.14383985 0.13914241 0.025071919 1.9800123e-38
0.14395781 0.14110836 0.026169896 2.0266837e-38
0.13984352 0.051278934 0.021386802 2.2746752e-38
0.13985109 0.054209433 0.020149648 2.2101746e-38
0.13992658 0.13911037 0.025281966 1.9985216e-38
0.14013186 0.14173937 0.027245343 1.9987379e-38
0.13612249 0.051093802 0.021856844 2.2375452e-38
0.13662544 0.053860426 0.020583689 2.2188911e-38
0.13598029 0.13920495 0.025166273 1.9526028e-38
0.13624692 0.14171077 0.027788758 1.9894114e-38
0.13224417 0.051065251 0.022399306 2.2006661e-38
0.13275465 0.05383192 0.021125138 2.1824799e-38
0.13210951 0.13969688 0.02573514 2.0352556e-38
0.13234484 0.14167979 0.028165936 2.0352916e-38
0.1285437 0.051180542 0.023092926 2.2005942e-38
0.129529 0.13967788 0.026096046 1.8790263e-38
0.12830311 0.14228082 0.027079105 2.0170684e-38
0.12768893 0.14488587 0.027639508 2.0998287e-38
0.1245174 0.050967842 0.023815036 2.1731887e-38
0.12457735 0.14261967 0.027234375 1.9800836e-38
0.12478703 0.14540029 0.028882563 2.081247e-38
0.12178741 0.053751186 0.022659123 2.145494e-38
0.12059942 0.14223224 0.028718829 1.7409149e-38
0.12204511 0.14487892 0.030452967 2.108977e-38
0.11675696 0.14221036 0.029706061 1.2061798e-38
0.11211045 0.13954964 0.028532445 1.3166312e-38
0.11287674 0.1421818 0.030248821 1.3442899e-38
0.11167774 0.1448026 0.031903088 1.4733263e-38
0.10898887 0.050867036 0.02587539 1.6571089e-38
0.10759453 0.13561323 0.028958678 1.2063968e-38
0.10875704 0.13839138 0.029447436 1.3078064e-38
0.10940988 0.1411923 0.032031178 1.399786e-38
0.10530356 0.051194049 0.026570082 1.5649148e-38
0.10372375 0.118671 0.028609872 6.62801e-39
0.10630427 0.12194264 0.028420091 8.1946084e-39
0.10372375 0.13103104 0.029260397 8.8370926e-39
0.10486761 0.13445573 0.029533029 1.0311843e-38
0.10552377 0.13803148 0.031687796 1.1509307e-38
0.10649405 0.14084414 0.032421827 1.2613864e-38
0.1026063 0.051955663 0.028288484 1.4912635e-38
0.10122586 0.05494678 0.027122855 1.3068033e-38
0.099879891 0.058413781 0.02648294 1.0583754e-38
0.098562703 0.061386533 0.02631855 9.013219e-39
0.099422872 0.078306593 0.027088523 3.4940761e-39
0.099978574 0.082041189 0.029566586 4.320241e-39
0.099288575 0.086008072 0.029029429 6.2534499e-39
0.098562703 0.088708714 0.027756691 7.0843176e-39
0.10001446 0.11204766 0.031814992 8.0047619e-39
0.10121626 0.11471411 0.030101538 6.0733985e-39
0.10123421 0.1186181 0.030641556 5.4316332e-39
0.1011851 0.122544 0.029956222 7.2758681e-39
0.10100886 0.12661484 0.02991426 7.273371e-39
0.10116714 0.13036007 0.030033112 5.8000472e-39
0.10120513 0.13426873 0.030907571 6.1677381e-39
0.10131037 0.13721238 0.032957733 7.2715886e-39
0.097389877 0.05939313 0.028737605 9.2008024e-39
0.096392661 0.062768504 0.027562439 9.0175378e-39
0.095208034 0.066305846 0.027048051 9.2008528e-39
0.094691925 0.070465431 0.027339339 7.8168268e-39
0.096213281 0.074351959 0.027667582 5.1478212e-39
0.097612947 0.078093998 0.029859126 4.1383469e-39
0.097586289 0.082378507 0.030160606 4.5049686e-39
0.096451417 0.086036459 0.028698623 6.5257433e-39
0.096842349 0.089129731 0.028020144 7.4487856e-39
0.098718531 0.11399826 0.032099426 7.1779216e-39
0.098718531 0.11857193 0.032340169 5.70353e-39
0.098718531 0.12183884 0.032512069 6.4468249e-39
0.098718531 0.12706588 0.032787204 7.2740941e-39
0.098701224 0.13033387 0.032624662 6.8116698e-39
0.098692566 0.13359942 0.032629251 7.0864462e-39
0.093355753 0.062216759 0.029747009 1.2147449e-38
0.092352383 0.066525884 0.029356122 1.0395049e-38
0.092565604 0.070081942 0.029639781 8.6455211e-39
0.093775898 0.073878802 0.030276537 6.9881409e-39
0.092844605 0.082665294 0.030262947 7.0828253e-39
0.093424805 0.085057884 0.028790772 7.2639935e-39
0.09082114 0.088651717 0.028839529 1.592069e-38
0.092657372 0.1133097 0.032576323 1.0401869e-38
0.090943001 0.062977277 0.030504525 1.4352948e-38
0.090079054 0.066237822 0.030797303 1.2976827e-38
0.090295047 0.069506317 0.030939043 1.0671995e-38
0.087703198 0.075367667 0.031611085 1.1222997e-38
0.088351168 0.077985957 0.031658113 1.0211722e-38
0.088548273 0.081901297 0.030117512 1.1596828e-38
0.089530878 0.11206122 0.030252635 1.2701703e-38
0.089603901 0.11498867 0.032274425 1.1508909e-38
0.088322029 0.11785992 0.032918394 1.123163e-38
0.087055244 0.12240635 0.034177899 1.0956147e-38
0.084453009 0.074064814 0.031661391 1.4081802e-38
0.0844322 0.078036815 0.031199217 1.5373979e-38
0.084391877 0.08074744 0.029999375 1.6564972e-38
0.08439061 0.11851611 0.031987488 1.2427679e-38
0.084458515 0.12173668 0.034338355 1.2151455e-38
0.080552727 0.074083969 0.031647682 1.8229506e-38
0.08053308 0.078059979 0.031073272 1.7856797e-38
0.081789292 0.080778882 0.029691935 1.7666296e-38
0.080938265 0.11893065 0.032156467 1.3256338e-38
0.080567136 0.12236423 0.034748673 1.2979779e-38
0.076675221 0.074195728 0.032464266 1.8872742e-38
0.076835833 0.077675849 0.031378984 1.8318497e-38
0.076628245 0.11977257 0.032468259 1.3533661e-38
0.076664001 0.12234864 0.03439647 1.3442561e-38
0.076039918 0.12493878 0.035856187 1.4272316e-38
0.071504191 0.070674732 0.033636212 1.9610704e-38
0.072790645 0.074007422 0.032957077 1.896529e-38
0.072762199 0.07743258 0.031118989 1.8041879e-38
0.072766952 0.12233751 0.03381896 1.3626232e-38
0.072800122 0.12622169 0.036378205 1.4458156e-38
0.068909504 0.070031986 0.033629298 1.8872052e-38
0.068900406 0.074045002 0.032718241 1.7762452e-38
0.068886682 0.077431247 0.031325519 1.6659335e-38
0.067596421 0.11580291 0.033526182 2.3390693e-38
0.067596421 0.11970608 0.03373158 1.7672005e-38
0.06889388 0.12230565 0.034585297 1.3073051e-38
0.06891235 0.12619306 0.036921978 1.3904271e-38
0.064839453 0.066425361 0.034347355 1.8962423e-38
0.065022781 0.070023626 0.033949316 1.7396539e-38
0.065019757 0.074034989 0.033037364 1.6659697e-38
0.064831577 0.077680185 0.031907439 1.6013582e-38
0.065661028 0.11578866 0.033796847 2.0441897e-38
0.065016113 0.11838184 0.034248531 1.8782687e-38
0.065022781 0.12225313 0.036698401 1.3442559e-38
0.065024585 0.12579107 0.037446082 1.3810983e-38
0.061136834 0.066024736 0.03484565 1.7950078e-38
0.061137751 0.069974773 0.034716368 1.721145e-38
0.061140805 0.073987879 0.033803582 1.674975e-38
0.061145119 0.078024782 0.03244257 1.6752229e-38
0.060492575 0.11570152 0.036539614 1.5838549e-38
0.060977489 0.11847557 0.036743879 1.6757634e-38
0.061137356 0.12221742 0.037690938 1.463924e-38
0.060920842 0.12569864 0.038016796 1.3992491e-38
0.057573043 0.066978574 0.035395682 1.7950792e-38
0.057251878 0.069946162 0.035259962 1.7307584e-38
0.057261646 0.073959313 0.034346223 1.7584505e-38
0.057274319 0.077996284 0.032984018 2.0162404e-38
0.058564588 0.11833853 0.034926414 1.7958321e-38
0.057426028 0.1223781 0.036562681 1.8877075e-38
0.057089418 0.12594548 0.038314462 1.8508255e-38
0.053361297 0.067274258 0.03600198 1.7856397e-38
0.053364225 0.069907621 0.035915613 1.8227729e-38
0.053384759 0.07394933 0.03466475 2.0348603e-38
0.053564824 0.077806339 0.033494294 2.1452422e-38
0.054693803 0.0805794 0.033481896 2.1637165e-38
0.053403534 0.12350475 0.035922289 1.97061e-38
0.053383432 0.12609473 0.037522018 1.9799016e-38
0.053037323 0.1290164 0.039297223 1.9432029e-38
0.049638219 0.070034876 0.036543071 1.9614263e-38
0.049500473 0.073892474 0.035543621 1.9520287e-38
0.050177887 0.076642983 0.033908129 2.0257124e-38
0.049679242 0.12623651 0.03734678 1.8049828e-38
0.049477138 0.12931781 0.039643943 1.8327122e-38
0.045607559 0.070281342 0.036381185 1.7768912e-38
0.045221023 0.073531881 0.034889102 1.6660078e-38
0.045439079 0.12691313 0.037555814 1.5378296e-38
0.045594871 0.12928984 0.040018499 1.5285752e-38
0.041369297 0.070661731 0.036562264 1.5834967e-38
0.040823482 0.072996207 0.035028219 1.4726471e-38
0.040500917 0.12679251 0.037905037 1.2887236e-38
0.041539505 0.12954238 0.040070891 1.3626951e-38
0.037588164 0.070384718 0.037366927 1.4908315e-38
0.036468856 0.073777303 0.035680175 1.3346028e-38
0.036807209 0.12597662 0.039391398 1.1871286e-38
0.038083367 0.12910415 0.040994883 1.31631e-38
0.034189768 0.070548534 0.038661122 1.3622618e-38
0.033346102 0.073802426 0.037467778 1.1963073e-38
0.03337498 0.077766553 0.036998212 9.3787743e-39
0.032759361 0.080417916 0.036549985 1.0197689e-38
0.031469099 0.11878957 0.038750648 1.2424815e-38
0.03332492 0.12203021 0.040514708 1.1045836e-38
0.035238653 0.12660319 0.04116112 1.2147154e-38
0.031330653 0.074299261 0.039461792 1.2055247e-38
0.030490093 0.078034781 0.039270759 1.3070492e-38
0.029009782 0.081408456 0.038428128 1.4911193e-38
0.028813675 0.11830681 0.040614426 1.3990361e-38
0.030914053 0.12112749 0.04164803 1.3716967e-38
0.025154307 0.082283095 0.039939463 1.5649855e-38
0.025017776 0.08491461 0.037872493 1.5095961e-38
0.025017776 0.11548943 0.039481819 1.3901388e-38
0.025344349 0.11805625 0.041481137 1.4638929e-38
0.02227404 0.082091182 0.040889502 1.5002694e-38
0.020927146 0.085123181 0.039035022 1.4358402e-38
0.021469571 0.11513805 0.03996098 1.3536179e-38
0.022289343 0.11769387 0.042508483 1.4638216e-38
0.018371426 0.082697809 0.041721523 1.4911946e-38
0.017134562 0.085361868 0.041136444 1.5278925e-38
0.016846128 0.088974461 0.039232373 1.3990677e-38
0.016416021 0.11108924 0.040456712 9.8541312e-39
0.017336443 0.11393023 0.041993856 1.2249033e-38
0.01966735 0.11668317 0.043328583 1.4086481e-38
0.014483668 0.085936084 0.042437255 1.675223e-38
0.013243347 0.089241698 0.041998804 1.6663267e-38
0.01317016 0.093064263 0.040974379 1.3438573e-38
0.012760274 0.09783493 0.040271819 8.7445228e-39
0.012115158 0.10238388 0.04060173 6.8109509e-39
0.012437738 0.10661469 0.040779173 6.6254807e-39
0.013447866 0.10998562 0.042458117 9.0218412e-39
0.0097577274 0.093542397 0.043163478 1.3625486e-38
0.0094949156 0.097784668 0.041232824 9.1104467e-39
0.0095346496 0.10236488 0.040962696 7.1743525e-39
0.0094646886 0.10623515 0.042074919 6.9917324e-39
0.0092999861 0.10876627 0.044366002 8.0062543e-39
0.0050901696 0.093272492 0.043563247 1.3165565e-38
0.005594261 0.097738579 0.042114556 9.388107e-39
0.0055325329 0.10226807 0.043091834 8.3710978e-39
0.0054868013 0.10615853 0.043864846 8.1877617e-39
0.0050882474 0.10906195 0.044972301 8.5587415e-39
0.0015543252 0.093046419 0.04428798 1.0676636e-38
0.0016285777 0.09766075 0.043677747 9.388816e-39
0.0016139746 0.10221943 0.044088304 8.9260484e-39
0.0016038194 0.10612974 0.044407845 8.6494629e-39
0.0016976669 0.10985797 0.045363486 8.9285567e-39
0.11177185 0.10376154 0.0088799596 1.8691606e-38
0.11094321 0.10144151 0.0091025829 1.8877426e-38
0.10121702 0.090827912 0.01098597 2.0070932e-38
0.10868029 0.092842713 0.010376692 1.6662937e-38
0.13874073 0.12298083 0.01392597 1.6020087e-38
0.089874633 0.093788445 0.017820358 1.6295946e-38
0.16278709 0.089227244 0.0079900026 1.9151871e-38
0.14442495 0.084307805 0.011310697 1.6115152e-38
0.13868427 0.10280334 0.012759387 1.4178313e-38
0.080009669 0.085460834 0.025157869 1.5371475e-38
0.12768893 0.14488587 0.027639508 2.0998287e-38
0.094659284 0.12586242 0.032843828 1.427916e-38
0.093452021 0.12043195 0.034187973 1.6398224e-38
0.16144519 0.054583952 0.023881555 2.2395982e-38
0.16153263 0.05772391 0.022349298 2.2394546e-38
0.16189364 0.13537864 0.026638806 2.2666842e-38
0.16106176 0.13786745 0.027442694 2.2487119e-38
0.15588595 0.051607214 0.0243361 2.2573539e-38
0.15719771 0.054208554 0.023151517 2.25721e-38
0.15718356 0.13949956 0.02793777 2.2388422e-38
0.15497535 0.14124747 0.029687703 2.2573528e-38
0.15106496 0.047898322 0.025322735 2.2482773e-38
0.15227608 0.05062063 0.024573922 2.2573175e-38
0.15340954 0.053404763 0.023261309 2.2844726e-38
0.15210985 0.13989261 0.027995944 2.1925648e-38
0.15203016 0.14174457 0.029520273 2.2388775e-38
0.14845803 0.04787913 0.025687456 2.2661053e-38
0.14861944 0.049816921 0.024957776 2.275109e-38
0.14835438 0.14272153 0.029851317 2.2385544e-38
0.14450893 0.047234342 0.025870204 2.3023722e-38
0.14439097 0.04932563 0.02498579 2.2930429e-38
0.14437068 0.14311974 0.029756904 2.1001893e-38
0.14056277 0.046589151 0.026052713 2.3114469e-38
0.14171231 0.049386948 0.024690509 2.3020834e-38
0.1404126 0.14373818 0.029838979 2.0631662e-38
0.13933375 0.14507541 0.032083094 2.1090499e-38
0.13662018 0.046601698 0.026269376 2.2744247e-38
0.13651353 0.14370948 0.030384362 2.0536965e-38
0.13672683 0.14505622 0.032447755 2.0998302e-38
0.13287814 0.046738282 0.026801407 2.2648807e-38
0.13261445 0.14368078 0.030929744 2.0536231e-38
0.1341199 0.14503703 0.032812357 2.0721002e-38
0.12884215 0.047160149 0.02772671 2.2283276e-38
0.12741567 0.049281687 0.026690245 2.2282539e-38
0.12470694 0.046907067 0.027811944 2.2465854e-38
0.12364826 0.14692189 0.033874691 2.1823724e-38
0.12079699 0.14638928 0.033235431 1.9896279e-38
0.11978176 0.14887458 0.035025418 2.1186673e-38
0.11729787 0.046561614 0.029482961 2.1363131e-38
0.11709648 0.14620814 0.034250557 1.4917376e-38
0.1165231 0.15016496 0.035550475 1.9067257e-38
0.1130476 0.046732768 0.030160367 2.118053e-38
0.11337741 0.14618057 0.034770846 1.4548886e-38
0.11456791 0.15015057 0.035824001 1.7135442e-38
0.10958754 0.047116593 0.030694783 1.8691234e-38
0.10897306 0.14298557 0.03441143 1.4457758e-38
0.10674711 0.047572047 0.031521618 1.6391743e-38
0.10470078 0.049053676 0.030369878 1.5740281e-38
0.10402119 0.13888328 0.034687757 1.0954341e-38
0.10538194 0.14196511 0.03567034 1.1967787e-38
0.10183077 0.050552532 0.031862438 1.4725738e-38
0.10079888 0.052959502 0.031122744 1.3527564e-38
0.1014218 0.1389952 0.03505832 8.4708464e-39
0.10218497 0.1408588 0.037071705 8.8389255e-39
0.097754017 0.054312244 0.032505751 1.2881463e-38
0.097282447 0.057403401 0.031748891 1.0210303e-38
0.096223034 0.078539796 0.03260541 5.0595689e-39
0.096872881 0.08051043 0.032617986 4.8748189e-39
0.097522721 0.11196882 0.034182608 8.831329e-39
0.097151384 0.11477444 0.034382463 7.2693927e-39
0.097151384 0.11851892 0.034579515 6.2577533e-39
0.097158268 0.12263601 0.034939766 6.7209063e-39
0.097151384 0.12619509 0.034983575 7.1819083e-39
0.096896969 0.13031033 0.035741448 7.6392711e-39
0.097363248 0.13424972 0.036557496 8.3772018e-39
0.098857053 0.13819581 0.036050141 8.3807892e-39
0.09456598 0.054967806 0.03328234 1.7859203e-38
0.093841374 0.058236755 0.033134818 1.4727846e-38
0.092757173 0.074800998 0.032894731 7.5398756e-39
0.093623646 0.07786537 0.032934546 6.8058922e-39
0.093623638 0.080486506 0.033072472 6.4399894e-39
0.094295688 0.11192993 0.035138786 1.0671289e-38
0.093623646 0.1149357 0.034885764 8.5594071e-39
0.093623646 0.11849294 0.035072982 7.3637492e-39
0.093623646 0.12242464 0.03527993 7.4555973e-39
0.093662903 0.12634856 0.036379755 8.100231e-39
0.093687549 0.13028392 0.037145197 8.654474e-39
0.090117738 0.058976948 0.034201562 1.8688696e-38
0.089385897 0.061831713 0.033551753 1.7123513e-38
0.088768221 0.065657996 0.033478618 1.5467198e-38
0.089291342 0.070406929 0.0331496 1.1870175e-38
0.089887023 0.073742345 0.03324163 9.9340921e-39
0.091024242 0.077846237 0.033298075 8.6447714e-39
0.089724563 0.11911952 0.035652876 9.9409094e-39
0.089724563 0.12239594 0.035825312 9.7619033e-39
0.089741975 0.12632427 0.036478996 1.0314376e-38
0.089945592 0.13009197 0.037716031 1.1693341e-38
0.085891649 0.059247836 0.035061479 1.9339103e-38
0.085873045 0.061932772 0.03464359 1.7771773e-38
0.085854687 0.06592679 0.034294605 1.6111904e-38
0.085825495 0.069944561 0.033611417 1.3530062e-38
0.087125175 0.073230542 0.033601999 1.1960587e-38
0.085175633 0.12367301 0.036530495 1.1785192e-38
0.085832618 0.12629734 0.036801219 1.1509692e-38
0.086145326 0.12943824 0.038518071 1.1879917e-38
0.081981249 0.059219047 0.03560847 1.8319577e-38
0.081968829 0.061892629 0.035301387 1.7764611e-38
0.081953816 0.065887533 0.034952044 1.6845868e-38
0.082088865 0.06975323 0.034125447 1.6661481e-38
0.083226092 0.12365866 0.036803186 1.2152547e-38
0.081941433 0.12626621 0.037682474 1.2798279e-38
0.082632974 0.12888552 0.039183855 1.307378e-38
0.078070842 0.057875887 0.036086142 1.8590417e-38
0.078049071 0.061921373 0.035291016 1.8409966e-38
0.078046463 0.065869309 0.035386801 1.877841e-38
0.077377476 0.069882363 0.034793079 1.9793984e-38
0.076727621 0.072498709 0.035021842 1.9515978e-38
0.077895217 0.12638204 0.03825599 1.4454207e-38
0.077739999 0.12917946 0.039632797 1.5559843e-38
0.074160442 0.057847098 0.036633134 2.0529392e-38
0.074147701 0.061869442 0.036060154 2.0621936e-38
0.073882788 0.065968841 0.035987318 2.034682e-38
0.073199891 0.069664381 0.035367548 2.0161699e-38
0.07544592 0.12752566 0.03910923 1.5193211e-38
0.073669299 0.13001955 0.039305806 1.6116598e-38
0.073286712 0.13319789 0.04038465 1.7679974e-38
0.070575908 0.058806494 0.037186384 2.0806327e-38
0.070243061 0.06182909 0.036718011 2.071341e-38
0.069406994 0.065728307 0.036152005 2.0251727e-38
0.069584526 0.13010997 0.039561749 1.5931127e-38
0.070244811 0.13339451 0.040653169 1.7587057e-38
0.06568791 0.059099093 0.037887394 2.0990372e-38
0.065684453 0.061838567 0.036936641 2.0438266e-38
0.065680221 0.064553984 0.036153197 1.9886531e-38
0.065030374 0.1274564 0.039555252 1.4270891e-38
0.065505542 0.13019857 0.040276468 1.5006665e-38
0.066339649 0.13270867 0.041670501 1.6483586e-38
0.061648637 0.058849007 0.038036346 2.0714166e-38
0.06113039 0.061864533 0.036986887 2.0070198e-38
0.061564535 0.12699403 0.040017009 1.4086495e-38
0.061129771 0.13004744 0.040800512 1.5562695e-38
0.062429249 0.13267988 0.042217433 1.6851986e-38
0.057691664 0.057635367 0.038656116 1.9702518e-38
0.057229407 0.061835811 0.037532568 1.8873464e-38
0.056972288 0.065014094 0.037398875 1.8411051e-38
0.057228699 0.13001911 0.041233897 1.6847676e-38
0.057997458 0.13291013 0.04285115 1.6760169e-38
0.053743839 0.058170363 0.039176702 1.8781263e-38
0.053320199 0.061750069 0.038638115 1.8042263e-38
0.053333148 0.06560982 0.037940681 1.795184e-38
0.053593084 0.13077967 0.04133445 1.9154716e-38
0.053313427 0.1331384 0.042913437 1.942734e-38
0.050046325 0.058983937 0.040075243 1.7486242e-38
0.049403131 0.061652876 0.039856493 1.8504669e-38
0.049429268 0.065723173 0.038718879 1.8781612e-38
0.048134357 0.068356499 0.038814366 1.99791e-38
0.049434051 0.13127327 0.041943729 1.8234559e-38
0.049404442 0.13324109 0.043568194 1.7863624e-38
0.045677379 0.061984792 0.040557086 1.9424125e-38
0.045518048 0.065650918 0.039713144 1.9058206e-38
0.045534983 0.068337366 0.039177954 1.9148602e-38
0.045534983 0.13124457 0.042489111 1.5377594e-38
0.045492642 0.13321233 0.044283867 1.5561625e-38
0.041573785 0.062207483 0.041433334 1.8502888e-38
0.04161521 0.065622181 0.040259063 1.7767112e-38
0.041635893 0.068308651 0.039723337 1.7677779e-38
0.042285748 0.13122064 0.042943597 1.3998966e-38
0.0418531 0.13305403 0.044516444 1.5194978e-38
0.037663393 0.06283588 0.042014897 1.8042986e-38
0.037699901 0.065560877 0.041141987 1.6659696e-38
0.037736811 0.068279952 0.040268719 1.6106854e-38
0.037383415 0.13085562 0.044370413 1.3346775e-38
0.038966857 0.13250715 0.045499146 1.4455614e-38
0.033781216 0.065499961 0.042025447 1.5645182e-38
0.033490688 0.068530291 0.041383028 1.3713377e-38
0.03315869 0.12590592 0.044618189 1.2612786e-38
0.034046441 0.1290576 0.045198798 1.3071267e-38
0.031146057 0.066073835 0.043099403 1.4906518e-38
0.030042239 0.069752656 0.043158948 1.2977201e-38
0.029531926 0.073213026 0.042401552 1.2606295e-38
0.029055543 0.076489091 0.042255521 1.3255602e-38
0.029497102 0.12238719 0.044440925 1.4176509e-38
0.030292764 0.12543705 0.04600656 1.4176518e-38
0.025955833 0.077242561 0.043965816 1.5648411e-38
0.026003152 0.079938062 0.043202341 1.5926811e-38
0.026003346 0.12191764 0.045411825 1.4913355e-38
0.02723565 0.12453455 0.046724975 1.4729726e-38
0.022031359 0.07784903 0.044829071 1.5831007e-38
0.021755747 0.080209136 0.044149399 1.537075e-38
0.021253608 0.11882757 0.045578361 1.4822602e-38
0.022435524 0.12169426 0.046526492 1.5466168e-38
0.01941485 0.078473985 0.04539752 1.491011e-38
0.01814387 0.080473185 0.045175374 1.5004469e-38
0.018175855 0.11791728 0.046636343 1.3995372e-38
0.014531605 0.081927881 0.045253098 1.7033502e-38
0.013919421 0.11414332 0.046745718 1.2247248e-38
0.015504472 0.11656196 0.047950745 1.316921e-38
0.0105289 0.085212298 0.045987427 1.8137686e-38
0.0097803771 0.089032449 0.045450807 1.6935586e-38
0.0091435611 0.091659643 0.045509875 1.5652724e-38
0.0101524 0.11078925 0.046779692 9.3920642e-39
0.010328107 0.11325178 0.047996938 1.1786271e-38
0.006421186 0.085640557 0.047091603 1.6197281e-38
0.0064803958 0.088969797 0.046528339 1.5095238e-38
0.0071940124 0.092300572 0.045817018 1.4638917e-38
0.0065308064 0.11063858 0.04704386 8.9336014e-39
0.0064078271 0.11321852 0.048713565 1.0678844e-38
0.0027159154 0.085383154 0.047766268 1.3347134e-38
0.0025866777 0.088947877 0.04696101 1.2704252e-38
0.0039447695 0.11127987 0.047271729 9.4831865e-39
0.0025574341 0.11386561 0.048613667 1.0126385e-38
0 0.089595184 0.047189236 1.0396456e-38
4.5701861e-05 0.11125116 0.047817111 9.1129256e-39
0 0.11320345 0.048431873 9.4806263e-39
0.096626118 0.10005184 0.0082336664 1.5005929e-38
0.10377097 0.10151565 0.0082916617 1.6388146e-38
0.097524762 0.097578138 0.011853576 1.7216094e-38
0.10998186 0.10181358 0.010890961 1.583534e-38
0.093059197 0.10133371 0.017681122 1.3165611e-38
0.14896587 0.11361501 0.012628853 1.6114083e-38
0.13938063 0.1203559 0.015916884 1.4642165e-38
0.082735777 0.086695597 0.026281714 1.5185651e-38
0.088715188 0.088926412 0.024599075 1.8135554e-38
0.074947447 0.080884099 0.029429317 1.4362006e-38
0.15497535 0.14124747 0.029687703 2.2573528e-38
0.07411658 0.08226005 0.03378129 1.1595027e-38
0.16114175 0.14177604 0.032558203 2.2957073e-38
0.15652978 0.04694064 0.028348207 2.2393827e-38
0.15781297 0.049737722 0.027380109 2.2393826e-38
0.15723547 0.14246993 0.032243669 2.2394557e-38
0.15157454 0.043442316 0.029061317 2.2668236e-38
0.1529527 0.046024486 0.028245628 2.2393094e-38
0.15393421 0.048990719 0.02700001 2.2392378e-38
0.15301889 0.14357075 0.032612205 2.2576055e-38
0.15288556 0.1452444 0.034235835 2.248602e-38
0.14878768 0.045572549 0.028216124 2.2660341e-38
0.15001249 0.14387047 0.032544076 2.266359e-38
0.14856341 0.14553443 0.034351707 2.275541e-38
0.14498079 0.043436825 0.0296489 2.2752882e-38
0.14482349 0.044926696 0.028401136 2.2842568e-38
0.14475262 0.14632565 0.0345487 2.2292267e-38
0.14093702 0.042875871 0.029175341 2.2750359e-38
0.14106734 0.14661364 0.034322321 2.1829491e-38
0.14071187 0.15025385 0.03620702 2.2474113e-38
0.13699344 0.042868674 0.029559553 2.2653476e-38
0.13699313 0.14708029 0.035044789 2.1274887e-38
0.13757265 0.14997509 0.036464155 2.1644724e-38
0.13342124 0.042857364 0.030970097 2.2741712e-38
0.13171116 0.044872582 0.029900312 2.2559135e-38
0.13296813 0.14656889 0.036214352 2.1180907e-38
0.13453138 0.14907521 0.037011802 2.1457823e-38
0.12927115 0.042638652 0.031978905 2.2651684e-38
0.12909669 0.04485333 0.030265987 2.2192155e-38
0.1302463 0.14639539 0.037219048 2.1275241e-38
0.12529516 0.042674594 0.032032907 2.2558754e-38
0.12582858 0.044829279 0.030723155 2.2559476e-38
0.12398478 0.15030357 0.037881732 2.1826572e-38
0.12404329 0.15296394 0.038687587 2.0816754e-38
0.12133725 0.042688832 0.032251596 2.2006322e-38
0.119946 0.044785962 0.031545937 2.14546e-38
0.1214806 0.15043545 0.03764993 2.2382638e-38
0.11767133 0.042793468 0.032771349 2.1176209e-38
0.11602429 0.044757098 0.032094479 2.1546787e-38
0.11863877 0.15023036 0.037279367 2.0910428e-38
0.1134825 0.043291047 0.033384979 2.1180161e-38
0.11406343 0.044742659 0.032368779 2.1549674e-38
0.11340982 0.14755552 0.037872016 1.5008428e-38
0.11282793 0.14955342 0.039069951 1.6394969e-38
0.11027767 0.043138281 0.034837723 1.9428824e-38
0.10919386 0.044973195 0.033569574 1.8691606e-38
0.10891684 0.14688927 0.039731085 1.5099547e-38
0.11024321 0.14888489 0.039902925 1.5747808e-38
0.10590222 0.046113566 0.034799039 1.6943111e-38
0.1049425 0.14354634 0.039354265 1.2061063e-38
0.10654205 0.1453381 0.040403962 1.3993208e-38
0.1030671 0.047051132 0.036055028 1.5469054e-38
0.10105927 0.049109057 0.035686612 1.5184186e-38
0.10150568 0.14258473 0.040146887 9.943457e-39
0.097780704 0.050415605 0.036130846 1.7025919e-38
0.096415706 0.05252178 0.035253525 1.8590706e-38
0.096415706 0.13556683 0.039624631 1.0220034e-38
0.097126469 0.13821845 0.040844262 1.0315066e-38
0.0991081 0.14153774 0.041078031 1.0592362e-38
0.09421777 0.050621428 0.037484169 2.1455621e-38
0.093387045 0.053320661 0.036226034 2.0351066e-38
0.092493989 0.056447431 0.036010206 1.8143732e-38
0.093820758 0.13423111 0.040367723 1.0036699e-38
0.093874902 0.13753709 0.041770041 1.252314e-38
0.089926653 0.05365207 0.037459075 2.1916961e-38
0.089633197 0.056909576 0.03684032 2.0168482e-38
0.088572271 0.13155454 0.040513575 1.2709658e-38
0.089922339 0.13420421 0.041587234 1.3353598e-38
0.089956984 0.13684924 0.042620361 1.4645786e-38
0.08536844 0.050886773 0.038739324 2.2098536e-38
0.086005367 0.053598091 0.038230956 2.1914107e-38
0.085963309 0.05704008 0.037126064 2.0257103e-38
0.085638784 0.13120298 0.041159332 1.2432369e-38
0.085990876 0.13417441 0.042024732 1.3537636e-38
0.085761756 0.13734713 0.043235064 1.4919475e-38
0.081756786 0.050559118 0.038975894 2.0436107e-38
0.082063906 0.053619511 0.038335443 1.9697121e-38
0.082036078 0.05702953 0.037507713 1.8501094e-38
0.08186473 0.13056237 0.041980028 1.4087925e-38
0.082063504 0.13414507 0.042574048 1.4457074e-38
0.081923857 0.13794583 0.043678463 1.5099215e-38
0.080779903 0.14074761 0.044112742 1.5834633e-38
0.078415729 0.050330341 0.03948307 2.0068064e-38
0.07812646 0.053641364 0.038439631 1.9515581e-38
0.078384891 0.13095158 0.042315245 1.6113723e-38
0.07814116 0.13807857 0.043555915 1.6943098e-38
0.078157879 0.14072829 0.044479549 1.6666513e-38
0.074224837 0.050804734 0.040298045 2.1081857e-38
0.074203171 0.053599611 0.039099991 2.0803814e-38
0.074631393 0.13452832 0.042793989 1.7771081e-38
0.074210748 0.13804856 0.043993354 1.8230963e-38
0.073569335 0.14069451 0.045121312 1.7955066e-38
0.070285603 0.053482145 0.040429771 2.1449575e-38
0.07000947 0.056809172 0.039182961 2.1081135e-38
0.070270926 0.13537434 0.043281555 1.7678158e-38
0.070283473 0.13802114 0.044655025 1.7771077e-38
0.070291817 0.14067039 0.045579791 1.7401553e-38
0.066358246 0.053403214 0.041425943 2.1449912e-38
0.06653773 0.057150677 0.040121317 2.1358803e-38
0.066350482 0.13468772 0.044132411 1.7584879e-38
0.066356443 0.13799462 0.045541525 1.8141646e-38
0.066358767 0.14064142 0.046129942 1.8509705e-38
0.063081242 0.050722688 0.041856766 2.1175856e-38
0.062426455 0.053424492 0.041529119 2.0898181e-38
0.062689148 0.056733236 0.040408015 2.1081854e-38
0.062427513 0.13465883 0.044681132 1.7404076e-38
0.062426038 0.13796654 0.046203732 1.795654e-38
0.05868493 0.053792283 0.041912735 1.9978745e-38
0.058501862 0.13476281 0.045506895 1.6299541e-38
0.058495976 0.13727565 0.046550095 1.6022255e-38
0.054567806 0.054039642 0.042551398 1.9244745e-38
0.053276815 0.056158707 0.041495681 1.8601895e-38
0.05457674 0.13473392 0.046055913 1.8232384e-38
0.054565772 0.13724671 0.047099829 1.6848392e-38
0.051282138 0.054601759 0.043715894 1.7579857e-38
0.050640889 0.056670517 0.043072104 1.7299683e-38
0.050651073 0.13523255 0.04670018 1.8969627e-38
0.050967775 0.13688825 0.047332764 1.8875614e-38
0.047137834 0.057691306 0.044122815 1.73065e-38
0.045433387 0.060055479 0.042800903 1.9612827e-38
0.046732157 0.13520236 0.04691124 1.629702e-38
0.046693593 0.13653073 0.048671842 1.6665081e-38
0.043416075 0.058509782 0.045024872 1.8418231e-38
0.042808555 0.060001343 0.043503284 1.9338381e-38
0.042789735 0.135176 0.04813683 1.6022231e-38
0.043416075 0.13650659 0.049130261 1.638994e-38
0.038614847 0.060469896 0.04438585 1.896565e-38
0.038670383 0.13420415 0.048808098 1.5010214e-38
0.03478194 0.061052382 0.045105815 1.8778746e-38
0.03430067 0.13115412 0.04861033 1.3531889e-38
0.035109892 0.13342309 0.049410641 1.4083977e-38
0.031153493 0.06112659 0.046250701 1.8414621e-38
0.029736906 0.065192871 0.045475185 1.5735919e-38
0.029092908 0.067844234 0.045502841 1.3344546e-38
0.029092908 0.12650304 0.048590362 1.4360913e-38
0.030837506 0.12997296 0.049665868 1.3716272e-38
0.031616956 0.13245377 0.050571918 1.3995012e-38
0.028339431 0.061703734 0.04730767 1.6113708e-38
0.02727221 0.065049231 0.047127962 1.5186344e-38
0.026425339 0.06905102 0.046951652 1.3805943e-38
0.0258248 0.072433785 0.046202779 1.3987824e-38
0.026347511 0.12600647 0.04967159 1.4821525e-38
0.027028412 0.12845406 0.051004946 1.4547085e-38
0.024406403 0.070267648 0.048310101 1.4267275e-38
0.022787035 0.072807893 0.047515392 1.481973e-38
0.021903098 0.07570035 0.04692477 1.5830645e-38
0.020595849 0.12248595 0.04957068 1.5281774e-38
0.02298227 0.12595466 0.050556183 1.4729679e-38
0.019367412 0.073276073 0.048886418 1.4911564e-38
0.018167041 0.076950535 0.048020244 1.5095234e-38
0.016674116 0.11916164 0.049945772 1.3903567e-38
0.018602781 0.12180531 0.050320089 1.4087546e-38
0.01944942 0.1249656 0.051479936 1.4086458e-38
0.015229315 0.074166022 0.049802482 1.3899955e-38
0.015099861 0.076683149 0.049447656 1.5097031e-38
0.014036074 0.08001104 0.048592269 1.6757613e-38
0.01455465 0.11808395 0.050590873 1.3351453e-38
0.015274733 0.12176806 0.051627576 1.3351786e-38
0.016540334 0.1244109 0.05226326 1.3256728e-38
0.012607291 0.074146718 0.05016923 1.3534026e-38
0.011820696 0.077313676 0.050446332 1.5929301e-38
0.01097516 0.080608331 0.050015986 1.6943463e-38
0.0088307112 0.083513163 0.04916954 1.8048734e-38
0.010137931 0.11515899 0.050651908 1.1971395e-38
0.011370935 0.11778411 0.051628292 1.3075587e-38
0.011483558 0.121352 0.052811563 1.2521678e-38
0.0070348084 0.081038415 0.050504744 1.6295579e-38
0.0062161982 0.083493911 0.049535275 1.6383813e-38
0.0062161982 0.11513012 0.051200449 1.1231659e-38
0.0073986426 0.11774354 0.052745104 1.1692279e-38
0.007887654 0.12117444 0.05330658 1.1414987e-38
0.0024686679 0.08154802 0.05096966 1.2979783e-38
0.0018587559 0.083901227 0.050167918 1.2703904e-38
0.0038672164 0.11726703 0.053664804 1.086288e-38
0.00080817938 0.080669746 0.052167535 1.0772814e-38
0.00080817938 0.1163632 0.054046273 1.022002e-38
0.057088293 0.099933214 0.0068634748 1.4360895e-38
0.097274885 0.097529814 0.0072515011 1.5375055e-38
0.087134592 0.097843289 0.010965466 2.3018669e-38
0.11797506 0.11145186 0.011063635 1.3443292e-38
0.047234386 0.092939362 0.023044884 1.491371e-38
0.09579128 0.10062073 0.015725672 1.4359834e-38
0.14444907 0.087102115 0.013444006 1.8326411e-38
0.082962342 0.083678022 0.025635421 1.8040804e-38
0.10947032 0.11317012 0.018872738 1.7954026e-38
0.093687549 0.13028392 0.037145197 8.654474e-39
0.10533262 0.052637696 0.03329277 2.1549655e-38
0.15906063 0.14399868 0.035326421 2.2492139e-38
0.15630126 0.14575826 0.036480069 2.2491422e-38
0.15343255 0.042375997 0.030969143 2.257066e-38
0.15314411 0.1466067 0.036293566 2.2488895e-38
0.14926156 0.042438552 0.031860769 2.2662138e-38
0.14951253 0.14738387 0.037248313 2.2757915e-38
0.14800671 0.14924344 0.038164079 2.2938352e-38
0.1452554 0.04181169 0.031884134 2.2845076e-38
0.14657018 0.14788409 0.037282884 2.2752883e-38
0.14533466 0.15054315 0.038270116 2.2751423e-38
0.14065365 0.040452033 0.032458007 2.2566666e-38
0.14262584 0.15116951 0.038009048 2.2657421e-38
0.1373667 0.040427826 0.032917798 2.2561274e-38
0.13649017 0.1513453 0.038878858 2.1551081e-38
0.13309364 0.040727824 0.033532917 2.2558075e-38
0.13347235 0.14978831 0.039725721 2.1548941e-38
0.12947798 0.040369749 0.034021199 2.2376904e-38
0.12957332 0.14778006 0.040672541 2.15504e-38
0.13088998 0.14911744 0.040558279 2.210321e-38
0.12553364 0.040340707 0.034572959 2.2282539e-38
0.12553364 0.1477292 0.040225327 2.2009548e-38
0.12158927 0.040311664 0.03512466 2.1913427e-38
0.11723216 0.040677205 0.036092043 2.1171518e-38
0.11372417 0.041535862 0.03662926 2.0995405e-38
0.11311494 0.15164194 0.04318428 1.8421128e-38
0.11304319 0.15294038 0.042251527 2.0080292e-38
0.10844144 0.042866446 0.037103236 1.8782743e-38
0.10959658 0.15065345 0.043047905 1.6850572e-38
0.10980602 0.15360193 0.043498755 2.0910033e-38
0.10977793 0.1580103 0.043313384 2.1087905e-38
0.10718992 0.042728074 0.038282692 1.8597277e-38
0.10518516 0.044767521 0.038165569 1.7584524e-38
0.10549805 0.14626071 0.043210983 1.3257102e-38
0.10718992 0.14960679 0.043908238 1.5838191e-38
0.10163799 0.045923024 0.038825095 1.6570366e-38
0.10192323 0.14492111 0.044400334 1.2612455e-38
0.098605581 0.046709657 0.03919065 1.8042926e-38
0.097939223 0.048051745 0.039186239 1.8225124e-38
0.097709894 0.14196917 0.044835925 1.3077304e-38
0.094023213 0.048827 0.040450513 2.219213e-38
0.094007768 0.13954887 0.044890642 1.4459597e-38
0.095339887 0.14155343 0.045146465 1.5472663e-38
0.090053819 0.049963057 0.040561378 2.2930796e-38
0.090053819 0.13885525 0.045240223 1.6303144e-38
0.089195423 0.14128691 0.045994282 1.7134698e-38
0.086366661 0.0492846 0.040941775 2.2376189e-38
0.086418793 0.13915509 0.04526031 1.5932915e-38
0.086117655 0.1414836 0.046267688 1.648684e-38
0.08259315 0.048822612 0.041379273 2.0715594e-38
0.083460532 0.13946475 0.04569155 1.5653467e-38
0.082425922 0.1415861 0.046555042 1.6114819e-38
0.076886617 0.049263045 0.041865885 2.0623389e-38
0.077951498 0.14208424 0.047208846 1.6757636e-38
0.074257046 0.049243689 0.042233706 2.1173333e-38
0.074265085 0.14227697 0.0476349 1.8234178e-38
0.070312686 0.049877539 0.042820275 2.1909454e-38
0.070317902 0.14269015 0.048210263 1.7034944e-38
0.066368341 0.049848497 0.043371975 2.1544618e-38
0.066699423 0.14233159 0.048698902 1.8044404e-38
0.062094599 0.049455687 0.04420352 2.1175128e-38
0.062235385 0.14158924 0.049358249 1.8787035e-38
0.058474638 0.050374776 0.045180917 2.0530822e-38
0.057822242 0.051774263 0.044672072 1.9886897e-38
0.058479637 0.13928084 0.049185753 1.6671202e-38
0.058473095 0.14061816 0.050268292 1.7682463e-38
0.054523088 0.050306439 0.046068728 1.9425531e-38
0.054535277 0.051750056 0.045131803 1.9336213e-38
0.054523088 0.13926139 0.050750911 1.6390293e-38
0.054523088 0.14058909 0.050820768 1.6943101e-38
0.051889747 0.050287053 0.046437025 1.7494116e-38
0.050397724 0.052633479 0.046047568 1.7861469e-38
0.050317258 0.13869624 0.050906539 1.7585952e-38
0.051889747 0.14056969 0.051189065 1.6760492e-38
0.046900496 0.053769529 0.046713471 1.693809e-38
0.045770049 0.056104809 0.046590447 1.6749373e-38
0.046634808 0.13853559 0.0513134 1.7126411e-38
0.047939733 0.14054061 0.05174154 1.694237e-38
0.04249718 0.056523375 0.047649324 1.7305432e-38
0.042687625 0.13806428 0.051842272 1.7036011e-38
0.039060436 0.057853378 0.048381865 1.8416438e-38
0.03899993 0.13702047 0.052405715 1.6208021e-38
0.034773029 0.05812715 0.049250484 1.8318868e-38
0.034156106 0.1351244 0.052378654 1.4639285e-38
0.035431355 0.13646546 0.053281486 1.5100615e-38
0.029554375 0.060846627 0.049114466 1.7402621e-38
0.030667625 0.13415261 0.053105712 1.4362707e-38
0.026898421 0.06110774 0.05000627 1.6106893e-38
0.025556333 0.064033881 0.050854146 1.4265848e-38
0.026915863 0.13043058 0.05331558 1.4270145e-38
0.027214646 0.13275379 0.053985775 1.4086123e-38
0.023371123 0.065140016 0.051050246 1.3991054e-38
0.022808686 0.068574324 0.050593793 1.4084314e-38
0.023135707 0.12935954 0.054198742 1.4084683e-38
0.019169822 0.069025844 0.05186826 1.3715185e-38
0.018378697 0.071370624 0.051235914 1.4359828e-38
0.018691145 0.12672254 0.054358244 1.3625849e-38
0.019661911 0.12838602 0.054562449 1.3625851e-38
0.015022963 0.069930911 0.052642047 1.2977631e-38
0.01509174 0.07200931 0.051730573 1.3438972e-38
0.014861152 0.12547967 0.054745853 1.3072688e-38
0.012389623 0.069911532 0.053010285 1.2336929e-38
0.011136763 0.072630614 0.052462459 1.233622e-38
0.010489993 0.075952783 0.052583575 1.4915519e-38
0.010489993 0.12301812 0.055060863 1.2061059e-38
0.011420265 0.12467425 0.055775881 1.2980483e-38
0.0073862597 0.073326677 0.053891838 1.0955449e-38
0.007193923 0.076582342 0.053191364 1.3350037e-38
0.0058882609 0.079233363 0.053401709 1.4637504e-38
0.0065051243 0.12231932 0.056088507 1.0952212e-38
0.0077812597 0.12431273 0.056520104 1.1229497e-38
0.0032301024 0.076535024 0.053969502 1.0310761e-38
0.0032586828 0.079214007 0.053769529 1.224118e-38
0.0023821667 0.11853914 0.055962324 1.0587724e-38
0.0033972263 0.12125272 0.056540608 1.021607e-38
0.11035191 0.10106516 0.0098376274 1.5559103e-38
0.093527332 0.10652424 0.011747479 1.7769981e-38
0.11894065 0.093307659 0.010787606 1.7954041e-38
0.10862683 0.074102558 0.016644359 1.9146815e-38
0.14900206 0.087230861 0.013301313 1.8702398e-38
0.080044791 0.083423302 0.02476728 1.8782352e-38
0.085853174 0.090704128 0.02714169 1.5094524e-38
0.084229939 0.11377418 0.026536107 1.2798638e-38
0.11062727 0.10956991 0.018390119 1.7679235e-38
0.13598029 0.13920495 0.025166273 1.9526028e-38
0.0071940124 0.092300572 0.045817018 1.4638917e-38
0.093701266 0.053021222 0.036301017 2.0812816e-38
0.07814116 0.13807857 0.043555915 1.6943098e-38
0.14533466 0.15054315 0.038270116 2.2751423e-38
0.086117655 0.1414836 0.046267688 1.648684e-38
0.084229939 0.11377418 0.026536107 1.2798638e-38
0.15126759 0.039732382 0.036998391 2.2755052e-38
0.15027526 0.14987136 0.041316867 2.29387e-38
0.14692894 0.039271936 0.036773801 2.293405e-38
0.14348409 0.038445011 0.037213445 2.2564891e-38
0.14296842 0.040070176 0.035146713 2.265924e-38
0.13911562 0.038575456 0.036619663 2.2561998e-38
0.13636619 0.15319824 0.042027295 2.1825508e-38
0.13486853 0.038142458 0.03769809 2.2375103e-38
0.13429388 0.15292855 0.042708218 2.1366324e-38
0.13150555 0.037903622 0.038258314 2.209925e-38
0.13077813 0.15016748 0.042904317 2.2102842e-38
0.13190761 0.15321392 0.044338763 2.146032e-38
0.12725948 0.037752777 0.038744926 2.2006323e-38
0.12844354 0.14714821 0.042820096 2.1365996e-38
0.12721571 0.14954066 0.044129312 2.1550371e-38
0.12333354 0.037655801 0.039795995 2.200633e-38
0.1193609 0.03762655 0.040351689 2.172759e-38
0.11787999 0.039885469 0.038655937 2.1169004e-38
0.11570019 0.037967615 0.040630281 2.1176211e-38
0.11457887 0.039861165 0.039117694 2.1085439e-38
0.11134669 0.039704397 0.040574014 2.0347521e-38
0.10995732 0.041158624 0.039834201 1.9427378e-38
0.10995732 0.15433531 0.045791268 2.1654774e-38
0.11039747 0.15611386 0.045823157 2.2751779e-38
0.10870203 0.039684936 0.040943861 1.9700367e-38
0.10647769 0.04148946 0.041013896 1.8783094e-38
0.10599599 0.14764869 0.045994937 1.3903175e-38
0.10599599 0.14964592 0.04610008 1.5839268e-38
0.10668689 0.1529941 0.04668498 2.0263936e-38
0.10667667 0.15698528 0.046727955 2.3118022e-38
0.10485401 0.039390683 0.04349041 2.0438262e-38
0.10341176 0.041645437 0.041789114 1.9703949e-38
0.10335509 0.04377301 0.040897846 1.8506118e-38
0.10249338 0.14585398 0.046728849 1.2246219e-38
0.10363512 0.14884262 0.04841125 1.5192118e-38
0.099497654 0.042376399 0.043387711 2.0257452e-38
0.09939377 0.044631496 0.041498661 1.8965654e-38
0.098073334 0.14359589 0.046892881 1.5379326e-38
0.099211648 0.14576499 0.048465192 1.6762297e-38
0.10087571 0.14767431 0.049747944 1.6114445e-38
0.095555238 0.042707622 0.044632256 2.1638959e-38
0.095454939 0.045649722 0.042610288 2.1453501e-38
0.094112001 0.047699422 0.042400956 2.2469804e-38
0.095102333 0.1425754 0.047255874 1.7498095e-38
0.095329486 0.14532191 0.04924643 2.0633456e-38
0.09159299 0.04276976 0.045528293 2.2376168e-38
0.091511741 0.045558639 0.043664217 2.2927562e-38
0.091471113 0.047679976 0.042770386 2.2931892e-38
0.091471113 0.14199388 0.047734559 1.7777548e-38
0.091707505 0.1450789 0.049633384 2.007957e-38
0.090266883 0.14759621 0.051231861 2.0999012e-38
0.087614678 0.043275341 0.046112895 2.2466213e-38
0.087556399 0.045487732 0.044552267 2.2558771e-38
0.088169999 0.047655672 0.043232083 2.2927569e-38
0.087509781 0.14351812 0.048370421 1.8054149e-38
0.087579712 0.14555332 0.050490141 1.9248362e-38
0.087614678 0.14757669 0.05160284 1.9432396e-38
0.083636366 0.043246053 0.046669364 2.1360951e-38
0.083577774 0.045500226 0.044773996 2.1084375e-38
0.084208675 0.04762651 0.043786168 2.1179085e-38
0.083548442 0.14348894 0.048924506 1.7129681e-38
0.083597295 0.1455176 0.050709724 1.8142016e-38
0.083636366 0.14754739 0.05215925 1.8879577e-38
0.079658061 0.043216765 0.047225833 2.0990385e-38
0.079442143 0.045648053 0.046228588 2.0713075e-38
0.080247343 0.047597349 0.044340312 2.0618008e-38
0.079587124 0.14345978 0.04947859 1.666475e-38
0.079634413 0.14549483 0.05160141 1.7310834e-38
0.078331955 0.14750834 0.052901208 1.8044808e-38
0.074353658 0.043177716 0.047967792 2.2282861e-38
0.075667135 0.04527548 0.047219872 2.1452044e-38
0.075625785 0.047563322 0.044986725 2.1173326e-38
0.075625792 0.14343062 0.050032675 1.8879184e-38
0.075655773 0.14545913 0.051820576 1.8602272e-38
0.075679757 0.14748882 0.053272188 1.869015e-38
0.072364494 0.043163076 0.048246026 2.2464395e-38
0.071693234 0.045913555 0.047810853 2.2370414e-38
0.071687385 0.14543343 0.052544415 1.860193e-38
0.067042902 0.047500134 0.046187222 2.1726834e-38
0.065722466 0.14335771 0.051417887 1.7577309e-38
0.067715049 0.14540419 0.05309993 1.7769674e-38
0.06393341 0.046261631 0.048725069 2.1266609e-38
0.063741803 0.14334312 0.051694989 1.8322073e-38
0.063554771 0.14508797 0.05369091 1.832245e-38
0.05976744 0.046453834 0.049849093 2.0901401e-38
0.058460027 0.048768431 0.047457874 2.1083982e-38
0.058790132 0.14230806 0.052335024 1.8877428e-38
0.059770249 0.14468421 0.054547191 1.9336973e-38
0.05667229 0.046613395 0.050628662 2.034749e-38
0.055158921 0.048744127 0.047919571 2.0254566e-38
0.055158921 0.14194845 0.052825391 1.7861816e-38
0.056065813 0.14384922 0.054618359 1.832316e-38
0.051519714 0.048990384 0.048948586 1.758272e-38
0.051527701 0.14158884 0.053315818 1.6850896e-38
0.051831208 0.1432811 0.055047572 1.6666874e-38
0.048147596 0.049419999 0.049545348 1.7675996e-38
0.047236256 0.051348776 0.049167931 1.7767488e-38
0.047891781 0.14136505 0.054016173 1.6665783e-38
0.047863103 0.14358267 0.055451512 1.5744187e-38
0.043889672 0.05046311 0.051276028 1.5649858e-38
0.04391633 0.052579857 0.050372601 1.5374722e-38
0.0439215 0.14120671 0.054868102 1.6943805e-38
0.045179404 0.14325267 0.057327271 1.5561215e-38
0.041201092 0.050956815 0.053027272 1.4728631e-38
0.039923459 0.053566992 0.051827192 1.5282895e-38
0.039313592 0.055950671 0.050521374 1.7307224e-38
0.039940253 0.14051735 0.055895805 1.7127097e-38
0.039874986 0.14321361 0.058069229 1.5285725e-38
0.03622821 0.054597497 0.053916395 1.7213953e-38
0.035983525 0.056843594 0.051793754 1.7769633e-38
0.035998993 0.13781552 0.055632353 1.5563736e-38
0.036110245 0.14033128 0.057181656 1.5560507e-38
0.035896674 0.14318433 0.058625698 1.4267641e-38
0.033244491 0.054909825 0.05435133 1.6748307e-38
0.03225252 0.057212934 0.052993834 1.7489843e-38
0.031654902 0.13702342 0.056296289 1.500662e-38
0.033244491 0.13915321 0.058785498 1.5373252e-38
0.02794008 0.05821377 0.055269241 1.6749383e-38
0.027661547 0.13661724 0.057412684 1.4454537e-38
0.023796588 0.060906589 0.054172039 1.5648778e-38
0.022808053 0.063152343 0.053215563 1.4634631e-38
0.023669504 0.13284071 0.057099819 1.3901741e-38
0.024440221 0.13596562 0.059178531 1.4363805e-38
0.019816205 0.062191308 0.055000246 1.3898476e-38
0.020156637 0.064670093 0.053835809 1.2610288e-38
0.018846728 0.067117654 0.053979874 1.2701053e-38
0.019506954 0.12970255 0.057181418 1.3347479e-38
0.020293742 0.13199082 0.058202744 1.3165237e-38
0.021309555 0.13505375 0.060243726 1.3533295e-38
0.016336665 0.062474228 0.057121038 1.2241132e-38
0.016093723 0.06493973 0.055936694 1.215001e-38
0.015941747 0.06762886 0.054414272 1.2609202e-38
0.016147703 0.12872338 0.058467865 1.2704266e-38
0.016369179 0.13134095 0.060235679 1.2061047e-38
0.013352931 0.062786564 0.057555974 1.0495215e-38
0.012277402 0.065915361 0.057004869 1.1599706e-38
0.011895768 0.068708062 0.055291355 1.1876304e-38
0.010924049 0.12564489 0.05817169 1.3257776e-38
0.012308754 0.12792845 0.059831142 1.2336547e-38
0.013352931 0.13098359 0.061145484 1.1602571e-38
0.0093746334 0.066768862 0.058323562 8.8335081e-39
0.008126758 0.06974487 0.057644129 9.9402284e-39
