# .PCD v0.7 - Point Cloud Data file format
VERSION 0.7
FIELDS x y z rgb
SIZE 4 4 4 4
TYPE F F F F
COUNT 1 1 1 1
WIDTH 979
HEIGHT 1
VIEWPOINT 0 0 0 0 1 0 0
POINTS 979
DATA ascii
0.064343624 0.063410364 0.036844254 2.3115194e-38
0.064631961 0.11787591 0.0368312 1.9708593e-38
0.064369202 0.12085008 0.039426208 1.9336953e-38
0.060490884 0.0568101 0.038086712 2.1546061e-38
0.060451783 0.060877167 0.036057174 2.1821946e-38
0.061737984 0.063487321 0.035915852 2.2926482e-38
0.061094888 0.11818701 0.037410259 1.9891569e-38
0.060479291 0.12081649 0.039040148 1.9521345e-38
0.059860833 0.12345728 0.040783346 1.9615356e-38
0.055769973 0.053672552 0.039669871 2.016599e-38
0.056604847 0.05688592 0.037477612 1.9609946e-38
0.057236262 0.059561543 0.036542952 1.8873831e-38
0.056850404 0.12155593 0.038181245 1.675836e-38
0.056624867 0.12408715 0.040815294 1.7128239e-38
0.052752145 0.053481676 0.039645672 1.9057845e-38
0.052922294 0.056522757 0.037741303 1.8045482e-38
0.05402074 0.1220653 0.038651109 1.6299866e-38
0.052750789 0.12471884 0.041175365 1.7219338e-38
0.049201906 0.053794149 0.040226936 1.7676349e-38
0.048715256 0.056701519 0.038606167 1.6203014e-38
0.048232809 0.12204155 0.039585114 1.50113e-38
0.049040481 0.12454338 0.041924894 1.6483572e-38
0.045167685 0.056882076 0.040956676 1.4451674e-38
0.044584483 0.060330942 0.039281011 1.2423039e-38
0.042873599 0.11767811 0.04033953 1.2521691e-38
0.045011476 0.12074944 0.041310906 1.3350011e-38
0.045650482 0.12339898 0.043076456 1.399537e-38
0.042420872 0.057978287 0.041934788 1.251811e-38
0.04164736 0.061128199 0.041937172 1.2510903e-38
0.039615206 0.06391754 0.039498985 1.546722e-38
0.038586237 0.11418736 0.040943086 1.3809135e-38
0.040230393 0.11662458 0.041608155 1.3256712e-38
0.041390948 0.11997386 0.04327184 1.3347858e-38
0.038545318 0.061886836 0.042659938 1.4818971e-38
0.036264107 0.065441184 0.04048419 1.8780914e-38
0.035692267 0.11384989 0.041401803 1.4546727e-38
0.037253469 0.11944009 0.04433167 1.3900997e-38
0.033141077 0.065067291 0.042600214 1.831849e-38
0.032155208 0.067273274 0.040788889 1.6840132e-38
0.032361887 0.11286224 0.042252183 1.482298e-38
0.033819117 0.11636844 0.04430151 1.4270856e-38
0.034669757 0.11942949 0.044748604 1.3992809e-38
0.029825345 0.065448478 0.044158518 1.656894e-38
0.028421022 0.068650082 0.042693436 1.6845526e-38
0.027439103 0.071595378 0.041660249 1.7490883e-38
0.028039336 0.10971582 0.042532444 1.3720218e-38
0.029105365 0.11285909 0.044241607 1.3811687e-38
0.030148298 0.1154865 0.045378447 1.3812038e-38
0.025428049 0.068402193 0.044437051 1.9426614e-38
0.024224788 0.072031811 0.043058932 1.9610647e-38
0.024437949 0.1063147 0.043027461 1.2894779e-38
0.024564415 0.10875916 0.044082582 1.2891547e-38
0.025643505 0.11219528 0.045515597 1.2797908e-38
0.022009641 0.069144636 0.045514524 1.9888311e-38
0.020552702 0.072399214 0.043468177 2.0068414e-38
0.020150602 0.10542883 0.043697238 1.224868e-38
0.021053046 0.10872255 0.045661867 1.2523114e-38
0.023043111 0.1115329 0.046425223 1.2798628e-38
0.017229795 0.069648288 0.0462991 1.841537e-38
0.016680136 0.072371691 0.044317961 1.7948642e-38
0.01671014 0.10497992 0.044466555 1.1324933e-38
0.017061777 0.10901117 0.047142744 1.1232025e-38
0.012708321 0.069629744 0.04702872 1.4454904e-38
0.012816086 0.072355837 0.044941485 1.4546026e-38
0.013001889 0.105335 0.045717716 1.1138744e-38
0.012892857 0.10850121 0.047987103 1.0951119e-38
0.010124624 0.069619142 0.047445655 1.1973503e-38
0.0089086369 0.072298408 0.046359122 1.030893e-38
0.0077172369 0.074987642 0.044930995 8.0051501e-39
0.0088896602 0.10624514 0.047562897 9.7575719e-39
0.0091694966 0.10787883 0.048319221 9.6646672e-39
0.005408369 0.07266897 0.04794699 7.6317153e-39
0.0046946034 0.07582733 0.045778155 7.263639e-39
0.0064310282 0.10624084 0.045933187 8.926714e-39
0.0052801818 0.10786262 0.049200118 9.9362501e-39
0.001963608 0.076461211 0.047316194 7.9064847e-39
0.00048646331 0.079890087 0.046628535 7.3519096e-39
0 0.083421819 0.046391487 6.1612389e-39
0.10485826 0.094823554 0.013731778 1.491409e-38
0.092922516 0.089380503 0.012095988 1.4727549e-38
0.083484374 0.10099397 0.0070129633 2.1637814e-38
0.094790295 0.094616503 0.012090683 1.6756569e-38
0.1055368 0.086189628 0.015283227 1.5926816e-38
0.12173762 0.073374517 0.016346276 9.3895643e-39
0.093792409 0.10236634 0.025175869 1.8786672e-38
0.086450852 0.08559607 0.025722563 1.7858952e-38
0.045068167 0.098756529 0.027344942 7.9940504e-39
0.027551174 0.092610732 0.032651722 7.7325149e-39
0.063834354 0.099317089 0.028626025 1.1138381e-38
0.038836449 0.10494293 0.03395474 1.3625146e-38
0.10346556 0.082807213 0.027213693 1.6572176e-38
0.078063019 0.094241142 0.031910658 1.6019365e-38
0.0015589073 0.10752724 0.042699516 1.3810969e-38
0.10539486 0.081459224 0.028762877 1.7124279e-38
0.106208 0.12183716 0.031668246 1.7498084e-38
0.067396618 0.057644695 0.037893474 1.9793251e-38
0.16042298 0.053293142 0.026670158 2.2752876e-38
0.16063017 0.056186527 0.025233865 2.2658524e-38
0.16050836 0.12145895 0.026760817 2.1275232e-38
0.1605507 0.12460441 0.028100491 2.1644389e-38
0.15543416 0.050253913 0.027543187 2.2841845e-38
0.15592778 0.052967481 0.026519239 2.2839328e-38
0.15771417 0.055680647 0.025286436 2.3295275e-38
0.15706638 0.1225878 0.02709192 2.0447282e-38
0.15569414 0.12510246 0.028022349 2.0908619e-38
0.15478447 0.12788142 0.029621542 2.1093034e-38
0.15110105 0.049144942 0.027780414 2.2840768e-38
0.15148602 0.052621089 0.026648641 2.256059e-38
0.15145433 0.12536231 0.028448701 2.1001891e-38
0.15121655 0.12838206 0.029805064 2.1091937e-38
0.14763793 0.046274636 0.028700948 2.2839315e-38
0.14749403 0.048991412 0.027779937 2.265529e-38
0.14864489 0.051707573 0.026649833 2.2560952e-38
0.14737368 0.12583221 0.028908432 2.0721347e-38
0.14757398 0.12915514 0.030367851 2.0908256e-38
0.14338076 0.045950852 0.029126704 2.2836806e-38
0.14369398 0.048855297 0.02788347 2.2652404e-38
0.14346245 0.12646787 0.029387236 2.1090128e-38
0.14353952 0.12910911 0.030004919 2.1185199e-38
0.14373982 0.13178341 0.031504154 2.146105e-38
0.13977519 0.045629747 0.029447436 2.2469468e-38
0.13939595 0.048205767 0.028662264 2.2285793e-38
0.13962552 0.12925181 0.030457497 2.0908608e-38
0.13984171 0.13176742 0.032133162 2.1922036e-38
0.13587987 0.045613766 0.030076027 2.2380495e-38
0.13597378 0.048226785 0.028810084 2.2193954e-38
0.13575298 0.13005981 0.031230032 2.0722074e-38
0.13590112 0.13174015 0.032431006 2.1824464e-38
0.13176155 0.045149408 0.030222595 2.2747474e-38
0.13180196 0.047702603 0.029267669 2.2195379e-38
0.13192374 0.13235906 0.032413423 2.0723886e-38
0.12820029 0.044608511 0.030639172 2.1734764e-38
0.12796696 0.13298057 0.032505214 1.4647238e-38
0.12732205 0.13669884 0.03387475 1.7594999e-38
0.12661953 0.14017433 0.032455325 2.1926348e-38
0.12424925 0.041573517 0.032357991 1.8875977e-38
0.12413878 0.043641001 0.031415105 1.6114092e-38
0.12273269 0.1303187 0.032832384 1.3169208e-38
0.1240772 0.1329644 0.033132851 1.3351093e-38
0.12432881 0.13677217 0.034005284 1.6392123e-38
0.12484276 0.14023553 0.03426367 2.0631683e-38
0.12058965 0.041709319 0.032749653 1.5375082e-38
0.12024631 0.043625027 0.032043219 1.4451678e-38
0.11972677 0.12943695 0.033464193 1.3721289e-38
0.12043422 0.13281342 0.034533501 1.4458499e-38
0.1216505 0.13564008 0.035168946 1.5103139e-38
0.1171027 0.042202078 0.033527911 1.5833882e-38
0.11602946 0.043935724 0.03273201 1.5651992e-38
0.11505634 0.072508693 0.03361553 7.7253767e-39
0.11560684 0.12569761 0.033865511 1.1970644e-38
0.11632036 0.12900093 0.034509838 1.3077696e-38
0.1171027 0.13167414 0.035802424 1.4272655e-38
0.1125234 0.045502879 0.03401351 1.5100258e-38
0.11224048 0.04873734 0.032832563 1.4363412e-38
0.11107221 0.052209415 0.032729506 1.2243644e-38
0.11160879 0.06886223 0.033268869 5.5148115e-39
0.11178175 0.07251209 0.033806622 5.698142e-39
0.11153463 0.075592317 0.033587098 6.5293264e-39
0.1113961 0.10173713 0.033936262 6.3474532e-39
0.11201074 0.10515969 0.034068823 5.6124218e-39
0.11186791 0.10875783 0.034241259 6.6247828e-39
0.11107221 0.11190347 0.034247041 7.5507034e-39
0.11221733 0.12519494 0.034526706 8.5655195e-39
0.11249597 0.12884176 0.035841048 9.852657e-39
0.10930647 0.046117395 0.034886301 1.1134097e-38
0.10877455 0.048954312 0.034537673 1.1136588e-38
0.1085585 0.052782685 0.034050643 1.0584125e-38
0.10812311 0.056590721 0.033461869 9.2977022e-39
0.10718537 0.060721196 0.033573508 5.4248019e-39
0.10803194 0.06513463 0.034359694 3.6763037e-39
0.10859735 0.068521664 0.034894884 4.0432842e-39
0.10859798 0.07246431 0.03499496 4.8712442e-39
0.10857865 0.076418094 0.034873486 9.5635201e-39
0.10977659 0.098778576 0.034122586 8.0059068e-39
0.10848099 0.10139718 0.034398437 6.8080671e-39
0.1085396 0.10533073 0.035164475 5.7038789e-39
0.10852941 0.10926921 0.035153687 6.4414594e-39
0.10834055 0.11304164 0.034970403 6.9989533e-39
0.10834055 0.11730741 0.035078883 6.1670179e-39
0.10835131 0.12091878 0.035295546 6.5339801e-39
0.1092616 0.12505126 0.036393642 7.1804481e-39
0.10995616 0.12769751 0.03685534 7.8272539e-39
0.10605805 0.050051361 0.035510838 9.571415e-39
0.1047217 0.052712973 0.035343945 1.0580497e-38
0.10469428 0.056683339 0.035111547 8.4614661e-39
0.10489675 0.060237072 0.035378277 6.5261048e-39
0.10571216 0.064539328 0.035681605 5.1481758e-39
0.10527842 0.068995193 0.036118329 5.5137591e-39
0.10468598 0.072459698 0.035401404 8.3653202e-39
0.10558689 0.076117985 0.03447634 1.4906516e-38
0.10491805 0.10236653 0.034998298 8.006948e-39
0.10462201 0.10531604 0.035458922 7.1782607e-39
0.10466748 0.1092543 0.036114573 6.9935261e-39
0.10467642 0.11319581 0.036325932 6.9949793e-39
0.10470341 0.11714183 0.036759615 7.086442e-39
0.10516375 0.12065475 0.037112355 7.5481306e-39
0.10215993 0.053324789 0.036223471 1.3062264e-38
0.10164018 0.056348912 0.036384284 1.1212944e-38
0.10183509 0.060560167 0.036459863 9.3769372e-39
0.10086057 0.065161347 0.036734283 9.8371923e-39
0.10096575 0.068329833 0.036037803 1.0575116e-38
0.10200293 0.071195588 0.034676611 1.195876e-38
0.10167903 0.10563313 0.035604358 9.2004661e-39
0.1010775 0.10942598 0.035797954 8.7434452e-39
0.10075904 0.11317754 0.036620259 8.6551844e-39
0.10081841 0.11712748 0.03749913 9.1140214e-39
0.10053572 0.12009323 0.038183093 9.7622789e-39
0.096776828 0.060915343 0.037285745 1.4539179e-38
0.096907452 0.06453605 0.036568522 1.6659335e-38
0.097198576 0.067523465 0.036118984 1.8688343e-38
0.097684227 0.11009927 0.036362946 1.021966e-38
0.096836492 0.11315892 0.036802888 1.0221099e-38
0.096883789 0.11710427 0.037570953 1.1051583e-38
0.096931517 0.12105745 0.038339257 1.2248344e-38
0.095663078 0.12369159 0.039061368 1.3075943e-38
0.093064338 0.05789265 0.037808299 1.8965253e-38
0.092901915 0.060687989 0.037905574 2.0624444e-38
0.092984691 0.064547896 0.036751926 2.1363457e-38
0.094229266 0.067227826 0.035830915 2.1449201e-38
0.092933662 0.11379699 0.037224054 1.2336202e-38
0.09295585 0.11708152 0.037641764 1.2337285e-38
0.092998996 0.12103108 0.038410664 1.3167049e-38
0.09287741 0.12482326 0.039160013 1.4547836e-38
0.08912684 0.060553975 0.037836254 2.2192144e-38
0.08907108 0.063769288 0.036981225 2.1730099e-38
0.09034244 0.11444234 0.037658811 1.3993565e-38
0.089231916 0.11743654 0.037914336 1.5470502e-38
0.089073583 0.12100558 0.038480997 1.6483569e-38
0.089139894 0.12497067 0.039696872 1.6941306e-38
0.085250102 0.056569278 0.038698733 2.2562386e-38
0.085202053 0.060576715 0.03790766 2.2008485e-38
0.085497886 0.063567698 0.03740108 2.0991822e-38
0.085177697 0.12164357 0.039013684 1.8324264e-38
0.085232079 0.12494936 0.040102184 1.8418256e-38
0.086567484 0.12760158 0.040629447 1.8230617e-38
0.080720313 0.053894721 0.039699852 2.2650982e-38
0.081353858 0.056553293 0.039327383 2.2464436e-38
0.08129134 0.060424179 0.038127065 2.0712361e-38
0.082568772 0.063244127 0.037612498 2.0986057e-38
0.081552029 0.12176123 0.039669573 1.8874937e-38
0.081520773 0.12455725 0.040643275 1.7863285e-38
0.076605633 0.049491949 0.040252388 2.2649187e-38
0.077462777 0.052583374 0.039967299 2.2186062e-38
0.076946475 0.056487098 0.039085567 2.0159902e-38
0.077645466 0.05981284 0.038320303 1.9330849e-38
0.077386335 0.12226094 0.039949656 1.7495214e-38
0.076709338 0.12446852 0.041128397 1.7770363e-38
0.076172516 0.12821682 0.042323589 1.9063283e-38
0.073573776 0.049260218 0.04073602 2.2372241e-38
0.073536634 0.052630447 0.039814413 2.0435789e-38
0.072203897 0.056641817 0.03911835 1.9330498e-38
0.072541736 0.12503859 0.041182458 1.7679622e-38
0.073248923 0.12787588 0.042787015 1.8969983e-38
0.069675654 0.049244225 0.041365087 2.1543183e-38
0.069644161 0.05261448 0.040442526 2.0254975e-38
0.068748936 0.056190323 0.039664745 1.9979803e-38
0.068976678 0.12485997 0.04175359 1.6575434e-38
0.069922552 0.12804857 0.042923212 1.8325709e-38
0.06577754 0.049886122 0.042010844 1.9795783e-38
0.06528005 0.052715674 0.041149795 1.9977648e-38
0.065078035 0.055300631 0.040234804 1.9609234e-38
0.065096132 0.12485202 0.042709351 1.7216427e-38
0.066427223 0.12751895 0.043879449 1.6576145e-38
0.062041849 0.048719503 0.0425843 1.9332995e-38
0.060817949 0.052462317 0.041661203 2.0346809e-38
0.061041661 0.12532583 0.043300092 1.9522411e-38
0.061229736 0.12749763 0.044718146 1.8137313e-38
0.057331629 0.049193591 0.043356895 2.071523e-38
0.05709932 0.052138239 0.04228723 2.0624464e-38
0.056656569 0.12611178 0.043394804 1.8325329e-38
0.056894585 0.12790924 0.045090854 1.7956894e-38
0.053041928 0.049324527 0.043850303 1.9889401e-38
0.052776776 0.051231429 0.043130934 1.9423768e-38
0.0527803 0.12810707 0.045591295 1.8508608e-38
0.048624992 0.051706791 0.044218719 1.868439e-38
0.04758729 0.12607457 0.044858277 1.648501e-38
0.048885003 0.1280911 0.046219885 1.7774996e-38
0.045175985 0.052865542 0.044689357 1.7028814e-38
0.043700472 0.05521293 0.043684423 1.4631394e-38
0.044809185 0.12513706 0.045717359 1.5468323e-38
0.044987604 0.12743101 0.047339141 1.6485343e-38
0.041416332 0.053424306 0.045780957 1.592318e-38
0.040938951 0.056292653 0.044917762 1.3802721e-38
0.040461436 0.059791498 0.044323862 1.2513784e-38
0.040785342 0.12178279 0.045847476 1.3902816e-38
0.041101351 0.12475491 0.046660185 1.5009533e-38
0.03849075 0.053721488 0.046514273 1.6016825e-38
0.037357211 0.056531403 0.046515465 1.462925e-38
0.037048362 0.060216848 0.045645773 1.5002331e-38
0.03657461 0.063055441 0.045034409 1.8136609e-38
0.037213296 0.12117015 0.046987772 1.3992482e-38
0.037359141 0.12459528 0.04811877 1.4546013e-38
0.033553138 0.057122216 0.047398031 1.5648779e-38
0.033307374 0.060324773 0.046843648 1.6660423e-38
0.033327907 0.063020214 0.045895576 1.8505761e-38
0.032471865 0.1177035 0.047086179 1.3808801e-38
0.03331057 0.12057026 0.048205733 1.3900993e-38
0.034592628 0.12409895 0.04893285 1.4547078e-38
0.030694515 0.057636797 0.047872663 1.6114076e-38
0.029832445 0.060714968 0.04792136 1.7306853e-38
0.029167816 0.063497253 0.047052324 1.6845164e-38
0.02925957 0.11719256 0.047736645 1.3254191e-38
0.029665366 0.1199934 0.049218774 1.3348132e-38
0.025695965 0.064429969 0.047712564 1.7306134e-38
0.024266317 0.066940829 0.047120631 1.9243694e-38
0.025238022 0.11384728 0.048156202 1.2705003e-38
0.025528833 0.11681335 0.049197912 1.2429142e-38
0.02614671 0.11945912 0.050178647 1.2153962e-38
0.021623977 0.064877898 0.048845887 1.7494116e-38
0.021351188 0.067256853 0.047599375 1.859938e-38
0.02167508 0.11022478 0.048639417 1.2247609e-38
0.021498397 0.11301492 0.049118817 1.2523113e-38
0.021615423 0.11680394 0.050392509 1.2152897e-38
0.017729945 0.064861923 0.049474239 1.583532e-38
0.017788269 0.067570224 0.048182726 1.7678142e-38
0.017763779 0.11283696 0.049900353 1.1783753e-38
0.017700799 0.11613506 0.051458001 1.2336541e-38
0.013843521 0.064856619 0.049932778 1.224367e-38
0.013901435 0.06755428 0.048809886 1.4820826e-38
0.012605831 0.11018758 0.05010289 1.1409231e-38
0.013862841 0.11282264 0.050755024 1.0493006e-38
0.014452383 0.11612173 0.051982105 9.8508493e-39
0.010242701 0.065134034 0.051112294 9.5692724e-39
0.009797819 0.067784548 0.050057411 1.0677758e-38
0.009690702 0.10984763 0.050564945 9.2944792e-39
0.0099593848 0.11280811 0.051610112 8.4647241e-39
0.0092548877 0.11544253 0.052804112 8.832799e-39
0.0062293112 0.068283953 0.051080525 8.1827324e-39
0.0048321486 0.070796974 0.050356686 7.4433878e-39
0.0061031282 0.10963725 0.051544189 8.922831e-39
0.0063861012 0.11261059 0.053050578 1.1688665e-38
0.0063777044 0.11674649 0.053301871 1.4822962e-38
0.0029960573 0.068945214 0.05229491 1.1869805e-38
0.002037093 0.071899764 0.051469386 1.1131873e-38
0.00094532967 0.074716896 0.051083982 1.1229466e-38
0.0031046569 0.10927396 0.051613808 1.2705739e-38
0.0035365373 0.11146232 0.051599681 1.33479e-38
0.098849945 0.090758182 0.012720764 1.749342e-38
0.0718062 0.096364744 0.0080631971 6.8977754e-39
0.092259914 0.086028486 0.013650894 1.6019009e-38
0.10268292 0.089204371 0.015091956 1.5467621e-38
0.12176428 0.097755075 0.017215014 1.0404065e-38
0.090826295 0.098183051 0.02474755 1.7035663e-38
0.077443592 0.097254932 0.026163101 1.7127857e-38
0.1619062 0.077368319 0.016041398 1.8598333e-38
0.066460602 0.090732977 0.03161633 1.4544948e-38
0.0010474101 0.096907623 0.042512119 7.176488e-39
0.10959704 0.12235316 0.032724321 6.3521238e-39
0.11150468 0.10694452 0.036753237 1.9344533e-38
0.15997721 0.13198316 0.032940388 2.2489258e-38
0.15474963 0.045941882 0.031597197 2.2570288e-38
0.15668431 0.048418015 0.030334473 2.2569928e-38
0.1583516 0.12663162 0.031040311 2.2107521e-38
0.15673682 0.12954299 0.03188163 2.220117e-38
0.15665163 0.13261873 0.033113658 2.266466e-38
0.1514824 0.041958332 0.032023489 2.2569575e-38
0.15191673 0.044806473 0.031645834 2.266069e-38
0.15313907 0.048095599 0.029885411 2.2749294e-38
0.15216172 0.13023506 0.032131374 2.1277414e-38
0.15206087 0.13259573 0.033727527 2.1647622e-38
0.14821517 0.041944921 0.032550693 2.2662477e-38
0.14811927 0.043991201 0.031942666 2.293224e-38
0.14811897 0.13323548 0.034211516 2.1920945e-38
0.14393358 0.041620567 0.032980502 2.3021205e-38
0.14436173 0.043912344 0.031804383 2.293008e-38
0.14406401 0.13384271 0.033868432 2.1461032e-38
0.14357266 0.13586651 0.035181344 2.1645085e-38
0.14013012 0.041007705 0.033398151 2.2929734e-38
0.14015272 0.04339239 0.032200575 2.2745327e-38
0.14010775 0.13381444 0.03416878 2.1738367e-38
0.13994732 0.13617274 0.03552115 2.1831276e-38
0.13636842 0.040637508 0.033754885 2.2746405e-38
0.13619836 0.043407597 0.032501698 2.2562368e-38
0.13624051 0.13381094 0.035130918 2.1553262e-38
0.1364316 0.13651191 0.036688685 2.1828762e-38
0.13245171 0.040621221 0.034386873 2.2562727e-38
0.1335921 0.043396905 0.032922268 2.2746764e-38
0.13264567 0.134123 0.035634875 2.1463225e-38
0.1324922 0.13648926 0.03715533 2.1923463e-38
0.12848297 0.040648334 0.034578025 2.2379059e-38
0.12941591 0.13742033 0.03649348 2.0911847e-38
0.12837955 0.13970441 0.036212265 2.2294049e-38
0.12338421 0.03787291 0.036456645 1.9798701e-38
0.12454443 0.039334401 0.034955382 2.0257489e-38
0.12316703 0.13836345 0.037019849 1.7495992e-38
0.12331183 0.14106661 0.038416266 2.026361e-38
0.12207732 0.037867554 0.036667526 1.7954804e-38
0.12028693 0.039663494 0.035482407 1.6480722e-38
0.11925764 0.1343887 0.037550032 1.4735452e-38
0.12048914 0.13723482 0.03831023 1.5656698e-38
0.12197061 0.13972282 0.038260818 1.8327857e-38
0.11815664 0.037851468 0.037300229 1.7490514e-38
0.11676616 0.040354043 0.036743999 1.5928596e-38
0.11650719 0.13345048 0.038404644 1.3905668e-38
0.11682953 0.13629785 0.039814532 1.4366667e-38
0.11358251 0.041802853 0.038139224 1.5189595e-38
0.11283428 0.043217458 0.037282825 1.5098103e-38
0.11274198 0.13040324 0.038500786 1.0130336e-38
0.11304842 0.13271186 0.039812863 1.1141961e-38
0.10859376 0.044851437 0.038008988 1.1686877e-38
0.10752945 0.047248714 0.037228525 1.0946427e-38
0.10752945 0.12510356 0.039207757 7.7336275e-39
0.10891994 0.12909801 0.040098011 8.1956903e-39
0.10966183 0.13177675 0.041059613 8.1034974e-39
0.10505967 0.045768201 0.039278567 1.5372112e-38
0.10480073 0.048348099 0.038203835 1.251805e-38
0.10427162 0.061750665 0.03812325 6.160534e-39
0.10414131 0.064389274 0.038211346 5.8850205e-39
0.10427162 0.067688748 0.038274229 5.6985161e-39
0.10405444 0.12201031 0.039690256 8.0105507e-39
0.10500482 0.1251176 0.040629089 8.6551928e-39
0.10533226 0.12831268 0.041468024 9.7615222e-39
0.10134252 0.048759766 0.040147841 1.7398994e-38
0.10070662 0.052240018 0.039325714 1.5830259e-38
0.10003644 0.056784883 0.038680851 1.3622586e-38
0.10023192 0.060414519 0.038741589 1.1595032e-38
0.10101379 0.063056871 0.03868252 9.8415069e-39
0.10129012 0.12191498 0.040336847 9.855178e-39
0.1011332 0.12511514 0.041817129 1.2984786e-38
0.10116704 0.12777176 0.04232949 1.6582235e-38
0.097246364 0.049014438 0.040960431 2.0719874e-38
0.097214594 0.052358117 0.040600181 1.9243314e-38
0.097112283 0.05643443 0.039256692 1.629376e-38
0.097755969 0.059084788 0.039107561 1.472681e-38
0.097294375 0.12523592 0.041243672 1.4735092e-38
0.097056851 0.12890227 0.042641997 1.7039641e-38
0.095939465 0.13238215 0.043290794 1.9059671e-38
0.093325682 0.048998352 0.041593134 2.0348224e-38
0.093289599 0.052351013 0.041121244 1.933369e-38
0.093203411 0.056252368 0.039897263 1.8687587e-38
0.094498135 0.059071422 0.039633274 1.7582601e-38
0.094498135 0.12636968 0.041344106 1.5840715e-38
0.093246035 0.12902704 0.042402029 1.6299555e-38
0.093325675 0.13237143 0.043712616 1.7497731e-38
0.089241646 0.048485331 0.042239547 1.9975875e-38
0.089332461 0.052389175 0.04108566 2.0622299e-38
0.090174891 0.055509102 0.040578604 2.0624084e-38
0.08934509 0.12901801 0.043256819 1.5836057e-38
0.089666389 0.13222408 0.044299722 1.6574701e-38
0.085478522 0.048313897 0.042730212 2.2376895e-38
0.085394219 0.052408583 0.041271627 2.2746772e-38
0.085247345 0.12915497 0.043541968 1.841787e-38
0.085484326 0.13247159 0.044981301 1.8601911e-38
0.080692373 0.04519695 0.043536305 2.2374746e-38
0.081521235 0.048364446 0.042582393 2.2650977e-38
0.081652977 0.052043833 0.041528761 2.2648471e-38
0.080815248 0.12631355 0.043552101 1.7862902e-38
0.081488125 0.12896898 0.043961287 1.7495555e-38
0.081356741 0.13259137 0.04521662 1.7957978e-38
0.077629015 0.044993974 0.043688118 2.2556631e-38
0.077999227 0.047992524 0.042184591 2.2741386e-38
0.078208975 0.12630285 0.043972671 1.8230634e-38
0.077948064 0.1291429 0.044521272 1.8232785e-38
0.077614434 0.13294584 0.045588553 1.7311533e-38
0.073535949 0.044507794 0.044041097 2.2556617e-38
0.073648013 0.047109716 0.04269588 2.2740292e-38
0.073923498 0.12972872 0.045157015 1.9061458e-38
0.073693424 0.13292563 0.046108663 1.7767097e-38
0.069780611 0.044330895 0.044600725 2.1821924e-38
0.069738619 0.047093682 0.043326735 2.1822278e-38
0.069420248 0.12990348 0.04573667 1.9247667e-38
0.069791108 0.13292548 0.047189057 1.9428431e-38
0.066024899 0.044488527 0.045126796 2.1082911e-38
0.065829217 0.047737435 0.04397434 2.0069852e-38
0.065654144 0.12928097 0.046509922 1.7312272e-38
0.065872312 0.1329094 0.047821462 1.8694469e-38
0.062192596 0.045160279 0.045104027 1.9420883e-38
0.060616694 0.047056265 0.044798672 1.8866644e-38
0.062117815 0.12927067 0.047225356 1.7036743e-38
0.062138282 0.13251281 0.048317671 1.7221836e-38
0.059346467 0.045550518 0.046992064 1.7942915e-38
0.058028616 0.046927538 0.0465644 1.9055713e-38
0.058279812 0.12967083 0.047884226 1.703352e-38
0.058035024 0.13221556 0.049069345 1.6665797e-38
0.054118879 0.046852447 0.047869265 2.0074509e-38
0.054104649 0.13017316 0.048300982 1.7586315e-38
0.054114431 0.13219394 0.04953295 1.6388846e-38
0.050194919 0.048245326 0.047525048 1.9702486e-38
0.050193198 0.13016757 0.049270153 1.8233841e-38
0.050196491 0.13152172 0.050317407 1.7682446e-38
0.046606138 0.049222328 0.04812932 1.9700342e-38
0.044979118 0.05095084 0.047422707 1.8505018e-38
0.04601936 0.12962681 0.050065517 1.6853775e-38
0.046930984 0.13151942 0.05118227 1.667045e-38
0.042359523 0.049479224 0.049497128 2.0160243e-38
0.042047068 0.051268704 0.047904253 1.803938e-38
0.042202733 0.12898646 0.050741494 1.6111544e-38
0.039743066 0.049440242 0.050256312 1.9889045e-38
0.038265072 0.051795088 0.049396873 1.7214653e-38
0.038451463 0.12814337 0.051283538 1.4824048e-38
0.035398372 0.053004138 0.050373018 1.4914439e-38
0.034554072 0.054866798 0.049205601 1.5279627e-38
0.033250943 0.1221597 0.051126719 1.4086479e-38
0.034020133 0.12534486 0.051691473 1.5192083e-38
0.035392568 0.12793387 0.052616596 1.4732549e-38
0.031248257 0.053375535 0.05172801 1.4725364e-38
0.030440167 0.05573763 0.050615788 1.4912318e-38
0.028689981 0.059461243 0.050269306 1.7032428e-38
0.029993102 0.12181645 0.051644027 1.3442523e-38
0.030875765 0.12402475 0.052773595 1.3444348e-38
0.026947364 0.056828029 0.05210495 1.4634992e-38
0.02633594 0.059862167 0.051528215 1.5282893e-38
0.024128988 0.062741473 0.051089168 1.6477445e-38
0.026068412 0.12126051 0.052770317 1.1970644e-38
0.026674122 0.12349603 0.054249227 1.1879523e-38
0.023406908 0.057313517 0.053094268 1.3898861e-38
0.02276554 0.059980199 0.052927971 1.4177243e-38
0.02151005 0.06270881 0.051849008 1.6294133e-38
0.022355296 0.12081476 0.053865194 1.1324568e-38
0.019006386 0.060124561 0.05362308 1.2798999e-38
0.018222108 0.062651508 0.053053856 1.4824059e-38
0.017613336 0.11813684 0.053549469 1.1140511e-38
0.018853731 0.12058822 0.054931521 1.0494787e-38
0.01465074 0.060718387 0.054594755 1.0493035e-38
0.014959589 0.062638119 0.053580344 1.2336941e-38
0.01336582 0.1171333 0.054463208 9.2908414e-39
0.014927618 0.120134 0.055722773 9.2879814e-39
0.012298316 0.061238095 0.054987788 9.8426195e-39
0.011026874 0.063040569 0.054563463 9.6585954e-39
0.010853939 0.11723652 0.0551247 9.6596548e-39
0.010468669 0.12025343 0.056783557 1.4367038e-38
0.0064770132 0.064584911 0.05499953 9.749293e-39
0.0045820177 0.066620007 0.054343998 1.0208503e-38
0.0045820177 0.11346488 0.055534899 1.4273737e-38
0.0071313828 0.11678787 0.056220949 1.3535501e-38
0.007942006 0.11989016 0.057182252 1.6486072e-38
0.0023880228 0.067030855 0.055046439 1.4265064e-38
0.0032788813 0.11279974 0.055728376 1.4365607e-38
0.054216444 0.092237227 0.022999942 1.2888668e-38
0.10683613 0.085350066 0.011436343 2.0541631e-38
0.083221376 0.085502833 0.0017077923 1.9787186e-38
0.093667462 0.091172442 0.012391984 2.2206906e-38
0.10041809 0.094749674 0.016887069 1.5009508e-38
0.082404323 0.090745211 0.024433911 1.4269443e-38
0.140387 0.093842834 0.018415093 1.2796118e-38
0.088242345 0.10181823 0.027368367 1.3718429e-38
0.11560684 0.12569761 0.033865511 1.1970644e-38
0.10599373 0.094638944 0.034102798 1.7404089e-38
0.10884714 0.047346294 0.036828279 2.1182319e-38
0.014157616 0.1144722 0.051368594 1.012601e-38
0.074592784 0.064419754 0.036266208 1.7865785e-38
0.15559705 0.041275658 0.034043729 2.2390577e-38
0.15705472 0.044424511 0.033415556 2.2482058e-38
0.15647207 0.13471445 0.036277771 2.2573538e-38
0.15324198 0.037689678 0.034670591 2.2570641e-38
0.15268779 0.040021904 0.034240425 2.2569575e-38
0.15374641 0.043102421 0.03371352 2.2663926e-38
0.15248574 0.13468574 0.036583066 2.2384459e-38
0.14855158 0.039729796 0.034804344 2.2935831e-38
0.14864811 0.13602382 0.037912309 2.2564144e-38
0.14405423 0.037651993 0.036153197 2.2931891e-38
0.14483397 0.039615162 0.035063982 2.2930809e-38
0.14471051 0.13667221 0.038564503 2.1920233e-38
0.14072886 0.037007771 0.036336005 2.293043e-38
0.14129519 0.039069764 0.035621524 2.2748559e-38
0.14070591 0.13796443 0.038737357 2.2013876e-38
0.13677159 0.037008524 0.036806166 2.2746408e-38
0.136751 0.13860467 0.039223373 2.2011707e-38
0.13313451 0.037351355 0.037148833 2.2745686e-38
0.13277596 0.13857409 0.039526701 2.201384e-38
0.12915294 0.037120365 0.03793788 2.2379416e-38
0.12496679 0.036960095 0.038711071 2.1735144e-38
0.12070481 0.036942609 0.039398789 1.8230638e-38
0.12138682 0.14088492 0.042184412 1.842255e-38
0.11770344 0.036982201 0.039377809 1.7947556e-38
0.11583475 0.03886532 0.040740669 1.5744932e-38
0.11751805 0.13808338 0.042315722 1.519248e-38
0.1131629 0.039789163 0.040688932 1.5097773e-38
0.11250665 0.13452792 0.043203354 1.2244022e-38
0.11353783 0.13621207 0.043586314 1.3074529e-38
0.11058462 0.041501969 0.041655481 1.3441136e-38
0.10921286 0.042888306 0.041236699 1.2789986e-38
0.10787354 0.1305088 0.04334271 9.4806697e-39
0.10887802 0.1328443 0.043493152 1.0862524e-38
0.10564157 0.043830708 0.042259455 1.7401127e-38
0.10494465 0.13017283 0.044060409 1.353583e-38
0.10533449 0.13185886 0.044800282 1.611441e-38
0.10161342 0.044975094 0.042584419 2.0811296e-38
0.10066494 0.046866234 0.042380333 2.0535072e-38
0.101349 0.12933251 0.04474622 1.7134701e-38
0.10095938 0.13228394 0.045517564 1.9803345e-38
0.097077906 0.045169435 0.043169677 2.2654569e-38
0.097388297 0.04685279 0.042909086 2.1917344e-38
0.098698959 0.13047116 0.04482317 1.8240339e-38
0.097642854 0.13313881 0.045568109 1.9618581e-38
0.093489006 0.044799812 0.043993115 2.1635387e-38
0.09345635 0.046836659 0.043543577 2.1267675e-38
0.093456343 0.13443123 0.045770347 1.8695202e-38
0.093521677 0.13579768 0.046807885 1.9342018e-38
0.08955849 0.044492424 0.044692338 2.0435762e-38
0.090835035 0.046825912 0.043966532 1.9149716e-38
0.089211158 0.13409129 0.046700478 1.7219346e-38
0.089321561 0.1363121 0.047499061 1.7775376e-38
0.085448854 0.044280216 0.045151472 2.2002729e-38
0.085619442 0.13375403 0.047525167 1.8325332e-38
0.085974611 0.136099 0.048034072 1.8693033e-38
0.082121544 0.043646239 0.045799255 2.2833923e-38
0.082315788 0.13438553 0.047568083 1.89732e-38
0.081677221 0.1357231 0.048042953 1.9339839e-38
0.077750817 0.042743526 0.046482086 2.2556275e-38
0.077742755 0.13570696 0.048677862 1.8877466e-38
0.075146198 0.042685688 0.047407806 2.2649898e-38
0.073548883 0.13622399 0.049435735 1.8785589e-38
0.069896065 0.041335054 0.04822129 2.1454231e-38
0.069880307 0.13634574 0.050132453 1.8599387e-38
0.067270994 0.041324288 0.048644841 2.1174403e-38
0.064645924 0.042642616 0.049102247 2.1086879e-38
0.065759875 0.13661644 0.050877094 1.8604769e-38
0.061683081 0.043009408 0.049083292 1.9421625e-38
0.061345331 0.1342995 0.050952017 1.6576823e-38
0.062338419 0.13598254 0.051341057 1.7132527e-38
0.058073536 0.04422722 0.049528241 1.803941e-38
0.058068693 0.13428606 0.05148077 1.6390662e-38
0.058083251 0.1356523 0.052526414 1.6299922e-38
0.054141179 0.044638403 0.0503425 1.8045144e-38
0.054145657 0.13430706 0.053128064 1.5009166e-38
0.050534062 0.044955887 0.050933003 1.8138781e-38
0.048894115 0.046653859 0.050734401 2.0164192e-38
0.050205231 0.13293834 0.053053975 1.6017902e-38
0.047582984 0.045230813 0.051923156 1.9058969e-38
0.046009347 0.047137469 0.051617801 2.0069135e-38
0.046271302 0.13293901 0.054162085 1.5470479e-38
0.043209903 0.047456913 0.052348077 1.9150792e-38
0.042598173 0.13211982 0.054531634 1.5374701e-38
0.038395241 0.049180403 0.053507149 1.9236494e-38
0.038403712 0.13023427 0.054890811 1.4547824e-38
0.033596091 0.052315272 0.053686261 1.5466172e-38
0.034139618 0.12889434 0.05571413 1.4642514e-38
0.029207498 0.053129993 0.055091083 1.4357655e-38
0.030210599 0.12588325 0.05601871 1.3076999e-38
0.03139507 0.12801129 0.056641579 1.3630147e-38
0.027238697 0.053121917 0.055408776 1.3900657e-38
0.026285335 0.054856051 0.054593563 1.3992485e-38
0.026597701 0.12554306 0.056846738 1.1326717e-38
0.022483177 0.055434603 0.055511773 1.3258514e-38
0.022656903 0.12486694 0.057634711 9.5742989e-39
0.018891983 0.055948913 0.05632174 1.1504991e-38
0.017438427 0.05846953 0.056113958 1.0857504e-38
0.01809375 0.12217736 0.057627738 9.1997584e-39
0.019045353 0.12385713 0.058276653 8.3736019e-39
0.014769636 0.057058044 0.057522297 7.6349817e-39
0.01514478 0.058791917 0.056492507 9.2927164e-39
0.014784828 0.12217709 0.058837414 1.0867867e-38
0.010601394 0.060271733 0.057669044 8.9192367e-39
0.0095745027 0.062418841 0.05748415 6.991029e-39
0.011269547 0.12128326 0.059720218 1.4188391e-38
0.0068944395 0.060680754 0.058885992 1.2238548e-38
0.0068944469 0.062342122 0.058928251 1.08531e-38
0.0082638562 0.12213703 0.059213936 1.4375244e-38
0.0034151822 0.064121246 0.059197426 1.398996e-38
0.074366897 0.090666682 0.00072157383 1.6018992e-38
0.092584521 0.091061011 0.008161962 2.3138932e-38
0.061761521 0.095723763 0.023486137 1.5383726e-38
0.09327589 0.095245726 0.012885332 2.3209505e-38
0.085747018 0.089207508 0.0026325583 2.3024117e-38
0.092170209 0.085621268 0.0082594752 2.2677249e-38
0.097362451 0.093216151 0.019595981 1.039363e-38
0.138349 0.075580783 0.016619146 1.3437876e-38
0.030380309 0.097593613 0.037658155 1.1875216e-38
0.053940445 0.070473395 0.028233111 1.5003401e-38
0.14122467 0.10086428 0.019325197 1.3718775e-38
0.092003748 0.066705912 0.026336312 1.4176527e-38
0.10568929 0.095536441 0.026762784 1.8141302e-38
0.11206598 0.11711562 0.030954063 7.5485244e-39
0.076968804 0.093741946 0.029995739 1.4728625e-38
0.091813251 0.10089844 0.031864822 1.7956545e-38
0.075784862 0.10458456 0.034597456 1.7589206e-38
0.080126122 0.06156034 0.03812176 1.7032784e-38
0.070616379 0.10098691 0.039463401 1.3441476e-38
0.060451783 0.060877167 0.036057174 2.1821946e-38
0.11272611 0.10839716 0.038809478 2.1181959e-38
0.009797819 0.067784548 0.050057411 1.0677758e-38
0.097028837 0.078858986 0.026639104 1.6019704e-38
0.11751805 0.13808338 0.042315722 1.519248e-38
0.15420192 0.03682334 0.036520183 2.2570654e-38
0.1555182 0.038828105 0.036358595 2.2574609e-38
0.15427783 0.13681182 0.039556444 2.2572808e-38
0.14998977 0.037205942 0.037210047 2.2752879e-38
0.15069175 0.13714056 0.040397167 2.2659949e-38
0.14595845 0.036498167 0.038518429 2.29301e-38
0.14639845 0.13745277 0.041013837 2.2197899e-38
0.1467258 0.13888817 0.043361783 2.2107512e-38
0.14367154 0.036113694 0.038202524 2.3023e-38
0.14235526 0.13874182 0.041024029 2.1737288e-38
0.14229459 0.14016484 0.043096483 2.1736569e-38
0.13866493 0.14081831 0.043699265 2.2012071e-38
0.13482837 0.034427367 0.042627275 2.3020837e-38
0.13314119 0.036070496 0.039901733 2.2928998e-38
0.1282187 0.034400254 0.043693841 2.2469122e-38
0.12655972 0.035377048 0.040946841 2.2377292e-38
0.12139937 0.03458371 0.042773187 1.9892258e-38
0.12261083 0.035138696 0.041578412 2.0261086e-38
0.12129454 0.14132123 0.044490337 1.8698407e-38
0.11876302 0.034572892 0.043198586 1.897032e-38
0.1180038 0.035341948 0.042327464 1.8782342e-38
0.11843874 0.14079499 0.045343399 1.7222576e-38
0.11896514 0.14279012 0.047943532 1.9433839e-38
0.11437788 0.036710687 0.043381929 1.6295596e-38
0.11208048 0.039982803 0.043401897 1.4725773e-38
0.11392329 0.13809201 0.045598447 1.408723e-38
0.11511029 0.14056024 0.046888053 1.6765908e-38
0.11632127 0.14277928 0.048370123 1.9524608e-38
0.11052442 0.037208714 0.044595897 1.6017202e-38
0.10972872 0.040220119 0.043990314 1.4173307e-38
0.10987474 0.13577518 0.046772301 1.3349286e-38
0.11131818 0.13905616 0.048576772 1.5470875e-38
0.107949 0.037440531 0.047044098 1.8781972e-38
0.10692048 0.040505938 0.045515001 1.8967425e-38
0.105499 0.04262162 0.044531703 1.8967368e-38
0.10615715 0.13326171 0.046729684 1.7128182e-38
0.10679777 0.13616666 0.048473299 1.9801869e-38
0.10331464 0.041469157 0.046375036 2.200845e-38
0.10220826 0.04260812 0.045062721 2.2009563e-38
0.10330518 0.13280571 0.047178626 2.008242e-38
0.10293701 0.13594982 0.048218548 2.2657787e-38
0.097814158 0.038291372 0.04870224 2.2844721e-38
0.099052832 0.041082531 0.047415197 2.3029826e-38
0.098588452 0.043592945 0.045672238 2.3118779e-38
0.10023382 0.13323741 0.047685504 2.044908e-38
0.099082068 0.1360651 0.047943354 2.1458177e-38
0.09878429 0.13917558 0.049894392 2.1549667e-38
0.095148511 0.037644461 0.048778534 2.2748208e-38
0.095024973 0.040498182 0.047013402 2.2743892e-38
0.094968639 0.042578422 0.046230972 2.2557686e-38
0.095297709 0.13688263 0.048575222 2.0075966e-38
0.095112681 0.1395959 0.050845385 2.0535145e-38
0.091204479 0.037594952 0.049751818 2.1821929e-38
0.091050535 0.040513948 0.047317743 2.1172967e-38
0.091677904 0.042564921 0.04676199 2.0709842e-38
0.091019757 0.13764262 0.049285293 1.8697699e-38
0.091308154 0.14012301 0.051328361 1.998451e-38
0.087238669 0.03757868 0.050391734 2.2184612e-38
0.08710815 0.040481739 0.048122346 2.1726502e-38
0.087729014 0.042548724 0.047399163 2.154103e-38
0.085754573 0.13784318 0.05014056 1.8875273e-38
0.08733353 0.14009553 0.051716089 1.8045526e-38
0.083272859 0.038231723 0.051048696 2.3014011e-38
0.083172284 0.040433526 0.049094498 2.2923609e-38
0.083121978 0.13716593 0.050548434 1.9521703e-38
0.083403714 0.13953508 0.052444994 1.7667392e-38
0.078976564 0.037879445 0.051733494 2.3293109e-38
0.079210624 0.04043331 0.049565315 2.2833929e-38
0.077856809 0.042508222 0.048992217 2.2553406e-38
0.079253472 0.13909546 0.053045988 1.9243333e-38
0.075328872 0.03756316 0.05197674 2.2834286e-38
0.075243719 0.040449098 0.049868405 2.2557701e-38
0.075224213 0.13757783 0.051834166 1.9613919e-38
0.075573675 0.1393652 0.054052353 1.9616072e-38
0.071333736 0.036803238 0.051673651 2.237583e-38
0.07153859 0.039816491 0.049944043 2.2190359e-38
0.071275331 0.13845022 0.052493989 1.906324e-38
0.071705915 0.14025368 0.055510044 1.9338744e-38
0.067574188 0.03729742 0.05269146 2.1820504e-38
0.066233836 0.04022269 0.050979733 2.1083645e-38
0.067984596 0.13843673 0.053025007 1.8510784e-38
0.067066215 0.13954394 0.055734575 1.8049816e-38
0.063428469 0.03754767 0.053560197 2.0531923e-38
0.062729977 0.040397771 0.051887691 2.0256424e-38
0.062061273 0.13774598 0.0539639 1.6853784e-38
0.063432775 0.13952902 0.056320906 1.7221487e-38
0.059808493 0.037800811 0.054826558 1.8873493e-38
0.059442386 0.04035221 0.052755237 1.9699632e-38
0.058112375 0.042427227 0.052178323 1.8592229e-38
0.059165411 0.13733423 0.054421008 1.6392098e-38
0.059201218 0.13929804 0.056694329 1.6667606e-38
0.056173176 0.03812056 0.05542171 1.9060033e-38
0.055499367 0.040901057 0.054475427 1.8044431e-38
0.05482164 0.13638337 0.055098236 1.5653464e-38
0.055826485 0.13878572 0.056516886 1.6020453e-38
0.051732302 0.041215904 0.055638552 1.7121768e-38
0.050214611 0.043727726 0.053486645 1.7122134e-38
0.051370181 0.13590468 0.056529939 1.4918774e-38
0.047911063 0.041767851 0.056848526 1.6938428e-38
0.047252364 0.044025712 0.054225862 1.813555e-38
0.047769777 0.13575621 0.057958007 1.4731135e-38
0.043624677 0.044925019 0.05579704 1.8595089e-38
0.04362537 0.13505004 0.058054328 1.4726802e-38
0.039984398 0.045795463 0.057724237 1.822811e-38
0.03968095 0.047654327 0.055625021 1.905896e-38
0.039681301 0.13233136 0.057693243 1.4639296e-38
0.040970899 0.13443848 0.060325027 1.491553e-38
0.035703145 0.048175093 0.057800531 1.7399428e-38
0.035077207 0.050330147 0.056098759 1.6201257e-38
0.035706371 0.13125035 0.059743047 1.4087209e-38
0.031737082 0.0488008 0.058770478 1.6022602e-38
0.031128325 0.051313628 0.056761384 1.5097043e-38
0.029592656 0.12850462 0.058971703 1.2615285e-38
0.031421416 0.13067105 0.060251296 1.371876e-38
0.027780235 0.049465172 0.059281468 1.3994284e-38
0.027165093 0.051590115 0.057914913 1.3624071e-38
0.027179457 0.12827256 0.059355438 1.1231302e-38
0.027618572 0.13150337 0.061266541 9.8480145e-39
0.023807362 0.050090559 0.060276687 1.1687272e-38
0.023871534 0.052243054 0.058463335 1.2519896e-38
0.023888685 0.12825906 0.059886456 8.840303e-39
0.023851827 0.13162901 0.06110388 8.0077061e-39
0.021141872 0.050024379 0.061380863 1.021574e-38
0.019845933 0.052079692 0.060966909 9.66504e-39
0.018623538 0.12490521 0.060651362 8.0055298e-39
0.019775279 0.12774235 0.060537517 7.640685e-39
0.020203091 0.13077646 0.060545564 8.1020289e-39
0.015876912 0.053387903 0.061809838 8.3721614e-39
0.01599095 0.055139162 0.059302866 8.0952214e-39
0.01596766 0.12423927 0.06156987 9.9387276e-39
0.016933963 0.12725796 0.061997235 6.7241041e-39
0.017307229 0.13023141 0.060999334 6.9957037e-39
0.013210237 0.049991842 0.062660754 1.5552949e-38
0.011888295 0.052663654 0.062942147 1.4632789e-38
0.011747286 0.056054443 0.060619295 1.0396088e-38
0.011383913 0.05823037 0.060125351 9.0114169e-39
0.011939555 0.1232549 0.06371516 1.46457e-38
0.0088037848 0.053543411 0.063462555 1.6474567e-38
0.0079712644 0.056725208 0.062809408 1.472717e-38
0.0087513104 0.058886021 0.060567141 1.1783376e-38
0.004678309 0.057391621 0.063213289 1.5371815e-38
0.0038552508 0.060038112 0.061792314 1.5003735e-38
0.0034861341 0.062196679 0.061501443 1.5464353e-38
0.079351455 0.089052908 0.00015711784 1.6385998e-38
0.077086642 0.089016855 0.00029748678 1.5650571e-38
0.086074635 0.078988776 0.0080617666 2.2761884e-38
0.088226445 0.081457704 0.0091281533 2.2953475e-38
0.061556153 0.10777831 0.027951777 1.8971783e-38
0.064052142 0.084658772 0.02221638 1.7128231e-38
0.066790164 0.091105066 0.020177126 1.7406255e-38
0.070448227 0.077336937 0.021182358 1.231854e-38
0.11531251 0.084004633 0.018188536 1.2242202e-38
0.15883733 0.097813882 0.017056644 1.4271591e-38
0.066130653 0.095527105 0.030526996 1.55598e-38
0.08712136 0.082714766 0.026417851 1.3810623e-38
0.13918439 0.060805485 0.021518528 2.2099954e-38
0.098082788 0.10445439 0.029737711 1.1416025e-38
0.074034736 0.10977979 0.040004671 1.6758002e-38
0.096452832 0.10863335 0.032558024 1.5192124e-38
0.050355643 0.048350628 0.053581417 1.6935578e-38
0.15408525 0.033977784 0.04457283 2.25703e-38
0.15137413 0.033327825 0.044656277 2.2752885e-38
0.15032116 0.035621911 0.042182624 2.2752522e-38
0.15004312 0.14449218 0.047697186 2.2102091e-38
0.14705132 0.032928593 0.044162035 2.3022644e-38
0.14819017 0.035716981 0.041515887 2.2935831e-38
0.14690679 0.14066856 0.044680715 2.2106793e-38
0.14731985 0.14445901 0.047685802 2.1918784e-38
0.14809424 0.14719662 0.048418462 2.1088303e-38
0.1433986 0.032913618 0.044751465 2.3296359e-38
0.14377746 0.14115307 0.044908881 2.155146e-38
0.14318012 0.14438623 0.047226489 2.1458895e-38
0.1421032 0.14784612 0.049402297 2.1731903e-38
0.13901052 0.033150136 0.045104086 2.292973e-38
0.13915306 0.14435352 0.047538221 2.1460679e-38
0.13944054 0.1478352 0.049832046 2.1921308e-38
0.13521692 0.032365836 0.045696735 2.3020464e-38
0.13495201 0.14156371 0.04634434 2.1640797e-38
0.1354427 0.14421275 0.048992157 2.1549295e-38
0.13677785 0.14782427 0.050261676 2.2470873e-38
0.13012116 0.029835068 0.048336983 2.1819429e-38
0.13144016 0.032334968 0.046450496 2.2744246e-38
0.13136256 0.1410594 0.04792428 2.2196461e-38
0.13121465 0.14298594 0.049010396 2.1459621e-38
0.12745848 0.029824145 0.048766732 2.1635751e-38
0.12721476 0.032079473 0.046668053 2.2099239e-38
0.12342954 0.029844761 0.049080074 2.1916298e-38
0.12319865 0.0320995 0.046979249 2.1825899e-38
0.12313844 0.1447186 0.051082373 2.1553966e-38
0.12335777 0.14704092 0.051395416 2.256706e-38
0.11928423 0.032011069 0.048284531 1.9615344e-38
0.11911736 0.14487559 0.049492002 2.1555776e-38
0.11910052 0.14687884 0.049376726 2.2568845e-38
0.11680778 0.029780455 0.050485373 2.0165667e-38
0.11545083 0.03285253 0.048756003 1.8784158e-38
0.11377094 0.14147681 0.049762189 1.7774321e-38
0.11528451 0.14426519 0.051615179 2.0818577e-38
0.11281376 0.033808477 0.051232636 1.8316728e-38
0.11046139 0.03556221 0.047604084 1.8040117e-38
0.11094718 0.14097527 0.051218629 1.8325706e-38
0.11141723 0.14392978 0.053533912 2.1553621e-38
0.10988739 0.14889082 0.051591039 2.3121999e-38
0.10705348 0.03668455 0.050209343 2.0901041e-38
0.10582803 0.039564759 0.048453987 2.0999338e-38
0.10726406 0.14017113 0.052130759 2.0996833e-38
0.10744633 0.14363527 0.054384708 2.1735494e-38
0.10708372 0.14855254 0.054785371 2.3120573e-38
0.10743169 0.15103427 0.054406285 2.3394249e-38
0.10322121 0.036773086 0.051463664 2.311805e-38
0.10318041 0.039553896 0.048881233 2.2840368e-38
0.10342585 0.14050962 0.052131832 2.2932226e-38
0.10345514 0.14361891 0.055028737 2.2655999e-38
0.098834708 0.03375113 0.053488433 2.2930805e-38
0.099485129 0.036535852 0.050920963 2.2936193e-38
0.10053277 0.039543033 0.049308419 2.303089e-38
0.099558599 0.14109504 0.052300751 2.2102835e-38
0.099399135 0.1434238 0.054766774 2.2102843e-38
0.095260538 0.03546524 0.05039382 2.2747851e-38
0.095237501 0.14140078 0.052752912 2.0812474e-38
0.09538345 0.14352046 0.054978669 2.0996498e-38
0.091266058 0.035483465 0.050701618 2.2188921e-38
0.091382779 0.14416379 0.055359483 1.9706837e-38
0.087434433 0.033188865 0.05379504 2.2096012e-38
0.087294608 0.03546717 0.051342487 2.2462634e-38
0.087587856 0.14376163 0.05592984 1.8967462e-38
0.083793357 0.033147506 0.054635227 2.2741373e-38
0.083348304 0.036069341 0.052501559 2.2739221e-38
0.082685456 0.14137261 0.055285633 1.7297141e-38
0.083481781 0.1435208 0.057913601 1.8133754e-38
0.079485655 0.033777468 0.055600107 2.3293477e-38
0.079643257 0.035909712 0.053197026 2.329347e-38
0.079385199 0.14103559 0.056063235 1.9615325e-38
0.079500854 0.14351223 0.058725059 2.1086879e-38
0.075446524 0.033901848 0.054904461 2.2647398e-38
0.075393885 0.035383746 0.053599656 2.292577e-38
0.07541927 0.14136609 0.056965351 2.0351845e-38
0.075498223 0.14347965 0.059032798 2.1088312e-38
0.071442179 0.033955902 0.054876983 2.2005983e-38
0.070779324 0.14134707 0.057714045 1.8786278e-38
0.071774423 0.14332986 0.059630275 1.9247974e-38
0.067465089 0.033939585 0.055518746 2.1910542e-38
0.066775449 0.035382994 0.054653525 2.2184969e-38
0.067465089 0.14133346 0.058248937 1.7863997e-38
0.06754826 0.14282179 0.061313093 1.7680676e-38
0.063499041 0.033533901 0.056655467 1.9799389e-38
0.063465908 0.035369419 0.055187643 2.0625551e-38
0.063532159 0.14141057 0.060912371 1.712893e-38
0.064885587 0.14281088 0.061742723 1.7036734e-38
0.059543781 0.033695661 0.058818042 1.7949034e-38
0.059245385 0.035784505 0.056892872 1.7307271e-38
0.059543781 0.14139421 0.061555922 1.6761259e-38
0.059560239 0.14278904 0.062602043 1.6853066e-38
0.055566221 0.033573635 0.060470581 1.7861465e-38
0.055360332 0.036028914 0.059118688 1.8140595e-38
0.055271968 0.14075619 0.060405731 1.5743138e-38
0.051572204 0.033557251 0.061115026 1.7216092e-38
0.051564962 0.036398999 0.059724808 1.7400845e-38
0.050892234 0.039290346 0.057824194 1.7122114e-38
0.051731065 0.13983302 0.062397897 1.5193928e-38
0.047578193 0.03354086 0.061759591 1.5652736e-38
0.047578976 0.03640572 0.060143352 1.5740634e-38
0.047314771 0.039821692 0.058313966 1.6104033e-38
0.046256281 0.1371783 0.060554564 1.4544937e-38
0.047844283 0.13918407 0.063186288 1.4545318e-38
0.04359217 0.036367565 0.061011255 1.4452423e-38
0.043605044 0.040595949 0.059090257 1.6478562e-38
0.042946748 0.043328367 0.058703125 1.8133393e-38
0.043608665 0.13716744 0.06098187 1.4728958e-38
0.043594293 0.13928835 0.063571215 1.4454904e-38
0.040484302 0.037174098 0.062321782 1.4821933e-38
0.04027652 0.040443979 0.061087489 1.6385631e-38
0.039352499 0.043702386 0.060914159 1.8040472e-38
0.038313381 0.13312416 0.06173408 1.4178677e-38
0.039461948 0.13600743 0.062381804 1.4821545e-38
0.040484928 0.1390872 0.064912498 1.528285e-38
0.035801493 0.044647127 0.061663628 1.6661137e-38
0.035316922 0.13281146 0.063223183 1.3903156e-38
0.035995334 0.1357156 0.065069258 1.3534373e-38
0.038258813 0.13865724 0.065936565 1.3995694e-38
0.032301418 0.044846162 0.062993705 1.5651316e-38
0.030370481 0.047298327 0.060834765 1.5929695e-38
0.032306716 0.13250795 0.064968109 1.3630888e-38
0.033599138 0.13526778 0.066602826 1.2983704e-38
0.028070383 0.045203738 0.064530373 1.1229897e-38
0.027713291 0.047258541 0.061600566 1.2799356e-38
0.029645324 0.13317657 0.065668166 1.0864633e-38
0.025217794 0.045060828 0.065460205 1.1405974e-38
0.023739658 0.047912486 0.06225884 1.1500291e-38
0.020970456 0.044935159 0.065838873 1.6567113e-38
0.01959949 0.048394598 0.062981725 1.1962381e-38
0.015968509 0.048736498 0.063323438 1.4358028e-38
0.015477546 0.051593922 0.063348711 1.0396507e-38
0.013160877 0.048568249 0.063645899 1.6656775e-38
0.012397386 0.12502226 0.067739248 8.0865711e-39
0.012995668 0.12640327 0.069028735 2.4835493e-39
0.080963731 0.088977762 2.1576881e-05 1.6385967e-38
0.089797869 0.084030993 0.0075887442 2.2952762e-38
0.05242762 0.098870337 0.026075065 1.35301e-38
0.07144168 0.094638877 0.019587278 1.5834237e-38
0.070273675 0.10143949 0.021316648 1.4173645e-38
0.13840353 0.089446165 0.017272472 1.2795772e-38
0.14587429 0.10553591 0.018107712 1.7402301e-38
0.11666017 0.094702274 0.019734919 1.1233442e-38
0.029050671 0.073974699 0.037407398 1.5649123e-38
0.10025715 0.095079891 0.028111339 1.1783411e-38
