# .PCD v0.7 - Point Cloud Data file format
VERSION 0.7
FIELDS x y z quality
SIZE 4 4 4 4
TYPE F F F F
COUNT 1 1 1 1
WIDTH 936
HEIGHT 1
VIEWPOINT 0 0 0 1 0 0 0
POINTS 936
DATA ascii
-0.01252722 -0.023625061 -0.027089531 5.1848043e-44
-0.0075287889 -0.02694753 -0.03206227 5.3249342e-44
0.01352273 -0.0097559486 -0.032318361 5.1848043e-44
0.001546972 -0.041301161 -0.034092579 5.1848043e-44
0.062647618 -0.066981897 0.01400766 4.7644148e-44
0.025517691 0.045234092 -0.024135759 4.9045446e-44
0.02592444 -0.078771673 -0.02236172 5.0446745e-44
-0.01233625 -0.0044046929 -0.043957409 5.3249342e-44
-0.01276831 0.082008369 0.0001643515 5.1848043e-44
0.02859569 0.02480939 -0.02855053 4.9045446e-44
0.01473209 0.04225295 -0.035331659 4.9045446e-44
-0.0081948265 -0.1225692 0.01094238 5.0446745e-44
-0.03466842 0.06864363 0.003838564 5.0446745e-44
0.04254315 -0.06324026 -0.01692261 5.0446745e-44
0.049818579 0.021512819 -0.00087734469 5.1848043e-44
-0.015903929 0.021542151 -0.037832521 5.0446745e-44
0.0061371359 -0.0058074291 -0.042963572 5.3249342e-44
0.025595831 0.07644926 0.0067788269 4.9045446e-44
-0.034901541 0.065247491 -0.0043735472 5.1848043e-44
0.02017607 0.03390054 -0.032305218 4.9045446e-44
0.016703179 0.0025322021 -0.033763409 5.0446745e-44
0.0056804582 -0.038722049 -0.03265021 5.1848043e-44
0.023339281 0.057331741 -0.02181571 4.9045446e-44
0.040193189 0.02841993 -0.01373905 4.9045446e-44
-0.0095723299 -0.083998688 -0.02616437 5.1848043e-44
0.02001746 -0.02877737 -0.018393811 5.0446745e-44
-0.043294359 0.055382591 0.00690859 4.9045446e-44
-0.0056812321 -0.065389343 -0.033772431 5.3249342e-44
0.050427351 0.022642 0.00071078609 4.7644148e-44
-0.02899434 0.0043521519 -0.024070529 5.1848043e-44
-0.03011735 0.0051532062 -0.023494819 5.1848043e-44
0.02907216 0.037332959 -0.024384269 4.9045446e-44
0.00224255 -0.054992162 -0.035057198 4.9045446e-44
0.029265171 0.007744899 -0.02478704 5.0446745e-44
-0.035982382 -0.003825184 -0.01961663 5.3249342e-44
0.02950679 0.020432981 -0.02766946 4.9045446e-44
0.024369329 -0.090688214 -0.018190909 5.0446745e-44
0.056697749 -0.05658038 0.0022823899 4.9045446e-44
-0.048500191 -0.0040623941 -0.01028997 5.3249342e-44
0.02945153 0.01449215 -0.02631247 4.9045446e-44
0.055468839 -0.04021344 -0.00082214572 5.3249342e-44
0.02295208 0.054621339 -0.022513069 4.9045446e-44
-0.0091381278 -0.072047517 -0.031103181 5.3249342e-44
-0.058517508 -0.053441029 0.0046596359 5.1848043e-44
-0.052705329 -0.065925598 -0.0036631031 5.1848043e-44
-0.05398228 0.0036377299 -0.0009072044 5.3249342e-44
0.030031061 -0.1183895 0.019222559 4.7644148e-44
0.004983753 -0.054225441 -0.034917042 5.1848043e-44
0.04769855 0.049444679 0.01195486 4.7644148e-44
-0.020463331 -0.094975337 -0.01965085 5.1848043e-44
0.0095282132 -0.045359761 -0.03139912 5.1848043e-44
-0.052261859 0.0064337198 -0.002422971 5.1848043e-44
-0.0034243669 0.0055466238 -0.05573228 5.3249342e-44
-0.05678986 -0.05967138 0.002251144 5.1848043e-44
0.02087108 0.038387619 -0.02196989 4.9045446e-44
0.040360071 -0.1011765 0.0035586341 4.9045446e-44
-0.042234179 -0.029773951 -0.01251302 5.1848043e-44
-0.001372401 -0.101138 -0.017976999 4.7644148e-44
0.042175069 0.059777379 0.01148052 4.7644148e-44
-0.037593 -0.036970519 -0.01329178 4.9045446e-44
-0.0065649208 0.034856848 -0.032917451 5.1848043e-44
0.054131489 -0.031283561 -0.0027344979 5.1848043e-44
-0.029478719 0.060054138 -0.01758261 5.0446745e-44
0.033185881 0.066054322 -0.0026036091 5.0446745e-44
-0.0004640549 -0.077619269 -0.029075829 5.465064e-44
0.0035825861 -0.0028800161 -0.06146045 5.3249342e-44
-0.043838341 -0.1019096 0.005193816 5.0446745e-44
0.026393659 -0.1060555 -0.004281994 5.0446745e-44
0.01008367 0.01347882 -0.040988259 4.9045446e-44
-0.01215382 -0.1155453 -0.00080168212 5.3249342e-44
0.056660209 0.019166529 0.01030827 4.7644148e-44
-0.025249241 -0.1181597 0.01090107 4.9045446e-44
-0.000104727 -0.1253988 0.01731088 5.0446745e-44
0.0046363352 -0.02433693 -0.04196905 5.1848043e-44
-0.060792532 -0.048050951 0.0098438589 5.1848043e-44
-0.042051081 0.024024909 -0.01046568 5.0446745e-44
-0.038173389 0.01238699 -0.01657317 5.0446745e-44
0.038849339 -0.1032028 0.0041763498 4.7644148e-44
-0.035331011 -0.044434201 -0.02282537 5.0446745e-44
-0.058906309 -0.02278889 0.001645728 5.1848043e-44
0.02239052 -0.081980713 -0.022672661 5.0446745e-44
-0.031187279 -0.1162411 0.01263045 4.9045446e-44
0.060955171 0.0048672692 0.01233891 4.9045446e-44
0.027868509 -0.071320891 -0.0247008 4.9045446e-44
0.0047737588 0.050583109 -0.03280922 5.0446745e-44
-0.0076656211 -0.0081797037 -0.054273479 5.465064e-44
0.01157746 0.047377639 -0.032970831 4.9045446e-44
0.01092551 0.065554529 -0.028427839 4.9045446e-44
-0.035847802 -0.037800539 -0.01147154 5.0446745e-44
0.002802704 0.02134791 -0.04426609 5.0446745e-44
0.025574511 -0.007128777 -0.023280511 5.1848043e-44
0.047592718 -0.095916949 0.0081775431 5.0446745e-44
-0.027842989 -0.081609942 -0.021631651 5.1848043e-44
0.03978999 0.01172123 -0.016191989 4.9045446e-44
-0.057377271 -0.089198627 0.01484083 5.0446745e-44
-0.041526031 0.001108735 -0.01585288 5.1848043e-44
-0.01304771 -0.1009402 -0.017426839 5.0446745e-44
0.04300715 0.018372379 -0.01138125 4.9045446e-44
-0.0079186466 -0.057087991 -0.0350204 5.1848043e-44
0.01810427 0.02495065 -0.036628481 4.9045446e-44
0.045076981 0.03321464 -0.003435462 5.0446745e-44
-0.0096538123 -0.1070286 -0.01237601 5.1848043e-44
0.02765811 -0.025242491 -0.018802941 5.0446745e-44
0.041552629 -0.098065302 0.0012765951 4.9045446e-44
-0.049967051 -0.083869912 -0.001889881 5.3249342e-44
0.050450251 -0.097774401 0.01499666 4.7644148e-44
0.0052378629 -0.1139175 -0.0037478469 5.1848043e-44
0.04647005 0.03378151 -0.0005229034 5.1848043e-44
0.0055479668 -2.8276712e-05 -0.050117571 5.465064e-44
0.01235521 0.03107661 -0.036928691 4.9045446e-44
-0.0232835 -0.085880607 -0.022166541 5.0446745e-44
-0.02297907 -0.1113639 -0.0020619959 5.1848043e-44
0.0048577571 0.02691187 -0.043358989 5.0446745e-44
0.036621541 0.017587621 -0.019638609 4.9045446e-44
0.041402981 -0.1038551 0.008279941 4.9045446e-44
0.056082521 -0.075583868 0.0067158719 5.0446745e-44
-0.01445644 0.054461021 -0.029684469 5.0446745e-44
0.02348862 0.057344381 -0.02167117 4.9045446e-44
0.033121131 0.001816669 -0.021156039 5.0446745e-44
-0.02321367 0.044712968 -0.028359899 4.9045446e-44
0.055454399 -0.01024948 -0.0027986381 5.0446745e-44
0.01859542 -0.078456052 -0.02538971 5.0446745e-44
-0.033886898 -0.087778121 -0.015809409 5.0446745e-44
-0.043814529 -0.078024417 -0.01095823 5.1848043e-44
0.037961312 -0.1078045 0.0093091186 4.9045446e-44
-0.017525719 0.03314792 -0.034469832 5.0446745e-44
-0.039643891 0.007592808 -0.016210521 5.1848043e-44
0.047473472 -0.052118231 -0.01612214 5.0446745e-44
0.041225892 -0.036010731 -0.017738091 5.0446745e-44
-0.048742089 -0.03647428 -0.0083028506 5.3249342e-44
-0.033846442 -0.038356069 -0.01215882 5.1848043e-44
-0.0032061581 0.081891961 -0.0075234622 5.3249342e-44
-0.03026049 -0.109334 0.00031488101 4.9045446e-44
0.039520159 -0.016990701 -0.016316161 4.9045446e-44
-0.038411621 -0.05808989 -0.023730019 5.1848043e-44
-0.043815929 0.041572809 -0.001537557 5.1848043e-44
0.046390612 0.04964019 0.0090924837 4.9045446e-44
0.02492379 0.04346291 -0.025647249 4.9045446e-44
-0.061829198 -0.001355482 0.01229185 5.0446745e-44
0.029971769 -0.041682459 -0.024089331 5.0446745e-44
-0.03604494 0.066409327 0.00078541489 5.1848043e-44
-0.03493109 0.069415152 0.0098926825 5.0446745e-44
0.05902813 -0.02594047 0.00154181 4.9045446e-44
-0.063582763 -0.0087567503 0.01213336 5.0446745e-44
0.063734353 -0.063259281 0.01574466 4.9045446e-44
-0.0070750099 0.00040197239 -0.04974483 5.3249342e-44
-0.0052154791 0.03113015 -0.037398148 5.1848043e-44
0.019542189 0.078308292 -0.003449325 5.0446745e-44
-0.0088188183 0.035446331 -0.032002971 5.1848043e-44
0.01546876 0.03069118 -0.034819331 4.9045446e-44
0.04124907 0.026968891 -0.01215543 4.9045446e-44
0.04645922 0.01229644 -0.0083916113 5.0446745e-44
-0.002300136 -0.0315019 -0.039114479 5.1848043e-44
-0.01781808 0.033524439 -0.034356941 5.0446745e-44
0.036946051 -0.043226041 -0.02285072 5.0446745e-44
-0.032153718 -0.075362727 -0.02167381 5.1848043e-44
0.042471491 0.02336459 -0.01127546 4.9045446e-44
-0.0060836361 0.0485349 -0.034527581 5.0446745e-44
-0.059856579 -0.050894771 0.0079367245 5.1848043e-44
-0.004141273 -0.096815653 -0.021043841 5.3249342e-44
-0.061777581 -0.042079739 0.0116774 4.9045446e-44
0.047830861 -0.041536029 -0.01169298 5.0446745e-44
0.039615441 0.025555501 -0.0152496 4.6242849e-44
0.0015169739 0.072017148 -0.02794853 5.0446745e-44
-0.03805767 -0.04527209 -0.021998011 5.1848043e-44
-0.0047472981 0.070753887 -0.02886658 5.1848043e-44
0.02783337 -0.01728889 -0.020511329 5.0446745e-44
0.0071572931 -0.001061555 -0.041875832 5.3249342e-44
0.057545889 -0.072879568 0.0080540059 5.0446745e-44
-0.003466205 -0.124476 0.01528473 4.9045446e-44
-0.01329085 -0.01992091 -0.028745219 5.1848043e-44
0.00085162529 -0.087421313 -0.025437521 5.3249342e-44
-0.03720209 0.03089744 -0.016807189 5.0446745e-44
0.040684991 0.058171421 0.0048231678 4.9045446e-44
-0.063235447 -0.0056753629 0.01346495 5.1848043e-44
-0.040705591 0.042583428 -0.006302875 5.1848043e-44
0.04917305 0.03102063 0.00285111 4.7644148e-44
0.0092316493 0.033306919 -0.032976799 4.9045446e-44
-0.01307765 0.030575739 -0.035682231 5.0446745e-44
-0.004160834 -0.041547939 -0.032636549 5.3249342e-44
0.0020544659 0.0087426174 -0.048129559 5.1848043e-44
-0.029002029 -0.097864427 -0.01315465 5.1848043e-44
-0.019231729 0.002671944 -0.029369799 5.0446745e-44
-0.031443361 -0.1117392 0.0049641621 5.0446745e-44
-0.030026169 0.065954067 -0.01436585 5.0446745e-44
-0.051790569 -0.07559558 -0.0018420611 5.3249342e-44
-0.034760181 -0.0086196521 -0.01963558 5.3249342e-44
-0.032305811 -0.1022653 -0.006805033 5.1848043e-44
0.035737231 0.065714821 0.0042410991 4.9045446e-44
-0.036597591 0.0061743758 -0.019099651 5.1848043e-44
-0.027414979 -0.036919821 -0.02202603 5.1848043e-44
0.04920698 0.019907489 -0.00245855 4.9045446e-44
-0.03329578 -0.078278877 -0.019745439 5.1848043e-44
-0.015852731 -0.05330297 -0.033042949 5.1848043e-44
-0.054236781 -0.01304963 -0.005318976 5.3249342e-44
-0.01433075 0.028022461 -0.038029 4.7644148e-44
-0.029826241 -0.0095217153 -0.021546129 5.3249342e-44
-0.040518329 -0.068505421 -0.01751353 5.1848043e-44
0.043764051 -0.051981948 -0.01995587 5.0446745e-44
-0.024822 0.067158774 -0.021355711 4.7644148e-44
-0.0094286874 -0.0074774572 -0.050469249 5.465064e-44
0.01229406 0.030568879 -0.03533981 4.9045446e-44
-0.0038125429 -0.003658073 -0.04604831 5.465064e-44
0.021498511 0.064588644 -0.022096179 4.9045446e-44
-0.01344722 -0.1085958 -0.0097285481 5.1848043e-44
0.05796181 -0.043702628 0.003123753 5.0446745e-44
0.00061331567 0.07892324 -0.016780229 5.1848043e-44
0.05218944 0.0138136 1.6846241e-05 4.9045446e-44
-0.019042499 -0.1091656 -0.0072579649 5.0446745e-44
0.02073952 -0.025153439 -0.02230271 5.0446745e-44
0.0073004579 0.056920871 -0.03082281 5.0446745e-44
0.032441858 -0.064375177 -0.024867769 5.0446745e-44
-0.056397699 -0.08041501 0.0069988491 5.0446745e-44
0.048754949 -0.037669752 -0.0087085702 5.0446745e-44
0.01572842 0.079091743 -0.0069765719 5.0446745e-44
-0.062810883 -0.006549417 0.01149762 5.1848043e-44
0.01564688 0.01320681 -0.036912162 4.9045446e-44
-0.01455099 -0.074825399 -0.02913953 5.0446745e-44
0.0082035549 -0.098079696 -0.01914387 5.0446745e-44
0.039195579 -0.048499659 -0.02249597 5.0446745e-44
-0.058317859 -0.037859879 0.0033542309 5.1848043e-44
-0.053933129 0.016205659 0.0042634238 5.0446745e-44
-0.04989228 -0.066999383 -0.007252635 5.3249342e-44
0.03027848 -0.1049848 -0.0026493331 5.0446745e-44
0.032070149 -0.1050766 -0.00087619649 5.1848043e-44
-0.02715118 -0.025211999 -0.0217473 4.7644148e-44
0.038839079 -0.056474071 -0.0230421 4.9045446e-44
0.038661361 -0.066151559 -0.01914412 5.0446745e-44
-0.047345519 -0.088879377 -0.003439215 5.3249342e-44
-0.052973829 0.03116864 0.0097665582 5.0446745e-44
0.03041717 0.054075912 -0.016276339 4.9045446e-44
-0.051654618 0.01848075 0.001509901 5.0446745e-44
-0.02105411 0.031796869 -0.030937379 5.0446745e-44
0.0210429 0.079558149 0.0098717902 4.6242849e-44
-0.02595683 -0.1053057 -0.00805627 5.0446745e-44
0.02344799 -0.0066007762 -0.02466739 5.1848043e-44
-0.03548152 0.06164325 -0.0064216959 5.1848043e-44
-0.006023522 -0.093840428 -0.022604089 5.3249342e-44
0.049733792 -0.03735305 -0.0074994341 5.1848043e-44
-0.036595762 0.046586741 -0.01104841 5.0446745e-44
0.062874474 -0.01335335 0.0087919859 5.0446745e-44
0.0089477412 0.072918043 -0.025870601 4.9045446e-44
-0.027505189 0.01594514 -0.027675521 5.0446745e-44
-0.049354311 -0.032874491 -0.007026027 5.3249342e-44
-0.01110536 0.001469298 -0.048854899 5.0446745e-44
0.0063296622 -0.038245209 -0.031010291 5.1848043e-44
0.01039146 -0.108742 -0.0091724759 4.9045446e-44
0.061748601 -0.040792368 0.0093667367 4.9045446e-44
-0.044429429 -0.06059397 -0.017474519 5.1848043e-44
-0.01901444 0.080492407 0.0084835738 5.0446745e-44
0.003508195 0.045462001 -0.03737868 4.7644148e-44
0.0096526342 -0.0077989949 -0.04934812 5.3249342e-44
0.0071334839 0.036374431 -0.031684309 5.0446745e-44
0.061009541 -0.02296228 0.004182071 5.0446745e-44
0.019396899 -0.018070361 -0.02410046 4.9045446e-44
-0.023380879 0.066982269 -0.022972589 5.0446745e-44
0.05278559 0.010646 -0.0001799217 4.9045446e-44
-0.04011913 0.055710781 -0.0019936371 5.1848043e-44
-0.051808011 -0.1013708 0.01733139 4.9045446e-44
0.03393691 0.038451571 -0.019464729 4.9045446e-44
0.0073541468 0.069405623 -0.028375279 5.0446745e-44
0.051090971 0.01181864 -0.002222701 5.0446745e-44
-0.05361224 0.01247218 0.002155605 5.0446745e-44
0.02385537 0.074905537 -0.0050719841 5.0446745e-44
-0.023077421 -0.1008152 -0.01427837 5.0446745e-44
-0.04738678 -0.0064709131 -0.01167447 5.3249342e-44
-0.020916261 -0.1148483 0.001913946 5.0446745e-44
0.0564931 -0.03120435 -0.00014455221 5.1848043e-44
0.009091544 0.035629611 -0.031594649 5.0446745e-44
-0.056384481 -0.067918397 0.003258789 5.0446745e-44
0.036167759 -0.101237 -0.0015016081 4.9045446e-44
-0.0025233091 -0.1251393 0.0168985 4.9045446e-44
-0.0093313837 -0.1236774 0.01422724 5.0446745e-44
0.0082021086 0.02817921 -0.02981909 5.0446745e-44
-0.050019082 -0.1043908 0.018133741 4.9045446e-44
0.05076902 -0.00290104 -0.0066789938 5.1848043e-44
-0.0132414 -0.030747309 -0.021738941 5.0446745e-44
0.026304539 -0.087944627 -0.018512011 5.0446745e-44
-0.01309309 -0.016850799 -0.030482849 5.0446745e-44
-0.018277811 -0.0095185079 -0.0279146 5.1848043e-44
0.055246599 -0.03426379 -0.001233805 5.0446745e-44
-0.0057266792 0.0033106571 -0.054354679 5.3249342e-44
-0.02665481 0.0185638 -0.029464681 4.9045446e-44
0.002870962 0.052880011 -0.03227393 5.0446745e-44
0.0026900561 -0.091039121 -0.023599871 5.1848043e-44
0.003241777 0.0154924 -0.04521009 4.9045446e-44
-0.05429139 -0.068376519 -0.0004483563 5.465064e-44
0.033068258 0.067713261 0.001366044 4.9045446e-44
-0.05189167 -0.05056284 -0.01062725 5.1848043e-44
-0.055261411 -0.01725181 -0.0036707011 5.3249342e-44
-0.0371534 -0.045419421 -0.0224375 4.9045446e-44
-0.0045216968 -0.1140433 -0.0041377619 5.3249342e-44
0.0063938391 -0.1222038 0.01048577 4.9045446e-44
-0.04378175 0.02998885 -0.0064676008 5.1848043e-44
0.046428591 -0.1031152 0.01468286 4.7644148e-44
0.049885169 -0.072549701 -0.002976751 5.0446745e-44
-0.032467149 0.01956532 -0.023264481 5.0446745e-44
-0.051136728 -0.093080871 0.0061263498 5.0446745e-44
0.008217087 0.04108832 -0.03911778 5.0446745e-44
0.0071928748 0.047684271 -0.034307491 5.0446745e-44
-0.016098561 0.0795433 -0.0078815985 5.0446745e-44
0.0032290451 0.063670792 -0.031295739 5.0446745e-44
0.024614161 0.077297971 0.0085432427 4.9045446e-44
0.005736365 0.00036933139 -0.058529191 5.3249342e-44
0.0061449292 0.082230806 -0.0047456808 5.1848043e-44
-0.044975322 -0.09893316 0.003241891 5.1848043e-44
-0.020586239 0.03077196 -0.02965554 5.0446745e-44
0.040635079 0.034509629 -0.01116103 4.9045446e-44
-0.03085489 -0.1130684 0.0065906472 5.0446745e-44
0.050879769 -0.05536196 -0.01032403 5.0446745e-44
-0.0141644 -0.1122162 -0.0049116309 5.0446745e-44
-0.02342918 -0.1066139 -0.0080310609 5.1848043e-44
0.0005646809 -0.1132236 -0.0054306658 5.3249342e-44
-0.020146521 0.01393363 -0.03289694 5.0446745e-44
-0.044115901 -0.0074856202 -0.01439289 5.0446745e-44
0.060649239 -0.077305421 0.015752619 4.9045446e-44
-0.06013165 -0.025350491 0.0043217111 5.1848043e-44
0.032454122 -0.1163702 0.01747792 4.7644148e-44
0.0047681062 0.055655111 -0.031533141 5.0446745e-44
0.059457161 -0.037060909 0.0048688352 5.0446745e-44
-0.038378499 -0.064159803 -0.02169501 4.9045446e-44
-0.0054607089 0.077193387 -0.021890281 5.1848043e-44
-0.026870489 -0.036962781 -0.02115434 5.1848043e-44
-0.04945315 -0.04481595 -0.01239356 5.1848043e-44
-0.01390244 0.001797501 -0.040172402 5.0446745e-44
-0.025967561 0.003470605 -0.025651081 5.1848043e-44
-0.037889902 -0.03559855 -0.01725552 5.0446745e-44
0.062757798 -0.029918879 0.0092242649 4.9045446e-44
0.00079134671 0.003703936 -0.060877491 5.3249342e-44
-0.0076980041 0.018622071 -0.042816531 5.1848043e-44
-0.005657326 0.082849652 -0.001865617 5.3249342e-44
-0.058669221 -0.051054042 0.0048352629 5.1848043e-44
-0.035400011 0.032858241 -0.018712539 5.0446745e-44
0.057007 -0.001869907 0.001871099 4.9045446e-44
-0.0034032119 -0.05603772 -0.035172291 5.3249342e-44
-0.0226928 0.067587301 -0.02344889 4.7644148e-44
-0.0054682642 0.030401809 -0.033983201 5.0446745e-44
0.037021801 -0.00351463 -0.017980261 4.9045446e-44
0.027982309 0.01196311 -0.0266851 4.7644148e-44
-0.0079697249 0.064253882 -0.031518359 5.1848043e-44
0.0234375 0.066605419 -0.019334059 4.7644148e-44
-0.040371481 0.048366319 -0.00453954 5.0446745e-44
0.025141319 0.074104667 -0.0041888868 5.0446745e-44
0.02164256 -0.097113691 -0.01545416 5.0446745e-44
0.0050584669 -0.003831519 -0.0424826 5.1848043e-44
0.03730385 -0.092476577 -0.0091581102 5.0446745e-44
-0.05977641 -0.030010849 0.0047692941 5.1848043e-44
-0.01213398 -0.1168679 0.001130918 5.0446745e-44
0.0035286481 -0.1137411 -0.0042602448 5.1848043e-44
0.01047684 0.03073154 -0.03537111 4.9045446e-44
0.04691647 -0.04602148 -0.01566389 5.0446745e-44
0.04498833 -0.05518797 -0.01852042 5.0446745e-44
0.02540241 -0.046927691 -0.026991161 5.0446745e-44
-0.0293134 -0.02414716 -0.02116489 5.0446745e-44
-0.001361338 -0.1030897 -0.016477089 5.1848043e-44
0.01470587 0.01358972 -0.037743941 4.9045446e-44
-0.024776241 0.060444571 -0.02266182 5.0446745e-44
-0.053367268 0.0038614499 -0.001789687 5.1848043e-44
0.00337194 0.04488324 -0.037889119 4.9045446e-44
-0.039400991 -0.01736621 -0.01691748 5.1848043e-44
0.022494899 0.07562463 -0.0061896541 4.9045446e-44
0.001915531 0.041712329 -0.040021621 5.0446745e-44
0.035851061 -0.1051788 0.003108768 4.9045446e-44
0.02000034 -0.055360369 -0.03193 4.6242849e-44
-0.01461239 0.0048253299 -0.035155378 5.0446745e-44
-0.029559789 -0.078344584 -0.02190223 5.1848043e-44
-0.058095928 -0.053595159 0.0035032991 5.1848043e-44
0.0253668 0.073410727 -0.0054141399 4.7644148e-44
-0.05443716 -0.043472391 -0.0046625012 5.3249342e-44
-0.01378071 0.0028330821 -0.039966822 5.1848043e-44
-0.01039201 0.03109953 -0.03511598 5.0446745e-44
-0.04385215 -0.09755706 -4.0908733e-05 5.465064e-44
-0.0034249621 0.034952421 -0.033332519 5.1848043e-44
-0.01458046 0.04487212 -0.034434099 4.9045446e-44
-0.037042521 -0.02712873 -0.018651949 5.1848043e-44
-0.015999811 -0.018379159 -0.026876669 5.1848043e-44
-0.01139813 0.036168199 -0.03063087 4.9045446e-44
-0.001032696 0.059097409 -0.032619331 5.1848043e-44
-0.01014773 -0.021469399 -0.031981159 5.0446745e-44
-0.030473741 -0.050778121 -0.026200309 5.1848043e-44
0.03801506 0.01199278 -0.018054411 4.9045446e-44
0.042733829 0.02147327 -0.01145284 4.9045446e-44
-0.04060594 -0.01185498 -0.016532909 5.1848043e-44
0.017198339 0.0029794001 -0.032839332 4.7644148e-44
-0.03204434 0.002520927 -0.022262329 5.1848043e-44
0.01696126 -0.01579367 -0.0266842 4.9045446e-44
0.01104769 0.043514501 -0.036649119 4.7644148e-44
0.042259429 -0.078189857 -0.01045349 5.0446745e-44
-0.05935622 -0.085881509 0.01635216 5.0446745e-44
-0.01926709 0.075781837 -0.01605349 5.0446745e-44
-0.057438519 -0.03302199 0.001884037 5.1848043e-44
0.045213029 0.04479643 0.003278042 4.9045446e-44
0.02891665 0.01896514 -0.02801786 4.9045446e-44
-0.052839961 0.019914379 0.003967552 5.0446745e-44
-0.006453529 0.05816792 -0.03206899 5.1848043e-44
0.049387649 0.001240831 -0.007406475 5.1848043e-44
0.002492555 0.032158181 -0.036070108 5.0446745e-44
-0.030999601 -0.076618642 -0.021881601 4.9045446e-44
-0.04743116 -0.1024162 0.01122762 4.9045446e-44
-0.055093531 -0.054696139 -0.0031350809 5.3249342e-44
-0.016609 -0.0039415448 -0.030389059 5.0446745e-44
0.048365921 -0.063033968 -0.0092961704 5.0446745e-44
0.02103043 0.073650308 -0.01471102 4.9045446e-44
-0.033253539 -0.079498127 -0.019227831 5.1848043e-44
-0.047313791 -0.046686038 -0.015716011 5.1848043e-44
0.042193592 -0.093221247 -0.0028837039 5.1848043e-44
0.01123584 -0.029251181 -0.025074139 5.0446745e-44
-0.018879499 0.04001876 -0.02316457 4.9045446e-44
-0.0054516289 -0.003841232 -0.06003416 5.465064e-44
-0.029222211 -0.1200867 0.019104831 4.9045446e-44
-0.042341739 -0.068456709 -0.015709059 5.1848043e-44
-0.01210665 0.073764332 -0.02543921 5.0446745e-44
0.03026926 -0.03535974 -0.02353978 5.0446745e-44
-0.01549367 0.02737315 -0.03768314 5.0446745e-44
-0.02391058 -0.01106738 -0.02411164 5.1848043e-44
-0.02784762 -0.03844066 -0.02337005 5.1848043e-44
-0.030350739 -0.099074431 -0.01138409 5.1848043e-44
-0.016564 -0.1181322 0.0051417341 4.7644148e-44
0.061198559 -0.01006453 0.006158289 5.0446745e-44
0.062092319 -0.069333613 0.01369554 4.9045446e-44
-0.036537331 0.059582539 -0.00610292 5.0446745e-44
-0.036410522 -0.00035908859 -0.01942342 5.465064e-44
-0.01138466 0.03590633 -0.03940485 5.0446745e-44
0.06632857 -0.02256044 0.01495026 4.9045446e-44
-0.040869389 0.00709954 -0.01520786 5.0446745e-44
0.0074861101 -0.1187812 0.0042069168 4.9045446e-44
-0.020563081 0.07794176 -0.0067327861 5.1848043e-44
-0.054720379 0.0048807659 0.00083629932 5.3249342e-44
0.03694671 0.050447918 -0.0095020803 4.9045446e-44
0.0297202 -0.060303722 -0.02788219 4.9045446e-44
0.02331136 -0.096580282 -0.01520642 5.0446745e-44
-0.04849904 0.044578709 0.0091628246 5.0446745e-44
-0.056511551 0.01434325 0.0085378429 5.0446745e-44
-0.01430905 0.001399379 -0.03866943 5.1848043e-44
0.0052738609 0.0071215131 -0.04500699 5.1848043e-44
0.055615161 -0.081762441 0.0093186786 5.0446745e-44
-0.052913941 -0.067125037 -0.0029397991 5.3249342e-44
-0.033854641 0.061386459 -0.0096998429 5.1848043e-44
0.0282345 0.0230518 -0.028952571 4.6242849e-44
0.028076701 0.071282908 -0.00391221 4.7644148e-44
-0.01296249 0.027880451 -0.02805285 5.0446745e-44
-0.0030447389 0.083678223 0.0097970599 5.0446745e-44
-0.035620879 0.03242024 -0.018531751 5.0446745e-44
0.04303332 0.05448452 0.0074952552 4.9045446e-44
0.058202751 -0.0080723735 0.00139774 5.0446745e-44
-0.025459841 -0.04920496 -0.02655657 5.1848043e-44
0.032009602 0.06690868 -0.00363584 4.7644148e-44
0.01743021 0.037299719 -0.025686679 4.9045446e-44
-0.022016861 0.05448322 -0.025058201 4.9045446e-44
-0.040581871 -0.04706249 -0.020915549 5.1848043e-44
-0.02265186 -0.01292374 -0.02442617 5.1848043e-44
0.056251671 -0.0508609 -0.00015404211 5.1848043e-44
0.0099422187 -0.040161211 -0.027103219 5.1848043e-44
0.024801141 0.074268498 -0.0046208319 4.9045446e-44
-0.0061084009 0.043115031 -0.038610581 5.1848043e-44
0.045973431 0.017880321 -0.0079190433 5.0446745e-44
0.0091528799 0.00080572069 -0.049860049 5.1848043e-44
0.02300778 0.01310135 -0.03094806 4.9045446e-44
0.01840915 0.079445153 -0.001500066 5.0446745e-44
0.00026868749 -0.1228449 0.0104685 4.9045446e-44
0.031742871 0.068948694 0.00055513968 5.0446745e-44
-0.02778268 0.044178661 -0.02379854 5.0446745e-44
0.01917371 -0.087626614 -0.021574739 5.0446745e-44
-0.01060087 0.082771838 0.0048348182 5.0446745e-44
0.058427408 0.01321008 0.01101992 4.7644148e-44
-0.005945019 0.079465151 -0.01467977 5.1848043e-44
0.05348992 -0.078705743 0.004621061 5.0446745e-44
0.063419953 -0.0059262528 0.01312602 5.0446745e-44
-0.001345896 -0.044590581 -0.03356415 5.3249342e-44
3.7334954e-05 -0.051676471 -0.034772139 5.3249342e-44
0.046216831 -0.06396357 -0.01178615 5.0446745e-44
-0.044125509 -0.03401117 -0.01310612 5.1848043e-44
0.037695169 -0.1074057 0.0083451774 4.9045446e-44
0.06469734 -0.031920418 0.01263511 4.9045446e-44
-0.01504731 0.055082411 -0.029199939 5.0446745e-44
0.043240771 -0.052697349 -0.020350309 5.0446745e-44
0.0054745772 -0.083962619 -0.02628462 5.1848043e-44
0.053683039 0.025381809 0.008078387 4.9045446e-44
-0.034332339 -0.00095086999 -0.02061503 5.1848043e-44
0.00051102787 -0.032882139 -0.039450198 5.1848043e-44
-0.001654354 -0.1177634 0.00094178051 5.3249342e-44
-0.06019064 -0.084107213 0.01712833 5.0446745e-44
0.0045236731 -0.12500019 0.01754766 4.9045446e-44
0.03090556 0.049945392 -0.0172322 4.7644148e-44
0.062969036 -0.048686329 0.01298606 4.9045446e-44
0.06049183 -0.0090625519 0.0049101622 5.1848043e-44
-0.00084482168 0.004124328 -0.060643181 5.465064e-44
0.044055279 0.038034972 -0.00265819 4.9045446e-44
0.03900959 -0.1097702 0.01371365 4.7644148e-44
0.06053438 -0.05836701 0.0099972896 4.9045446e-44
0.0093067093 -0.1243923 0.01726938 4.9045446e-44
0.001223686 -0.02040598 -0.049282908 5.1848043e-44
-0.039844509 -0.034879111 -0.01541127 5.1848043e-44
0.04107086 0.043162301 -0.006244279 4.9045446e-44
0.004948671 0.083193757 0.00098771113 5.1848043e-44
-0.01681082 -0.01139028 -0.028483439 5.1848043e-44
0.050655961 -0.054427922 -0.0111238 4.9045446e-44
-0.04129301 0.045624871 -0.004160509 5.1848043e-44
-0.034383189 -0.07237871 -0.02145325 5.1848043e-44
-0.062046099 -0.03589239 0.01042311 4.9045446e-44
-0.057237159 -0.06091449 0.003331312 5.1848043e-44
-0.0097696772 -0.003782711 -0.052780181 5.465064e-44
-0.033192828 -0.068453901 -0.02406339 5.0446745e-44
-0.0079139173 0.062684663 -0.031863838 5.1848043e-44
0.01706503 -0.098679833 -0.016403411 5.0446745e-44
-0.01254147 -0.01432132 -0.031911962 5.1848043e-44
0.020398401 0.034307439 -0.032246299 4.6242849e-44
-0.059728969 -0.063072629 0.0086714625 5.1848043e-44
0.007238897 -0.1080149 -0.01078228 5.0446745e-44
-0.021542041 -0.02942648 -0.02162938 5.1848043e-44
-0.037691262 -0.1006203 -0.0037611241 5.1848043e-44
0.027100749 -0.0062989271 -0.02271796 5.1848043e-44
0.063817218 -0.038175359 0.0129895 4.7644148e-44
-0.04597903 -0.079798877 -0.0080915131 5.3249342e-44
0.033262201 0.060868721 -0.0085470052 4.9045446e-44
-0.025867971 0.065256022 -0.021109531 5.0446745e-44
0.04987165 -0.04266993 -0.0098457122 5.1848043e-44
0.00085224089 0.076557048 -0.02294622 5.1848043e-44
0.056502219 -0.083146401 0.01175916 4.7644148e-44
0.01226777 -0.02420906 -0.028442239 5.0446745e-44
-0.03209452 -0.1129203 0.007373984 5.0446745e-44
0.037916861 0.02897449 -0.01715043 4.9045446e-44
0.002539569 0.065063022 -0.031022079 5.0446745e-44
-0.03120785 0.070954323 -0.0025991639 5.1848043e-44
0.019939819 -0.063769758 -0.031075509 5.0446745e-44
0.04046813 -0.1085835 0.01380537 4.7644148e-44
-0.01114844 0.003333088 -0.045776218 5.1848043e-44
0.034566611 -0.1039791 0.00024865411 5.0446745e-44
-0.047859099 -0.00032036201 -0.01025967 5.1848043e-44
-0.019907501 -0.077457309 -0.026418 4.7644148e-44
0.01592648 -0.04154937 -0.02519197 5.0446745e-44
-0.050314739 0.042566959 0.01130674 4.9045446e-44
-0.045807049 -0.083048902 -0.0073295422 5.1848043e-44
0.002079638 0.081900947 -0.0073443172 5.1848043e-44
0.0066602272 -0.0036641359 -0.046578821 5.3249342e-44
0.042579081 -0.080768533 -0.0094358474 5.1848043e-44
0.01261341 -0.1196417 0.0079420097 4.7644148e-44
-0.0571867 -0.033748422 0.001633872 5.0446745e-44
0.02794452 0.004058579 -0.02482043 5.0446745e-44
0.048852239 0.01218595 -0.0053547849 5.0446745e-44
-0.0067071621 0.063998237 -0.03169452 5.1848043e-44
-0.03027772 -0.01585087 -0.020559739 5.1848043e-44
-0.034633569 -0.053395491 -0.02598979 5.1848043e-44
0.023282209 0.052472029 -0.02287841 4.9045446e-44
0.03400242 0.01631419 -0.022333769 4.9045446e-44
0.039182879 -0.078652382 -0.01326013 5.0446745e-44
-0.033953059 0.02770677 -0.021897759 5.0446745e-44
-0.00093049702 -0.027980549 -0.04285745 5.3249342e-44
-0.04084859 -0.036411282 -0.018065231 5.1848043e-44
-0.021007661 0.022346459 -0.034066521 5.0446745e-44
-0.03797913 0.042887501 -0.01057161 4.9045446e-44
-0.041171368 0.061521001 0.0085006226 4.7644148e-44
0.02325956 -0.04312719 -0.025419131 5.0446745e-44
-0.01951178 -0.0086483713 -0.027306519 5.3249342e-44
-0.04484313 -0.030547909 -0.0114204 5.0446745e-44
-0.045529991 0.043308452 0.0019577439 5.0446745e-44
-0.046082981 -0.1081948 0.017387031 4.9045446e-44
-0.03478827 0.055377301 -0.01067644 4.9045446e-44
-0.01013287 -0.077728793 -0.028467759 5.1848043e-44
0.057189271 -0.040380839 0.001358879 5.0446745e-44
0.038738791 -0.065450169 -0.0194194 4.9045446e-44
-0.020198921 -0.050037518 -0.02919068 5.1848043e-44
-0.038824052 0.054471821 -0.0043741199 5.0446745e-44
0.01494992 -0.1105061 -0.0054202131 5.0446745e-44
-0.0048351302 0.001573615 -0.059716608 5.1848043e-44
-0.0085734557 -0.04203736 -0.02806757 5.3249342e-44
-0.01715762 -0.002377162 -0.03012022 5.3249342e-44
0.045810349 -0.063653462 -0.01249734 5.0446745e-44
-0.009022126 0.03521632 -0.040200971 5.1848043e-44
-0.055616621 -0.0094381822 -0.0029712559 5.465064e-44
-0.0092983181 -0.0209176 -0.03398294 5.1848043e-44
-0.0037996699 0.00061542907 -0.05162954 5.3249342e-44
-0.034203269 0.01494955 -0.020673729 5.0446745e-44
0.02924414 -0.01562309 -0.01982512 5.0446745e-44
-0.032701969 0.0537274 -0.01437594 4.9045446e-44
0.01719393 0.015775571 -0.03658824 4.9045446e-44
-0.042367321 -0.098669171 -0.00066265848 5.465064e-44
0.01081475 0.081832297 -0.0033488381 4.9045446e-44
0.042140491 -0.064808063 -0.01661399 5.0446745e-44
-0.03102294 -0.02468764 -0.02114439 5.1848043e-44
0.005857049 -0.096009769 -0.020863229 5.1848043e-44
-0.051229309 -0.079462454 -0.0016498551 5.3249342e-44
0.0580323 -0.013745 -0.00026606719 4.9045446e-44
0.041364022 -0.035030611 -0.01720012 5.0446745e-44
0.023460411 -0.1193426 0.01443796 4.7644148e-44
-0.02960554 -0.059106339 -0.028591171 5.1848043e-44
-0.02507049 -0.098506957 -0.01511841 5.1848043e-44
-0.05895542 -0.050965279 0.0056219101 5.0446745e-44
0.01360719 0.0580801 -0.028126691 4.7644148e-44
0.00485862 0.038601208 -0.03034398 4.9045446e-44
0.029349349 0.038817029 -0.02375743 4.9045446e-44
-0.05734013 -0.038542811 0.001489122 5.1848043e-44
-0.057239071 0.0072439881 0.00642122 5.0446745e-44
0.0001496542 -0.1080771 -0.01156242 5.1848043e-44
0.036657222 0.034039959 -0.017470639 4.9045446e-44
-0.0030199019 0.0047894348 -0.0582923 5.1848043e-44
-0.064661458 -0.029806031 0.01446984 5.0446745e-44
-0.0022527589 0.070072487 -0.029417681 5.1848043e-44
0.0150377 -0.101871 -0.01464753 4.6242849e-44
0.0094742822 -0.1180263 0.003317419 5.0446745e-44
-0.003700197 -0.1066262 -0.01302205 5.1848043e-44
0.016052449 0.03070032 -0.03220452 4.9045446e-44
0.057591811 -0.078609809 0.01024719 4.9045446e-44
-0.03737973 -0.047969889 -0.022712801 5.0446745e-44
0.04145959 -0.03216226 -0.01572693 5.0446745e-44
0.0068271202 -0.03071999 -0.031621732 5.0446745e-44
0.017827051 -0.099132113 -0.01576364 5.0446745e-44
0.0097403321 0.061942339 -0.02961529 5.0446745e-44
0.06420587 -0.027143691 0.01143336 4.9045446e-44
-0.040991839 0.06215398 0.0092684906 5.0446745e-44
-0.02890162 0.074371561 0.0086039631 5.0446745e-44
-0.034410968 -0.1120223 0.0083753634 5.0446745e-44
-0.002954805 -0.00125595 -0.062277779 5.3249342e-44
-0.059693228 -0.01272877 0.0020239709 5.1848043e-44
-0.023985799 -0.03613507 -0.022056101 4.9045446e-44
-0.008187755 -0.0040918519 -0.044328559 5.465064e-44
0.038025871 -0.098797999 -0.002237058 4.9045446e-44
-0.022914341 0.0058307629 -0.02777111 5.1848043e-44
0.00098478456 0.02680156 -0.02876069 5.1848043e-44
-0.03202188 -0.09515629 -0.01338956 5.1848043e-44
0.048667889 0.041363761 0.0085403044 4.9045446e-44
-0.06072348 -0.0078101149 0.0055983192 5.3249342e-44
0.035735112 -0.1128736 0.0149489 4.6242849e-44
0.001390068 0.058861259 -0.032145049 5.0446745e-44
0.040391419 -0.070360579 -0.01549388 5.0446745e-44
0.06051698 -0.051290728 0.0080696549 5.0446745e-44
0.003022304 -0.095337123 -0.021574751 5.1848043e-44
0.0022023569 0.0056214342 -0.054618139 5.1848043e-44
0.035654981 -0.05670071 -0.025039781 5.0446745e-44
-0.04321406 -0.034257062 -0.01434277 5.1848043e-44
0.0047565061 0.069678009 -0.028657399 4.9045446e-44
-0.05393355 -0.01169433 -0.0054922518 5.3249342e-44
-0.05187666 0.015874609 0.00079349498 5.0446745e-44
-0.006731614 -0.04250516 -0.030255269 5.3249342e-44
-0.03019133 -0.1146258 0.008622231 5.0446745e-44
0.0187875 0.021221761 -0.036104359 4.7644148e-44
-0.039883912 -0.06656225 -0.019088181 5.1848043e-44
-0.005027859 -0.018764131 -0.046321239 5.3249342e-44
0.046571799 -0.074453533 -0.006651707 5.0446745e-44
-0.023168299 0.037093479 -0.029951351 4.9045446e-44
0.042602129 -0.063723817 -0.016607741 5.0446745e-44
0.01260725 -0.04289183 -0.027671561 5.0446745e-44
-0.0143788 -0.102979 -0.01552531 4.7644148e-44
-0.053477779 -0.01841053 -0.0054912642 5.3249342e-44
-0.029684041 0.073757067 0.0099210208 5.0446745e-44
-0.030443881 0.051569 -0.017847881 4.7644148e-44
0.023671839 -0.080054231 -0.02285956 5.0446745e-44
-0.04834792 -0.074780568 -0.0068355398 5.1848043e-44
0.01100537 -0.0796021 -0.026913621 4.9045446e-44
2.2250762e-05 0.078917138 -0.016990511 5.1848043e-44
0.019597771 -0.095674589 -0.017335299 4.9045446e-44
-0.04388126 -0.03250907 -0.01281635 5.1848043e-44
-0.01042463 0.077079587 -0.020920269 5.0446745e-44
0.041258849 -0.0903892 -0.0066476571 5.0446745e-44
0.00050092879 0.083645187 0.0043646032 5.1848043e-44
0.0074136318 -0.026738711 -0.033652682 5.1848043e-44
-0.054627929 0.01418341 0.0047896029 5.0446745e-44
-0.02694701 -0.1039801 -0.0087937126 5.1848043e-44
0.0095832571 -0.1215849 0.01013774 4.9045446e-44
0.028924391 0.050611399 -0.018759619 4.7644148e-44
0.0086015267 0.03087176 -0.03596922 5.0446745e-44
-0.043802429 0.01294541 -0.01112034 5.0446745e-44
-0.005428894 0.01328137 -0.044449851 5.1848043e-44
0.056460269 -0.082630143 0.01129712 4.9045446e-44
0.03489995 0.057281978 -0.0085583283 5.0446745e-44
0.002436806 -0.0071639111 -0.05977327 5.3249342e-44
0.04633541 -0.065845698 -0.0106863 4.7644148e-44
0.0003346396 0.040785801 -0.029635239 5.0446745e-44
-0.01450152 -0.01004331 -0.030998981 5.1848043e-44
-0.028956041 0.0210186 -0.027680449 4.9045446e-44
0.05852988 -0.057438832 0.005625031 5.0446745e-44
0.035473298 0.065718129 0.0031145329 4.7644148e-44
0.040290009 -0.064970978 -0.018244401 4.9045446e-44
0.029623231 0.020369999 -0.027547579 4.4841551e-44
-0.061184999 -0.0044299802 0.0085038049 4.9045446e-44
0.054857511 -0.024958121 -0.003424895 5.1848043e-44
0.0027606529 0.0033031299 -0.059994251 5.0446745e-44
0.05090186 -0.079946741 0.001748295 5.0446745e-44
0.029407561 0.02970301 -0.02675405 4.9045446e-44
0.02439161 0.066618003 -0.01830167 4.6242849e-44
0.048850179 -0.030167211 -0.0085207187 5.1848043e-44
-0.054062121 -0.094575226 0.01322537 5.0446745e-44
-0.04787847 0.034114979 0.001525543 5.0446745e-44
-0.036893081 0.066568032 0.005767853 5.0446745e-44
-0.004255401 -0.078946233 -0.028381649 5.3249342e-44
-0.047891811 0.035971351 0.0026443501 4.9045446e-44
-0.056965251 -0.084129758 0.01021968 5.0446745e-44
-0.046313599 0.033681199 -0.001144162 4.9045446e-44
0.058002882 0.001274325 0.004315787 5.0446745e-44
0.035128292 0.053406339 -0.01059035 4.9045446e-44
0.027357491 0.069133013 -0.01075184 4.9045446e-44
0.04464598 0.0067113331 -0.01167159 5.0446745e-44
-0.001788801 0.031337861 -0.037616611 5.1848043e-44
-0.05146179 0.024558149 0.003539732 5.0446745e-44
-0.065310411 -0.026109479 0.01504371 5.0446745e-44
0.0099335164 0.040000159 -0.027774701 4.9045446e-44
0.039737411 -0.093578748 -0.0055286479 5.1848043e-44
-0.01063074 -0.0089024529 -0.040031381 5.3249342e-44
0.028332051 -0.103085 -0.006237417 4.9045446e-44
0.035676099 0.046246272 -0.01352462 4.7644148e-44
-0.05647644 0.018165169 0.01034001 4.9045446e-44
-0.03946007 -0.025261151 -0.01659249 5.1848043e-44
-0.032556061 0.022241181 -0.02380416 5.0446745e-44
-0.0052033262 0.041934621 -0.028403221 5.1848043e-44
-0.002980588 -0.1174496 0.00061169232 5.3249342e-44
-0.04855876 0.027409321 2.7148371e-05 5.1848043e-44
0.02266958 -0.1149836 0.0055769812 4.9045446e-44
0.0038209639 -0.026509721 -0.041768871 5.1848043e-44
0.0059334682 -0.072002172 -0.0308777 5.0446745e-44
-0.01668475 0.01642927 -0.036379371 5.0446745e-44
-0.05668797 -0.063783512 0.002526162 5.1848043e-44
0.05040472 -0.07828062 0.00019448889 5.1848043e-44
-0.026660111 0.074021213 -0.00691314 5.0446745e-44
-0.038495589 0.064031713 0.0059542079 5.0446745e-44
-0.0255024 0.02145941 -0.03079639 4.9045446e-44
-0.065325841 -0.0263 0.01511772 4.4841551e-44
-0.0035471739 -0.1131146 -0.0055081528 5.3249342e-44
-0.037509859 -0.09591271 -0.0084512411 5.3249342e-44
-0.051941078 0.023743929 0.0039953878 5.0446745e-44
0.01413511 0.030829521 -0.034321971 4.9045446e-44
0.0249778 -0.037789822 -0.022801559 4.9045446e-44
0.05118851 0.027697161 0.0046501942 4.9045446e-44
0.01935558 0.074312642 -0.01622952 4.9045446e-44
-0.02542769 0.068959817 -0.019919651 5.0446745e-44
0.0054086018 -0.023841031 -0.040639032 5.1848043e-44
0.024627009 0.074852809 -0.0032656449 5.0446745e-44
-0.01843516 0.07949131 -0.004461667 5.1848043e-44
-0.041718248 0.060581751 0.0081599643 5.0446745e-44
0.021205271 0.03059756 -0.024421019 4.9045446e-44
-0.043991741 -0.064363733 -0.015959959 5.1848043e-44
-0.0051406501 -0.086136259 -0.025743781 5.1848043e-44
0.0075009982 -0.044554591 -0.03190529 5.1848043e-44
0.00085911842 0.0251405 -0.044542059 5.0446745e-44
0.027749529 0.0457967 -0.021916579 4.7644148e-44
0.055752639 0.01174474 0.0054296749 4.9045446e-44
-0.026666541 0.01286332 -0.027075339 5.0446745e-44
-0.0092416788 0.044850059 -0.036587071 5.1848043e-44
0.018993471 -0.02349942 -0.022588531 5.0446745e-44
-0.018691679 0.040562961 -0.033994101 4.9045446e-44
0.056848001 -0.087142743 0.01550651 4.6242849e-44
-0.03397017 -0.078310527 -0.01930692 5.1848043e-44
-0.027989419 -0.050713912 -0.02702387 5.1848043e-44
-0.034373041 -0.06294211 -0.0253856 5.0446745e-44
-0.0065026791 -0.1174441 0.00093888212 5.3249342e-44
-0.0044786339 -0.095768087 -0.02172632 5.3249342e-44
-0.04947494 0.0050250599 -0.006969728 5.1848043e-44
0.034513131 0.068758093 0.01006055 4.7644148e-44
-0.0058440468 -0.027635859 -0.03690939 5.3249342e-44
-0.030192301 -0.1110525 0.0028477791 4.9045446e-44
-0.050092749 -0.0025282199 -0.0085005891 5.3249342e-44
-0.01035663 0.02530252 -0.041524012 5.0446745e-44
0.044003662 0.046136469 0.001561 4.4841551e-44
-0.05622353 -0.0023456351 0.0001117203 5.465064e-44
-0.035763219 0.04559556 -0.01276344 5.0446745e-44
0.017359851 -0.00032857701 -0.031589411 5.1848043e-44
0.0090881484 0.01811433 -0.042169929 5.0446745e-44
0.02498287 0.0233621 -0.031638101 4.6242849e-44
-0.033122059 -0.1181628 0.018779309 4.9045446e-44
-0.022088431 -0.11079 -0.003337078 4.9045446e-44
0.059179731 0.0057478179 0.0085351234 5.0446745e-44
0.044407729 -0.026705541 -0.01338939 5.0446745e-44
-0.02482824 0.0080853729 -0.026966941 5.1848043e-44
-0.03138354 -0.066492893 -0.026006879 5.1848043e-44
-0.0045449701 -0.06597276 -0.033585519 5.1848043e-44
-0.042076532 -0.078858353 -0.01265998 5.1848043e-44
-0.02150216 -0.00076701329 -0.027595401 5.3249342e-44
-0.01212611 0.034646049 -0.038776189 5.0446745e-44
-0.0091790752 0.027714631 -0.041242659 5.1848043e-44
0.02316585 -0.067467242 -0.028609451 5.0446745e-44
0.041092951 -0.050811511 -0.02199113 5.0446745e-44
-0.028424921 0.063329682 -0.01808963 5.0446745e-44
-0.043423329 0.040877528 -0.002513099 5.1848043e-44
0.02978543 0.060655829 -0.0143748 4.7644148e-44
0.040822759 0.038836461 -0.0087676486 5.0446745e-44
0.050395612 -0.070753999 -0.002953012 4.9045446e-44
-0.01250509 0.0046173651 -0.041691288 5.1848043e-44
0.01905299 -0.062365081 -0.031660821 5.0446745e-44
0.021113981 0.03124385 -0.025339309 4.9045446e-44
0.045329019 0.01047448 -0.01011882 4.9045446e-44
-0.02174563 -0.06880223 -0.02968001 5.1848043e-44
0.02721354 0.075335152 0.0089449584 4.9045446e-44
-0.01852297 0.0094409324 -0.031967819 5.1848043e-44
-0.040584952 -0.04413591 -0.0204766 5.0446745e-44
-0.02095212 0.036901731 -0.03223877 5.0446745e-44
0.0047594309 0.0073954719 -0.045553271 5.1848043e-44
0.0080047548 0.01564759 -0.04257714 5.0446745e-44
0.058801599 -0.016673639 0.0002214001 5.0446745e-44
0.046377558 -0.093243383 0.0032751251 5.0446745e-44
0.03483082 0.022370299 -0.022038611 4.7644148e-44
-0.0051347981 -0.089455418 -0.02449554 5.3249342e-44
0.028277669 0.038107831 -0.024795709 4.9045446e-44
-0.032537699 0.070367247 0.00025490989 5.0446745e-44
-0.0060835681 0.083330989 0.0095771374 5.1848043e-44
0.022605481 -0.04222152 -0.02495159 5.0446745e-44
0.04392457 0.05030809 0.0044728732 4.9045446e-44
-0.0063502858 0.082332231 -0.0047784881 5.3249342e-44
0.007479365 -0.01462202 -0.043620739 5.1848043e-44
-0.037332561 0.01996552 -0.01735709 5.0446745e-44
-0.0087683331 0.06223594 -0.031802259 5.1848043e-44
-0.032123111 -0.1050417 -0.0039804471 5.1848043e-44
-0.027668029 0.071190037 -0.01230031 5.0446745e-44
0.055025019 0.02087578 0.007853114 4.9045446e-44
0.034351561 0.008940449 -0.021132819 5.0446745e-44
0.01243651 0.02586432 -0.04042564 4.9045446e-44
0.059992731 0.0099629024 0.01266124 4.9045446e-44
-0.041505098 0.0240993 -0.01115729 4.7644148e-44
0.001585018 -0.001867424 -0.062383521 5.3249342e-44
-0.01293552 0.06526909 -0.029848089 5.0446745e-44
0.002904712 0.078590013 -0.017293479 5.0446745e-44
0.0043504341 -0.081026837 -0.02741288 5.1848043e-44
-0.0076023079 -0.0042972802 -0.05705766 5.3249342e-44
-0.017609579 -0.041399021 -0.022656949 5.1848043e-44
-0.0087351501 0.082800537 0.00030957081 5.1848043e-44
-0.00036381721 -0.033699188 -0.038453091 5.465064e-44
-0.0074001718 0.028470119 -0.02977024 5.1848043e-44
0.0049220622 0.001965479 -0.052475341 5.1848043e-44
0.041427419 0.02737538 -0.01172132 4.9045446e-44
-0.053636819 -0.05581354 -0.005566692 5.3249342e-44
-0.061770789 -0.075285003 0.01618704 4.7644148e-44
-0.02212205 0.075751588 -0.01178106 5.0446745e-44
-0.01297645 0.03066303 -0.034055471 5.0446745e-44
-0.0089364871 0.034150891 -0.040062182 5.1848043e-44
0.01447445 0.033658009 -0.036662821 4.9045446e-44
-0.044821769 -0.056742169 -0.018851399 5.0446745e-44
-0.031007711 -0.025805149 -0.01863254 5.1848043e-44
-0.041862451 0.022604641 -0.01111105 5.0446745e-44
-0.03047286 -0.1132522 0.006552767 5.0446745e-44
0.046600688 -0.03955077 -0.01197762 5.0446745e-44
0.0094786463 -0.071282417 -0.030669751 5.1848043e-44
-0.002954646 -0.1245223 0.01530599 5.0446745e-44
-0.0095210411 -0.01515177 -0.037288111 5.3249342e-44
0.01181504 -0.022399159 -0.0303089 4.9045446e-44
-0.016181691 0.032499071 -0.035319801 4.9045446e-44
-0.01862813 0.049915262 -0.029045271 5.0446745e-44
0.01695071 0.073819198 -0.019356631 4.7644148e-44
0.041713759 0.01056882 -0.01427642 4.9045446e-44
0.018776899 -0.078095853 -0.02547976 4.9045446e-44
-0.025900509 -0.03668024 -0.0228275 5.0446745e-44
-0.001618633 0.035423309 -0.033180971 5.1848043e-44
0.043499351 -0.067493327 -0.01358393 5.0446745e-44
-0.02404519 -0.037795749 -0.017915299 5.0446745e-44
0.00080599898 -0.115663 -0.001935474 5.0446745e-44
-0.0083084796 0.061512019 -0.031874329 5.0446745e-44
0.045816671 -0.047006741 -0.0171011 4.9045446e-44
-0.030569291 -0.05489438 -0.028000571 5.1848043e-44
0.035824411 -0.024718219 -0.020435739 5.0446745e-44
-0.022989269 -0.037813179 -0.016723501 5.0446745e-44
0.051630389 0.019152859 0.001117802 4.9045446e-44
0.0077292691 -0.083451532 -0.026253849 5.1848043e-44
0.055857759 -0.031837139 -0.00074296119 5.3249342e-44
0.02462277 -0.070916548 -0.026508819 5.0446745e-44
0.036711879 -0.034523841 -0.01656553 5.0446745e-44
-0.01448735 0.034243301 -0.037227862 4.9045446e-44
-0.047601111 0.04062777 0.0050107008 5.0446745e-44
0.03986343 0.0003184173 -0.016755249 5.1848043e-44
-0.034530271 -0.0020316809 -0.020502631 5.3249342e-44
0.0039802552 -0.049897041 -0.034252089 5.1848043e-44
-0.03603531 -0.1029216 -0.0026348601 5.0446745e-44
0.037038479 0.062893666 0.00297973 4.7644148e-44
0.038665518 -0.023111129 -0.01479582 5.0446745e-44
0.066010557 -0.01966453 0.01428623 4.9045446e-44
-0.03311564 0.037369799 -0.02030375 4.9045446e-44
-0.04542188 -0.04066531 -0.0141223 5.0446745e-44
-0.01952967 0.017675251 -0.034573689 5.0446745e-44
-0.033537261 0.0083680796 -0.02126947 5.0446745e-44
-0.004029565 -0.01583676 -0.05111552 5.3249342e-44
-0.024786569 -0.07179527 -0.02706801 5.1848043e-44
-0.01612618 0.01541581 -0.03652022 5.0446745e-44
-0.01687856 0.03580296 -0.035670578 5.0446745e-44
0.038845189 0.032126822 -0.01496572 4.9045446e-44
0.017283389 0.053547379 -0.026631219 4.9045446e-44
0.03340321 -0.035213061 -0.022724351 5.0446745e-44
-0.0070687602 -0.024933681 -0.035761859 5.1848043e-44
0.04308999 -0.074507654 -0.01079233 5.0446745e-44
-0.037857849 0.065632343 0.0073725921 5.0446745e-44
-0.01188716 0.058791772 -0.030708641 5.0446745e-44
0.044928219 -0.047109749 -0.01800327 5.0446745e-44
0.0064727729 -0.02927364 -0.034142151 5.1848043e-44
-0.047428649 -0.01037359 -0.01187783 5.1848043e-44
-0.01312202 -0.03636875 -0.02165493 5.1848043e-44
-0.021642409 -0.065834761 -0.03093648 5.1848043e-44
0.029210901 -0.005106932 -0.02195737 5.0446745e-44
-0.006337903 -0.056844741 -0.035160769 5.3249342e-44
-0.01351076 -0.034111951 -0.021141659 5.1848043e-44
-0.049070109 0.027258949 0.00077845121 5.1848043e-44
-0.055162601 -0.062777869 -0.00077402242 5.3249342e-44
0.031950269 -0.03494155 -0.02310862 5.0446745e-44
-0.04169219 -0.02924685 -0.01148047 5.1848043e-44
0.01290982 -0.097923152 -0.018026199 4.9045446e-44
0.027007891 0.044799119 -0.02304801 4.9045446e-44
0.040007919 0.02219896 -0.01517912 4.9045446e-44
-0.038354579 -0.099389412 -0.0043850709 5.3249342e-44
0.031207619 -0.034684312 -0.020935159 5.0446745e-44
-0.0227021 0.0057788771 -0.027889291 5.0446745e-44
-0.0025195139 -0.0272233 -0.042657942 5.1848043e-44
-0.0393687 -0.093484178 -0.008546859 5.1848043e-44
0.01321021 -0.093937881 -0.02048691 5.0446745e-44
0.021633189 -0.0061096712 -0.02601736 5.1848043e-44
-0.042686172 -0.034350779 -0.01500765 5.1848043e-44
-0.0038079419 0.031073751 -0.03946368 5.1848043e-44
-0.033221919 -0.1040446 -0.0040639089 5.1848043e-44
0.033547159 -0.089836091 -0.01369575 5.0446745e-44
0.058812339 -0.069379017 0.0089381794 5.0446745e-44
-0.0019077969 -0.0139804 -0.054562759 5.1848043e-44
-0.051975921 0.01820356 0.001906772 5.0446745e-44
-0.062597498 -0.040043291 0.013049 4.6242849e-44
-0.050516792 0.025890671 0.002548683 5.0446745e-44
-0.03837277 0.0225951 -0.01614913 4.9045446e-44
-0.00072386878 0.02773812 -0.04373185 5.3249342e-44
0.027550351 -0.076398171 -0.02238602 5.0446745e-44
0.0096500199 -0.1118789 -0.005630841 5.0446745e-44
0.055974439 -0.09098193 0.017590189 4.9045446e-44
0.016239749 -0.069486238 -0.029995609 5.0446745e-44
0.06047678 -0.018000711 0.0029444541 5.0446745e-44
-0.0515339 0.03455323 0.0087422673 4.9045446e-44
-0.05525459 0.0022228339 0.00058985758 5.3249342e-44
-0.01370324 0.0024049219 -0.040587399 5.0446745e-44
-0.053061221 -0.078502819 0.0008618228 5.3249342e-44
-0.02653187 0.056147002 -0.020981049 4.7644148e-44
-0.051968519 -0.01850255 -0.0070837159 5.3249342e-44
0.029847709 0.02452844 -0.027508721 4.9045446e-44
0.046627369 -0.060089931 -0.01407471 5.0446745e-44
0.008384781 0.080873817 -0.0084037036 5.1848043e-44
0.05458637 -0.072056986 0.0036587601 4.9045446e-44
0.01124191 -0.044336211 -0.029719399 4.9045446e-44
0.002082862 0.00033662969 -0.047835149 5.3249342e-44
0.01529508 -0.01927116 -0.027360819 5.0446745e-44
-0.034158189 0.065045297 -0.0057033119 5.0446745e-44
-0.0025414471 -0.1110918 -0.0080401944 5.3249342e-44
-0.01318279 0.057305381 -0.030113149 5.0446745e-44
0.017093141 0.033504881 -0.03469947 4.9045446e-44
-0.01174998 0.035930552 -0.030636979 5.0446745e-44
0.038620211 0.02981887 -0.01594509 4.9045446e-44
0.04828142 -0.080317341 -0.002035816 5.1848043e-44
0.030527409 -0.1120376 0.0075966371 4.9045446e-44
-0.029743031 0.072907969 3.0339743e-05 5.1848043e-44
