# .PCD v0.7 - Point Cloud Data file format
VERSION 0.7
FIELDS x y z normal_x normal_y normal_z quality
SIZE 4 4 4 4 4 4 4
TYPE F F F F F F F
COUNT 1 1 1 1 1 1 1
WIDTH 512
HEIGHT 1
VIEWPOINT 0 0 0 1 0 0 0
POINTS 512
DATA ascii
-0.05519763 -0.016185891 -0.0039232918 1.0599417e+38 7.1746481e-43 1.0814347e-38 5.3249342e-44
-0.01246945 -0.01148074 -0.033220328 1.0599417e+38 7.1746481e-43 1.0814347e-38 5.1848043e-44
-0.0601031 -0.026524911 0.004548654 1.0599417e+38 7.1746481e-43 1.0814347e-38 5.0446745e-44
0.059636518 -0.0354576 0.0050299182 1.0599417e+38 7.1746481e-43 1.0814347e-38 4.9045446e-44
0.022853 -0.01059688 -0.023736419 1.0599417e+38 7.1746481e-43 1.0814347e-38 4.7644148e-44
0.0063760509 -0.033421889 -0.031654041 1.0599417e+38 7.1746481e-43 1.0814347e-38 5.1848043e-44
-0.05880161 0.0027554929 0.007316079 1.0599417e+38 7.1746481e-43 1.0814347e-38 5.1848043e-44
0.054065779 0.024124181 0.0080276169 1.0599417e+38 7.1746481e-43 1.0814347e-38 4.9045446e-44
0.062096048 -0.025180619 0.0067756572 1.0599417e+38 7.1746481e-43 1.0814347e-38 5.0446745e-44
0.047961939 -0.047883801 -0.01498645 1.0599417e+38 7.1746481e-43 1.0814347e-38 4.9045446e-44
-0.044959251 -0.078482777 -0.0095671508 1.0599417e+38 7.1746481e-43 1.0814347e-38 5.3249342e-44
0.01259338 -0.028174629 -0.024061611 1.0599417e+38 7.1746481e-43 1.0814347e-38 5.0446745e-44
0.061028089 -0.021913109 0.0041037882 1.0599417e+38 7.1746481e-43 1.0814347e-38 5.0446745e-44
-0.058005668 -0.01457636 -0.00036493491 1.0599417e+38 7.1746481e-43 1.0814347e-38 5.465064e-44
0.0178064 -0.006945407 -0.028678169 1.0599417e+38 7.1746481e-43 1.0814347e-38 5.0446745e-44
-0.0097280322 -0.02088384 -0.033198211 1.0599417e+38 7.1746481e-43 1.0814347e-38 5.3249342e-44
-0.004264452 -0.057265721 -0.035268139 1.0599417e+38 7.1746481e-43 1.0814347e-38 5.3249342e-44
-0.03825235 0.056968462 -0.00409166 1.0599417e+38 7.1746481e-43 1.0814347e-38 5.0446745e-44
0.020759091 -0.016401051 -0.02355683 1.0599417e+38 7.1746481e-43 1.0814347e-38 5.0446745e-44
-0.057826601 -0.064681977 0.0050038081 1.0599417e+38 7.1746481e-43 1.0814347e-38 5.0446745e-44
-0.050370879 -0.074142337 -0.0044042221 1.0599417e+38 7.1746481e-43 1.0814347e-38 5.3249342e-44
0.043493699 -0.02817646 -0.01410742 1.0599417e+38 7.1746481e-43 1.0814347e-38 4.9045446e-44
0.062952653 -0.0099841207 0.01025259 1.0599417e+38 7.1746481e-43 1.0814347e-38 5.0446745e-44
0.01766997 -0.006044792 -0.029093949 1.0599417e+38 7.1746481e-43 1.0814347e-38 5.1848043e-44
0.0021409979 0.01271688 -0.046351571 1.0599417e+38 7.1746481e-43 1.0814347e-38 5.0446745e-44
0.039752331 0.058383711 0.0029389579 1.0599417e+38 7.1746481e-43 1.0814347e-38 4.9045446e-44
-0.05902268 -0.050145108 0.0057243179 1.0599417e+38 7.1746481e-43 1.0814347e-38 5.1848043e-44
0.055518191 -0.0086015323 -0.0022510609 1.0599417e+38 7.1746481e-43 1.0814347e-38 5.3249342e-44
-0.0079007288 -0.03324952 -0.02595322 1.0599417e+38 7.1746481e-43 1.0814347e-38 5.3249342e-44
0.007192147 -0.065782398 -0.03318635 1.0599417e+38 7.1746481e-43 1.0814347e-38 5.0446745e-44
-0.02859075 0.0092549622 -0.024750279 1.0599417e+38 7.1746481e-43 1.0814347e-38 5.1848043e-44
0.031673461 -0.082384281 -0.01785253 1.0599417e+38 7.1746481e-43 1.0814347e-38 5.0446745e-44
-0.03108683 0.001109442 -0.022683021 1.0599417e+38 7.1746481e-43 1.0814347e-38 5.1848043e-44
-0.057630699 0.01315709 0.01023768 1.0599417e+38 7.1746481e-43 1.0814347e-38 4.7644148e-44
-0.050762068 0.020657079 0.00096427102 1.0599417e+38 7.1746481e-43 1.0814347e-38 5.0446745e-44
0.021644199 -0.094749287 -0.017235929 1.0599417e+38 7.1746481e-43 1.0814347e-38 4.9045446e-44
-0.053034019 -0.04280268 -0.006624816 1.0599417e+38 7.1746481e-43 1.0814347e-38 5.3249342e-44
-0.01334178 -0.072369114 -0.03048698 1.0599417e+38 7.1746481e-43 1.0814347e-38 5.1848043e-44
0.00070200319 -0.083274618 -0.026911059 1.0599417e+38 7.1746481e-43 1.0814347e-38 5.3249342e-44
-6.0679864e-05 -0.02459535 -0.046345022 1.0599417e+38 7.1746481e-43 1.0814347e-38 5.465064e-44
-0.048710968 0.0080740098 -0.0069064349 1.0599417e+38 7.1746481e-43 1.0814347e-38 5.1848043e-44
-0.055202469 -0.021388261 -0.002867725 1.0599417e+38 7.1746481e-43 1.0814347e-38 5.3249342e-44
0.036591839 -0.051493261 -0.02478241 1.0599417e+38 7.1746481e-43 1.0814347e-38 5.0446745e-44
-0.05993697 -0.0090695405 0.0032866281 1.0599417e+38 7.1746481e-43 1.0814347e-38 5.3249342e-44
0.053712361 -0.053781111 -0.0047363709 1.0599417e+38 7.1746481e-43 1.0814347e-38 5.1848043e-44
0.057568152 -0.055668719 0.003421817 1.0599417e+38 7.1746481e-43 1.0814347e-38 5.0446745e-44
0.055286229 -0.003424983 -0.00089323428 1.0599417e+38 7.1746481e-43 1.0814347e-38 5.465064e-44
0.02967345 -0.0037025451 -0.022086481 1.0599417e+38 7.1746481e-43 1.0814347e-38 5.1848043e-44
0.001040947 0.00440754 -0.060146309 1.0599417e+38 7.1746481e-43 1.0814347e-38 5.0446745e-44
-0.035497259 -0.05093592 -0.02452182 1.0599417e+38 7.1746481e-43 1.0814347e-38 5.1848043e-44
0.02699996 0.005809281 -0.025797609 1.0599417e+38 7.1746481e-43 1.0814347e-38 5.0446745e-44
-0.05557134 -6.8707173e-05 0.0001403521 1.0599417e+38 7.1746481e-43 1.0814347e-38 5.6051939e-44
0.01425091 -0.01384116 -0.02999804 1.0599417e+38 7.1746481e-43 1.0814347e-38 5.0446745e-44
-0.044783682 0.046146061 0.0020639061 1.0599417e+38 7.1746481e-43 1.0814347e-38 5.0446745e-44
0.039813001 -0.04115041 -0.020867189 1.0599417e+38 7.1746481e-43 1.0814347e-38 4.7644148e-44
-0.022576939 -0.04545619 -0.02461965 1.0599417e+38 7.1746481e-43 1.0814347e-38 5.1848043e-44
0.05419945 0.01436576 0.00350847 1.0599417e+38 7.1746481e-43 1.0814347e-38 4.7644148e-44
0.058139142 -0.0036896099 0.002905895 1.0599417e+38 7.1746481e-43 1.0814347e-38 5.0446745e-44
0.0098019587 -0.01063518 -0.03972676 1.0599417e+38 7.1746481e-43 1.0814347e-38 5.1848043e-44
-0.06248904 -0.02867968 0.01010605 1.0599417e+38 7.1746481e-43 1.0814347e-38 5.0446745e-44
0.051534459 -0.009608754 -0.007338223 1.0599417e+38 7.1746481e-43 1.0814347e-38 5.3249342e-44
0.04048489 -0.06938646 -0.015912751 1.0599417e+38 7.1746481e-43 1.0814347e-38 5.0446745e-44
-0.035743002 0.068555214 0.01041849 1.0599417e+38 7.1746481e-43 1.0814347e-38 4.6242849e-44
-0.05922417 0.01186914 0.01307221 1.0599417e+38 7.1746481e-43 1.0814347e-38 4.9045446e-44
0.046275608 -0.077022903 -0.005971279 1.0599417e+38 7.1746481e-43 1.0814347e-38 5.0446745e-44
0.04092418 0.057625379 0.004841093 1.0599417e+38 7.1746481e-43 1.0814347e-38 4.9045446e-44
-0.055361722 0.01765498 0.0076855938 1.0599417e+38 7.1746481e-43 1.0814347e-38 5.0446745e-44
0.02872102 -0.035742551 -0.01721132 1.0599417e+38 7.1746481e-43 1.0814347e-38 5.0446745e-44
-0.01541062 -0.0020334921 -0.03236644 1.0599417e+38 7.1746481e-43 1.0814347e-38 5.3249342e-44
-0.01520888 -0.027497251 -0.02230691 1.0599417e+38 7.1746481e-43 1.0814347e-38 5.1848043e-44
-0.04451425 -0.078813776 -0.0099709025 1.0599417e+38 7.1746481e-43 1.0814347e-38 5.3249342e-44
-0.061873231 -0.054961521 0.01223081 1.0599417e+38 7.1746481e-43 1.0814347e-38 5.0446745e-44
0.01043856 -0.018293209 -0.034061901 1.0599417e+38 7.1746481e-43 1.0814347e-38 4.9045446e-44
0.042392951 -0.0041983491 -0.01442285 1.0599417e+38 7.1746481e-43 1.0814347e-38 5.1848043e-44
0.020537719 -0.04363494 -0.026042011 1.0599417e+38 7.1746481e-43 1.0814347e-38 5.0446745e-44
-0.03160264 -0.02741388 -0.021284761 1.0599417e+38 7.1746481e-43 1.0814347e-38 5.1848043e-44
-0.05523283 -0.0015292279 -0.00103678 1.0599417e+38 7.1746481e-43 1.0814347e-38 5.3249342e-44
0.054634921 -0.03698748 -0.001690355 1.0599417e+38 7.1746481e-43 1.0814347e-38 5.1848043e-44
-0.043363031 -0.04772529 -0.01931224 1.0599417e+38 7.1746481e-43 1.0814347e-38 5.1848043e-44
0.00100139 -0.01503559 -0.054017611 1.0599417e+38 7.1746481e-43 1.0814347e-38 5.0446745e-44
0.006453882 -0.035935219 -0.030761121 1.0599417e+38 7.1746481e-43 1.0814347e-38 5.1848043e-44
0.022475591 -0.047070291 -0.02796912 1.0599417e+38 7.1746481e-43 1.0814347e-38 5.0446745e-44
-0.001752484 -0.01743684 -0.0515703 1.0599417e+38 7.1746481e-43 1.0814347e-38 5.1848043e-44
0.03433957 -0.068785787 -0.021536971 1.0599417e+38 7.1746481e-43 1.0814347e-38 5.0446745e-44
0.043839891 -0.077548057 -0.0086306212 1.0599417e+38 7.1746481e-43 1.0814347e-38 5.1848043e-44
0.0072091622 -0.086128809 -0.025380479 1.0599417e+38 7.1746481e-43 1.0814347e-38 5.1848043e-44
-0.054842971 -0.00061069988 -0.001289881 1.0599417e+38 7.1746481e-43 1.0814347e-38 5.6051939e-44
-0.06031182 -0.06013019 0.0095875338 1.0599417e+38 7.1746481e-43 1.0814347e-38 5.1848043e-44
0.025347481 -0.083135881 -0.02100716 1.0599417e+38 7.1746481e-43 1.0814347e-38 5.0446745e-44
0.058742359 -0.009744863 0.001696537 1.0599417e+38 7.1746481e-43 1.0814347e-38 5.1848043e-44
0.01980827 -0.075108893 -0.026480321 1.0599417e+38 7.1746481e-43 1.0814347e-38 5.0446745e-44
-0.052439772 0.01321297 0.00059630751 1.0599417e+38 7.1746481e-43 1.0814347e-38 5.1848043e-44
0.036601979 0.001040258 -0.018788731 1.0599417e+38 7.1746481e-43 1.0814347e-38 5.0446745e-44
-0.054332491 -0.084750369 0.0052424888 1.0599417e+38 7.1746481e-43 1.0814347e-38 5.1848043e-44
0.061983891 -0.055081479 0.01186187 1.0599417e+38 7.1746481e-43 1.0814347e-38 4.9045446e-44
0.043389171 -0.053307042 -0.02016658 1.0599417e+38 7.1746481e-43 1.0814347e-38 5.0446745e-44
-0.01308047 -0.048750281 -0.0316342 1.0599417e+38 7.1746481e-43 1.0814347e-38 5.0446745e-44
0.06040214 0.002819878 0.0099393278 1.0599417e+38 7.1746481e-43 1.0814347e-38 5.0446745e-44
-0.01095153 -0.071000248 -0.0313599 1.0599417e+38 7.1746481e-43 1.0814347e-38 5.0446745e-44
-0.061637592 -0.064800099 0.01262194 1.0599417e+38 7.1746481e-43 1.0814347e-38 4.9045446e-44
0.05194312 -0.08612366 0.006726821 1.0599417e+38 7.1746481e-43 1.0814347e-38 5.0446745e-44
-0.032425132 -0.02532405 -0.02121117 1.0599417e+38 7.1746481e-43 1.0814347e-38 5.1848043e-44
-0.053894222 -0.02400637 -0.003693111 1.0599417e+38 7.1746481e-43 1.0814347e-38 5.3249342e-44
-0.0052585821 0.003356596 -0.056463938 1.0599417e+38 7.1746481e-43 1.0814347e-38 5.3249342e-44
-0.050432742 -0.05960102 -0.0097959628 1.0599417e+38 7.1746481e-43 1.0814347e-38 5.3249342e-44
-0.029834369 0.007033322 -0.023840159 1.0599417e+38 7.1746481e-43 1.0814347e-38 5.1848043e-44
0.052463371 0.01778473 0.0019623621 1.0599417e+38 7.1746481e-43 1.0814347e-38 4.9045446e-44
0.00122113 0.004253082 -0.0602201 1.0599417e+38 7.1746481e-43 1.0814347e-38 4.9045446e-44
-0.02051514 -0.040184099 -0.021998219 1.0599417e+38 7.1746481e-43 1.0814347e-38 5.0446745e-44
0.0079122977 -0.0094698118 -0.051669128 1.0599417e+38 7.1746481e-43 1.0814347e-38 5.3249342e-44
-0.061141878 -0.050023779 0.0106274 1.0599417e+38 7.1746481e-43 1.0814347e-38 4.9045446e-44
0.048687272 -0.08236748 -0.0003860204 1.0599417e+38 7.1746481e-43 1.0814347e-38 5.3249342e-44
-0.0051503349 -0.02295869 -0.0421426 1.0599417e+38 7.1746481e-43 1.0814347e-38 5.1848043e-44
0.063065752 -0.03571609 0.01059567 1.0599417e+38 7.1746481e-43 1.0814347e-38 4.9045446e-44
-0.0527527 -0.055699032 -0.0074512931 1.0599417e+38 7.1746481e-43 1.0814347e-38 5.1848043e-44
-0.054400951 -0.055024769 -0.004372668 1.0599417e+38 7.1746481e-43 1.0814347e-38 5.3249342e-44
0.034101449 -0.056110501 -0.026082169 1.0599417e+38 7.1746481e-43 1.0814347e-38 4.9045446e-44
-0.04099495 -0.0071241669 -0.016668599 1.0599417e+38 7.1746481e-43 1.0814347e-38 5.1848043e-44
-0.042786129 -0.033046018 -0.01380878 1.0599417e+38 7.1746481e-43 1.0814347e-38 5.1848043e-44
-0.03568311 -0.076184787 -0.01904548 1.0599417e+38 7.1746481e-43 1.0814347e-38 5.1848043e-44
-0.02106964 -0.083272628 -0.023852689 1.0599417e+38 7.1746481e-43 1.0814347e-38 5.1848043e-44
-0.05282798 -0.056674872 -0.0068381061 1.0599417e+38 7.1746481e-43 1.0814347e-38 5.3249342e-44
0.02986425 -0.018143989 -0.020083319 1.0599417e+38 7.1746481e-43 1.0814347e-38 5.0446745e-44
-0.003600989 -0.070791841 -0.031903729 1.0599417e+38 7.1746481e-43 1.0814347e-38 5.3249342e-44
-0.01020485 -0.02194849 -0.031536911 1.0599417e+38 7.1746481e-43 1.0814347e-38 5.1848043e-44
0.059369851 -0.02200952 0.00093935052 1.0599417e+38 7.1746481e-43 1.0814347e-38 5.1848043e-44
0.0457903 -0.00170567 -0.01191328 1.0599417e+38 7.1746481e-43 1.0814347e-38 4.9045446e-44
0.049688309 0.038129769 0.0084144194 1.0599417e+38 7.1746481e-43 1.0814347e-38 4.9045446e-44
0.00601186 -0.02048482 -0.041895039 1.0599417e+38 7.1746481e-43 1.0814347e-38 5.0446745e-44
-0.030902689 0.006224595 -0.02299422 1.0599417e+38 7.1746481e-43 1.0814347e-38 5.1848043e-44
0.041685291 0.043568488 -0.0047309981 1.0599417e+38 7.1746481e-43 1.0814347e-38 5.0446745e-44
-0.030992109 0.01327367 -0.023663729 1.0599417e+38 7.1746481e-43 1.0814347e-38 5.0446745e-44
-0.03760257 -0.0025851191 -0.018802769 1.0599417e+38 7.1746481e-43 1.0814347e-38 5.3249342e-44
-0.05146509 -0.032094039 -0.0045998921 1.0599417e+38 7.1746481e-43 1.0814347e-38 5.3249342e-44
0.0042716991 -0.056046531 -0.03507524 1.0599417e+38 7.1746481e-43 1.0814347e-38 5.1848043e-44
-0.056696571 -0.02498679 -0.00041834809 1.0599417e+38 7.1746481e-43 1.0814347e-38 5.465064e-44
0.041588299 -0.032551449 -0.01442252 1.0599417e+38 7.1746481e-43 1.0814347e-38 4.9045446e-44
0.02091979 -0.080824852 -0.023719961 1.0599417e+38 7.1746481e-43 1.0814347e-38 5.0446745e-44
0.022970829 -0.044562299 -0.026344949 1.0599417e+38 7.1746481e-43 1.0814347e-38 4.9045446e-44
-0.04973786 0.01306609 -0.003686633 1.0599417e+38 7.1746481e-43 1.0814347e-38 5.1848043e-44
0.0058492422 -0.090416498 -0.02361837 1.0599417e+38 7.1746481e-43 1.0814347e-38 5.0446745e-44
0.04263268 -0.02616244 -0.0136458 1.0599417e+38 7.1746481e-43 1.0814347e-38 4.9045446e-44
0.037454221 0.05426668 -0.0061114351 1.0599417e+38 7.1746481e-43 1.0814347e-38 5.0446745e-44
0.05548735 -0.08199738 0.009301018 1.0599417e+38 7.1746481e-43 1.0814347e-38 5.0446745e-44
0.050654698 -0.057702269 -0.0090149697 1.0599417e+38 7.1746481e-43 1.0814347e-38 4.9045446e-44
-0.048599899 0.01908523 -0.003066232 1.0599417e+38 7.1746481e-43 1.0814347e-38 5.0446745e-44
-0.043364279 -0.080964819 -0.01068465 1.0599417e+38 7.1746481e-43 1.0814347e-38 5.1848043e-44
0.03318309 -0.073009238 -0.020609161 1.0599417e+38 7.1746481e-43 1.0814347e-38 5.0446745e-44
0.054146279 -0.034549851 -0.0025374079 1.0599417e+38 7.1746481e-43 1.0814347e-38 5.1848043e-44
-0.01710115 -0.039101411 -0.02163966 1.0599417e+38 7.1746481e-43 1.0814347e-38 5.1848043e-44
0.04005586 0.00764423 -0.016285369 1.0599417e+38 7.1746481e-43 1.0814347e-38 4.9045446e-44
-0.050677009 -0.039765399 -0.0079986444 1.0599417e+38 7.1746481e-43 1.0814347e-38 5.1848043e-44
0.0072950288 -0.039056651 -0.029822521 1.0599417e+38 7.1746481e-43 1.0814347e-38 5.1848043e-44
0.053685971 -0.0044191559 -0.0032787099 1.0599417e+38 7.1746481e-43 1.0814347e-38 5.1848043e-44
0.0081058042 -0.01375763 -0.04232873 1.0599417e+38 7.1746481e-43 1.0814347e-38 5.1848043e-44
0.01437835 0.0088918041 -0.036610819 1.0599417e+38 7.1746481e-43 1.0814347e-38 5.0446745e-44
0.059288051 0.002541716 0.0071312501 1.0599417e+38 7.1746481e-43 1.0814347e-38 4.9045446e-44
-0.028596841 -0.03714202 -0.022528389 1.0599417e+38 7.1746481e-43 1.0814347e-38 5.1848043e-44
0.048024211 -0.05479084 -0.01510147 1.0599417e+38 7.1746481e-43 1.0814347e-38 5.0446745e-44
-0.050145321 -0.03749641 -0.007255814 1.0599417e+38 7.1746481e-43 1.0814347e-38 5.3249342e-44
-0.0048500318 -0.007613827 -0.058358081 1.0599417e+38 7.1746481e-43 1.0814347e-38 5.465064e-44
0.036761209 0.061992329 0.00081892521 1.0599417e+38 7.1746481e-43 1.0814347e-38 5.0446745e-44
0.01209009 -0.01184164 -0.033482831 1.0599417e+38 7.1746481e-43 1.0814347e-38 5.0446745e-44
-0.04147068 -0.028872229 -0.01231602 1.0599417e+38 7.1746481e-43 1.0814347e-38 5.1848043e-44
-0.061139502 -0.037579801 0.0090500331 1.0599417e+38 7.1746481e-43 1.0814347e-38 4.9045446e-44
-0.0345487 -0.05924743 -0.026151741 1.0599417e+38 7.1746481e-43 1.0814347e-38 5.0446745e-44
-0.04523202 -0.078214496 -0.0093624899 1.0599417e+38 7.1746481e-43 1.0814347e-38 5.0446745e-44
0.027809599 -0.085503958 -0.019087959 1.0599417e+38 7.1746481e-43 1.0814347e-38 4.9045446e-44
-0.064131223 -0.046086788 0.016324731 1.0599417e+38 7.1746481e-43 1.0814347e-38 5.0446745e-44
-0.035123751 -0.055172648 -0.026317921 1.0599417e+38 7.1746481e-43 1.0814347e-38 5.1848043e-44
0.051706672 -0.078879178 0.0024715881 1.0599417e+38 7.1746481e-43 1.0814347e-38 5.0446745e-44
-0.028428171 -0.093306936 -0.01684178 1.0599417e+38 7.1746481e-43 1.0814347e-38 5.1848043e-44
-0.057533279 -0.037739702 0.0020350369 1.0599417e+38 7.1746481e-43 1.0814347e-38 5.0446745e-44
-0.0076736961 -0.0077292589 -0.054673359 1.0599417e+38 7.1746481e-43 1.0814347e-38 5.465064e-44
0.0484729 0.0036824381 -0.0079031568 1.0599417e+38 7.1746481e-43 1.0814347e-38 5.0446745e-44
-0.03194429 -0.022700129 -0.020179629 1.0599417e+38 7.1746481e-43 1.0814347e-38 5.1848043e-44
0.0074633481 -0.087777533 -0.02476277 1.0599417e+38 7.1746481e-43 1.0814347e-38 5.1848043e-44
0.044340119 -0.029845919 -0.01153564 1.0599417e+38 7.1746481e-43 1.0814347e-38 5.0446745e-44
-0.00560096 -0.092930913 -0.02302747 1.0599417e+38 7.1746481e-43 1.0814347e-38 5.1848043e-44
0.057627149 -0.042233881 0.002356539 1.0599417e+38 7.1746481e-43 1.0814347e-38 5.0446745e-44
0.02062189 -0.04351547 -0.025950531 1.0599417e+38 7.1746481e-43 1.0814347e-38 5.0446745e-44
0.024175709 -0.057993662 -0.030450439 1.0599417e+38 7.1746481e-43 1.0814347e-38 5.0446745e-44
0.04636164 -0.072625034 -0.0076044491 1.0599417e+38 7.1746481e-43 1.0814347e-38 5.1848043e-44
-0.043375239 -0.082732037 -0.01003526 1.0599417e+38 7.1746481e-43 1.0814347e-38 5.1848043e-44
0.03875104 -0.017515911 -0.0168746 1.0599417e+38 7.1746481e-43 1.0814347e-38 4.9045446e-44
0.048149042 -0.076851673 -0.0037244831 1.0599417e+38 7.1746481e-43 1.0814347e-38 5.1848043e-44
-0.037618618 0.001530388 -0.018710939 1.0599417e+38 7.1746481e-43 1.0814347e-38 5.1848043e-44
0.030171631 0.0093957745 -0.02443067 1.0599417e+38 7.1746481e-43 1.0814347e-38 5.0446745e-44
-0.02061853 -0.0128448 -0.02560726 1.0599417e+38 7.1746481e-43 1.0814347e-38 5.0446745e-44
0.050937802 -0.042750761 -0.0082057538 1.0599417e+38 7.1746481e-43 1.0814347e-38 5.0446745e-44
-0.04340994 -0.083738163 -0.0096515156 1.0599417e+38 7.1746481e-43 1.0814347e-38 5.3249342e-44
-0.061722811 -0.071873002 0.01448352 1.0599417e+38 7.1746481e-43 1.0814347e-38 4.7644148e-44
0.032807659 0.0018928091 -0.021359161 1.0599417e+38 7.1746481e-43 1.0814347e-38 5.0446745e-44
0.04507032 -0.089211233 -0.00199278 1.0599417e+38 7.1746481e-43 1.0814347e-38 5.0446745e-44
0.0030787759 -0.047078349 -0.033711139 1.0599417e+38 7.1746481e-43 1.0814347e-38 5.1848043e-44
0.0048143989 -0.02981776 -0.037873011 1.0599417e+38 7.1746481e-43 1.0814347e-38 5.1848043e-44
0.0078025479 -0.084507473 -0.02587554 1.0599417e+38 7.1746481e-43 1.0814347e-38 5.1848043e-44
-0.029653531 0.0088847531 -0.02410022 1.0599417e+38 7.1746481e-43 1.0814347e-38 5.1848043e-44
0.039045431 0.001651818 -0.01743263 1.0599417e+38 7.1746481e-43 1.0814347e-38 5.0446745e-44
-0.044315889 -0.068509847 -0.01346582 1.0599417e+38 7.1746481e-43 1.0814347e-38 5.1848043e-44
-0.05773491 0.01310732 0.0103949 1.0599417e+38 7.1746481e-43 1.0814347e-38 4.7644148e-44
0.038712561 -0.035833459 -0.01918461 1.0599417e+38 7.1746481e-43 1.0814347e-38 5.0446745e-44
-0.031530488 -0.055393539 -0.027655691 1.0599417e+38 7.1746481e-43 1.0814347e-38 5.1848043e-44
-0.061293941 -0.0038796209 0.0090581989 1.0599417e+38 7.1746481e-43 1.0814347e-38 5.3249342e-44
0.01876094 -0.020786449 -0.023664979 1.0599417e+38 7.1746481e-43 1.0814347e-38 5.0446745e-44
0.01778706 0.001880729 -0.031551611 1.0599417e+38 7.1746481e-43 1.0814347e-38 5.0446745e-44
-0.026590779 -0.044147529 -0.02366901 1.0599417e+38 7.1746481e-43 1.0814347e-38 5.1848043e-44
-0.04958424 -0.03994035 -0.0093528368 1.0599417e+38 7.1746481e-43 1.0814347e-38 5.3249342e-44
-0.041328318 -0.026664229 -0.01514685 1.0599417e+38 7.1746481e-43 1.0814347e-38 5.1848043e-44
-0.01823947 -0.034050681 -0.018001869 1.0599417e+38 7.1746481e-43 1.0814347e-38 5.1848043e-44
0.015307 -0.016710021 -0.02814074 1.0599417e+38 7.1746481e-43 1.0814347e-38 4.7644148e-44
0.02441432 -0.068178073 -0.027703879 1.0599417e+38 7.1746481e-43 1.0814347e-38 5.0446745e-44
-0.053834241 -0.002799832 -0.003880536 1.0599417e+38 7.1746481e-43 1.0814347e-38 5.465064e-44
-0.031948071 -0.0088343341 -0.020792641 1.0599417e+38 7.1746481e-43 1.0814347e-38 5.3249342e-44
0.045944449 -0.080437541 -0.005358445 1.0599417e+38 7.1746481e-43 1.0814347e-38 5.1848043e-44
0.02999513 -0.023671649 -0.021507289 1.0599417e+38 7.1746481e-43 1.0814347e-38 5.0446745e-44
0.01105816 -0.077472404 -0.02776094 1.0599417e+38 7.1746481e-43 1.0814347e-38 4.9045446e-44
0.01938194 -0.0084538208 -0.02682166 1.0599417e+38 7.1746481e-43 1.0814347e-38 5.1848043e-44
0.0001616236 -0.062209919 -0.034617729 1.0599417e+38 7.1746481e-43 1.0814347e-38 5.3249342e-44
-0.06291303 -0.030787021 0.01123493 1.0599417e+38 7.1746481e-43 1.0814347e-38 5.0446745e-44
0.056067452 -0.036650121 0.00028146201 1.0599417e+38 7.1746481e-43 1.0814347e-38 5.0446745e-44
0.0395636 0.01429826 -0.016300701 1.0599417e+38 7.1746481e-43 1.0814347e-38 4.6242849e-44
0.030739989 -0.02607836 -0.021941621 1.0599417e+38 7.1746481e-43 1.0814347e-38 5.0446745e-44
0.04913035 0.041522291 0.0095517077 1.0599417e+38 7.1746481e-43 1.0814347e-38 4.9045446e-44
-0.049769219 -0.047190849 -0.01298375 1.0599417e+38 7.1746481e-43 1.0814347e-38 5.1848043e-44
-0.0054927608 -0.04690117 -0.03295863 1.0599417e+38 7.1746481e-43 1.0814347e-38 5.3249342e-44
0.0131559 -0.044284411 -0.028669329 1.0599417e+38 7.1746481e-43 1.0814347e-38 4.9045446e-44
0.037439588 0.06048673 0.00066497148 1.0599417e+38 7.1746481e-43 1.0814347e-38 5.0446745e-44
0.003293436 -0.066587627 -0.033260051 1.0599417e+38 7.1746481e-43 1.0814347e-38 5.1848043e-44
-0.047124229 0.0090106335 -0.0084170001 1.0599417e+38 7.1746481e-43 1.0814347e-38 4.9045446e-44
-0.01014404 -0.07835497 -0.028175371 1.0599417e+38 7.1746481e-43 1.0814347e-38 5.1848043e-44
-0.041518919 0.047052771 -0.0032062819 1.0599417e+38 7.1746481e-43 1.0814347e-38 5.1848043e-44
0.053187739 -0.074666113 0.0026033979 1.0599417e+38 7.1746481e-43 1.0814347e-38 5.0446745e-44
-0.02271354 -0.091341197 -0.02022472 1.0599417e+38 7.1746481e-43 1.0814347e-38 5.0446745e-44
-0.054613199 0.02436523 0.0097191446 1.0599417e+38 7.1746481e-43 1.0814347e-38 4.9045446e-44
0.04676104 -0.05177708 -0.01698003 1.0599417e+38 7.1746481e-43 1.0814347e-38 5.0446745e-44
-0.032542098 -0.06105664 -0.02718729 1.0599417e+38 7.1746481e-43 1.0814347e-38 5.0446745e-44
0.0125835 -0.06835632 -0.031367332 1.0599417e+38 7.1746481e-43 1.0814347e-38 4.9045446e-44
0.050106831 0.037115991 0.0085684443 1.0599417e+38 7.1746481e-43 1.0814347e-38 4.9045446e-44
0.0075957868 -0.01521638 -0.042238411 1.0599417e+38 7.1746481e-43 1.0814347e-38 5.1848043e-44
-0.04647664 -0.065764397 -0.01216786 1.0599417e+38 7.1746481e-43 1.0814347e-38 5.0446745e-44
-0.00027673779 -0.05866503 -0.03511066 1.0599417e+38 7.1746481e-43 1.0814347e-38 5.465064e-44
-0.063744463 -0.033719089 0.01363831 1.0599417e+38 7.1746481e-43 1.0814347e-38 5.0446745e-44
-0.062400699 -0.01795405 0.0069367341 1.0599417e+38 7.1746481e-43 1.0814347e-38 5.0446745e-44
0.01490193 -0.060366061 -0.033197641 1.0599417e+38 7.1746481e-43 1.0814347e-38 5.0446745e-44
-0.022914629 0.0045259651 -0.02755047 1.0599417e+38 7.1746481e-43 1.0814347e-38 5.1848043e-44
-0.038980689 0.06085467 0.00087614107 1.0599417e+38 7.1746481e-43 1.0814347e-38 5.1848043e-44
0.031379711 -0.0141395 -0.019052921 1.0599417e+38 7.1746481e-43 1.0814347e-38 4.9045446e-44
-0.061963029 -0.063849889 0.0131914 1.0599417e+38 7.1746481e-43 1.0814347e-38 4.9045446e-44
-0.058126871 -0.020879811 0.00017036989 1.0599417e+38 7.1746481e-43 1.0814347e-38 5.3249342e-44
-0.046018962 -0.04037971 -0.01308112 1.0599417e+38 7.1746481e-43 1.0814347e-38 5.1848043e-44
0.03593323 -0.0088376245 -0.017756959 1.0599417e+38 7.1746481e-43 1.0814347e-38 5.1848043e-44
0.025330789 -0.01029957 -0.022398319 1.0599417e+38 7.1746481e-43 1.0814347e-38 5.0446745e-44
0.060049191 -0.032630742 0.0051744692 1.0599417e+38 7.1746481e-43 1.0814347e-38 5.0446745e-44
0.0088046389 -0.0004506807 -0.04247212 1.0599417e+38 7.1746481e-43 1.0814347e-38 5.465064e-44
0.022932559 -0.04291112 -0.02539183 1.0599417e+38 7.1746481e-43 1.0814347e-38 5.0446745e-44
0.045182321 -0.08290641 -0.005207675 1.0599417e+38 7.1746481e-43 1.0814347e-38 5.1848043e-44
0.034408171 0.068635792 0.0091541456 1.0599417e+38 7.1746481e-43 1.0814347e-38 4.9045446e-44
0.05738356 -0.06017847 0.0045018089 1.0599417e+38 7.1746481e-43 1.0814347e-38 5.0446745e-44
0.058706131 -0.03316012 0.003041364 1.0599417e+38 7.1746481e-43 1.0814347e-38 5.0446745e-44
-0.04568946 -0.087770231 -0.0055691302 1.0599417e+38 7.1746481e-43 1.0814347e-38 5.1848043e-44
0.039546039 -0.068610951 -0.017206199 1.0599417e+38 7.1746481e-43 1.0814347e-38 4.9045446e-44
0.01311843 0.0048639108 -0.039410591 1.0599417e+38 7.1746481e-43 1.0814347e-38 5.0446745e-44
0.0125384 -0.079969473 -0.026477739 1.0599417e+38 7.1746481e-43 1.0814347e-38 4.9045446e-44
0.026838901 -0.087939657 -0.01828783 1.0599417e+38 7.1746481e-43 1.0814347e-38 4.9045446e-44
0.0433897 0.01207355 -0.0121384 1.0599417e+38 7.1746481e-43 1.0814347e-38 4.6242849e-44
-0.032172799 -0.041044731 -0.022534041 1.0599417e+38 7.1746481e-43 1.0814347e-38 5.0446745e-44
-0.0037070999 -0.086411633 -0.025724471 1.0599417e+38 7.1746481e-43 1.0814347e-38 5.0446745e-44
0.053761069 -0.032079808 -0.0029303019 1.0599417e+38 7.1746481e-43 1.0814347e-38 5.1848043e-44
-0.01295358 -0.023464659 -0.026768571 1.0599417e+38 7.1746481e-43 1.0814347e-38 5.1848043e-44
-0.06120747 -0.046381559 0.01066554 1.0599417e+38 7.1746481e-43 1.0814347e-38 5.0446745e-44
-0.035415839 -0.044428881 -0.022800781 1.0599417e+38 7.1746481e-43 1.0814347e-38 5.1848043e-44
0.04843935 -0.036497999 -0.0088132694 1.0599417e+38 7.1746481e-43 1.0814347e-38 4.9045446e-44
0.028872641 -0.035621058 -0.023795141 1.0599417e+38 7.1746481e-43 1.0814347e-38 5.0446745e-44
-0.023603721 -0.042611629 -0.022994351 1.0599417e+38 7.1746481e-43 1.0814347e-38 5.1848043e-44
0.025101431 -0.076084986 -0.0238564 1.0599417e+38 7.1746481e-43 1.0814347e-38 4.9045446e-44
0.05893255 -0.007310641 0.003030027 1.0599417e+38 7.1746481e-43 1.0814347e-38 5.1848043e-44
-0.01491445 -0.0043588551 -0.032406531 1.0599417e+38 7.1746481e-43 1.0814347e-38 5.3249342e-44
-0.049945079 -0.075042337 -0.0048051989 1.0599417e+38 7.1746481e-43 1.0814347e-38 5.3249342e-44
0.001352828 -0.054321129 -0.03501983 1.0599417e+38 7.1746481e-43 1.0814347e-38 5.1848043e-44
0.0096500339 -0.01513244 -0.03672998 1.0599417e+38 7.1746481e-43 1.0814347e-38 5.1848043e-44
0.041449189 -0.02609933 -0.01555616 1.0599417e+38 7.1746481e-43 1.0814347e-38 5.0446745e-44
0.044558462 0.05547867 0.01147124 1.0599417e+38 7.1746481e-43 1.0814347e-38 4.7644148e-44
-0.01326834 -0.079170562 -0.027391519 1.0599417e+38 7.1746481e-43 1.0814347e-38 5.1848043e-44
0.01141791 -0.006460486 -0.0457302 1.0599417e+38 7.1746481e-43 1.0814347e-38 5.0446745e-44
-0.043774009 -0.050754089 -0.019917211 1.0599417e+38 7.1746481e-43 1.0814347e-38 5.1848043e-44
-0.003118787 0.001465903 -0.05143714 1.0599417e+38 7.1746481e-43 1.0814347e-38 5.3249342e-44
0.02419213 0.01153027 -0.0295355 1.0599417e+38 7.1746481e-43 1.0814347e-38 4.7644148e-44
0.01699323 0.0053635868 -0.03399244 1.0599417e+38 7.1746481e-43 1.0814347e-38 5.0446745e-44
-0.033959109 -0.040101681 -0.021570791 1.0599417e+38 7.1746481e-43 1.0814347e-38 5.1848043e-44
0.05887787 -0.0001642584 0.0053223758 1.0599417e+38 7.1746481e-43 1.0814347e-38 5.3249342e-44
0.039392959 -0.052895539 -0.023269201 1.0599417e+38 7.1746481e-43 1.0814347e-38 4.9045446e-44
-0.04332649 0.005508923 -0.01332045 1.0599417e+38 7.1746481e-43 1.0814347e-38 5.1848043e-44
0.056940909 0.01872162 0.01065107 1.0599417e+38 7.1746481e-43 1.0814347e-38 4.7644148e-44
0.02802125 -0.025712419 -0.02232972 1.0599417e+38 7.1746481e-43 1.0814347e-38 5.0446745e-44
-0.03942344 -0.066337653 -0.01964847 1.0599417e+38 7.1746481e-43 1.0814347e-38 5.1848043e-44
0.00369604 -0.0022933071 -0.049262181 1.0599417e+38 7.1746481e-43 1.0814347e-38 5.1848043e-44
0.036880132 0.06033244 -0.001893474 1.0599417e+38 7.1746481e-43 1.0814347e-38 5.0446745e-44
0.0068603391 -0.082447968 -0.02671114 1.0599417e+38 7.1746481e-43 1.0814347e-38 5.1848043e-44
-0.035650801 -0.085033387 -0.01560222 1.0599417e+38 7.1746481e-43 1.0814347e-38 5.0446745e-44
-0.023524869 0.01002539 -0.028592009 1.0599417e+38 7.1746481e-43 1.0814347e-38 5.0446745e-44
-0.005454347 -0.0594097 -0.034979451 1.0599417e+38 7.1746481e-43 1.0814347e-38 5.1848043e-44
-0.027888119 -0.065395087 -0.028286301 1.0599417e+38 7.1746481e-43 1.0814347e-38 5.0446745e-44
0.053906079 0.028061951 0.01023397 1.0599417e+38 7.1746481e-43 1.0814347e-38 4.7644148e-44
0.043191351 0.046243589 -0.0001591834 1.0599417e+38 7.1746481e-43 1.0814347e-38 5.1848043e-44
-0.0020004369 -0.0063458602 -0.06060759 1.0599417e+38 7.1746481e-43 1.0814347e-38 5.3249342e-44
-0.01011441 -0.001204418 -0.05226215 1.0599417e+38 7.1746481e-43 1.0814347e-38 5.3249342e-44
-0.01429855 -0.050721191 -0.032249749 1.0599417e+38 7.1746481e-43 1.0814347e-38 5.1848043e-44
0.051662602 -0.045055568 -0.0083830589 1.0599417e+38 7.1746481e-43 1.0814347e-38 5.0446745e-44
-0.0080719981 -0.0099397115 -0.05092084 1.0599417e+38 7.1746481e-43 1.0814347e-38 5.465064e-44
-0.053334441 -0.030346351 -0.0029637481 1.0599417e+38 7.1746481e-43 1.0814347e-38 5.3249342e-44
0.04750419 -0.058885559 -0.01353171 1.0599417e+38 7.1746481e-43 1.0814347e-38 5.0446745e-44
-0.0138825 -0.08333566 -0.02567281 1.0599417e+38 7.1746481e-43 1.0814347e-38 5.0446745e-44
-0.055597801 -0.066671729 0.001329953 1.0599417e+38 7.1746481e-43 1.0814347e-38 5.0446745e-44
0.046666849 -0.070269279 -0.0081487671 1.0599417e+38 7.1746481e-43 1.0814347e-38 5.1848043e-44
-0.003810276 -0.074387543 -0.030388771 1.0599417e+38 7.1746481e-43 1.0814347e-38 5.3249342e-44
0.028608181 -0.03867365 -0.023215501 1.0599417e+38 7.1746481e-43 1.0814347e-38 4.9045446e-44
0.045347881 0.045139909 0.003721195 1.0599417e+38 7.1746481e-43 1.0814347e-38 4.9045446e-44
-0.020892691 -0.070131376 -0.02942976 1.0599417e+38 7.1746481e-43 1.0814347e-38 5.1848043e-44
0.04429321 0.0548595 0.01033325 1.0599417e+38 7.1746481e-43 1.0814347e-38 4.6242849e-44
-0.05025566 -0.07522554 -0.0042817499 1.0599417e+38 7.1746481e-43 1.0814347e-38 5.1848043e-44
0.057885181 -0.04741193 0.0031282259 1.0599417e+38 7.1746481e-43 1.0814347e-38 5.0446745e-44
0.0084659448 -0.069988184 -0.031358611 1.0599417e+38 7.1746481e-43 1.0814347e-38 5.1848043e-44
-0.0386375 -0.026929161 -0.01923921 1.0599417e+38 7.1746481e-43 1.0814347e-38 5.0446745e-44
0.037082091 0.065958276 0.01085912 1.0599417e+38 7.1746481e-43 1.0814347e-38 4.7644148e-44
-0.055622291 -0.046507008 -0.003132792 1.0599417e+38 7.1746481e-43 1.0814347e-38 5.3249342e-44
-0.022685889 -0.025928 -0.022027699 1.0599417e+38 7.1746481e-43 1.0814347e-38 4.7644148e-44
0.03838994 0.062157489 0.0060519758 1.0599417e+38 7.1746481e-43 1.0814347e-38 4.9045446e-44
0.03654201 -0.018287759 -0.01807164 1.0599417e+38 7.1746481e-43 1.0814347e-38 5.0446745e-44
-0.053324409 0.01009942 0.00072467828 1.0599417e+38 7.1746481e-43 1.0814347e-38 5.1848043e-44
-0.01509664 0.001838417 -0.034042679 1.0599417e+38 7.1746481e-43 1.0814347e-38 5.1848043e-44
0.026912751 -0.060282718 -0.029097989 1.0599417e+38 7.1746481e-43 1.0814347e-38 5.0446745e-44
0.047507372 -0.050489649 -0.0160832 1.0599417e+38 7.1746481e-43 1.0814347e-38 4.9045446e-44
0.052994579 0.033301979 0.01178607 1.0599417e+38 7.1746481e-43 1.0814347e-38 4.7644148e-44
-0.043143719 -0.086109303 -0.0087448331 1.0599417e+38 7.1746481e-43 1.0814347e-38 5.1848043e-44
-0.031664349 -0.02644287 -0.019757699 1.0599417e+38 7.1746481e-43 1.0814347e-38 5.0446745e-44
0.03576462 -0.01251421 -0.017378651 1.0599417e+38 7.1746481e-43 1.0814347e-38 5.0446745e-44
-0.00141365 -0.01353925 -0.055085432 1.0599417e+38 7.1746481e-43 1.0814347e-38 5.1848043e-44
0.031677719 -0.02019893 -0.01997453 1.0599417e+38 7.1746481e-43 1.0814347e-38 5.0446745e-44
0.0314929 -0.03749565 -0.02273302 1.0599417e+38 7.1746481e-43 1.0814347e-38 4.9045446e-44
-0.041077789 0.060334101 0.005835569 1.0599417e+38 7.1746481e-43 1.0814347e-38 4.9045446e-44
0.01175492 0.0087325778 -0.039006028 1.0599417e+38 7.1746481e-43 1.0814347e-38 5.0446745e-44
0.0108333 -0.082226418 -0.02593069 1.0599417e+38 7.1746481e-43 1.0814347e-38 4.9045446e-44
0.053461701 0.028524769 0.0096517429 1.0599417e+38 7.1746481e-43 1.0814347e-38 4.7644148e-44
0.02779082 -0.090800703 -0.016460611 1.0599417e+38 7.1746481e-43 1.0814347e-38 4.9045446e-44
0.033771891 0.066964068 0.001525893 1.0599417e+38 7.1746481e-43 1.0814347e-38 4.9045446e-44
0.052256569 -0.01283557 -0.0070577008 1.0599417e+38 7.1746481e-43 1.0814347e-38 5.1848043e-44
-0.038019199 -0.02016554 -0.017566839 1.0599417e+38 7.1746481e-43 1.0814347e-38 5.0446745e-44
-0.01376355 -0.01786029 -0.02923868 1.0599417e+38 7.1746481e-43 1.0814347e-38 5.1848043e-44
0.065694787 -0.02154112 0.0136254 1.0599417e+38 7.1746481e-43 1.0814347e-38 4.7644148e-44
0.03094016 -0.087921008 -0.016123811 1.0599417e+38 7.1746481e-43 1.0814347e-38 5.0446745e-44
0.04873047 0.044389099 0.01065322 1.0599417e+38 7.1746481e-43 1.0814347e-38 4.6242849e-44
0.059681591 -0.064647533 0.0092267869 1.0599417e+38 7.1746481e-43 1.0814347e-38 5.0446745e-44
-0.01526173 -0.044216059 -0.025461581 1.0599417e+38 7.1746481e-43 1.0814347e-38 5.1848043e-44
-0.02665641 -0.003485004 -0.024460809 1.0599417e+38 7.1746481e-43 1.0814347e-38 5.3249342e-44
0.055946641 -0.057031561 0.00116382 1.0599417e+38 7.1746481e-43 1.0814347e-38 4.9045446e-44
-0.061091121 -0.052109789 0.01053761 1.0599417e+38 7.1746481e-43 1.0814347e-38 5.0446745e-44
-0.0090595419 -8.9229885e-05 -0.05370079 1.0599417e+38 7.1746481e-43 1.0814347e-38 5.6051939e-44
-0.02220954 -0.02604105 -0.022022091 1.0599417e+38 7.1746481e-43 1.0814347e-38 5.1848043e-44
0.055557821 -0.00088635553 0.0003657878 1.0599417e+38 7.1746481e-43 1.0814347e-38 5.465064e-44
0.003371859 -0.06127923 -0.034610469 1.0599417e+38 7.1746481e-43 1.0814347e-38 5.1848043e-44
-0.01247383 -0.01205237 -0.032986581 1.0599417e+38 7.1746481e-43 1.0814347e-38 5.1848043e-44
-0.034551281 -0.072750963 -0.02117987 1.0599417e+38 7.1746481e-43 1.0814347e-38 5.1848043e-44
-0.048859011 -0.02501829 -0.0084333476 1.0599417e+38 7.1746481e-43 1.0814347e-38 5.3249342e-44
0.038669121 0.053946279 -0.0039709932 1.0599417e+38 7.1746481e-43 1.0814347e-38 5.0446745e-44
0.040763739 -0.070359953 -0.01510416 1.0599417e+38 7.1746481e-43 1.0814347e-38 5.0446745e-44
0.01774287 -0.0410503 -0.02464132 1.0599417e+38 7.1746481e-43 1.0814347e-38 4.9045446e-44
0.03120896 0.0053155129 -0.02313998 1.0599417e+38 7.1746481e-43 1.0814347e-38 5.0446745e-44
-0.04003666 -0.0089976778 -0.01703842 1.0599417e+38 7.1746481e-43 1.0814347e-38 5.3249342e-44
0.01692893 -0.08795508 -0.02221771 1.0599417e+38 7.1746481e-43 1.0814347e-38 5.0446745e-44
-0.040319949 -0.02746628 -0.017601039 1.0599417e+38 7.1746481e-43 1.0814347e-38 5.1848043e-44
-0.01972937 -0.0259545 -0.022023389 1.0599417e+38 7.1746481e-43 1.0814347e-38 5.0446745e-44
-0.01312828 -0.053039461 -0.03389477 1.0599417e+38 7.1746481e-43 1.0814347e-38 5.1848043e-44
-0.0023804479 0.0085141463 -0.050131299 1.0599417e+38 7.1746481e-43 1.0814347e-38 5.1848043e-44
-0.039087351 -0.06109013 -0.02241303 1.0599417e+38 7.1746481e-43 1.0814347e-38 5.1848043e-44
-0.0078343404 -0.01019616 -0.05127186 1.0599417e+38 7.1746481e-43 1.0814347e-38 5.1848043e-44
0.039619021 0.05189367 -0.0032747451 1.0599417e+38 7.1746481e-43 1.0814347e-38 5.0446745e-44
0.058332041 0.0001223938 0.0043530832 1.0599417e+38 7.1746481e-43 1.0814347e-38 5.1848043e-44
-0.04477068 0.035849292 -0.0025635769 1.0599417e+38 7.1746481e-43 1.0814347e-38 5.1848043e-44
-0.052070979 0.0041199308 -0.0037022 1.0599417e+38 7.1746481e-43 1.0814347e-38 5.0446745e-44
0.01068256 -0.075306892 -0.028780609 1.0599417e+38 7.1746481e-43 1.0814347e-38 5.0446745e-44
-0.01106227 -0.086851783 -0.024887159 1.0599417e+38 7.1746481e-43 1.0814347e-38 5.1848043e-44
-0.046712399 0.045161709 0.0056296019 1.0599417e+38 7.1746481e-43 1.0814347e-38 4.9045446e-44
0.059112869 -0.073780678 0.01057921 1.0599417e+38 7.1746481e-43 1.0814347e-38 4.9045446e-44
0.01085664 -0.093565673 -0.021247489 1.0599417e+38 7.1746481e-43 1.0814347e-38 5.0446745e-44
-0.03629417 -0.01269344 -0.01852156 1.0599417e+38 7.1746481e-43 1.0814347e-38 5.1848043e-44
0.03963083 -0.055407811 -0.022683229 1.0599417e+38 7.1746481e-43 1.0814347e-38 5.0446745e-44
0.044217668 -0.03526178 -0.01470395 1.0599417e+38 7.1746481e-43 1.0814347e-38 5.0446745e-44
0.0096644564 -0.0113888 -0.039231729 1.0599417e+38 7.1746481e-43 1.0814347e-38 5.0446745e-44
0.01761039 0.01001476 -0.034170128 1.0599417e+38 7.1746481e-43 1.0814347e-38 4.9045446e-44
0.060380679 -0.019621329 0.002716122 1.0599417e+38 7.1746481e-43 1.0814347e-38 5.0446745e-44
0.064777657 -0.031789459 0.01274711 1.0599417e+38 7.1746481e-43 1.0814347e-38 4.9045446e-44
0.060649969 -0.058083002 0.01013647 1.0599417e+38 7.1746481e-43 1.0814347e-38 4.6242849e-44
0.01483686 -0.037258089 -0.0232196 1.0599417e+38 7.1746481e-43 1.0814347e-38 4.9045446e-44
0.03164544 -0.024257939 -0.01932889 1.0599417e+38 7.1746481e-43 1.0814347e-38 5.0446745e-44
0.04629777 -0.01233248 -0.0118319 1.0599417e+38 7.1746481e-43 1.0814347e-38 4.9045446e-44
-0.038900878 -0.03680468 -0.0196923 1.0599417e+38 7.1746481e-43 1.0814347e-38 5.0446745e-44
-0.063990422 -0.015964819 0.01073305 1.0599417e+38 7.1746481e-43 1.0814347e-38 5.0446745e-44
-0.02660637 -0.0027576031 -0.02459567 1.0599417e+38 7.1746481e-43 1.0814347e-38 5.3249342e-44
0.052930038 0.03308063 0.01151762 1.0599417e+38 7.1746481e-43 1.0814347e-38 4.7644148e-44
-0.02921704 -0.01506611 -0.020983901 1.0599417e+38 7.1746481e-43 1.0814347e-38 5.0446745e-44
0.047634169 -0.063124083 -0.01047523 1.0599417e+38 7.1746481e-43 1.0814347e-38 5.0446745e-44
0.003778829 -0.039381649 -0.034273509 1.0599417e+38 7.1746481e-43 1.0814347e-38 5.1848043e-44
0.05084509 -0.062495012 -0.0053267381 1.0599417e+38 7.1746481e-43 1.0814347e-38 5.1848043e-44
-0.003780592 -0.085514091 -0.02603567 1.0599417e+38 7.1746481e-43 1.0814347e-38 5.3249342e-44
-0.048672069 -0.047895059 -0.01461839 1.0599417e+38 7.1746481e-43 1.0814347e-38 5.1848043e-44
-0.03050982 -0.054140601 -0.028005101 1.0599417e+38 7.1746481e-43 1.0814347e-38 4.9045446e-44
-0.01176887 -0.02425658 -0.02743062 1.0599417e+38 7.1746481e-43 1.0814347e-38 5.1848043e-44
-0.041434959 -0.034433462 -0.016296219 1.0599417e+38 7.1746481e-43 1.0814347e-38 5.1848043e-44
-0.011212 0.0069693509 -0.040888749 1.0599417e+38 7.1746481e-43 1.0814347e-38 4.9045446e-44
-0.063300252 -0.03338249 0.01240049 1.0599417e+38 7.1746481e-43 1.0814347e-38 5.0446745e-44
0.02279322 0.0041752402 -0.028116349 1.0599417e+38 7.1746481e-43 1.0814347e-38 4.9045446e-44
-0.060060441 -0.01462233 0.002666659 1.0599417e+38 7.1746481e-43 1.0814347e-38 5.1848043e-44
0.047358759 -0.0098611228 -0.01103591 1.0599417e+38 7.1746481e-43 1.0814347e-38 5.1848043e-44
0.03336364 -0.0061736451 -0.01960359 1.0599417e+38 7.1746481e-43 1.0814347e-38 5.1848043e-44
-0.0034491681 -0.001848383 -0.061999921 1.0599417e+38 7.1746481e-43 1.0814347e-38 5.465064e-44
0.03910299 -0.052405551 -0.02351276 1.0599417e+38 7.1746481e-43 1.0814347e-38 5.0446745e-44
-0.01113312 -0.040849291 -0.025027679 1.0599417e+38 7.1746481e-43 1.0814347e-38 5.1848043e-44
0.006185228 -0.0021916791 -0.05907071 1.0599417e+38 7.1746481e-43 1.0814347e-38 5.3249342e-44
0.06040436 -0.053147599 0.0079402374 1.0599417e+38 7.1746481e-43 1.0814347e-38 4.9045446e-44
0.01778698 -0.050799459 -0.031653799 1.0599417e+38 7.1746481e-43 1.0814347e-38 4.9045446e-44
0.064101487 -0.042485539 0.01479184 1.0599417e+38 7.1746481e-43 1.0814347e-38 4.9045446e-44
-0.04198065 -0.066948779 -0.016892171 1.0599417e+38 7.1746481e-43 1.0814347e-38 5.1848043e-44
0.045178391 -0.051037978 -0.01880225 1.0599417e+38 7.1746481e-43 1.0814347e-38 5.0446745e-44
-0.05080092 0.041998651 0.01186228 1.0599417e+38 7.1746481e-43 1.0814347e-38 4.9045446e-44
0.03801024 -0.06076115 -0.022402929 1.0599417e+38 7.1746481e-43 1.0814347e-38 5.0446745e-44
-0.019259769 0.01151197 -0.032400921 1.0599417e+38 7.1746481e-43 1.0814347e-38 5.0446745e-44
-0.02976203 -0.066091523 -0.027037891 1.0599417e+38 7.1746481e-43 1.0814347e-38 5.1848043e-44
-0.03644098 -0.071487173 -0.02009918 1.0599417e+38 7.1746481e-43 1.0814347e-38 5.1848043e-44
0.043457411 -0.05796393 -0.01893389 1.0599417e+38 7.1746481e-43 1.0814347e-38 5.0446745e-44
0.061105661 -0.057406679 0.01087661 1.0599417e+38 7.1746481e-43 1.0814347e-38 4.9045446e-44
-0.03610938 -0.067375407 -0.022169041 1.0599417e+38 7.1746481e-43 1.0814347e-38 5.1848043e-44
0.050212309 -0.04599984 -0.01120539 1.0599417e+38 7.1746481e-43 1.0814347e-38 5.0446745e-44
0.03512368 0.01472959 -0.021020571 1.0599417e+38 7.1746481e-43 1.0814347e-38 4.9045446e-44
-0.044881761 0.047343511 0.002736087 1.0599417e+38 7.1746481e-43 1.0814347e-38 5.0446745e-44
0.042188261 -0.070744559 -0.01340771 1.0599417e+38 7.1746481e-43 1.0814347e-38 5.0446745e-44
-0.053357352 0.02990143 0.0098638441 1.0599417e+38 7.1746481e-43 1.0814347e-38 5.0446745e-44
-0.031848408 -0.059471719 -0.0276326 1.0599417e+38 7.1746481e-43 1.0814347e-38 5.0446745e-44
0.02640122 -0.075555488 -0.02339546 1.0599417e+38 7.1746481e-43 1.0814347e-38 5.0446745e-44
-0.0043772091 0.004028603 -0.048802789 1.0599417e+38 7.1746481e-43 1.0814347e-38 5.3249342e-44
0.03082536 -0.035721611 -0.017107669 1.0599417e+38 7.1746481e-43 1.0814347e-38 5.0446745e-44
0.033589348 -0.01689106 -0.01885649 1.0599417e+38 7.1746481e-43 1.0814347e-38 5.0446745e-44
0.01275404 -0.03053624 -0.023100231 1.0599417e+38 7.1746481e-43 1.0814347e-38 5.0446745e-44
0.059163481 -0.039240219 0.004580108 1.0599417e+38 7.1746481e-43 1.0814347e-38 5.0446745e-44
-0.024434069 -0.064823218 -0.0299269 1.0599417e+38 7.1746481e-43 1.0814347e-38 5.0446745e-44
0.006384626 -0.0126784 -0.050922401 1.0599417e+38 7.1746481e-43 1.0814347e-38 4.9045446e-44
-0.039263882 -0.02338222 -0.016195601 1.0599417e+38 7.1746481e-43 1.0814347e-38 5.0446745e-44
-0.06172603 -0.021342389 0.0059329998 1.0599417e+38 7.1746481e-43 1.0814347e-38 4.7644148e-44
0.053332951 -0.041904129 -0.004408197 1.0599417e+38 7.1746481e-43 1.0814347e-38 5.1848043e-44
0.046166021 0.037393801 0.00091371569 1.0599417e+38 7.1746481e-43 1.0814347e-38 4.9045446e-44
0.05459965 -0.064594321 0.001386125 1.0599417e+38 7.1746481e-43 1.0814347e-38 5.0446745e-44
-0.063156568 -0.02144211 0.0089798775 1.0599417e+38 7.1746481e-43 1.0814347e-38 5.1848043e-44
-0.052884359 0.01609149 0.002483859 1.0599417e+38 7.1746481e-43 1.0814347e-38 5.0446745e-44
-0.00343316 0.007501022 -0.04919884 1.0599417e+38 7.1746481e-43 1.0814347e-38 5.1848043e-44
0.018167149 -0.0027714761 -0.029738599 1.0599417e+38 7.1746481e-43 1.0814347e-38 5.0446745e-44
0.009973878 -0.0132043 -0.0367934 1.0599417e+38 7.1746481e-43 1.0814347e-38 4.9045446e-44
0.035159621 -0.039033409 -0.02292946 1.0599417e+38 7.1746481e-43 1.0814347e-38 5.0446745e-44
0.046893422 -0.05177737 -0.016820701 1.0599417e+38 7.1746481e-43 1.0814347e-38 4.9045446e-44
0.01325907 -0.0019992159 -0.043132968 1.0599417e+38 7.1746481e-43 1.0814347e-38 5.1848043e-44
0.05643893 -0.041159 0.0001963331 1.0599417e+38 7.1746481e-43 1.0814347e-38 4.9045446e-44
0.03024506 0.0065326891 -0.023973109 1.0599417e+38 7.1746481e-43 1.0814347e-38 5.0446745e-44
0.0069341301 0.001447335 -0.053905319 1.0599417e+38 7.1746481e-43 1.0814347e-38 5.0446745e-44
0.05149442 -0.059737921 -0.006138104 1.0599417e+38 7.1746481e-43 1.0814347e-38 5.1848043e-44
0.01327407 -0.033708941 -0.02282571 1.0599417e+38 7.1746481e-43 1.0814347e-38 5.0446745e-44
-0.04337969 -0.072812639 -0.0130239 1.0599417e+38 7.1746481e-43 1.0814347e-38 5.0446745e-44
0.01138774 0.00038014111 -0.045652691 1.0599417e+38 7.1746481e-43 1.0814347e-38 5.1848043e-44
-0.05691354 -0.040427551 0.00026043589 1.0599417e+38 7.1746481e-43 1.0814347e-38 5.3249342e-44
-0.054747339 -0.019466851 -0.00384129 1.0599417e+38 7.1746481e-43 1.0814347e-38 5.1848043e-44
-0.049252309 0.039951939 0.0076815928 1.0599417e+38 7.1746481e-43 1.0814347e-38 5.0446745e-44
-0.01600524 -0.01601625 -0.02784697 1.0599417e+38 7.1746481e-43 1.0814347e-38 5.1848043e-44
0.04536099 0.02819708 -0.00540565 1.0599417e+38 7.1746481e-43 1.0814347e-38 4.9045446e-44
-0.061703339 -0.076936238 0.01681125 1.0599417e+38 7.1746481e-43 1.0814347e-38 5.0446745e-44
0.0093257856 -0.093900651 -0.021469461 1.0599417e+38 7.1746481e-43 1.0814347e-38 5.1848043e-44
-0.056508452 -0.01051844 -0.0019967591 1.0599417e+38 7.1746481e-43 1.0814347e-38 5.3249342e-44
-0.02928452 -0.079611272 -0.02154398 1.0599417e+38 7.1746481e-43 1.0814347e-38 5.1848043e-44
-0.05233619 -0.034346558 -0.003928117 1.0599417e+38 7.1746481e-43 1.0814347e-38 5.3249342e-44
-0.059368718 -0.01196709 0.001540287 1.0599417e+38 7.1746481e-43 1.0814347e-38 5.1848043e-44
-0.05760378 0.0089601781 0.0079679927 1.0599417e+38 7.1746481e-43 1.0814347e-38 5.1848043e-44
0.057461079 -0.066995487 0.0063211732 1.0599417e+38 7.1746481e-43 1.0814347e-38 5.0446745e-44
-0.061806399 -0.0085270396 0.0078235324 1.0599417e+38 7.1746481e-43 1.0814347e-38 5.0446745e-44
0.045896608 -0.08414083 -0.0036076731 1.0599417e+38 7.1746481e-43 1.0814347e-38 5.1848043e-44
0.00321358 0.001942749 -0.046984918 1.0599417e+38 7.1746481e-43 1.0814347e-38 5.0446745e-44
0.056051571 0.02393122 0.01185362 1.0599417e+38 7.1746481e-43 1.0814347e-38 4.7644148e-44
0.0223419 -0.083608948 -0.022079701 1.0599417e+38 7.1746481e-43 1.0814347e-38 4.7644148e-44
-0.023429271 0.004967148 -0.0273172 1.0599417e+38 7.1746481e-43 1.0814347e-38 5.0446745e-44
-0.039064251 -0.086083204 -0.01257135 1.0599417e+38 7.1746481e-43 1.0814347e-38 5.0446745e-44
0.058271501 -0.028360991 0.001308688 1.0599417e+38 7.1746481e-43 1.0814347e-38 4.9045446e-44
-0.017635411 -0.048083588 -0.02843301 1.0599417e+38 7.1746481e-43 1.0814347e-38 5.1848043e-44
0.054918259 -0.045769852 -0.0029535589 1.0599417e+38 7.1746481e-43 1.0814347e-38 5.1848043e-44
-0.056245379 0.0072580492 0.004692344 1.0599417e+38 7.1746481e-43 1.0814347e-38 5.1848043e-44
0.04976714 -0.08143732 0.00072155579 1.0599417e+38 7.1746481e-43 1.0814347e-38 5.1848043e-44
-0.05804453 -0.00131849 0.00364336 1.0599417e+38 7.1746481e-43 1.0814347e-38 5.0446745e-44
-0.0052612312 -0.08119186 -0.027520509 1.0599417e+38 7.1746481e-43 1.0814347e-38 5.3249342e-44
-0.055242911 0.025700429 0.01179335 1.0599417e+38 7.1746481e-43 1.0814347e-38 4.9045446e-44
-0.05033242 0.02363601 0.001407837 1.0599417e+38 7.1746481e-43 1.0814347e-38 5.0446745e-44
-0.034185771 -0.04565822 -0.02334076 1.0599417e+38 7.1746481e-43 1.0814347e-38 5.1848043e-44
-0.041185942 -0.038896009 -0.019188991 1.0599417e+38 7.1746481e-43 1.0814347e-38 5.1848043e-44
0.042482261 0.05186452 0.0030228531 1.0599417e+38 7.1746481e-43 1.0814347e-38 4.9045446e-44
-0.00035384111 0.0034305369 -0.061429471 1.0599417e+38 7.1746481e-43 1.0814347e-38 5.465064e-44
0.056850851 0.0039484212 0.00353287 1.0599417e+38 7.1746481e-43 1.0814347e-38 4.9045446e-44
-0.003663793 -0.048909511 -0.033962 1.0599417e+38 7.1746481e-43 1.0814347e-38 5.0446745e-44
-0.04434279 -0.01196065 -0.01417474 1.0599417e+38 7.1746481e-43 1.0814347e-38 5.1848043e-44
-0.049286909 0.032683041 0.003487817 1.0599417e+38 7.1746481e-43 1.0814347e-38 5.0446745e-44
-0.033902861 0.0091843018 -0.02099348 1.0599417e+38 7.1746481e-43 1.0814347e-38 5.1848043e-44
-0.029404789 -0.038274769 -0.016981181 1.0599417e+38 7.1746481e-43 1.0814347e-38 5.1848043e-44
0.03673343 0.0029191261 -0.01887311 1.0599417e+38 7.1746481e-43 1.0814347e-38 5.0446745e-44
0.02779991 0.01056625 -0.026424039 1.0599417e+38 7.1746481e-43 1.0814347e-38 4.9045446e-44
0.002359027 0.0054443418 -0.054635469 1.0599417e+38 7.1746481e-43 1.0814347e-38 5.1848043e-44
-0.0093998639 -0.01014811 -0.043412331 1.0599417e+38 7.1746481e-43 1.0814347e-38 5.3249342e-44
-0.0050407578 -0.0089686019 -0.057028141 1.0599417e+38 7.1746481e-43 1.0814347e-38 5.465064e-44
-0.016499801 -0.054627169 -0.033377629 1.0599417e+38 7.1746481e-43 1.0814347e-38 5.0446745e-44
-0.056344341 -0.050008219 -0.001534842 1.0599417e+38 7.1746481e-43 1.0814347e-38 5.3249342e-44
