# .PCD v0.7 - Point Cloud Data file format
VERSION 0.7
FIELDS x y z
SIZE 4 4 4
TYPE F F F
COUNT 1 1 1
WIDTH 1287
HEIGHT 1
VIEWPOINT 0 0 0 1 0 0 0
POINTS 1287
DATA ascii
0.02229467 0.039547279 -0.020222859
-0.039579201 -0.024225861 -0.016002931
0.004880873 -0.057951249 -0.035026781
-0.0092479708 0.02458914 -0.042142041
0.01617864 0.041232731 -0.034932312
0.01925322 -0.05374217 -0.03224596
0.01017362 -0.036407869 -0.0254508
-0.0090683559 0.01755874 -0.0419368
-0.01224211 0.079032883 -0.01317338
0.0040123332 -0.0066854269 -0.059352331
0.0102648 0.06482999 -0.028881639
0.0042976849 -0.0037645381 -0.042996231
0.02533688 0.0045558512 -0.026598349
0.02257479 0.01428155 -0.031756319
-0.04087241 -0.069535129 -0.01674059
0.0266519 0.058523271 -0.018427759
0.045606788 -0.062983297 -0.01324085
-0.01949071 -0.037694521 -0.021493459
-0.0063579278 0.043265838 -0.02727785
-0.01277358 -0.0056034201 -0.037671931
0.049170669 -0.002380017 -0.0084922146
-0.03770021 0.049987651 -0.007740227
-0.0032548199 -0.0046394798 -0.06135197
-0.01575478 0.073769793 -0.023280829
-0.03485566 -0.03653916 -0.021141941
0.049929999 0.011813 -0.0038666921
0.0087821744 -0.05021631 -0.03397651
-0.049247138 0.01373656 -0.0041805031
0.019843251 -0.060214922 -0.031866372
-0.0060972162 0.029130001 -0.030876691
0.02542372 -0.049186882 -0.028306929
-0.01162342 -0.01008579 -0.03579253
0.028534019 0.069017537 -0.0078515178
0.024330011 -0.069341481 -0.02729761
-0.01407472 -0.060922921 -0.03384937
-0.02537035 0.041397359 -0.027292481
-0.033208489 -0.05451161 -0.02701287
0.03977602 -0.040102761 -0.0207268
-0.007035356 0.03444862 -0.04060312
-0.05152607 -0.001587564 -0.006488075
-0.01204465 -0.01264593 -0.03343834
-0.016635301 -0.068966053 -0.031154061
-0.051952299 -0.055631701 -0.0091926781
0.043244019 -0.074878506 -0.01044868
0.01200036 0.028653011 -0.039168309
0.049369939 -0.04795894 -0.01303439
0.0097467704 -0.0100932 -0.041434329
-0.01791095 -0.03036111 -0.02130953
-0.02226677 -0.05048177 -0.028542031
0.01145277 -0.0083943633 -0.03755204
-0.0051981928 0.00047172411 -0.059880331
0.024301421 0.0612306 -0.02028911
-0.001224375 -0.01578716 -0.053292461
0.02276561 -0.0053454982 -0.02549611
-0.017017029 0.03239711 -0.029314401
0.054324452 -0.01215712 -0.004677461
0.0092990892 -0.017315671 -0.036638219
-0.0099628372 -0.01030838 -0.040556449
0.017023049 -0.0041917488 -0.03049108
0.004658327 0.05700773 -0.031510111
-0.029490611 0.0042191581 -0.0237974
0.019792801 0.01138168 -0.032921921
0.04234688 0.0075366818 -0.01385462
-0.0087125739 0.046616461 -0.03537792
-0.03663744 -0.036081459 -0.020537199
-0.0081792986 0.028313121 -0.041315541
-0.0052197101 0.043358929 -0.02750157
-0.016385181 0.003276235 -0.031732049
-0.016928891 0.032420389 -0.03471569
0.026332 -0.021638211 -0.02118149
0.0046249181 -0.03127702 -0.037211791
-0.034907009 -0.023652179 -0.01929161
0.022731001 -0.016898461 -0.022375651
7.5670432e-05 0.03175341 -0.040170189
0.037138749 0.044342931 -0.01233899
0.026734609 -0.02527649 -0.01798195
0.03884235 0.049012709 -0.007014811
0.047439799 -0.024428921 -0.01053354
0.004523274 -0.056337591 -0.035089519
-0.037613168 -0.02117539 -0.01763159
0.02770349 0.0030985109 -0.024769019
-0.023788249 -0.041241899 -0.02251151
-0.054056659 -0.043143809 -0.0051832399
0.038986359 -0.034864739 -0.01228523
0.0178305 -0.051452249 -0.031912599
-0.037724201 -0.01363324 -0.017838489
-0.03980251 -0.06386286 -0.020552849
-0.055745561 -0.051955439 -0.002614148
0.017641019 -0.00057686173 -0.03103053
-0.02374167 -0.021364341 -0.021994259
-0.027995599 -0.038662631 -0.01474811
-0.01675416 0.04008276 -0.024489719
0.032379121 -0.064343669 -0.024919311
0.025601281 -0.06174767 -0.02931034
0.036604721 -0.022650629 -0.01530762
-0.02466009 0.033860199 -0.0280951
-0.01610912 0.01008932 -0.03425907
0.036203921 0.0062407898 -0.01956022
0.0146225 -0.00178992 -0.039720152
0.0023824 0.0005452857 -0.046320211
0.01247982 0.0061382898 -0.03893793
0.04061047 0.028813921 -0.01298625
-0.01566207 -0.040249892 -0.022285311
-0.03046827 -0.037352759 -0.01982438
-0.0175891 0.078064486 -0.01099476
0.01300322 -0.01379476 -0.031503219
-0.04923683 -0.02346799 -0.008449873
0.051962212 -0.005770986 -0.0058628861
-0.01084978 -0.03484134 -0.02306173
-0.01129245 0.01865348 -0.040612001
-0.01533356 0.034137089 -0.029540271
0.01586991 0.02630561 -0.038024869
0.01447493 0.054302491 -0.027978729
0.02367164 0.001770858 -0.026909729
0.05298705 -0.03869535 -0.0041214409
-0.0448572 -0.01309573 -0.01381868
0.037591431 0.002402487 -0.01833459
0.021943619 -0.048307382 -0.02888033
0.0144754 0.031847421 -0.032033611
0.02779277 0.059137009 -0.0172833
-0.032459669 0.02539566 -0.024281209
0.01537544 0.019178789 -0.038400661
0.0196179 0.074552983 -0.01516923
-0.020272439 -0.049971189 -0.02909782
0.01732434 0.039256971 -0.034689508
0.01695309 -0.02488666 -0.02289195
-0.042198259 -0.0603269 -0.01998446
0.040038191 0.048728399 -0.004632466
0.0085413028 0.002570804 -0.044287641
-0.01912594 -0.01998282 -0.02400418
-0.0088185221 -0.03276661 -0.02485184
0.005510645 0.073783897 -0.02602352
-0.015636081 0.02058414 -0.03791865
0.04284298 0.032148331 -0.0079539847
-0.042080391 -0.058236439 -0.02076127
0.050404571 0.0059658252 -0.004900787
0.0073878118 0.062488291 -0.03054785
0.0057869768 0.015644319 -0.043893281
0.043857981 -0.01838108 -0.01392595
0.0250099 -0.0134618 -0.021732081
-0.0035525199 0.0064943391 -0.050095811
-0.018950971 -0.031639788 -0.018707801
-0.0074308328 -0.003020836 -0.04223476
-0.006875596 0.01046354 -0.043374039
-0.020694049 -0.042078208 -0.02268406
-0.0049165441 0.02793025 -0.042752229
0.031606551 -0.040435389 -0.023720831
-0.035346299 0.02882492 -0.01979352
-0.0072730128 -0.0094942302 -0.053794671
-0.03997077 0.01611785 -0.014157
0.01557693 0.075920463 -0.01698577
-0.01001164 -0.035342269 -0.023705561
-0.038389269 -0.062889017 -0.02223645
0.034247771 -0.005407135 -0.01930185
0.01922694 0.035193071 -0.033414438
0.020462589 0.027755409 -0.034392189
0.04601106 -0.058868069 -0.01554541
0.05061179 -0.050748941 -0.01177452
0.02149437 0.019054171 -0.033848781
-0.03107697 0.05923238 -0.01531263
0.0108345 0.074853837 -0.022460051
-0.031834871 -0.042623252 -0.02319669
-0.01145359 -0.048031859 -0.031710621
-0.016252929 0.058577459 -0.02874279
0.01252055 0.02696381 -0.02785475
0.006799526 -0.046599928 -0.033015922
-0.044671152 -0.068824761 -0.01289154
-0.01294674 0.078477427 -0.01438052
0.040324811 -0.001678182 -0.016170191
-0.053764839 -0.05001938 -0.0071106791
0.024746809 -0.0028549109 -0.02500225
0.0097301248 0.035024598 -0.031752311
-0.0072433301 0.027502179 -0.028951479
-0.006880614 0.077905707 -0.019354651
-0.01414617 -0.043582331 -0.025444221
-0.01478622 0.01183944 -0.0361377
0.0047818688 0.02814338 -0.04287586
-0.046127949 -0.045253091 -0.016036181
0.01391132 0.02968961 -0.030735619
-0.038702969 0.020529769 -0.01549779
0.0080951909 -0.03521727 -0.02734095
-0.0026386441 0.037125051 -0.041325301
-0.004453084 -0.028944369 -0.0386177
-0.023762161 -0.029093301 -0.017295521
-0.01437703 0.056058992 -0.029601069
-0.037169781 -0.036262579 -0.01595301
-0.037605971 -0.035966359 -0.016305409
-0.00084326812 -0.0102671 -0.057889439
-0.031920008 0.047991201 -0.017279539
-0.02524074 0.005802725 -0.026338801
0.01711891 0.034127939 -0.034852311
-0.029644329 0.0693902 -0.01135197
0.01967573 0.076328181 -0.0096306093
-0.0082882131 0.01079523 -0.042198978
-0.037152641 0.056834299 -0.0058367262
-0.01338392 -0.034896448 -0.02125825
0.018394191 -0.030426789 -0.01927655
0.02091484 0.075400643 -0.0098566907
-0.03557976 -0.044462111 -0.02276182
0.036486011 0.046625249 -0.01222032
0.01363345 0.02420691 -0.03971618
0.012048 -0.03012366 -0.023766739
0.034837112 -0.04208865 -0.02336302
0.01362849 -0.01068881 -0.031794921
0.01856597 0.02891984 -0.026303049
-0.0096266093 -0.026555341 -0.02810709
0.013764 -0.02004059 -0.028919769
0.03415991 -0.0074876579 -0.018812129
0.01917208 -0.05207257 -0.031856481
-0.035584461 -0.037129939 -0.01558496
-0.040841758 -0.034331739 -0.01659449
0.034791689 0.02533529 -0.022411341
-0.04307045 -0.032378379 -0.01335143
-0.01100988 -0.071423993 -0.03117311
0.048888259 -0.067659028 -0.0063629802
0.028694279 0.02404901 -0.028514391
-0.04853373 -0.058642309 -0.01346157
0.03103804 -0.050367892 -0.02685486
-0.05089394 -0.03048539 -0.0053398889
-0.055229928 -0.049097098 -0.0038848701
-0.02010034 -0.05411284 -0.032020401
0.005123883 0.0281817 -0.04276251
0.046515152 -0.019005559 -0.01180467
-0.022642421 -0.02506767 -0.021938659
0.01299132 -0.033034708 -0.022966489
-0.01143458 -0.028048821 -0.02483925
-0.045997068 -0.068456829 -0.01146735
0.035497021 0.055045862 -0.0089150025
-0.0034983971 -0.041283511 -0.03312901
-0.032094441 0.05684787 -0.01443068
0.0085566584 0.001694258 -0.04474844
-0.03557016 -0.069868371 -0.02149667
0.0053418409 0.0007127272 -0.05090205
-0.018275719 0.02971465 -0.028168811
-0.033479169 -0.02636951 -0.01952306
0.01630912 0.024789801 -0.037912909
0.032267138 -0.04163174 -0.023895349
0.01001307 -0.01145705 -0.038076811
-0.003670356 0.040612441 -0.029589711
0.027659521 0.03140904 -0.02728267
-0.045070421 -0.043615822 -0.016012371
-0.02318237 -0.062962033 -0.03080504
-0.031825371 -0.04149732 -0.022842521
0.001608005 4.2299594e-05 -0.06244522
0.045437802 -0.067650042 -0.010938
0.048209049 0.01838943 -0.0044349949
-0.01821515 -0.048752058 -0.028923299
0.036253199 -0.04781941 -0.02373163
0.012942 0.02944172 -0.030589869
0.0098074526 -0.0463381 -0.03194255
-0.01021282 -0.025582099 -0.02821544
-0.047729518 -0.054653302 -0.01629897
-0.025045911 0.0036306761 -0.02618959
-0.037852932 0.046212841 -0.0092370892
0.050706521 -0.034445331 -0.005997221
0.03360742 0.03131891 -0.022559119
0.024241719 -0.033932269 -0.02159805
-0.0044121668 0.032373499 -0.03540612
-0.052976988 -0.05532185 -0.007146894
0.0032627489 0.073840968 -0.02643864
-0.005107794 -0.002758438 -0.060527861
0.014676 0.03251297 -0.031224649
-0.0026592941 -0.01508221 -0.053219829
-0.055499159 -0.041452151 -0.0019624471
-0.0030215171 0.0020607449 -0.051355921
0.03279176 -0.034587611 -0.01989359
0.046244051 -0.01940963 -0.01198844
-0.023244459 0.022025229 -0.032447491
-0.005594112 0.00054874731 -0.059401959
0.02369698 0.073716879 -0.0087855207
-0.0091319671 0.0017889061 -0.046767712
-0.016148981 0.034688689 -0.036024339
-0.006590263 -0.050997838 -0.034237679
-0.0003810956 0.037269831 -0.032000531
0.01561826 0.00082822179 -0.03627564
0.005228858 -0.026612859 -0.039221179
0.03509501 0.0053983219 -0.020220069
-0.01931572 0.026282961 -0.035196438
-0.034100361 -0.017315339 -0.01945327
-0.004084717 -0.065174609 -0.03387019
0.001740325 0.028397379 -0.043345951
0.0048418581 0.00089745183 -0.059742309
0.029448681 -0.0075069629 -0.02110064
0.045871839 0.021599529 -0.006987344
-0.03667422 0.056740459 -0.0070779091
0.0070603299 -0.02764914 -0.033746541
0.018653531 0.01075262 -0.033605039
0.02857881 0.001332378 -0.023858201
0.050135478 -0.039082371 -0.0076736892
-0.044050131 0.0074888491 -0.01225008
0.0064626192 0.031380881 -0.039451301
0.01853643 -0.01392849 -0.025741961
0.03582295 -0.04813318 -0.024007481
-0.0068664961 -0.029032931 -0.03157581
-0.03222236 0.02393185 -0.02459044
0.03694484 0.046805318 -0.01139752
0.04709702 0.0045273178 -0.0093696704
0.01083098 0.002624698 -0.044178471
0.042783171 0.0333304 -0.0076717301
-0.016256509 0.030080751 -0.034855571
0.021590451 -0.043777712 -0.02609086
-0.0110441 -0.026836719 -0.02621793
0.04837393 0.01245225 -0.0059985169
-0.03003121 0.016740751 -0.02530041
0.0054931869 -0.02100599 -0.042821731
0.05455957 -0.024417579 -0.0038307591
0.036401499 -0.0084295683 -0.01760623
0.0076187602 -0.05901676 -0.034590669
-0.01442363 -0.019200301 -0.02796991
-0.0033455379 0.032456391 -0.035455201
-0.0151925 0.0042093261 -0.033844199
-0.02195413 -0.053611912 -0.031227959
-0.040470678 0.035120141 -0.01000654
-0.0100886 -0.02837728 -0.02610638
0.041200981 -0.023970909 -0.01293843
-0.015906939 0.078602083 -0.01150747
0.05286606 -0.01095288 -0.006054624
-0.035984419 0.028341079 -0.01888149
0.00060045888 0.076584749 -0.022961119
-0.0198998 0.02666197 -0.034605511
0.002604343 0.01727441 -0.044963211
0.032462321 -0.041212101 -0.023814211
0.01912461 0.026150379 -0.035767488
0.035648521 -0.059334211 -0.02469031
-0.022427401 0.03063222 -0.02106702
0.030138331 0.067531027 -0.0065860469
0.0093989549 0.032605391 -0.033488799
-0.029923329 -0.03731114 -0.022673929
-0.033156209 0.06100601 -0.01126621
0.0086904196 0.018503711 -0.042396519
0.051482961 -0.063137583 -0.0039306101
-0.047149099 0.01623036 -0.0061840271
0.026769539 0.068444647 -0.01269832
-0.018055489 0.071793623 -0.02455445
0.01099048 0.02925129 -0.039254781
-0.05465056 -0.055945162 -0.0035087499
-0.0023446521 0.04491993 -0.037806109
-0.007899208 0.01116605 -0.042547029
-0.0002133283 0.0082411133 -0.0526568
-0.0050147339 0.02758836 -0.042881589
0.001620578 -0.019412991 -0.04994579
-0.035072591 0.033265661 -0.019048819
-0.01528314 -0.047725409 -0.02935064
0.02350256 0.050442811 -0.023352209
-0.047912288 -0.05597673 -0.01568404
0.02098728 -0.044260461 -0.02647266
0.036930248 -0.06094183 -0.023168979
-0.003033059 -0.017000381 -0.05128894
-0.0117181 -0.0216769 -0.029550411
0.047573522 -0.057298489 -0.01441497
-0.016012991 0.076613612 -0.017725039
0.04670364 -0.058145382 -0.01525601
-0.0049159168 0.020608731 -0.043946341
0.02082031 0.044893291 -0.028523911
0.043076251 -0.044030469 -0.018629789
0.032002531 0.0186313 -0.02482399
-0.043816779 0.0085730059 -0.0122397
0.035664499 -0.020097859 -0.01873656
-0.0088833291 0.052828688 -0.03172949
-0.033582039 0.044232 -0.016819989
-0.037558299 -0.01497968 -0.01788814
-0.0024239961 0.079061367 -0.016469421
0.01072978 -0.0042678132 -0.049367361
-0.01050881 0.078455277 -0.01618653
-0.049499661 -0.05787468 -0.01237781
0.031534228 0.01027826 -0.02365916
-0.0091620907 -0.01659045 -0.03704467
-0.03193517 0.062694378 -0.01242448
0.047537219 -0.071567267 -0.0064836531
0.02753697 0.064460076 -0.01544437
0.021457249 0.03851407 -0.02136704
0.0041130818 0.038860992 -0.030338921
-0.01546316 -0.065506041 -0.032691251
-0.044379748 0.01004318 -0.01122405
0.036165629 0.0077082501 -0.01975441
0.01405936 0.03083303 -0.03545133
0.04258728 -0.075699538 -0.01084844
-0.01152087 0.0020343589 -0.04740544
-0.0004172654 0.03120989 -0.037251029
0.026845969 -0.016009839 -0.020706059
-0.050103601 -0.041483831 -0.0097936103
-0.02495536 0.072821774 -0.01476491
0.01767477 0.04693073 -0.02969672
-0.02524727 0.037476949 -0.027753631
0.040035311 0.01401424 -0.01577002
-0.0047123679 0.03119529 -0.037354682
-0.049491711 -0.067696407 -0.0075715259
0.033757221 -0.064169116 -0.02404194
-0.01720647 0.02972156 -0.02902915
0.0310467 -0.035420291 -0.023453331
-0.018379919 -0.02552625 -0.02219373
0.026341161 -0.066643476 -0.02747779
-0.05594755 -0.045647111 -0.002501145
-0.01740377 0.02946903 -0.028182611
-0.0002602106 -0.061069991 -0.034784049
0.01024966 -0.008865552 -0.04375913
0.023214299 0.03799694 -0.02956331
0.02339679 0.0003659334 -0.026699411
-0.05045801 0.001912366 -0.0067226128
-0.042173229 0.037844401 -0.0059560281
0.0087393736 -0.01675204 -0.038132541
0.04211932 -0.058269899 -0.020202231
-0.0045425552 -0.01524379 -0.051024821
0.021829501 -0.070815124 -0.027677059
0.02311172 -0.053595651 -0.03098892
-0.01555501 -0.04717502 -0.028504791
0.0019837371 0.0060928608 -0.052217241
-0.0509721 -0.035675149 -0.0057380078
0.003678259 0.077935912 -0.01926437
0.02748679 -0.034411639 -0.023101119
-0.043185402 -0.049735229 -0.020010149
-0.036109921 0.03467587 -0.017064361
-0.005513621 -0.001606892 -0.060191508
-0.02067259 0.03046729 -0.02569152
-0.02236779 -0.02346036 -0.021935171
-0.036972519 0.05489577 -0.0071864109
-0.00075076631 -0.02393241 -0.046624441
0.023281939 -0.02318999 -0.02191584
0.05357698 -0.056746822 -0.003701129
0.039887451 -0.016197041 -0.01592431
-0.003179525 -0.061023839 -0.03477918
-0.02239915 0.075409867 -0.01218602
0.04776118 -0.06497658 -0.0092492308
-0.029125441 0.069527067 -0.01236553
0.01771003 0.02695415 -0.025194431
-0.01406474 0.02964643 -0.03057253
-0.001122228 0.074864432 -0.025895599
0.05353 -0.005418248 -0.0037395861
0.01170179 -0.027763201 -0.025869081
0.03195221 -0.022607099 -0.01545694
-0.0494022 -0.05476027 -0.0138861
0.02023565 0.029129039 -0.024600031
-0.038872521 -0.023360919 -0.01645915
-0.046119358 0.020147059 -0.0061179288
-0.051478282 -0.056835908 -0.0096473219
0.04813068 -0.062108759 -0.01030481
0.04324948 -0.07312572 -0.01112664
-0.034646049 0.01313732 -0.02006877
0.048404161 -0.02118168 -0.0099244704
0.02874222 -0.057898901 -0.02851852
-0.02773403 0.067947328 -0.016865021
-0.04943442 -0.0084394207 -0.0099514993
0.0038517211 -0.0048523219 -0.043783359
0.03965994 -0.021921709 -0.01681041
-0.024333719 0.074554957 -0.01104529
0.045979928 0.028063299 -0.0044799931
0.001974839 -0.03113737 -0.040116429
-0.01673145 0.077129647 -0.0153132
-0.0041278591 -0.034138389 -0.034769479
0.038750488 0.001400569 -0.017581191
-0.02963377 0.032411449 -0.025114371
-0.033815261 -0.03689016 -0.0184693
0.028142691 0.02474816 -0.028936099
-0.022503059 -0.058412559 -0.031531189
0.0081696343 0.077918872 -0.017648529
0.019014399 0.054778621 -0.02523298
-0.004768136 -0.033702381 -0.033942189
0.046752289 0.01260766 -0.0079744952
0.02556709 0.031021301 -0.028634749
0.042342871 0.027951891 -0.0098793609
0.01208765 0.00073724118 -0.043893099
0.0003940046 -0.068904974 -0.032588311
-0.03267356 0.01177788 -0.02208093
0.049068969 -0.0049839211 -0.0089769335
0.051309548 -0.0083487267 -0.0073542981
-0.005803138 -0.01063611 -0.054636341
-0.0090846838 -0.030342801 -0.025809349
-0.01260787 -0.069919057 -0.031577069
0.049149889 -0.05334508 -0.01369484
-0.045129679 -0.065619498 -0.01390477
-0.0083302427 0.069930278 -0.02917766
0.026635161 0.067946233 -0.01358696
-0.02613309 -0.047407672 -0.02529343
-0.046922911 -0.01067281 -0.01227065
-0.04873804 -0.074534193 -0.006422685
-0.0058086738 -0.00049901911 -0.05033043
0.02050017 -0.054698791 -0.03179729
-0.0040135151 0.075863808 -0.024129219
-0.042939041 -0.02201356 -0.01406949
0.049892321 -0.043904912 -0.01061222
0.0075572799 -0.005413664 -0.055901911
0.046266351 -0.02283923 -0.01191315
0.040660851 0.036712449 -0.0100932
-0.050974939 0.00055028481 -0.0065079532
-0.043694749 -0.036693141 -0.01543414
0.03000721 -0.018043891 -0.02002798
0.04447693 0.033149619 -0.0045948061
-0.01489562 -0.02297646 -0.025232101
-0.05320628 -0.0065448121 -0.0055859992
0.007788145 0.003696624 -0.043806382
0.00042631 0.027900809 -0.029766081
0.048922259 -0.01089701 -0.009957944
0.02691835 -0.016019151 -0.02067413
-0.020207411 -0.02438 -0.022137791
0.026118569 0.061647691 -0.01837996
-0.038125422 -0.059622422 -0.023638479
-0.027754139 0.064861767 -0.01852596
-0.043038771 0.0069094258 -0.01329115
0.002470921 0.0030759771 -0.050978269
0.030224031 -0.024280859 -0.01890577
0.0029584661 -0.0042723152 -0.06135688
0.048600849 0.00094801589 -0.0084425379
-0.054366481 -0.043841481 -0.0049417708
0.007576705 0.01576912 -0.0428501
-0.01043352 0.054127261 -0.031303521
-0.04801999 -0.073943377 -0.0074433428
0.006657355 -0.05201691 -0.034632441
-0.036830138 0.01517243 -0.01778068
-0.00065917661 -0.070969813 -0.031879012
0.02134737 0.069238164 -0.02011515
0.001930012 -0.03702553 -0.036174212
-0.01914911 0.043954011 -0.032117631
0.0091587277 -0.057420071 -0.034625631
-0.01034144 0.043782011 -0.025631489
0.00626123 -0.04622893 -0.03294865
-0.035371929 0.029884331 -0.019590929
-0.0042984211 0.02824481 -0.02979956
0.02905152 0.063138723 -0.01417696
0.03399796 0.058440808 -0.0091718379
-0.039830331 0.036117211 -0.01049917
-0.0100234 -0.032533661 -0.024008989
0.044010621 0.0077397372 -0.01211129
-0.01618886 0.071385823 -0.02571794
-0.0076816231 0.001791877 -0.049702909
0.0094916662 -0.070366703 -0.031042891
-0.0030660939 0.066896573 -0.030913681
0.020654829 0.01240434 -0.032614779
-0.035609379 -0.003167585 -0.01987483
-0.046811979 0.022246171 -0.0044888481
0.0251913 0.065696821 -0.01770727
-0.044737339 -0.037516791 -0.01402524
-0.03828121 -0.070700116 -0.01891263
-0.004489332 0.036573589 -0.032051269
0.01686028 0.0020501669 -0.033349369
0.016336881 -0.0091734668 -0.02929179
-0.00356353 0.047398891 -0.035586432
0.003838487 0.032243781 -0.040534209
0.033602871 0.01072909 -0.022015739
0.042153548 0.0099659124 -0.01385828
-0.01416939 -0.067514457 -0.03220756
0.054136351 -0.057259358 -0.002278554
-0.044073202 -0.03121898 -0.01232692
0.042239401 -0.01536612 -0.01440306
0.03649807 -0.05738401 -0.024429699
-0.031272039 0.066572659 -0.01107463
0.043642599 -0.053329121 -0.01994295
-0.03179558 0.01079478 -0.02273717
0.01062101 0.068937369 -0.027365141
-0.018753219 0.077312067 -0.01194766
-0.035169318 0.01166837 -0.01976843
-0.036688399 -0.026111299 -0.01567645
-0.01508072 -0.029899171 -0.02138545
-0.02912599 0.01461252 -0.025654901
-0.0068227681 -0.0001187663 -0.05788029
0.015817661 0.0273042 -0.02669047
0.007816216 -0.01440569 -0.042528991
-0.034965809 -0.0082279276 -0.019602049
-0.045380861 0.01415663 -0.0090392362
-0.0003097438 0.01003896 -0.049426939
-0.015908111 0.078052379 -0.01342053
-0.0048218239 0.017215591 -0.04421616
-0.032078389 -0.069002517 -0.024501549
0.0075723608 0.001562123 -0.05139209
0.007329172 0.001931706 -0.050156191
0.02489318 -0.033815041 -0.02279437
-0.03048557 -0.061395131 -0.028274329
-0.01970033 0.048579238 -0.02907024
0.01335715 0.036912151 -0.028793139
0.016758051 0.051836479 -0.02757524
0.0071116388 0.073852383 -0.025572831
-0.00051250972 0.034216121 -0.034193389
0.051450219 0.003473266 -0.0041472008
0.034765709 -0.01617826 -0.018203329
-0.02955992 -0.039696261 -0.022751991
-0.035643712 0.037880272 -0.0168266
0.0064059659 -0.054347441 -0.034835801
-0.047348619 -0.01690731 -0.01162565
-0.039809849 -0.0052676219 -0.01749986
0.0067915912 -0.069856182 -0.03166844
0.039763611 -0.022249689 -0.016801329
-0.031340521 -0.01775299 -0.020313179
0.02747648 -0.026414899 -0.02226327
-0.029769041 -0.066634461 -0.026900969
0.02600882 0.01487149 -0.029254921
0.044714179 -0.03248376 -0.01318501
-0.004364334 0.03084922 -0.035963088
-0.040374819 0.02168468 -0.01331106
-0.016538531 0.034737751 -0.035716798
-0.046134599 0.005845523 -0.01046505
0.01737624 -0.003447643 -0.030371619
-0.03415871 -0.004990608 -0.0204197
-0.0084891114 0.074294381 -0.02600386
0.04757927 0.021026149 -0.0045843348
0.03200775 0.0130265 -0.023790831
-0.00045229439 -0.071216181 -0.03177819
0.03726707 0.01434587 -0.018867331
0.01090803 -0.0028160191 -0.04893076
0.028398881 -0.063392349 -0.027375789
-0.01122353 -0.051679071 -0.03373405
0.036200061 0.05122954 -0.01012822
-0.020003021 0.0249297 -0.034798071
-0.0088210516 -0.01193893 -0.043113001
-0.050720211 -0.044041019 -0.01049195
0.01271863 0.02805981 -0.03928034
-0.05037488 -0.069177292 -0.0058034351
-0.05301543 -0.0038074381 -0.0053236149
0.03297057 0.048107121 -0.0160488
0.039918538 0.043642689 -0.0083054043
-0.01691605 -0.047492001 -0.028116951
-0.033623058 0.0149563 -0.021357769
-0.024910601 -0.059390571 -0.030751109
-0.050158009 -0.04911178 -0.01300104
-0.042059392 -0.00059359107 -0.0156646
-0.031991489 -0.071814947 -0.023270929
0.01143648 -0.006299905 -0.045847759
-0.028604779 0.069068253 -0.01363726
0.048651461 -0.053449869 -0.01443941
0.02801656 0.03328564 -0.026423769
-0.02971638 -0.037194889 -0.02135589
0.055548411 -0.032040801 -0.001158694
-0.051719591 -0.065850407 -0.0050812401
-0.02179778 0.068344399 -0.023819931
0.003242132 -0.01864405 -0.049527429
-0.0227075 0.026191469 -0.03245515
0.041692529 0.027321851 -0.01121292
0.005362554 0.03200455 -0.035667039
-0.0025104061 0.0062374859 -0.05616672
0.0308164 -0.035473611 -0.02350896
-0.0078661833 -0.01434283 -0.043248769
-0.009222893 0.02685868 -0.028122131
-0.01458998 -3.3873843e-05 -0.03501026
0.02090151 0.039509378 -0.021475621
-0.01573112 -0.06803631 -0.03174895
-0.01644209 0.027098389 -0.037235089
-0.0067746062 -0.04032379 -0.02921869
0.01065262 0.01435204 -0.0407889
0.03818405 -0.02348143 -0.0183488
0.005405582 0.081078283 -0.0094274422
-0.0067709112 0.03033975 -0.03378344
0.055923339 -0.01849154 -0.0033486779
0.049768981 0.0111834 -0.0042847372
0.043657359 -0.001505021 -0.0137628
0.01318472 0.04062264 -0.037149511
-0.0087144012 0.02707321 -0.041715149
0.032164171 -0.05076066 -0.026515709
-0.0082124509 -0.01804176 -0.038034439
0.0476675 0.01805811 -0.0053571449
-0.0490443 -0.03319006 -0.0073718149
-0.01795008 -0.0093073454 -0.02821758
0.02404519 -0.01731229 -0.02169515
-0.025717471 0.03042152 -0.02808504
0.01391723 -0.016067339 -0.029862471
-0.0073673632 -0.01414761 -0.045747939
-0.02603285 0.069691457 -0.0179934
0.01512018 0.04920442 -0.029921319
0.026979581 -0.02137384 -0.021025799
0.048782632 -0.028132509 -0.0087446086
-0.001429302 0.041241959 -0.029361431
0.0082959998 -0.01516767 -0.040163979
0.052367631 -3.8947222e-05 -0.003849379
-0.01036518 -0.056080859 -0.03469298
0.02556951 -0.001106227 -0.02502274
0.0081031974 -0.02681065 -0.032260641
0.02770962 -0.02550092 -0.022280181
-0.02284875 0.01487923 -0.031235
-0.046583738 -0.04129564 -0.01287473
-0.01324558 -0.001975073 -0.044029038
0.0117123 -0.041102011 -0.02655624
0.018902481 -0.040587559 -0.02405219
-0.042071421 0.0077857841 -0.0139823
-0.02892505 0.04920065 -0.020300951
0.001759642 0.028415989 -0.04332868
-0.052656621 -0.055249069 -0.0078651533
-0.0247708 -0.02502205 -0.02191068
-0.0063234228 0.0306965 -0.03534919
-0.0065926779 0.0028032879 -0.053443789
0.042668831 -0.015678151 -0.01418637
-0.01399036 -0.031946849 -0.02124205
0.022978431 -0.0096621849 -0.02394338
-0.018729631 -0.052621141 -0.03139722
0.01007592 0.078428373 -0.01451961
0.047477022 -0.052434511 -0.0161175
-0.01417046 -0.038310111 -0.02179002
-0.035098501 0.03005988 -0.01991827
-0.006794014 -0.01543667 -0.045584701
-0.018724659 -0.063378103 -0.032405838
-0.03329898 -0.0019989631 -0.021195341
-0.042003959 -0.027738269 -0.01466812
0.04862567 0.003043802 -0.007878948
0.018261241 -0.0052452558 -0.028839011
-0.002540071 -0.016933 -0.05159311
-0.020926241 0.0087983198 -0.02993617
-0.0096201655 0.01201691 -0.04090384
0.002212612 -0.029476229 -0.04122239
0.01606038 0.05049067 -0.028484359
-0.03308833 0.03776079 -0.02017663
-0.01104465 -0.02819117 -0.025130831
0.047662191 -0.060824402 -0.01194296
-0.0057358132 -0.027514931 -0.037446231
-0.01904547 0.030724481 -0.031117549
0.046775419 -0.02458813 -0.0111648
0.01015035 0.04065432 -0.02723881
0.01064287 0.01388505 -0.040705811
-0.028774651 -0.061073281 -0.02906196
0.024507839 -0.066961721 -0.028125919
-0.01400857 0.077235177 -0.01730914
0.023605781 -0.04719324 -0.02768993
0.0028011349 0.046947781 -0.03597717
0.0063914661 0.0022285129 -0.04273865
0.01380668 0.0053459979 -0.03808666
-0.033254251 -0.0094077066 -0.020163789
-4.5582463e-05 0.027286099 -0.02918447
-0.04645035 -0.058006711 -0.01675286
-0.0016225009 0.073730573 -0.02750391
-0.01118594 -0.0094411355 -0.037581719
-0.02650463 0.055128649 -0.02109715
0.039883811 0.008481835 -0.0163875
-0.01420665 0.0040522842 -0.036226548
0.04221379 -0.038508359 -0.01825089
-0.024641771 0.031618759 -0.028293051
0.0251897 -0.0026612759 -0.02480649
0.01076786 -0.004285566 -0.049271379
0.04008989 0.02667849 -0.01425736
-0.01508024 -0.064003043 -0.033125829
-0.0038063249 0.038038589 -0.03122469
0.02474683 0.02572147 -0.03150418
-0.027083009 0.015848029 -0.028005861
-0.019898809 0.032405298 -0.03212101
0.04522321 0.0081450436 -0.01073918
0.046495158 -0.072549649 -0.0074604638
0.03168508 -0.034889311 -0.01967896
0.021893431 -0.033773191 -0.02068175
-0.01122962 0.0086862063 -0.039054912
-0.0093564326 0.041294411 -0.02760542
0.05592297 -0.050640009 -0.00091595598
0.0082822423 -0.039625451 -0.0286793
3.4901841e-05 -0.034783121 -0.03781537
-0.01847342 -0.054323889 -0.032567441
-0.01787637 0.038941968 -0.035018809
-0.042310599 -0.02998684 -0.01413525
-0.01118489 0.049648661 -0.032397442
-0.003505311 0.01161393 -0.046320099
-0.01046523 0.0039091161 -0.045691021
-0.0031941379 0.0531836 -0.032629412
-0.016366839 0.07862106 -0.01078921
-0.03917763 -0.066662617 -0.01969914
-0.02471054 0.036511399 -0.028298071
0.020601621 0.029394209 -0.02434182
0.039773911 -0.0059770402 -0.015967069
0.048850939 0.0067360899 -0.0066641611
0.046292901 0.025772071 -0.004855318
-0.00097182411 -0.03032659 -0.040777359
0.003868225 0.027920671 -0.04320633
0.002402433 -0.01304929 -0.055057261
-0.042290099 0.038887359 -0.005321356
-0.038957689 -0.0669728 -0.01973363
0.0052595939 -0.020234879 -0.04417751
0.01495908 0.0056769289 -0.036386769
-0.01388426 -0.0082659079 -0.03237078
0.045190651 -0.01895852 -0.01288839
-0.007679645 -0.046521202 -0.032171492
-0.00418622 -0.022322301 -0.044480331
-0.02599778 -0.069555089 -0.027484421
-0.028991491 -0.0598148 -0.02892937
0.0051326458 0.031214811 -0.039084479
-0.042940661 0.0072702668 -0.01330524
-0.026168611 -0.038295791 -0.016548419
0.01260727 0.07652346 -0.018290641
-0.02908884 0.01462131 -0.025695311
-0.03484071 0.039994679 -0.01691699
0.00025233981 -0.031216061 -0.04073922
0.01400016 0.07559438 -0.019581869
0.030129541 -0.0073879352 -0.020774219
-0.040728539 0.03888524 -0.0079332478
0.02282197 -0.04776134 -0.028274439
0.03726856 -0.070382409 -0.018565031
0.018111721 0.02926209 -0.02713237
-0.035025518 0.037540831 -0.017818259
0.026045229 0.02950852 -0.029089659
0.021948021 -0.061847631 -0.030758761
0.034438219 -0.068154611 -0.02170581
-0.030355001 -0.058711011 -0.028189611
-0.0052871471 0.04745125 -0.03539405
-0.0067716478 0.02647813 -0.02809079
0.0079153106 0.02460207 -0.042933799
-0.044393498 -0.074909419 -0.0113483
0.033753209 0.021292649 -0.02324394
-0.016448921 0.03274684 -0.029612459
-0.0060753259 0.0069482429 -0.04592346
-0.036130019 0.02416506 -0.01908819
0.004257095 0.033568591 -0.034206741
0.02767754 -0.034985669 -0.020004241
0.032469511 0.046897199 -0.017044559
0.016677231 -0.055942539 -0.033135489
0.021613659 0.034279589 -0.022464169
0.026639311 0.022968279 -0.03029122
-0.039629359 -0.057284102 -0.022930611
-0.00726709 -0.01181154 -0.050300129
0.045280982 -0.075512208 -0.0077982522
0.0083665531 -0.0069912602 -0.053444348
-0.0095603457 -0.054605462 -0.034656841
0.052425601 -0.056522671 -0.0061113592
-0.02045653 0.077425867 -0.009018491
0.0050066882 0.01035019 -0.044482399
-0.031891812 0.041576881 -0.020116439
0.02184695 -0.058881529 -0.031415269
0.00061156269 0.078186698 -0.01936461
-0.0029282491 0.0043578548 -0.059115291
-0.003027319 0.0015142669 -0.049305249
0.019961851 0.037391461 -0.023318861
-0.01238978 -0.0022072331 -0.046699621
-0.0065933261 0.018514929 -0.043315221
-0.02417195 0.023490019 -0.031774059
-0.003850807 -0.0036709521 -0.04614732
0.041650519 0.02641654 -0.01148368
-0.0061846031 -0.04695024 -0.032794472
0.0003154981 0.006520093 -0.057054091
-0.01226408 0.034867901 -0.038750429
-0.031513661 -0.023047641 -0.02036589
-0.052989978 -0.018513059 -0.0060013928
0.0120444 0.078024991 -0.01427438
0.032398589 0.04999784 -0.01567981
0.0047765221 0.01087897 -0.044690549
-0.025865549 -0.040175121 -0.02234756
-0.03499167 -0.026903961 -0.019671081
-0.050141111 -0.065791734 -0.0073279389
0.0326657 0.01411156 -0.0233094
0.043079112 0.035226628 -0.0061923079
0.0062288311 0.080749176 -0.01021792
-0.001130682 0.063385732 -0.032294329
0.01781434 0.0082825264 -0.03350595
-0.0050125211 0.080560878 -0.0116737
0.01001205 -0.048746999 -0.033247631
-0.005922792 0.078589343 -0.017373741
0.01013174 -0.0094652921 -0.042633519
-0.029393369 0.007714686 -0.024154
-0.0177212 -0.022230839 -0.023672819
0.023920501 -0.035162821 -0.01781816
0.033027548 -0.005680013 -0.019889301
0.047125772 -0.006326566 -0.01119711
0.052860711 0.0029230621 -0.0023208801
-0.01447185 0.01322731 -0.036964931
-0.01169992 0.032887861 -0.032584149
0.044610389 0.02374392 -0.0081391502
0.02189769 -0.04488821 -0.026860069
-0.03419064 0.031378601 -0.020855971
-8.1140213e-05 0.03450422 -0.041254479
-0.0332487 -0.053364139 -0.02657526
-0.02878521 0.036151141 -0.024809411
0.04723648 -0.058505271 -0.01419455
-0.0029236311 0.0062506399 -0.054578569
-0.040657882 -0.03471953 -0.01354174
0.047929902 -0.01074824 -0.01064411
-0.0220109 0.02869205 -0.021507701
-0.019847941 0.038445491 -0.03330737
-0.0029762059 -0.02841652 -0.04118995
0.038999651 0.031649418 -0.01492521
-0.02054766 0.026415501 -0.034108061
0.01153935 -0.02971652 -0.02448017
0.0096079484 0.05399134 -0.03036562
0.001160502 -0.048659351 -0.034041502
-0.052496258 -0.03886738 -0.0051857508
0.01971448 0.063434169 -0.023677349
-0.052673358 -0.04726626 -0.0086948536
-0.028099811 -0.05361985 -0.028952921
-0.031610701 -0.045914989 -0.02387397
0.01667556 -0.001578487 -0.03248205
-0.055973429 -0.01189293 -0.0029040149
0.05440826 -0.006760146 -0.0030643281
-0.021418391 -0.0036245901 -0.02725191
0.002094087 0.0063764299 -0.050409459
-0.03750705 -0.02743201 -0.02014444
-0.02666931 0.01407271 -0.02758847
0.016511809 0.076397426 -0.01403295
-0.038840629 -0.036211111 -0.01312941
-0.037319422 -0.051371589 -0.023675941
0.044053689 0.01383315 -0.0110158
-0.054462459 -0.05136998 -0.0054694419
0.0236146 0.072462551 -0.01229233
-0.0014318411 -0.063438557 -0.034438141
-0.02770507 0.072907493 -0.0076192119
-0.050352871 -0.052221268 -0.01301584
-0.039393362 0.043712892 -0.0078269616
0.023572629 0.0037515529 -0.02749948
-0.01408643 -0.003413012 -0.034737151
-0.028044211 -0.067088723 -0.027699489
0.0098235747 0.01299294 -0.041125592
-0.043429598 -0.0487024 -0.01961641
0.050311871 -0.0048436788 -0.007747598
0.005116987 0.01189756 -0.044477839
0.047225211 -0.028538181 -0.01025302
0.0069267708 -0.025680549 -0.035505202
-0.02466519 0.05934469 -0.02275796
0.01800121 -0.04369393 -0.026433021
-0.028769931 -0.01043439 -0.02181714
0.04390512 -0.043808311 -0.01776962
0.030029319 -0.062474228 -0.026849009
-0.021250989 0.01694141 -0.0332218
0.0029960659 -0.02124035 -0.047706168
-0.043820709 -0.070146747 -0.01349309
0.02650384 -0.0042539411 -0.02365087
0.042282909 -0.058489989 -0.019881969
0.046187229 -0.024089679 -0.01181939
-0.0059210872 0.061329588 -0.032109939
-0.02126278 0.024983831 -0.033808451
-0.030794609 0.060194571 -0.01546137
0.038621899 0.049940608 -0.00688957
-0.0029089809 0.00061380758 -0.049964771
0.0151553 0.02201141 -0.03867203
-0.030655921 -0.024820531 -0.021279629
-0.037456408 0.046159159 -0.01001822
0.01014389 0.075818591 -0.021397039
-0.01184665 -0.063536383 -0.033772189
0.037422199 0.045442361 -0.01130301
0.016601879 0.06106516 -0.0260798
-0.01622946 -0.01058745 -0.029199479
-0.019610619 -0.0610714 -0.032520302
-0.0083996579 0.038429409 -0.02993479
0.050539441 -0.049258839 -0.01168095
-0.04121704 0.001405808 -0.016070411
-0.022828121 -0.061534539 -0.031242531
0.025544001 0.0060535199 -0.02683153
-0.019475181 0.01179051 -0.032378361
0.0085389819 0.027864769 -0.04174871
0.022123851 -0.0070224591 -0.02536221
0.02878036 -0.025121121 -0.019504961
-0.02572846 0.069579147 -0.018620791
-0.01983167 -0.028533131 -0.021876041
0.01211448 -0.03062073 -0.023666721
-0.03060434 0.053129539 -0.01731275
-0.0086539062 0.067343742 -0.030493001
-0.009518153 -0.00074091292 -0.05318578
0.04860073 -0.032147631 -0.0086647104
0.02368647 0.032654509 -0.029236261
0.0095009347 0.060682379 -0.02983859
-0.0007283616 -0.03310439 -0.038696021
0.038422879 -0.06108534 -0.02193751
-0.02741712 0.042808231 -0.0248076
-0.0030719801 0.0015575161 -0.04923835
-0.05013597 -0.073512323 -0.004935334
0.032230321 -0.063707776 -0.025254641
-0.043720279 -0.063587047 -0.01679077
-0.037536871 -0.055430859 -0.02472982
-0.03676033 0.039297469 -0.01440546
0.03168612 0.002237227 -0.02213663
0.0025242539 0.02820453 -0.04335044
-0.001850048 -0.049684741 -0.034225021
0.027192369 -0.052689821 -0.02914813
0.009286291 -0.0076419641 -0.050656181
0.035669118 0.02536035 -0.02111597
-0.044760089 0.02409045 -0.0068073361
0.036559239 0.041723851 -0.01443918
-0.03512568 0.01062972 -0.01988925
0.01080282 0.042833328 -0.037310719
-0.01000137 0.0038933209 -0.045515042
-0.018532731 0.056357089 -0.027233319
-0.02810457 -0.0725815 -0.025170941
-0.018589569 -0.034649052 -0.02171677
0.01241403 -0.0142081 -0.032214571
0.0321468 0.01451818 -0.023927931
0.028942719 0.040054768 -0.02357392
0.0027817909 -0.0114633 -0.05621611
0.0026356929 0.04413211 -0.027236899
-0.032514989 0.065973617 -0.0095805116
-0.027565969 0.069806673 -0.01458373
0.0065778079 0.034672849 -0.040670719
0.0073174592 -0.0056541292 -0.056209709
-0.01071543 -0.057064001 -0.03473587
0.026401309 0.03781512 -0.02639482
0.034480691 0.0406476 -0.01777702
0.01022895 -0.056118481 -0.034497011
0.046185341 -0.075180016 -0.006878926
0.034065619 0.042835779 -0.0172562
-0.003537958 -0.04317145 -0.0328798
-0.036243871 -0.036281168 -0.017199541
-0.01677192 -0.06074075 -0.03336978
-0.01981625 -0.035455059 -0.02208844
0.048191551 -0.05518939 -0.01475286
0.01169713 -0.056130711 -0.03427488
0.02614728 0.029776329 -0.0288928
0.051589452 -0.028542111 -0.0057566129
-0.016203091 0.043600041 -0.034463432
0.017772511 -0.01330118 -0.02652669
0.052601859 -0.063014813 -0.0021575061
-0.0027421431 -0.02717386 -0.04257521
-0.03404846 0.0562848 -0.01156737
-0.021640729 -0.048332091 -0.02702566
-0.046974272 0.0160961 -0.006479301
0.01017403 0.070343912 -0.02681574
0.051975392 -0.0079237316 -0.0064081908
-0.006636342 0.080491073 -0.01154146
-0.026543921 -0.03717991 -0.02339338
-0.01566384 -0.057629641 -0.033831451
-0.033850029 -0.06112029 -0.02632173
-0.03517966 0.017303649 -0.019751649
-0.048958048 -0.004139496 -0.0098587703
0.0091978563 -0.063108534 -0.033773329
-0.043757409 0.0038747049 -0.01326876
0.042134881 -0.047779221 -0.02039594
-0.02425763 0.04127587 -0.02845645
0.018900409 0.039381638 -0.02321621
-0.026818911 -0.068297394 -0.027694389
0.034571201 0.01778085 -0.0219866
-0.018134041 -0.056102891 -0.03305795
0.024663201 0.063919991 -0.01927926
0.0072886399 -0.033308938 -0.02929252
0.01343008 -0.00028191871 -0.042159058
-0.01264578 -0.002806674 -0.045636881
0.01098467 0.007514046 -0.03978917
0.0035563649 -0.030367451 -0.03977045
0.0051175249 0.080494657 -0.01118039
-0.03697912 -0.045052461 -0.0224448
0.0086929575 0.038013838 -0.039938498
0.0078353016 0.079033583 -0.01437012
-0.017721551 0.050564021 -0.029228579
-0.036390569 -0.059240729 -0.024947589
0.049227059 -0.07531929 -0.0028279489
0.033625729 -0.001810958 -0.02029332
-0.023869161 0.05481844 -0.023488
0.018517019 0.01326342 -0.034674771
-0.019890649 -0.03639267 -0.02190844
-0.0074630338 0.067517273 -0.030489599
0.0315395 -0.025978411 -0.02195343
0.0096773552 0.00166356 -0.047406279
-0.031402741 0.060150981 -0.0145363
0.0045974948 0.040145319 -0.029280551
0.0096551543 -0.057150919 -0.034602299
0.0066105751 -0.027677709 -0.034913968
-0.01422705 0.042542409 -0.036258999
-0.047353718 -0.03522443 -0.0095049068
-0.048391871 -0.054990388 -0.01526459
0.03134089 -0.04392422 -0.02440697
-0.046181019 -0.01135636 -0.0128183
-0.043000899 0.01290751 -0.01189831
0.050790381 -0.049486391 -0.01132398
-0.049979851 -0.0286671 -0.006595287
-0.025346089 0.04606133 -0.0256605
-0.047528069 -0.004642392 -0.01130172
0.040131409 0.040341061 -0.0095690237
-0.0093176104 0.04220292 -0.027027911
-0.01502321 0.0054393378 -0.034582559
-0.035780732 0.04969959 -0.01098246
-0.046545122 -0.02499005 -0.0105019
-0.018711161 -0.068941712 -0.03064752
-0.023453079 -0.007245834 -0.02533439
-0.0099946987 0.01004171 -0.040445719
-0.00355079 0.070435159 -0.029126581
0.038463552 -0.044620749 -0.02212278
0.046941102 -0.027765431 -0.01060551
0.02353121 0.04034353 -0.02840942
0.03027652 0.052944649 -0.01674754
0.01794593 0.01780542 -0.036427561
0.0073602949 0.023698241 -0.04316644
-0.0020593321 0.081809834 -0.0081231846
-0.01231841 -0.0487714 -0.032013431
-0.048105322 -0.02572001 -0.0090054534
-0.020090541 0.0043488569 -0.02916215
0.0083674826 0.058515981 -0.030423909
0.038422901 -0.074253283 -0.015748771
-0.02724302 -0.037982211 -0.018199829
-0.048332889 -0.0046173278 -0.01052299
-0.0064702882 0.058712449 -0.032093119
-0.01853182 -0.020127339 -0.02427149
-0.05392823 -0.02172737 -0.004292361
0.027202999 -0.034431811 -0.023350351
0.01280048 0.061518129 -0.02835561
0.04373702 -0.06001088 -0.017417179
0.02025279 0.023491111 -0.035115641
0.032473139 0.032869309 -0.023222949
0.037313309 -0.02356931 -0.016728461
-0.019865889 -0.01835686 -0.0241972
0.023800129 0.070232563 -0.015702439
-0.0110755 0.027771911 -0.028606219
0.0233893 0.072114058 -0.01370374
0.03730214 0.052464359 -0.007776469
0.021486711 0.01258496 -0.031999148
-0.049041089 -0.03414087 -0.0074018561
-0.043578081 0.031077459 -0.0064183609
-0.045560639 -0.045852799 -0.016885679
-0.03267033 -0.064740993 -0.025905721
0.0485222 -0.053441219 -0.01464066
0.024112569 -0.023743421 -0.021998569
-0.02917592 0.035775129 -0.0245394
0.019239129 0.065397307 -0.02373906
0.003150925 -0.03029139 -0.040293679
0.02760152 0.053747229 -0.01882514
0.01679386 0.040485311 -0.034713879
0.041621041 7.5423159e-05 -0.01545373
-0.0039878269 0.081466459 -0.0090794805
0.03798423 -0.020941591 -0.01771888
0.0020057659 0.07169082 -0.02803266
0.0080820275 0.041072879 -0.03918441
-0.05043488 -0.0086697331 -0.0089888871
0.01150763 -0.0042691631 -0.047409881
-0.035030968 0.049730942 -0.01227766
-0.028121389 0.060129318 -0.019146521
-0.049382679 -0.062509976 -0.0098274844
0.0092056924 0.046185412 -0.034852169
0.01948737 0.017962109 -0.035214681
-0.036708899 -0.001647967 -0.01928236
0.0082086809 0.030848131 -0.036440499
-0.01553379 0.027605539 -0.03750262
0.041612271 -0.019913269 -0.015649591
-0.039311301 -0.026818059 -0.01833809
-0.01034654 0.035482671 -0.03984775
0.019420421 -0.069035947 -0.02929881
-0.038327429 0.0045555001 -0.017981671
0.039618369 -0.0044880188 -0.01622813
0.0091012605 0.03881551 -0.028892901
-0.037788481 0.051640291 -0.0069039678
-0.039910119 -0.03713287 -0.01885134
-0.022378519 0.02469578 -0.032975961
0.01087521 0.07800705 -0.01516913
-0.050101642 -0.064909257 -0.0076950551
0.046571571 -0.066376731 -0.01009765
-0.00078555453 0.0268999 -0.04410902
-0.022408411 0.035786491 -0.02069445
-0.0093230288 -0.043882892 -0.029021511
0.01232496 0.073363349 -0.023847571
0.041920811 0.0095251547 -0.01414281
-0.0029136229 0.0270952 -0.043628842
-0.0035516249 -0.032264359 -0.03697307
-0.031286441 -0.03803641 -0.017315861
-0.049874801 -0.0045917812 -0.0090251286
0.024171339 -0.017578971 -0.02162428
0.02454634 0.073658787 -0.0068357061
0.051649921 -0.0068302802 -0.006549635
-0.0078713587 -0.038697109 -0.026758069
0.0072935089 -0.055602711 -0.03483874
-0.035810709 0.05590488 -0.0089126742
0.0060091 0.0067303749 -0.044497728
0.055529471 -0.05356814 -0.001246936
-0.02461802 -0.02365551 -0.0216833
0.0091143455 -0.0018524179 -0.0426029
0.016186601 0.067584828 -0.025209891
0.04308461 -0.0169679 -0.01415001
0.035421051 -0.03548459 -0.02172978
0.0041351318 -0.034873441 -0.036427978
0.040962599 -0.017885059 -0.01577384
-0.001167234 -0.01244283 -0.056067631
-0.039769281 -0.001174366 -0.01756946
0.0064820852 0.001869892 -0.052536871
-0.041961592 0.0032002709 -0.01502836
0.01458737 0.0340469 -0.03670178
-0.01304405 0.060729619 -0.030344609
-0.0088747879 -0.01526655 -0.038753439
-0.0182562 -0.057219662 -0.033063401
-0.0069452832 0.027661931 -0.029107969
-0.040336419 0.002117892 -0.016718131
-0.043684829 0.026753349 -0.007533832
-0.02889175 -0.02775632 -0.021122551
0.019176129 0.06804727 -0.022715179
0.038771581 -0.035836749 -0.01913821
-0.051525518 -0.056585509 -0.0096624419
0.0232257 -0.036818989 -0.022907309
0.00028350469 0.02985592 -0.032588631
-0.028129971 -0.01025805 -0.022103131
0.0042168899 0.0083691003 -0.04567036
0.016701359 0.040411711 -0.024167379
-0.001643045 0.042877618 -0.02831734
0.05616685 -0.047230799 -0.00043000031
-0.02713147 -0.037283819 -0.02014529
-0.01734044 0.070168659 -0.025960529
-0.037497569 -0.04608291 -0.0224161
-0.040119581 0.03692396 -0.0097109647
-0.047215089 0.02106287 -0.004269761
0.01407006 0.072406679 -0.024193279
0.0002146857 -0.017944779 -0.051886141
-0.0031603251 0.03070646 -0.035413429
-0.024136711 -0.068456329 -0.028828191
-0.01330898 0.04163545 -0.037230019
-0.016886691 0.026321979 -0.037111681
-0.051478911 -0.01299471 -0.0082112839
-0.03480088 -0.052301321 -0.025459699
0.040603049 -0.018025549 -0.0159993
0.005839237 -0.0061309971 -0.04388199
0.01261063 -0.02016519 -0.030367291
-0.037926748 0.0084660202 -0.017517921
-0.035012331 -0.022936961 -0.01901832
0.027188489 -0.01467796 -0.02061585
-0.02475792 -0.01100874 -0.023662239
0.02227208 0.037488069 -0.030651251
-0.048916839 -0.04993448 -0.01482998
0.020352289 0.03039597 -0.032775071
-0.00061206991 0.061912969 -0.032343619
-0.02081261 -0.034970131 -0.022048181
-0.01480497 0.073847227 -0.023666119
0.018345511 0.03478159 -0.03402007
-0.01251733 -0.05185809 -0.0335216
0.028098781 0.063903227 -0.01502539
0.02786123 0.058879118 -0.017283831
-0.016408419 0.066934057 -0.02805995
0.004706054 0.080234937 -0.01201253
-0.03603071 0.046702359 -0.01179678
-0.048221909 -0.043251339 -0.0128059
0.052776761 -0.062956162 -0.001894985
-0.041283209 -0.054308292 -0.02223672
0.022244871 -0.0069814082 -0.02529994
0.02499691 0.043769501 -0.025383649
-0.0075907931 0.075816177 -0.023750629
-0.050368842 -0.02659004 -0.00659463
0.01519745 -0.0023596 -0.036960829
-0.0177634 0.02272941 -0.036503442
-0.002913493 0.068840109 -0.030044951
-0.01987463 0.035511311 -0.02410125
0.01768448 -0.01075354 -0.027392469
-0.0030626641 0.02656628 -0.04382778
-0.018418251 0.03122584 -0.032963149
0.0478689 -0.02955547 -0.0095148422
0.030728851 0.020313511 -0.02645799
-0.003632009 0.005276409 -0.05251316
0.00098317314 -0.05574622 -0.035148051
0.006252151 0.080264688 -0.01160603
0.023237269 -0.0023926019 -0.026048919
-0.03486871 0.035721581 -0.0187508
0.007370315 -0.064941742 -0.03348678
0.048821781 -0.059842151 -0.01062983
-0.043769471 0.032529261 -0.005571865
0.0435942 -0.044086169 -0.018154951
-0.01316431 -0.043786209 -0.0262549
0.03851347 -0.02327067 -0.018026451
-0.0096047716 0.042932201 -0.026455451
0.02161506 -0.04705514 -0.028234189
0.01221501 -0.044673748 -0.0295237
-0.0009474273 -0.00098118873 -0.062944822
0.038704101 0.01715089 -0.017021241
-0.004323605 -0.0041768169 -0.04619224
0.054746859 -0.035606019 -0.001757641
-0.046627648 -0.0097126691 -0.01247993
0.050247841 -0.036800299 -0.0068684141
-0.001644781 0.03608175 -0.041481391
0.00026507789 0.04055931 -0.02978646
0.044158019 -0.046612591 -0.0185345
-0.01098444 0.040539902 -0.027433719
0.026330709 0.067024812 -0.01549801
0.032831348 0.019765951 -0.02421027
-0.01752835 -0.007080311 -0.029049341
-0.05005591 0.0022569341 -0.00710752
-0.051664431 -0.058106501 -0.0086606266
-0.03682917 0.01159322 -0.018130081
0.0091961082 0.041461021 -0.038528129
-0.01788207 -0.0050684931 -0.02921427
0.037614699 0.03645879 -0.01512386
0.022219921 -0.049652401 -0.029600531
-0.0043181689 -0.01404462 -0.052822359
-0.01509236 -0.01579223 -0.0287455
0.028422199 -0.0167854 -0.02030004
-0.01349994 0.040433291 -0.03768117
-0.034963779 0.050177518 -0.01223047
0.02294337 0.001471768 -0.02729377
0.039234899 -0.042187441 -0.021328291
0.018521991 -0.0037492069 -0.029080421
0.01010849 0.078399234 -0.01458095
-0.005813282 0.069883063 -0.02930888
-0.01305014 -0.018435599 -0.02977542
-0.02625503 -0.0526255 -0.02881128
0.05392658 -0.054900169 -0.0038144251
0.01384937 -0.0003573953 -0.04127606
-0.0079219313 -0.00053060078 -0.048086409
-0.002173275 -0.041071881 -0.033714872
-0.017614961 0.030656191 -0.03159222
-0.04381742 -0.061780412 -0.01759251
-0.0096041216 -0.0228731 -0.031976819
0.023650059 -0.040019941 -0.023600791
0.01244945 0.059730958 -0.028649541
-0.033753179 -0.027382599 -0.021020871
-0.01377738 -0.0036600661 -0.03656004
0.026155779 -0.06008422 -0.02950578
-0.0074435929 -0.022867849 -0.036622331
0.015866449 -0.0007926111 -0.03475206
-0.019533049 0.03013212 -0.028401971
0.018267009 0.076148354 -0.01245531
-0.03745554 0.036301538 -0.01447687
-0.0129039 0.00029166741 -0.045465671
0.018269259 -0.01496505 -0.025715631
-0.038127448 -0.01233915 -0.01768646
0.04553796 -0.02995941 -0.01201719
0.050956599 -0.067767918 -0.003141023
0.021938309 0.0135904 -0.03201725
-0.0026287569 -0.061097968 -0.034781151
-0.018212119 0.075553477 -0.018366519
0.0032923929 0.0431685 -0.027741689
-0.024950409 -0.02849778 -0.017766239
-0.05028544 -0.0678901 -0.006383846
0.036035959 0.015745889 -0.02015312
-0.040060431 -0.02783614 -0.0153662
-0.019752599 0.03812813 -0.02303971
