# .PCD v0.7 - Point Cloud Data file format
VERSION 0.7
FIELDS x y z
SIZE 4 4 4
TYPE F F F
COUNT 1 1 1
WIDTH 1333
HEIGHT 1
VIEWPOINT 0 0 0 1 0 0 0
POINTS 1333
DATA ascii
0.059517 -0.059571501 0.0082130097
-0.0134621 0.043153498 -0.0247305
-0.0171455 -0.00610345 -0.0295805
-0.033866499 -0.0025967699 -0.020819699
0.0061618099 0.00164895 -0.055585898
0.012056 0.075036302 -0.021520101
-0.036447398 0.0167874 -0.0180736
0.063734703 -0.0398243 0.0134489
-0.031949401 0.021016199 -0.0242821
0.0074428702 -0.061959699 -0.034195699
0.040231001 -0.062348198 -0.0197544
0.054448701 0.015857801 0.0044863401
-0.058501899 -0.051515501 0.0044176802
0.0407396 0.059317999 0.0067226798
-0.0448968 0.039290201 -0.00082227198
-0.0068385098 0.017505599 -0.0432234
0.026639599 -0.0604406 -0.029149899
0.0491466 -0.0222221 -0.00909431
-0.061159 -0.073242299 0.0138796
0.025335301 0.072386101 -0.0079637198
0.00746301 -0.0636914 -0.033928201
0.0097016096 0.035849199 -0.039816499
0.053156201 0.0114419 0.000701382
0.027963599 0.0570313 -0.0176498
0.0116954 0.057717402 -0.029030999
-0.0284962 0.016621901 -0.0269177
0.0084057096 0.082867697 0.00079337001
0.0202756 -0.073836997 -0.0268819
0.033317599 0.063595101 -0.00541774
0.0503891 -0.069328703 -0.0035126801
0.0360636 0.0048890901 -0.0195009
0.044966299 0.00579566 -0.0114931
0.0039280802 0.018987101 -0.044299901
0.0267855 -0.072819903 -0.024480799
0.0532322 -0.048556 -0.0069979602
0.0160677 -0.0428706 -0.026207799
-0.060325 -0.050690401 0.0089622103
0.041545 0.044275802 -0.0047088098
0.0531663 -0.0491274 -0.0073447502
-0.0162628 0.026777999 -0.025317101
-0.0638652 -0.037606101 0.0152213
0.0300007 0.044186302 -0.0207255
0.0219597 0.058566399 -0.022667
0.0542285 -0.022169599 -0.0046556499
-0.054380301 -0.050620999 -0.0056933798
0.021299999 -0.066329502 -0.029781399
0.00493351 -0.050629701 -0.034393799
0.0192493 -0.065041497 -0.030910499
-0.050147802 0.0242991 0.00136606
-0.053030699 -0.035447601 -0.0034352201
-0.027338 0.065107301 -0.0190672
0.0089148898 0.045203701 -0.035883501
-0.0188601 0.041138899 -0.033674799
-0.00281857 0.0515256 -0.033088099
-0.00051494199 0.079828098 -0.0143209
-0.037389498 0.0142289 -0.017248699
-0.040597301 -0.027773701 -0.0173968
0.023546601 0.0780624 0.0088340696
0.0171417 0.041103199 -0.034152899
-0.032708898 0.0217977 -0.0234704
-0.0363454 0.0134227 -0.018472301
0.0523834 0.0083282599 -0.00144931
-0.060546499 -0.074591301 0.0131586
-0.00068091002 0.0156972 -0.045568801
0.046062399 -0.0111684 -0.0119581
0.030244499 0.072877698 0.0110022
0.0511184 0.0210997 0.00108576
0.060523301 -0.0115653 0.00402589
0.0382475 0.064518601 0.0102619
-0.057267699 -0.052749399 0.0011038
-0.018925801 -0.053181 -0.031711299
-0.045237798 0.0104005 -0.0101706
-0.0108962 -0.00691084 -0.0440735
0.065106899 -0.037414499 0.0155954
0.062505998 -0.0223308 0.0069676102
0.0122645 0.065560304 -0.0278605
0.030146699 -0.0076710698 -0.020678701
-0.0095813395 -0.039294399 -0.025013199
-0.0128342 0.082145996 0.0090503199
-0.0260788 -0.046797302 -0.024925999
0.00185721 0.0558111 -0.032011699
-0.0073497398 -0.00502175 -0.057160299
-0.018198499 0.080812998 0.0060678502
0.0509867 -0.059071999 -0.0074773901
-0.0092646498 0.0028685201 -0.043922901
0.0085476404 0.077367499 -0.0191493
-0.024205601 0.077180997 0.000436676
-0.0149145 0.040233701 -0.0254681
-0.0103818 0.030503299 -0.034273699
-0.0264563 -0.020853201 -0.0214552
0.010344 0.0193741 -0.041542001
-0.0111335 0.0448227 -0.036010999
-0.0107037 0.043346301 -0.037297402
-0.0126994 0.0269567 -0.0272645
0.0497091 0.038169801 0.0084814699
-0.0236961 -0.038424499 -0.0225998
0.035010401 -0.0367218 -0.021601699
0.056376498 -0.0560931 0.00152956
0.0065908502 -0.0309327 -0.0321838
0.0093681803 0.032963701 -0.0396691
-0.036155 0.036320701 -0.016515199
0.0392798 0.060528401 0.0049517602
-0.0023722399 0.0310783 -0.040126301
0.062934302 -0.049933899 0.0130388
0.038041402 0.0531164 -0.0059955302
-0.026157999 -0.046296801 -0.0246248
0.0561409 -0.0131993 -0.0027721
0.033238299 0.029220499 -0.023555599
-0.046248801 0.030649099 -0.00238615
0.0160127 -0.0277056 -0.022138899
0.0086431401 -0.0030285099 -0.044535398
-0.0083102798 0.083072402 0.0093417298
-0.021723799 -0.057436801 -0.0318041
0.054189399 -0.058369 -0.00157401
-0.043035701 0.050670698 0.0015886
0.0493627 -0.015952701 -0.0095988801
0.023471501 0.0353598 -0.020014901
-0.029180201 -0.00685396 -0.022498099
0.061065398 -0.001168 0.0094232801
-0.0134812 -0.00530492 -0.034828
0.046509702 0.0221944 -0.00580465
-0.0533287 -0.0180334 -0.00570826
0.060091499 -0.055760801 0.0078687305
-0.0090664001 -0.0241057 -0.031521901
-0.023714799 0.076203302 -0.0066141398
-0.052485801 -0.03441 -0.0037527001
-0.0365858 -0.039024901 -0.0205345
-0.0285319 -0.00459356 -0.0232933
0.035796002 -0.034703299 -0.0170312
0.059705999 0.0124149 0.0132374
0.0175096 0.063843101 -0.025163701
-0.0537172 -0.0377317 -0.00300254
-0.018770199 0.0272428 -0.0353719
0.025921 0.044241499 -0.0243001
-0.0067811199 0.041657999 -0.039420601
-0.039885599 -0.057782602 -0.022619501
0.0363761 0.00751012 -0.0195881
0.041224599 0.0057759201 -0.0151963
-0.016270701 0.030696999 -0.033169001
0.0077969199 -0.00375884 -0.056156501
0.0198157 0.020231299 -0.035294201
0.0393335 -0.0182389 -0.0167509
-0.0474752 0.024908699 -0.0026195799
0.046399299 -0.07299 -0.0074197999
0.037002899 -0.0572263 -0.024142699
0.014497 0.076769501 -0.015923301
-0.012569 -0.0456158 -0.0285332
-0.0071770302 -0.0043775602 -0.045611899
0.053476099 0.0198061 0.0043792198
0.0095334304 0.030890699 -0.0377937
-0.0054694 0.0114583 -0.0444718
-0.042623501 0.0600859 0.0105207
-0.0100577 0.050548501 -0.032351598
-0.043904901 0.048668999 0.00185636
-0.0201736 0.077980399 -0.0074393498
-0.043196499 0.043090701 -0.0019822801
-0.047039699 0.038989902 0.00260096
-0.0206265 0.0463163 -0.029770499
-0.0037062301 0.078539297 -0.017965401
-0.044218499 -0.037396099 -0.0148921
-0.058344301 -0.061938401 0.0057561002
-0.050149199 -0.047249001 -0.0125235
0.050706699 -0.066912599 -0.00379839
0.03325 -0.0142616 -0.0184064
0.0046113101 0.00349433 -0.045533601
0.0426284 -0.0499296 -0.0206772
0.046889499 -0.068263903 -0.0086962702
-0.0099503398 0.081882097 -0.00481669
-0.0583544 -0.063053302 0.0059050699
-0.0255422 -0.068213098 -0.0282894
0.022304 0.027829001 -0.021617999
0.0196872 0.030897001 -0.029402399
-0.0172674 0.072931401 -0.023733599
-0.0072484999 -0.014262 -0.045946401
0.0110596 -0.016702401 -0.0335849
-0.057746802 -0.071479 0.00664934
-0.00118127 0.0118791 -0.047699399
-0.00319865 -0.038324699 -0.033965599
-0.061612401 -0.00377508 0.0100048
-0.039882801 0.059596799 0.00138467
-0.062155802 -0.000205148 0.0139706
-0.023269501 0.0306662 -0.029224301
0.0568888 -0.000856033 0.00210306
0.0621421 -0.017957 0.00598111
-0.0115523 0.054624598 -0.0308048
-0.039616901 -0.069958404 -0.017862501
-0.0610811 -0.0089060003 0.0058768801
-0.0041664098 0.055500001 -0.032232899
0.017194301 -0.025187099 -0.0227044
0.020752801 0.019953299 -0.0345378
0.0147188 -0.061287601 -0.033063401
-0.0290218 -0.020503299 -0.0208681
0.046301302 0.052595101 0.0117507
0.051854402 -0.051484801 -0.0094509702
-0.0034107 0.00088661897 -0.061634
0.0143412 -0.0046437499 -0.036961801
-0.065207303 -0.025356101 0.014652
-0.0079003396 0.077846803 -0.019375101
-0.053672899 -0.055271301 -0.0057133399
0.046950702 -0.0248663 -0.0109504
0.034224398 -0.0445721 -0.023844499
-0.016977901 0.074634701 -0.0213724
-0.054884098 -0.075001501 0.0028626199
0.0124837 -0.0045545301 -0.044438001
0.055955399 -0.045068 -0.00064660999
-0.024767101 0.0539889 -0.022807
0.027336201 0.068922102 -0.0110642
0.037997801 -0.0250006 -0.019254699
-0.0134062 0.0495243 -0.031772099
7.2129602e-05 -0.0136952 -0.055357199
-0.053761199 -0.057894401 -0.00457627
-0.0395003 -0.076158799 -0.015859701
0.041811299 -0.052055299 -0.0216575
0.035600901 0.023880601 -0.021247899
-0.0063349199 -0.065958202 -0.0335606
0.00113726 0.0098653203 -0.0484869
-0.0060382299 -0.058148898 -0.0351502
-0.0029102 0.00056625402 -0.049858801
-0.0235702 -0.020176001 -0.0222465
0.025459399 0.039376698 -0.026822301
0.0240485 0.062996402 -0.020261699
0.0452631 -0.0587084 -0.016469499
0.0032591701 0.0659476 -0.0305927
-0.0277679 0.046859499 -0.022605101
-0.024452601 0.036931898 -0.0285757
0.030451899 -0.0597465 -0.0277694
0.0275994 0.0167346 -0.028613299
-0.051481601 -0.0045960001 -0.0072493898
-0.055184402 -0.0613853 -0.00089365902
0.032532699 -0.00318614 -0.020598499
0.019780301 0.034382802 -0.032789901
-0.039783102 -0.038539499 -0.019202201
0.060754601 -0.0650592 0.010936
-0.0154414 0.032532699 -0.035888501
0.058083199 -0.00143156 0.00343556
0.0471614 -0.0198444 -0.0113317
-0.063254103 -0.066723399 0.016266201
-0.0554622 -0.0260629 -0.00144533
-0.049679998 -0.0094833402 -0.0098409299
0.024948001 0.074916199 -0.0022499301
0.0243262 -0.0049507902 -0.0246704
-0.0419361 0.055950198 0.00280128
0.0165253 -0.032598 -0.0221873
0.050937202 -0.030092999 -0.0061725602
-0.00162116 -0.0333829 -0.038017102
-0.031645 0.0444698 -0.019165199
-0.0087211598 -0.069514498 -0.032149602
-0.00288874 -0.00070122501 -0.0487631
-0.0027390399 0.0111029 -0.047327101
-0.0099700503 -0.0103121 -0.040523201
-0.051082801 0.0312379 0.0061845798
-0.034582201 -0.0273904 -0.020628801
-0.0330768 0.065330997 -0.0090006497
-0.040836498 0.0465592 -0.0045099501
-0.0040895198 0.0578834 -0.032264501
0.036960199 -0.0243694 -0.0179723
0.0106334 -0.039331298 -0.0262201
-0.060758501 -0.028031601 0.00593122
0.038061999 -0.0233596 -0.018370001
-0.026920499 -0.0155556 -0.021792799
-0.0097372103 -0.074003197 -0.030187801
-0.018133501 -0.071941197 -0.0295486
-0.0225066 -0.018832801 -0.022888299
1.65568e-06 0.0202627 -0.044038501
0.00496792 -0.0321039 -0.036042999
-0.043671299 -0.050582498 -0.0199237
-0.0232575 0.068222597 -0.022567701
-0.045821 0.054278199 0.0110044
-0.034401398 0.0508794 -0.0129669
-0.034822501 0.032756999 -0.019537199
0.064419702 -0.016479099 0.0111447
-0.062119 -0.0299912 0.0096625099
-0.039365798 -0.065499701 -0.020170899
0.0076826098 0.0119363 -0.0426374
0.039000101 0.017920399 -0.0165883
-0.057607699 -0.045504302 0.000749967
-0.0088192904 0.0117871 -0.041696299
0.0134853 0.00020947 -0.0418403
-0.062065501 -0.00278124 0.0121516
-0.0094227102 -0.0089962399 -0.0463253
0.018074401 -0.00919862 -0.027656
0.0422111 0.048987601 0.00014623599
-0.011557 0.00313195 -0.0454772
-0.0027861099 8.6121297e-05 -0.048602201
-0.0337786 0.0102808 -0.021003099
0.019948 0.075878702 -0.0103806
0.0093619302 -0.0123127 -0.039322998
0.0082820896 0.00349471 -0.043796901
-0.040512498 0.042483501 -0.0066316999
0.018847801 0.043883398 -0.030947501
-0.039760701 -0.0271025 -0.018061699
-0.019283 0.075841799 -0.015843799
0.054664001 -0.0303455 -0.00239609
0.046933301 -0.057397299 -0.0153691
0.019817401 0.041894902 -0.031391401
-0.027822999 -0.0477129 -0.025200499
-0.0128418 0.033457201 -0.038030799
0.041654501 0.057212502 0.0067660301
0.0040983702 0.032408301 -0.040597301
0.0174737 0.080646597 0.0022439801
0.0303903 0.0720063 0.0060709901
-0.053300299 -0.056127101 -0.0061061298
-0.0487541 0.043425299 0.0089196097
0.033653401 0.057772402 -0.0101472
0.0505898 -0.065259703 -0.0045953402
-0.0032343799 -0.063104898 -0.034446198
0.011958 0.051007099 -0.030406499
-0.0240205 -0.0171743 -0.022733901
-0.00176914 0.030881399 -0.040737499
0.0062064999 -0.067654803 -0.032588601
0.0571649 -0.0302503 0.00044636001
-0.0255998 0.075271003 -0.0050402898
0.00947579 0.047448501 -0.033704001
0.0097277705 0.083040401 0.0051431502
0.038262799 -0.0063251201 -0.016831201
-0.0144692 0.040164098 -0.0372697
-0.062950097 -0.0516624 0.0143028
-0.025581799 0.074677899 -0.0077213598
-0.034044001 0.067905702 -0.00112826
0.0034536 0.0107622 -0.0457335
0.0226731 -0.0045199702 -0.025796801
0.034706902 -0.044431299 -0.023576399
-0.0113358 0.048959099 -0.032772899
-0.024506001 0.0140043 -0.0294671
-0.023700099 0.010292 -0.0285632
-0.0304137 -0.063293301 -0.027608201
-0.044939801 0.011987 -0.0100942
0.026986601 -0.0040524402 -0.023447201
-0.044278599 0.0314814 -0.0051665599
0.016439499 0.069296002 -0.024164701
0.0119277 -0.066326603 -0.0322931
-0.0135849 -0.026180699 -0.0241566
0.037268899 0.041243002 -0.0136569
-0.052264899 -0.031392701 -0.00381886
-0.047212102 0.046246398 0.0075699599
0.016277799 0.048202001 -0.029925199
-0.064998299 -0.026566399 0.0144008
-0.057824899 -0.032223798 0.00233413
0.037632398 0.00365056 -0.018417301
0.0089081898 -0.0115442 -0.0428266
-0.065332398 -0.024641899 0.0148047
-0.0054423101 0.0104479 -0.044634499
0.0025495801 -0.060362902 -0.0347833
0.0132332 0.0440096 -0.034949198
-0.056383599 -0.052632298 -0.00111778
0.054909199 -0.045221198 -0.0027453499
-0.035799701 -0.037795398 -0.0117396
0.016429501 0.049689099 -0.0287975
0.015727799 0.00027607201 -0.036379401
-0.056513701 0.0074157198 0.0052447501
0.0075239702 0.030916199 -0.0368095
-0.0101626 0.030693401 -0.0350281
-0.0114519 -0.019580601 -0.031241
0.0069181002 -0.050469499 -0.034172699
0.050643999 -0.019249599 -0.0083416803
-0.0012656 -4.072e-08 -0.062652297
0.0089151999 0.0298953 -0.0327341
-0.0078519601 0.038548 -0.0300126
0.0290603 -0.0251865 -0.0221508
-0.039264701 -0.028358901 -0.018569101
0.051444001 0.0114244 -0.00184241
0.031673901 0.065888397 -0.0063441298
0.021009199 0.078890502 0.00181751
0.034925099 -0.067174003 -0.0217676
0.0171664 0.00077462901 -0.032470498
0.043942701 -0.022044299 -0.0140428
0.0047667399 0.051185701 -0.032590698
-0.048207399 -0.0460192 -0.0144833
0.00213641 -0.0110437 -0.056753501
-0.016854599 0.042731199 -0.034604199
0.042789999 0.0341659 -0.00724896
0.0039737299 0.0049427701 -0.047103301
0.014841 -0.046732102 -0.030514499
0.00755915 -0.0164777 -0.0411238
-0.00042567501 0.00317818 -0.061608601
-0.0080271102 -0.064568698 -0.033924099
-0.0544926 -0.045575701 -0.00521887
-0.044211399 -0.022603201 -0.0129683
-0.011637 -0.0135135 -0.033785399
-0.051532499 -0.068597302 -0.0043716501
0.043989699 0.048761498 0.0033253999
0.0436255 0.0032943001 -0.0131926
-0.0217478 0.029733401 -0.021840099
-0.0053784801 -0.064767301 -0.033994999
-0.061131399 -0.0103615 0.0052251602
0.00024509401 -0.00373334 -0.0623083
0.0125422 -0.0069488999 -0.0400174
-0.0525086 -0.054147702 -0.0086920001
-0.018676201 -0.00049625098 -0.029358801
-0.035666998 -0.0029815701 -0.0198637
0.062509097 -0.0595701 0.0134406
0.0443573 0.046459399 0.00250539
0.0117305 -0.0025338701 -0.046865501
0.0345455 -0.0423414 -0.023464
0.027366601 0.025632201 -0.029371301
0.054749899 -0.0429423 -0.0024178501
-0.0183334 0.017426699 -0.035421301
-0.0077249198 0.026691901 -0.0281744
-0.0184389 0.0116864 -0.0331477
-0.0140201 -0.0180603 -0.028881701
-0.063199498 -0.025017301 0.0107562
0.027203601 0.00441933 -0.025368501
0.00301288 0.069294803 -0.029165599
0.050751802 -0.0636307 -0.0049361
-0.041131798 0.052792501 -0.00086149602
0.055420499 -0.059572801 0.0012776901
-0.0280784 0.028877599 -0.027414801
-0.047228001 -0.03002 -0.0092196502
0.0599146 -0.068139397 0.0102021
-0.00230534 0.0162574 -0.045277499
0.0032449099 0.042142499 -0.039620101
-0.0122097 -0.050275799 -0.0329074
-0.0445708 -0.067922197 -0.0134374
0.0182047 0.0659495 -0.024328001
-0.0123064 0.0145844 -0.039058801
-0.0427844 0.057120301 0.0073862299
0.0259156 0.067685299 -0.0153814
0.0018093 0.050251301 -0.033410199
-0.0158587 0.035927601 -0.027845001
0.0515179 -0.0022595101 -0.0055347802
-0.036927201 0.0417266 -0.0129376
0.036494698 0.038631801 -0.0159966
-0.0041476102 -0.051842399 -0.034741901
0.064028099 -0.065355398 0.016574301
0.045070101 0.021246299 -0.0083206799
-0.0320879 -0.0101166 -0.0205363
-0.0177243 0.041390099 -0.0233522
0.030544899 -0.053855602 -0.0277369
0.040961798 0.025684001 -0.0129857
0.00125413 0.0452598 -0.037661899
0.045506999 0.0149003 -0.0090570599
0.0027962499 0.038785901 -0.041025501
0.0026757999 0.0538655 -0.032067299
-0.00108611 0.0149198 -0.045935798
0.065646 -0.033480301 0.0152885
0.040325601 0.033995401 -0.0119577
0.00066581299 0.0576398 -0.032216001
0.0584516 -0.020932101 -0.00032058099
-0.024309101 -0.023372 -0.021719599
0.0549777 0.0238706 0.0096787
-0.034635998 -0.0032482899 -0.020369399
-0.062923402 -0.040954102 0.0141496
0.042781901 0.0469594 -0.00044035399
0.0481271 -0.054441601 -0.0150222
-0.044095099 -0.0086240796 -0.0144674
-0.0103902 0.013634 -0.04025
-0.0122175 0.082355797 0.0084736496
0.063961998 -0.0400143 0.0140468
-0.0545379 -0.049598701 -0.00539194
-0.024906 -0.0202868 -0.021902701
0.0439764 -0.0290721 -0.0139913
-0.0032250399 -0.022219799 -0.046431102
0.054703601 -0.0088326298 -0.0032840299
-0.0541014 -0.059766501 -0.00356229
0.052543599 0.019477701 0.0027320799
0.00229715 -0.071707599 -0.0313331
-0.0018949501 0.082458898 -0.0052307402
0.0333369 0.0064837001 -0.0215958
-0.0246798 -0.016006101 -0.022706199
0.025749 -0.0059464602 -0.0235427
0.0597362 -0.016940899 0.00174012
-0.055185601 0.000277541 -0.00034854101
-0.053181201 0.0158503 0.00285654
-0.022389401 0.078755699 0.0103789
-0.0164802 0.079794601 -0.0063019199
-0.0014804601 0.063199498 -0.0323264
-0.0089479201 0.076111399 -0.0231039
0.053001601 -0.0319659 -0.0036702801
0.061706901 -0.0522395 0.0106305
0.046081699 0.0122605 -0.0088593299
-0.0558291 -0.00288974 -0.00076439598
0.042620201 0.032920402 -0.0081751496
0.0497302 -0.073637798 -0.0027695999
-0.052195199 -0.0147045 -0.0073466599
-0.0096494202 0.069121897 -0.029601799
-0.0037178299 -0.0334838 -0.0358686
-0.033523899 0.0040351301 -0.0212398
-0.0156521 0.041349102 -0.0245739
-0.0373987 0.065758698 0.0060367901
0.0586931 0.0039483798 0.0064386302
0.052823301 -0.045344502 -0.0064660199
-0.035925198 -0.037643299 -0.0126239
-0.0479897 0.050565299 0.0120952
-0.041733801 0.014921 -0.0125763
0.0022043299 0.041527301 -0.028924299
0.060408998 -0.029572699 0.0050523798
-0.034471001 0.042886101 -0.016059
-0.0249216 0.074892297 -0.0088171
0.022342401 -0.0049792998 -0.0258862
-0.059214 -0.076843798 0.0112708
-0.043453801 0.0362572 -0.0044028698
-0.0275419 0.0751912 0.0045151399
-0.057372998 -0.00406386 0.00106754
0.0199333 0.077937096 -0.00394795
0.024785301 0.074114099 -0.0050593298
-0.032658 -0.0178273 -0.019922599
0.035644401 -0.0124372 -0.0174115
-0.055593699 -0.0319333 -0.000301402
0.0406368 0.058365699 0.00494522
0.048959401 -0.0115074 -0.0099326801
0.026404999 0.074597299 0.00073798199
0.00161113 0.030633001 -0.035356201
0.0053197802 0.068706498 -0.029110201
0.0436134 -0.072561301 -0.0109508
0.0115387 0.039368398 -0.038695902
0.00150919 -0.029383801 -0.041611701
0.0086673796 -0.038184799 -0.027365999
-0.0395151 0.060149699 0.00121843
0.031500001 -0.034703098 -0.0206894
0.0307397 -0.0347884 -0.022916101
-0.041446999 -0.0605045 -0.0206217
-0.041765299 -0.006883 -0.0161874
0.031195899 0.0424871 -0.020428
0.0106568 -0.0156339 -0.0346427
-0.0099496702 0.039252002 -0.0397195
0.052892901 -0.023554699 -0.0055581001
-0.040043499 -0.0382527 -0.018905099
0.0054361601 -0.051047001 -0.034450401
0.0040275501 -0.0195894 -0.047417399
-0.038688902 -0.0140753 -0.0173552
0.0040689702 0.0141665 -0.045028299
0.031962801 -0.058315199 -0.027112201
-0.00094933098 0.031378001 -0.038703099
0.038351599 -0.00268442 -0.017273501
0.01089 0.079960503 -0.0094057899
0.00355913 -0.072378598 -0.0309324
0.0172788 -0.050952502 -0.031895701
0.0140358 0.029445101 -0.0301296
0.059728101 -0.034003198 0.0049646399
-0.026590699 -0.038463701 -0.01591
-0.036902599 -0.058561899 -0.0247002
-0.0124703 0.043661799 -0.036481
-0.059438098 -0.0459066 0.0064423
-0.0105523 -0.0194012 -0.032727301
-0.0332608 0.0139812 -0.021709399
0.0257803 -0.0177882 -0.021176999
0.0056131398 0.0315882 -0.036083799
-0.0275153 -0.0452995 -0.0241242
0.038739 0.0255716 -0.016654201
-0.017426901 0.0304293 -0.0309321
0.054710001 -0.018103501 -0.0045781899
-0.047010198 0.00494884 -0.00975437
-0.0060543199 -0.056370899 -0.035141099
-0.0194091 0.080148801 0.00279712
0.020352701 0.0241578 -0.035018399
0.016824 0.032379098 -0.034586102
0.021547601 -0.0121486 -0.024046199
-0.0588613 -0.045100201 0.00425972
0.0309762 -0.018619699 -0.0199062
0.0195769 -0.032607201 -0.0229897
0.0144172 0.0082905497 -0.036465701
-0.0152987 -0.044694498 -0.025895899
0.0083083697 -0.0041246102 -0.055130299
0.018381501 0.018149899 -0.036187802
0.0146339 -0.052073002 -0.033369299
0.0022861301 -0.00234569 -0.046133999
-0.0049344199 0.081315503 -0.0093984799
-0.037083801 -0.037177499 -0.0131566
0.047745101 -0.055569001 -0.0152251
0.0137183 0.075797103 -0.019430401
0.0169662 0.051548399 -0.0275562
-0.058889899 -0.0381383 0.0041109901
-0.0275263 0.045568202 -0.023481401
0.0143633 0.0779595 -0.0123979
-0.0073156701 -0.0165311 -0.042150401
0.0124898 -0.00086648401 -0.044579901
-0.00185961 0.0348318 -0.041230299
-0.0268746 -0.0475033 -0.0252291
0.025087699 -0.060632899 -0.029815201
0.0207313 0.031996898 -0.025933599
0.00039157501 -0.049632899 -0.034292001
0.0023865399 0.063432299 -0.031545401
-0.017741 0.073272303 -0.0227996
0.052025799 -0.062740698 -0.00319549
-0.0120938 0.061325099 -0.0307189
-0.053593699 -0.0174974 -0.0055008
-0.025818 -0.027508199 -0.022269201
0.0046183099 0.0142144 -0.044725701
0.064591497 -0.046335399 0.0160239
0.0199847 0.073872499 -0.016345499
-0.059221599 -0.0564995 0.0069403201
-0.00183291 -0.042566001 -0.033563901
0.017560801 0.064902797 -0.024952499
-0.0429077 -0.058921002 -0.0199454
-0.032567199 0.065612301 -0.0097167101
0.042282101 -0.0180206 -0.014865
-0.057390999 -0.046778399 0.00037368899
0.0062954999 0.031014699 -0.037221801
-0.0450291 0.041724101 0.00047570601
0.0107271 -0.0152195 -0.0346401
0.0077642798 0.0260548 -0.042722601
-0.0245506 -0.0100832 -0.024025301
-0.053343199 0.0268235 0.0082518803
-0.0251261 3.8466002e-05 -0.025705701
-0.0039430298 -0.00065794302 -0.0505496
0.00369599 -0.0227757 -0.045099899
-0.0368746 -0.0145987 -0.018217999
-0.019554101 0.0590446 -0.026650099
-0.061865401 -0.0085592596 0.0079483101
-0.032427199 -0.058817402 -0.027402701
0.033572599 0.052816801 -0.0130283
-0.056884199 -0.011388 -0.00164914
0.049364701 -0.0051941299 -0.0086983396
-0.042843498 0.0303996 -0.0076397699
0.0127037 0.0424373 -0.036515001
0.0205232 0.072158597 -0.017934401
0.0167522 0.031687301 -0.034333602
0.0075119399 -0.0148312 -0.043138001
0.017262699 -0.00238041 -0.0308802
0.0121334 0.067324199 -0.0274421
0.00342522 0.030004401 -0.032834198
-0.053191699 -0.049263202 -0.0083567696
0.026346199 0.074032903 -0.00134576
0.045493901 -0.011166 -0.0123538
0.0082299402 -0.021355901 -0.0363991
0.051254202 0.0187936 0.000367817
0.046627801 -0.0335613 -0.0110761
-0.0263004 0.0755734 -0.00050913298
0.024584999 0.042661 -0.0264704
0.047022801 0.036383498 0.0019442301
-0.014292 0.032331299 -0.031669401
0.00249226 0.0286646 -0.030554
0.0263755 -0.066050202 -0.0277359
-0.0154319 -0.0205252 -0.026207799
0.0137238 -0.065499499 -0.0322056
0.0134799 -0.0061844098 -0.036481999
0.0151115 -0.035771299 -0.022536
-0.018709101 0.0386586 -0.034334999
0.046899501 -0.028197501 -0.0106005
-0.058644399 -0.0572275 0.0058287601
0.036113199 0.0257273 -0.020397499
-0.059023201 0.0121282 0.0127132
-0.051423501 -0.060478199 -0.0077474201
-0.045118 -0.0573911 -0.0184741
-0.036330201 0.0256944 -0.0186479
-0.0183492 -0.059934001 -0.0330538
0.018798901 0.0310739 -0.0296041
-0.039967101 -0.0051800702 -0.0174274
-0.056243099 -0.044683602 -0.00192831
-0.0012987 -0.037500601 -0.035399701
0.033828098 0.017131699 -0.0226411
-0.0051324102 -0.00322705 -0.042938899
0.032001201 -0.056822099 -0.0271437
-0.0089147296 0.073933899 -0.0264966
0.0131261 -0.024831399 -0.026639599
0.024165601 0.0637739 -0.0200048
-0.030994 0.0154657 -0.02414
-0.053394001 0.0108003 0.00112285
-0.055436499 -0.065271199 0.000502387
0.0054755998 0.073182397 -0.0265946
0.0420634 -0.027223101 -0.015969699
-0.045633301 0.0377893 -0.00036590299
-0.053178299 0.0183674 0.00388481
0.0112851 0.044497401 -0.0356296
-0.021212701 0.0044327299 -0.0284964
-0.0425581 0.041448802 -0.00378264
-0.052897401 -0.0501737 -0.0089471499
0.047273502 -0.0523284 -0.016362499
-0.063797399 -0.0079821199 0.0134246
0.0191522 0.055819601 -0.025031799
-0.043717999 -0.015718101 -0.0144835
0.00802984 0.0320094 -0.0347232
0.0027866999 -0.0609961 -0.034680702
0.060404401 -0.038625501 0.0064333701
-0.017752601 0.0309799 -0.033317
-0.036174402 0.0060698702 -0.0194037
-0.019365201 0.038959999 -0.023111699
0.015711101 0.0178851 -0.038055401
0.04022 -0.040987801 -0.020470399
0.052722301 -0.00239117 -0.0039914199
-0.0030230701 -0.052891999 -0.034910701
-0.0147352 0.0029391099 -0.034989402
-0.0453398 -0.0060298699 -0.0133144
-0.0462313 0.023430699 -0.0049541201
0.0417822 -0.0676025 -0.0153956
0.0054663802 -0.0279756 -0.0377273
-0.001105 0.073245198 -0.0277765
-0.017610099 0.080527499 -7.5213102e-05
0.035303999 0.045631099 -0.0143279
-0.052579202 0.021566199 0.0041779401
-0.0117163 0.023293201 -0.0407327
0.0404616 0.0451026 -0.0062943501
-0.0079506896 0.0135103 -0.0424187
0.046893701 -0.044959702 -0.0151383
0.0128063 -0.0297669 -0.023143301
-0.0209399 0.030435599 -0.028795401
-0.0218304 0.073151298 -0.019137001
-0.0141168 -0.000227016 -0.040048201
-0.0157628 0.060872499 -0.029274501
-0.022884 0.071373001 -0.020685
0.057636399 0.0034076399 0.00447154
-0.043607801 0.0509152 0.0026469301
-0.045583501 -0.0616589 -0.015756501
0.049496301 0.041188799 0.0100502
0.022388101 0.0019723801 -0.027786501
-0.053238399 -0.075982198 0.00045969
-0.0319422 -0.0164226 -0.020007599
-0.040400598 -0.064113699 -0.019893
0.00705626 -0.049612202 -0.033902299
-0.0244247 0.073616602 -0.0133198
0.050187401 -0.037486698 -0.0070488201
-0.0014 0.0095746303 -0.049927901
0.053349301 -0.0178841 -0.0059237001
0.0053930301 -0.0362259 -0.033835299
0.039052099 -0.075170301 -0.0147991
0.022574101 0.046277899 -0.0261147
-0.0036445099 0.081349798 -0.0096251601
-0.0483073 -0.056513999 -0.0148825
-0.00457985 0.072851002 -0.027755
0.051743899 -0.028518399 -0.0055985702
0.00286741 0.083712198 0.0105143
-0.0196467 0.037291002 -0.033448499
-0.00265306 -0.034860302 -0.036352899
0.0456875 0.047947999 0.0063099898
0.0171552 -0.0397438 -0.0241041
0.041662 -0.0154583 -0.0147362
0.064102903 -0.0086109601 0.0135871
-0.021331999 0.066685401 -0.0249575
-0.0510672 0.037435401 0.0095084598
-0.00701269 -0.0454938 -0.031845
0.0039480999 -0.037505299 -0.035301499
-0.0460665 0.0465075 0.0048381002
0.045582399 -0.072730199 -0.0085731996
-0.0133529 -0.070606798 -0.0312429
0.024677699 0.039588001 -0.027546201
-0.033948999 -0.040222201 -0.021710999
0.046491601 0.040637199 0.00337651
-0.026278401 0.076096103 0.0042582098
-0.049525399 0.0101131 -0.0051780101
-0.0409467 0.059602201 0.0039831698
0.021253301 0.078105301 -0.00082608202
0.036271699 0.039937899 -0.015695
-0.0134129 0.0076883398 -0.036341
-0.057380401 -0.0289496 0.0013902501
-0.007559 -0.021999899 -0.0369577
-0.049938701 0.0190612 -0.00097885402
0.0306898 0.0306668 -0.025498901
0.0219397 0.034295801 -0.021912299
0.021086199 0.0221409 -0.034434602
-0.038526598 -0.036644701 -0.020075999
-0.0091414796 -0.00165249 -0.042757001
-0.022019999 0.054462999 -0.025061101
-0.0213839 0.079057597 0.00215433
0.044610102 0.044098601 0.00176517
-0.0173558 0.0176866 -0.036201
-0.020535 0.039438501 -0.022016199
-0.036333401 -0.035966702 -0.019944699
-0.038894501 -0.037709001 -0.019479601
-0.0026398301 0.082422897 -0.0052387598
0.055124398 -0.071857601 0.0043588001
-0.055111699 -0.0082418304 -0.00342897
0.0610044 -0.0103775 0.0055901702
-0.058353201 -0.0592927 0.0054665101
-0.0132032 0.0307255 -0.034698699
-0.00170845 -0.049670301 -0.034228299
-0.0147222 -0.058782998 -0.034079
-0.0340393 0.016145401 -0.020958999
-0.049984001 0.036080401 0.00663201
-0.0130904 0.0322331 -0.037497502
0.017033501 0.0306962 -0.031223601
0.017287601 0.080793001 0.0027673801
0.0024275701 0.07846 -0.0178256
0.056765102 0.0218667 0.0120438
-0.036606599 -0.027077099 -0.018981701
-0.039222401 -0.00436462 -0.017889701
0.0125977 -0.0108617 -0.0330474
-0.052707799 -0.076217197 -0.00027916799
0.008374 0.0075358301 -0.0418019
0.059133202 -0.073059902 0.0104116
0.057976801 -0.0172043 -0.00121809
-0.023401299 0.078198701 0.0109934
-0.039217498 0.0442615 -0.0078895902
0.035994999 -0.0381051 -0.0219358
-0.0383415 0.030615199 -0.015272
-0.053321499 0.024791099 0.0071713701
-0.024574 0.076800801 -0.000376298
-0.0139862 0.0134399 -0.037427999
-0.062413301 -0.0128399 0.00782564
-0.0082997503 -0.0088211196 -0.052025799
-0.056840301 -0.065202601 0.0030787101
0.0281594 0.072444201 -0.000569258
-0.022258401 0.0408957 -0.030479001
0.03695 0.0450508 -0.0122896
-0.045755699 -0.069747001 -0.0112411
-0.052081998 -0.0607979 -0.00664597
-0.0033944601 0.0835132 0.0067192502
-0.021678399 0.0317901 -0.0218336
-0.038378902 0.054413501 -0.00498481
-0.00105722 -0.069998197 -0.0322273
0.0086384304 -0.0086782798 -0.051052
0.063193098 -0.068462104 0.0151489
-0.0400667 -0.0402405 -0.020452
-0.034335699 0.045598902 -0.0150499
-0.00128133 -0.052884601 -0.034917999
0.041414998 0.055904299 0.0043227398
0.020891801 0.073995396 -0.0139008
0.00655198 -0.0072858501 -0.056323901
0.057392601 -0.075306803 0.0084949601
-0.0025635699 -0.032628201 -0.038080402
0.0067290799 0.069717802 -0.028304299
-0.00065616099 0.028814601 -0.043131098
0.066354796 -0.021816701 0.015031
0.043825801 -0.034363899 -0.0149235
-0.038864899 0.043754298 -0.0085798902
-0.028597301 -0.027004801 -0.019627299
-0.046320699 -0.042415202 -0.0138815
-0.037577301 0.066348903 0.0104227
0.0468591 0.035604399 0.00120383
0.062105 -0.0127345 0.0072458298
0.038935401 -0.00284754 -0.016887501
-0.052170701 -0.045524999 -0.0090496
0.0086587695 0.00098966295 -0.044597801
0.0050398498 0.077708997 -0.0196252
0.030794 0.0035908499 -0.023015101
0.02368 -0.0132367 -0.022529701
0.0327828 0.0121406 -0.022956099
-0.0564413 -0.0096701998 -0.00194928
-0.0092891799 0.0228389 -0.042196799
0.00379732 0.00225922 -0.052748401
-0.062318999 -0.031391799 0.0102634
0.0134074 0.082229704 0.0040008398
-0.031603601 0.017607801 -0.023946701
-0.0021724901 0.0188017 -0.0444219
0.032945 0.0166726 -0.0234988
0.042339802 0.029944699 -0.0093985796
0.0045412299 -0.059758801 -0.034777202
-0.042490799 0.0187163 -0.0108768
0.0420928 0.0348843 -0.00818861
0.0391443 -0.042322699 -0.0214021
0.034553099 0.0502952 -0.0130368
-0.019048899 0.0193839 -0.035306599
-0.046866599 0.030969599 -0.00129569
0.0386349 0.0017177101 -0.017674901
0.026075 0.00223913 -0.025565101
-0.0145039 0.078861102 -0.0120458
0.031832401 0.069352798 0.00177308
-0.0210227 -0.012088 -0.025566399
-0.0616717 0.00140186 0.0133653
0.0153343 -0.0244151 -0.024135601
0.0148243 0.076087303 -0.0176397
-0.0129601 -0.061539799 -0.033922698
-0.043293498 -0.074599497 -0.0125793
0.029467899 0.021579999 -0.0278046
-0.0133668 0.0600207 -0.0301969
0.018152701 -0.037099801 -0.0229406
0.055276901 -0.066315398 0.00294592
-0.044445101 -0.043407802 -0.016844699
-0.060757302 -0.026867 0.0055667898
0.0139578 -0.035092302 -0.022771901
0.00708311 -0.015298 -0.044340301
-0.00214118 0.035771899 -0.032871101
0.0134361 0.0089001898 -0.0374116
-0.042541798 0.022703899 -0.0101966
0.0278234 0.0087720901 -0.025971601
-0.0082248496 -0.055611301 -0.034871899
0.02362 0.067926198 -0.0184313
0.025410701 0.0203979 -0.031166799
-0.0123224 0.000517804 -0.046810299
-0.0139448 -0.00034929 -0.041218001
0.034217499 -0.055118099 -0.026143501
-0.0436415 0.045184702 -0.000330034
-0.040589001 0.058126401 0.00128888
-0.0042339298 -0.0139524 -0.053032201
0.022420401 0.0067641698 -0.0292404
0.036841199 0.025682099 -0.0193456
0.0475001 0.0244486 -0.00349256
-0.0164028 0.029593101 -0.029249899
0.016968699 0.080809101 0.00207702
-0.051119801 -0.0371622 -0.00609968
0.0342406 0.019263601 -0.022533899
0.0266138 0.0084896097 -0.026714699
-0.0220675 0.077918299 -0.0031095999
0.036490399 -0.0162616 -0.017624101
-0.034837399 -0.019455001 -0.019273501
-0.051339202 -0.0454273 -0.0102738
-0.0335242 -0.061686799 -0.0263856
0.0083325198 0.0273565 -0.0420532
0.018066101 -0.065433398 -0.0311174
-0.019643599 0.030361099 -0.0291779
-0.00473161 -0.0247797 -0.041599602
0.0035171399 -0.020442201 -0.0474797
0.030911401 -0.042189501 -0.0241125
0.053813599 0.017847201 0.0041914498
0.00374825 0.073036 -0.0269919
-0.0235573 -0.0435757 -0.0234909
0.00889982 -0.0097325901 -0.0482371
0.0427953 0.032904301 -0.0078584198
0.0151983 0.0695583 -0.025029801
-0.0221962 0.076358698 -0.0094176
-0.0077866698 0.081183001 -0.0091161998
0.0117972 -0.0047689802 -0.046380501
0.032287199 0.0042163101 -0.022131
0.0324586 0.062201701 -0.0088850902
0.0118507 -0.074776202 -0.028784599
0.043637902 0.027915999 -0.0080787595
0.0558859 0.00377072 0.0021412401
0.063694902 -0.0086894697 0.0125157
-0.058603399 0.0142524 0.0130081
-0.028499 0.064212799 -0.017681699
0.040682402 -0.075646102 -0.0130804
-0.046998501 -0.0076740598 -0.0120816
0.0131808 -0.00684029 -0.0356526
0.0494412 0.0091825901 -0.0053459001
-0.035736602 -0.073582403 -0.0199004
-0.00071724301 0.048820201 -0.034772199
-0.0383958 0.0176578 -0.0159158
-0.0216405 0.074408904 -0.017116301
0.0624444 -0.054375801 0.0126002
-0.043842699 -0.062683403 -0.0171565
-0.0221342 0.078817502 0.00681182
0.0419042 0.057696 0.0083555896
-8.56681e-05 0.047543399 -0.035737101
-0.0092352899 0.036131199 -0.040121399
0.019544 -0.0561633 -0.032183301
0.056682199 0.017289801 0.0093023004
0.0051056198 -0.02049 -0.0443771
0.052313302 -0.056681599 -0.00627791
-0.0576794 -0.068115696 0.00552843
-0.015516 -0.066686802 -0.032264199
-0.015923399 0.0079153003 -0.033587601
0.043410499 -0.036863402 -0.0161949
-0.0298675 0.068979703 -0.0117085
-0.0275039 0.072193697 -0.0097974399
-0.00297655 0.083597898 0.0076649799
-0.055755001 -0.065239899 0.00108094
0.016064201 0.071074903 -0.023655299
0.010882 0.030240901 -0.033561699
0.046418399 -0.053364899 -0.0173907
-0.033290401 0.066026203 -0.0072736698
0.039262399 0.042991601 -0.0098279202
0.0070651402 0.0130252 -0.0430732
-0.050643899 -0.073768698 -0.0040912
-0.0079140896 -0.061056901 -0.034549199
-0.0072886599 -9.5198002e-06 -0.0492259
-0.0548576 0.029036099 0.0126927
-0.0306616 -0.038623899 -0.0148592
-0.043095499 -0.0048253401 -0.0151021
-0.040821001 0.051206399 -0.0026996899
-0.050054502 -0.054208599 -0.0131041
0.0046195202 0.043839701 -0.026915399
0.00272695 0.079711899 -0.0139271
-0.0128108 -0.047741499 -0.0306754
-0.0087311901 0.0475723 -0.034646399
0.0106081 0.019863101 -0.0414012
-0.029179299 0.00198897 -0.0237801
-0.0308719 0.0332008 -0.023996299
-0.0058548199 0.033696398 -0.0337836
0.038275301 0.064564101 0.0107249
0.017416401 0.039365601 -0.034581501
-0.0042194598 0.061903 -0.032212701
0.00839346 -0.0299334 -0.0288612
0.036284599 -0.061719202 -0.0233164
-0.017857701 0.080901697 0.0046706102
0.058789399 -0.076577596 0.0113889
-0.0180167 0.0077212299 -0.031679101
-0.037219599 -0.0261978 -0.0196646
-0.061081201 -0.0464787 0.0103916
-0.0139023 -0.052179601 -0.033213601
0.044603199 -0.055684101 -0.0187374
0.0078300498 -0.0043750498 -0.042387299
-0.0068820599 -0.026210601 -0.034871999
-0.0100888 -0.044873301 -0.0293472
0.0094118696 0.083127096 0.0054901298
-0.022683799 -0.023870699 -0.021871701
0.018863499 0.045428999 -0.0298161
0.048172899 -0.075085998 -0.0043521798
0.0024061799 0.00285094 -0.050870299
0.040561602 -0.0081051197 -0.0152849
0.045931999 -0.0536661 -0.0179106
-0.038895398 -0.0114192 -0.017361401
0.060906898 -0.044830099 0.0085183298
-0.042038299 -0.053380501 -0.0217306
0.0095299203 0.033794299 -0.032574899
0.0078180702 -0.00074009801 -0.055150501
0.0057735899 0.0064199599 -0.044923801
0.0134102 -0.027197599 -0.0237948
0.036960799 0.028981499 -0.0185536
0.0117318 0.063894302 -0.0284792
-0.055598602 0.0164651 0.0076261698
0.052059598 0.031583302 0.0088479202
-0.0218486 0.040502202 -0.0309556
0.043987501 -0.035191901 -0.014966
-0.0078412201 0.055393498 -0.0319423
0.036155801 -0.071561404 -0.0189016
-0.0139033 0.0370607 -0.0284533
0.056501798 -0.0351355 0.000479607
-0.015739299 0.041075598 -0.0361939
-0.0301327 -0.0025821801 -0.022759899
-0.0036015201 0.00202276 -0.048349801
0.055220399 0.0153836 0.0057770498
-0.00462075 0.025797701 -0.043740001
-0.0154774 -0.051409099 -0.0321333
0.038323801 0.0512693 -0.0066684
0.0154728 0.053869199 -0.027572401
-0.0133319 0.036947399 -0.0289216
0.0052533899 -0.00029192399 -0.042431999
0.021601301 -0.0333164 -0.0234649
0.000168725 -0.046303 -0.033774801
0.026807901 0.071454197 -0.0067068199
0.0023556601 0.074126899 -0.0262162
0.0179247 0.058749601 -0.0255439
-0.0287451 0.0195399 -0.0275789
0.059261601 -0.072853498 0.010542
-0.0143856 -0.0352217 -0.0208745
-0.024833599 0.056017 -0.0227281
-0.024809301 -0.0115317 -0.0234922
-0.047820698 -0.069973297 -0.0086753601
0.0226194 0.078443497 0.0056390599
0.031669699 0.0042211199 -0.022622701
-0.0037212099 0.00283027 -0.052288599
-0.059954699 -0.0595369 0.0088006798
-0.036064699 -0.061496001 -0.024751499
0.0251189 -0.0389653 -0.0232192
0.041230801 -0.033470899 -0.0095538003
-0.0531567 -0.0413808 -0.0056306901
0.049750999 0.0150484 -0.0031421001
0.0117145 0.029368401 -0.038665701
0.063446797 -0.0143735 0.0097162202
0.027596099 -0.0145592 -0.020455999
-0.0527604 -0.074795 -0.00058500603
0.00673813 0.00179051 -0.053619601
0.0083667301 0.077304699 -0.019523
0.0019541001 0.00058633398 -0.049678002
-0.033875301 0.016545501 -0.021183001
-0.0308132 0.052425198 -0.0173018
0.054920901 -0.0321256 -0.0017202999
-0.00195823 -0.0417904 -0.033658899
0.022362901 0.0344106 -0.0212937
0.051653702 -0.00306373 -0.0055615599
0.0071 -0.068901502 -0.031995401
0.0174294 0.010912 -0.0346599
0.042538799 0.029657301 -0.0090684798
-0.0024202501 0.047595698 -0.035529099
0.044974301 0.034908399 -0.0026950601
0.018218299 0.0553772 -0.0257068
0.00495238 0.024823301 -0.043975599
-0.062528498 -0.0052094199 0.0116774
0.0292843 -0.063944302 -0.0267133
0.0264048 0.068497099 -0.013282
0.042029601 0.033807799 -0.0088340398
-0.0639164 -0.0096686399 0.0126809
-0.054901499 -0.028798999 -0.00144049
0.0144318 -0.072311901 -0.0292827
0.033803999 0.023536 -0.0235496
-0.0409621 0.018938201 -0.0127586
-0.0200934 -0.066463903 -0.0311777
-0.0048189298 -0.0042542899 -0.0431397
0.0068601901 0.0416875 -0.039324
-0.00060960202 0.029964199 -0.042212699
-0.029651299 0.0142225 -0.025103999
0.028573001 -0.067821197 -0.0258191
-0.0119758 0.028946601 -0.0387142
0.057588901 -0.076189801 0.0090219798
0.0096067199 -0.0195085 -0.034972802
0.044624899 -0.037716001 -0.0145228
-0.02758 0.015814099 -0.0275544
-0.0083648004 -0.021312 -0.035447702
-0.0121502 0.031140501 -0.034220599
0.027013101 0.057295099 -0.0184076
0.0054977001 -0.038627598 -0.032934301
-0.0055623399 -0.0320834 -0.033128399
-0.038954701 0.0273537 -0.0146079
-0.0058697602 0.00292548 -0.053130802
0.0102384 -0.046868801 -0.0322221
0.057674501 -0.0050620101 0.00162454
0.0076188399 -0.021837199 -0.0373175
0.035668299 0.036355302 -0.0180688
0.0159851 0.050598599 -0.028453199
0.0068202601 -0.012102 -0.0506313
0.056650199 -0.022703299 -0.0019291
-0.0089639695 0.077918902 -0.018979199
0.0069446401 0.0286832 -0.0305786
-0.0099150697 0.059027299 -0.031480402
0.0050404998 0.0515761 -0.032359399
0.03461 -0.023677601 -0.0183527
0.0069529298 -0.019364901 -0.040451001
0.032109201 -0.075120397 -0.020295201
0.0275285 -0.051032402 -0.0287489
-0.0092710396 -0.0141509 -0.038757499
-0.036768001 0.022677001 -0.0184827
0.015680199 0.039669499 -0.035859901
-0.0077587399 -0.0138582 -0.0445351
0.0145683 -0.057590201 -0.033720002
0.0132335 -0.0468059 -0.031149499
0.062794603 -0.065987997 0.0141924
0.0135816 -0.00657304 -0.034697201
-0.0538394 -0.00100502 -0.00311101
-0.018817401 -0.0298611 -0.021460701
-0.061872501 -0.068662599 0.0135246
-0.0245506 -0.0274306 -0.0222186
-0.056896701 -0.0612537 0.00266163
0.039617099 0.0265409 -0.0150479
-0.0179368 -0.0053188102 -0.0291388
0.0395693 -0.0173217 -0.016372399
0.0367986 -0.0616889 -0.022943901
0.032274202 -0.064746402 -0.024832601
-0.048499599 -0.0176636 -0.0105028
-0.022085899 0.039519999 -0.0206009
0.0021790201 -0.019012 -0.0500261
-0.0128974 -0.0098286001 -0.0332206
-0.048201598 -0.042639598 -0.0124136
-0.0473825 -0.000116396 -0.0106745
-0.0093652597 0.0264281 -0.027699601
-0.040043399 0.044167701 -0.0066483901
-0.00550754 -0.061259501 -0.034683298
-0.041769899 -0.069253601 -0.0159302
-0.055173099 0.0070573501 0.0027123799
0.042925399 0.047297802 0.000109128
-0.0612076 -0.071571298 0.0132046
-0.016132301 0.062110901 -0.029162001
-0.0185034 0.0110992 -0.032793399
-0.060735099 -0.021603599 0.00434358
0.060385101 0.0079340199 0.0125569
-0.0054798299 -0.031279702 -0.034298699
0.0114752 -0.0036418999 -0.047497001
0.054634102 -0.0153777 -0.0047588102
-0.0087314304 -0.016540799 -0.038105201
0.0145187 -0.00190453 -0.040084898
0.0184422 -0.028410301 -0.0217303
-0.054876499 -0.00993599 -0.0040010801
-0.017033899 -0.045928001 -0.0264415
-0.060612202 -0.033674199 0.00737677
-0.050812799 0.0115103 -0.00263916
0.0137416 -0.051463202 -0.033443902
-0.042207401 -0.011126 -0.0155691
0.0217453 -0.065625302 -0.0299208
0.0280162 -0.0471524 -0.026660601
-0.042311002 0.056664299 0.0043365899
-0.054375201 0.00265841 -0.00067481003
-0.049926799 -0.0240153 -0.0076351902
-0.049004301 0.0194581 -0.00230076
0.0045760898 -0.074148901 -0.030098701
0.0479366 0.043717701 0.0086544203
0.0313472 -0.067463301 -0.0242537
0.016073501 0.065860003 -0.0257513
0.0551598 0.0188812 0.0069822101
-0.0260427 -0.028031399 -0.018721201
-0.0176099 0.0128451 -0.0343729
-0.0515466 0.0256119 0.0041955998
-0.014281 0.0391456 -0.0265166
-0.0595049 0.00244303 0.0087481197
-0.0154288 0.040851701 -0.036462199
0.036313701 -0.0047291699 -0.018237401
0.056761701 -0.061322398 0.00381029
-0.0265656 -0.038548 -0.0150594
-0.063446499 -0.019787399 0.0094404304
-0.0043509901 0.0356807 -0.041236401
-0.050327301 -0.0214299 -0.0079688998
0.0196603 0.0137656 -0.033934001
-0.044587199 0.031397302 -0.0047136699
-0.0408508 0.028637599 -0.0112235
-0.0251274 -0.027890399 -0.016398801
-0.0390491 0.034547299 -0.0123919
0.026238199 0.075196102 0.0023737899
0.056016698 -0.032580201 -0.000460699
-0.0087612299 -0.0097502396 -0.048331499
-0.0132811 -0.055810001 -0.034185398
0.061029699 -0.0173242 0.0039130701
0.061145 -0.031880401 0.0066888202
0.0044987798 -0.064939298 -0.033778999
-0.0485874 -0.00180684 -0.0098776603
0.0085421596 -0.044319201 -0.0312544
-0.0134507 0.0362022 -0.029470701
0.066294298 -0.0200995 0.0149352
0.0286554 -0.0244167 -0.017703099
-0.00422261 0.072524801 -0.0279564
0.048328601 -0.059157901 -0.0119293
-0.0117452 -0.063049302 -0.033861399
0.0131942 0.078361303 -0.012456
-0.0251002 -0.0639254 -0.029756401
0.026354199 0.0075353999 -0.0266547
-0.0142216 -0.030935301 -0.0213685
0.036025599 -0.025767 -0.020003
-0.0091130799 -0.0100953 -0.045200799
-0.0065195099 -0.0108282 -0.053619102
0.0502798 0.0097113596 -0.0040070601
-0.014777 0.077122197 -0.0171002
0.0098330602 0.0020067401 -0.046187699
0.041027199 0.040383201 -0.00761561
-0.039613899 0.045520701 -0.0067962902
0.054046798 0.0293695 0.011352
0.0445063 -0.062691703 -0.0148302
-0.021555601 0.0741717 -0.0178793
-0.0359172 0.019777499 -0.019169001
-0.055837501 0.0256953 0.0130909
-0.0077605299 0.0087931901 -0.0428809
0.035870899 -0.00293501 -0.018779
0.046430599 -0.052530002 -0.017377
0.0544535 0.0223481 0.0076601398
0.017191401 0.0055550202 -0.033766199
0.010232 0.0303459 -0.037675001
0.00185629 0.080272898 -0.0125462
-0.0132275 0.0028029899 -0.041831098
0.0066671702 -0.019235101 -0.0412177
0.0142203 0.0133984 -0.0380353
0.0359044 -0.033932898 -0.0191883
-0.041951898 0.0110009 -0.013385
0.042697899 -0.064631902 -0.0160359
-0.054919899 0.0130475 0.0048929998
0.040491 0.000308844 -0.0163082
-0.049943201 -0.038049001 -0.00766786
-0.0138145 0.0032369101 -0.039513201
-0.01809 0.074735701 -0.020205
0.0249906 0.0407332 -0.026804199
-0.062180899 -0.0127708 0.0072546802
0.055430401 0.0228217 0.0099069104
0.048079301 0.046435699 0.0107222
-0.0086204801 0.078086898 -0.018509701
0.058606401 -0.00909812 0.0016594999
0.043787599 -0.0308553 -0.012554
-0.0062025702 0.00016209 -0.0424903
0.066103801 -0.030200001 0.0150502
-0.0042771702 -0.0042190901 -0.045958001
-0.029760901 0.027905701 -0.0267257
0.0239965 0.052575901 -0.022184299
0.042291801 0.045721699 -0.00238442
-0.0263205 0.055825401 -0.021240201
0.00090515899 -0.037890799 -0.0358469
0.0274946 -0.067675203 -0.026505901
0.0023948399 0.0287598 -0.0307188
-0.0135722 0.016750401 -0.038672499
-0.0113642 0.082326896 0.00053621299
0.032049701 0.061471701 -0.0103342
0.057506099 -0.00457069 0.0014863299
-0.0072942399 0.0064222999 -0.044894699
0.0082048299 0.030760201 -0.037358198
0.062439501 -0.0285581 0.0080917301
0.034193698 0.0073571699 -0.0210592
0.0213625 -0.024857201 -0.0222553
-0.034889799 -0.037603099 -0.015149
-0.0468495 0.0468258 0.0070158099
0.00798395 -0.064464301 -0.0335887
0.0445664 0.046387501 0.0029247699
0.0319377 -0.0081936596 -0.0196086
-0.038169399 -0.052881598 -0.0239475
-0.035068501 -0.0528084 -0.025597399
-0.041269898 -0.069042303 -0.0165279
-0.023078101 0.037013799 -0.0199394
0.042557601 0.0543289 0.0056082299
-0.023556801 -0.0394978 -0.022244301
0.0227203 -0.019641099 -0.022082901
0.00270929 0.0392313 -0.030303899
-0.032880601 0.060885198 -0.0118714
-0.038935099 0.0289193 -0.014466
-0.033206899 -0.038413901 -0.0118095
0.051984198 0.00730264 -0.0023165599
0.038447399 0.052875701 -0.00524886
-0.0090206703 -0.0354385 -0.0244266
-0.051074199 -0.0736963 -0.0034557299
-0.0071543101 -0.0147822 -0.045450799
0.0209234 -0.070812002 -0.0280033
0.0171469 0.078089699 -0.0082374196
0.0514309 -0.0028051799 -0.0057874401
0.0430074 -0.0273977 -0.0152727
-0.028544899 0.073000804 -0.0046137199
0.032857299 0.039521899 -0.0201478
0.0448035 0.0551324 0.0115717
0.0489172 -0.0558777 -0.0131718
-0.061918601 -0.0105991 0.0071044299
0.0127266 0.044071399 -0.035186701
-0.042653199 0.045085199 -0.0020950099
-0.047894899 -0.0024037501 -0.0106585
0.0282635 -0.0263336 -0.0213011
0.0200682 -0.0131638 -0.0247784
-0.0227431 -0.027122499 -0.022070199
-0.0610082 -0.055158399 0.01047
-0.054822799 -0.015067 -0.0045309798
-0.040127002 0.0472662 -0.0053371498
0.030690299 -0.063068002 -0.0263185
-0.0151547 0.030422101 -0.0345883
-0.032336101 -0.053336799 -0.026957
-0.020527299 0.079562999 0.0024731101
-0.052002899 0.031150401 0.0078999298
-0.0247299 0.0684807 -0.020875899
-0.0186744 -0.0339294 -0.021286599
0.0162326 0.0128382 -0.0363327
-0.025036801 0.064198203 -0.0223216
0.00159031 -0.0250361 -0.0453001
0.028958401 -0.074241601 -0.0226904
-0.025322201 0.076278903 -0.00039595901
-0.041352902 -0.034663301 -0.00921298
0.0442384 0.0382833 -0.00217839
-0.029815201 -0.0206245 -0.0206732
-0.0470047 0.000624465 -0.0108792
0.0519673 0.020806 0.00235576
-0.0132335 0.078390799 -0.014439
-0.043240201 0.0303261 -0.0071225301
-0.0117293 0.0825276 0.0042328401
0.0354851 -0.051869798 -0.0255468
-0.018072501 0.038965099 -0.034855399
-0.0084975101 -0.0487758 -0.033231702
0.0525341 0.0029456499 -0.0027733201
-0.0219969 -0.000121021 -0.0273802
-0.022736 0.038373802 -0.0303609
-0.0518918 -0.0256804 -0.0052461601
-0.00102691 -0.049996398 -0.034335099
0.055876799 0.0261852 0.0129509
0.0138777 0.011111 -0.037575699
-0.0596141 0.0010007099 0.0081025604
0.0158018 0.066596203 -0.025788
-0.018122301 0.0121959 -0.033656199
-0.0130905 0.00067746098 -0.0447441
-0.024724299 0.040920299 -0.0280283
0.031276401 -0.076179899 -0.0203574
-0.0494444 -0.023296099 -0.0082956497
0.055966701 -0.062723897 0.0029114599
0.0210684 -0.0400021 -0.023743499
0.044764802 -0.00711007 -0.0128255
-0.015904199 0.0030940101 -0.032147899
0.016370101 0.0732783 -0.020893799
0.0131684 0.000423552 -0.042302299
-0.0161086 0.020375 -0.037513699
0.049432699 -0.0598551 -0.0095885498
0.052871998 0.0035127799 -0.00213859
-0.040385101 -0.050264399 -0.0218814
0.062899597 -0.013867 0.0086525902
-0.061221998 -0.038515899 0.0093313698
-0.0087057296 0.041501701 -0.038812399
0.0071146502 -0.074116901 -0.029881701
-0.0042051901 0.062987097 -0.0321301
0.043050598 -0.073575497 -0.0111845
0.061882 -0.047959499 0.0106088
-0.054636098 -0.066628702 -0.00046909301
-0.0088604903 -0.0155404 -0.0385921
0.059544198 -0.034949601 0.0048723202
-0.040314902 0.0075267898 -0.0156193
-0.034337901 0.047458701 -0.0143431
-0.0074989302 0.0303328 -0.033746701
-0.0142728 0.080176704 -0.0079802098
0.045619499 -0.0468174 -0.0172105
0.0081800902 0.070315897 -0.0275934
-0.00068701198 0.042775299 -0.039441701
0.0208808 0.0207638 -0.034487799
